NCOLS 175
NROWS 31
XLLCORNER 353856
YLLCORNER 6701072
CELLSIZE 16 
NODATA_value -3.4e+38 
26.6369018554688 34.6869468688965 26.9927463531494 12.7845869064331 12.4192609786987 22.8273544311523 4.7644624710083 7.43447923660278 6.47050762176514 -1.23497581481934 -2.03505873680115 -4.44130420684814 -2.79462623596191 11.276801109314 14.3961038589478 8.95012187957764 5.81511163711548 2.26389956474304 2.70683217048645 0.995372772216797 -0.556880533695221 0.104052186012268 7.6811580657959 8.19912719726562 4.05296850204468 8.64545726776123 13.0034646987915 9.64281463623047 4.85171604156494 -0.241377115249634 0.447463423013687 0.821247220039368 2.7871835231781 7.05476808547974 -1.86636757850647 -2.22927761077881 0.922198593616486 1.39411330223083 -4.50701999664307 -1.43717384338379 6.05499887466431 -2.62154316902161 -3.06514358520508 -2.79309844970703 -2.18433523178101 3.24673414230347 7.66729497909546 14.1277751922607 13.1871881484985 25.9823417663574 14.7194948196411 -3.20484066009521 -3.13825440406799 -3.01964020729065 -1.66745948791504 13.7683620452881 0.0241406373679638 -2.40743803977966 -2.28715395927429 -1.65840935707092 8.48789691925049 0.419142007827759 7.12539291381836 -0.356215536594391 -0.55415153503418 -0.537115216255188 0.11183874309063 0.129249230027199 0.148061856627464 0.149114415049553 0.144712597131729 0.151536718010902 0.167934820055962 0.175499677658081 0.167196854948997 0.126725390553474 0.130583569407463 0.247786208987236 0.385618597269058 0.508906841278076 0.868717014789581 1.13811254501343 1.31230902671814 1.38702368736267 1.74249851703644 2.57259845733643 1.69193279743195 1.66356134414673 1.84284782409668 1.94089567661285 1.87767934799194 0.812998175621033 0.877856910228729 1.03172707557678 1.12491154670715 1.65867912769318 1.17573535442352 1.08760738372803 1.3786256313324 1.03494131565094 1.42968952655792 1.03797435760498 1.81745278835297 1.44280397891998 1.6601494550705 2.1278920173645 1.28835809230804 1.98388028144836 1.98401713371277 1.80401253700256 3.92544388771057 4.51313447952271 3.89081573486328 4.88290977478027 3.18510961532593 5.26179313659668 8.53735446929932 13.1656179428101 1.13505268096924 1.28737604618073 1.29357182979584 1.10023784637451 2.29097414016724 3.01016330718994 5.802574634552 9.858078956604 10.1391620635986 6.68246507644653 -0.241557642817497 7.36598920822144 0.143752932548523 0.523843944072723 0.86180192232132 0.93071848154068 1.03794062137604 1.59415590763092 1.7262852191925 1.3013744354248 1.12099647521973 1.6267181634903 1.60569250583649 1.78770005702972 1.09326636791229 1.27565503120422 2.6816074848175 1.67566013336182 2.56867003440857 2.66472315788269 1.87319111824036 1.48735904693604 1.59298384189606 0.657389044761658 0.195495963096619 0.655335187911987 1.88544166088104 2.25668454170227 2.60015654563904 2.82028412818909 2.9819860458374 3.61733102798462 3.99850988388062 4.29345321655273 4.52604961395264 4.67622137069702 5.03677988052368 5.54071092605591 5.68422365188599 5.79132461547852 6.15892457962036 6.29097080230713 6.49599981307983 10.0175886154175 8.51320552825928 8.24260711669922 6.73694944381714
15.9759922027588 29.5451126098633 28.0598678588867 18.7340126037598 11.8017444610596 13.3994979858398 5.63583183288574 9.19010162353516 6.17510747909546 6.60203838348389 6.74370098114014 4.09081554412842 10.7198219299316 8.76899337768555 0.967268407344818 -1.72845900058746 -2.47762489318848 -1.77913224697113 3.24814176559448 -2.9920642375946 -2.78054428100586 -0.223000675439835 1.59853386878967 2.01472425460815 0.650547623634338 1.42705368995667 7.13061618804932 -3.76439523696899 1.97119283676147 -3.16037964820862 9.35975074768066 4.03065872192383 0.246212601661682 0.775210559368134 -1.38920915126801 -4.26540327072144 -4.06625318527222 -4.66397094726562 -5.11450958251953 -4.84873390197754 -4.60761070251465 -4.53574657440186 -3.1187469959259 -2.49826860427856 -1.4045045375824 -1.68095302581787 13.0407018661499 10.3113098144531 19.0361862182617 6.55711555480957 -2.36211204528809 -3.00838875770569 -2.55463123321533 -2.69789218902588 -2.18392848968506 -2.42346858978271 -2.48870134353638 -2.29273247718811 -2.136394739151 -1.34051787853241 1.63741981983185 -1.11764812469482 -0.308274835348129 -0.562375366687775 0.132223710417747 0.165988877415657 0.188711240887642 0.193521961569786 0.209795549511909 0.214317724108696 0.2103251516819 0.225457027554512 0.239856094121933 0.229561865329742 0.231002792716026 0.237109988927841 0.221169263124466 0.223273783922195 0.374169409275055 0.544541001319885 0.719525694847107 1.02880787849426 1.22849202156067 1.39863479137421 1.46849322319031 1.51517057418823 2.70608568191528 2.80227994918823 1.88526237010956 1.88096046447754 2.10661292076111 2.05322122573853 0.999374985694885 1.09507942199707 1.14598405361176 1.18444442749023 1.73738718032837 1.82496058940887 1.68605697154999 1.41393172740936 1.59542620182037 1.77116668224335 1.81493818759918 1.88268649578094 1.90048468112946 1.92085933685303 2.20224857330322 1.98082220554352 2.04660177230835 2.09959840774536 2.10350465774536 4.64305019378662 5.33579301834106 6.04172801971436 6.75785541534424 5.09311962127686 8.41581344604492 12.8573608398438 1.32493984699249 1.47040784358978 1.31873941421509 1.62390124797821 4.69108724594116 2.76985001564026 4.46667337417603 2.85424709320068 1.24602460861206 8.53231239318848 -0.0136440554633737 -0.214486554265022 -0.527778387069702 0.233844891190529 0.562938272953033 0.915468394756317 1.01331162452698 1.06241226196289 1.16773653030396 1.83238458633423 1.37135720252991 1.06104648113251 1.90185475349426 2.14404106140137 2.13684868812561 2.12829065322876 1.39519453048706 2.89452743530273 2.93291330337524 1.45580577850342 2.97253727912903 2.13944387435913 1.64139711856842 1.80766606330872 0.740033864974976 0.249820113182068 1.00648987293243 1.96030330657959 2.32330513000488 3.01777386665344 3.22511672973633 3.27969884872437 3.61468124389648 4.12391948699951 4.42552185058594 4.6681170463562 4.88934803009033 5.26403713226318 5.42898225784302 5.93557548522949 6.07546091079712 6.46083974838257 6.59765100479126 8.9301929473877 14.8335056304932 8.57172870635986 10.1117858886719
17.3816986083984 24.8477172851562 42.4062614440918 42.7645988464355 13.5343055725098 12.2960205078125 16.1620330810547 17.9281139373779 8.54992771148682 4.68184947967529 2.26727080345154 -4.56684637069702 -1.72312104701996 -3.99760103225708 -3.63721966743469 -2.7263298034668 4.50324535369873 10.2521371841431 7.80593919754028 5.09295320510864 -3.92763328552246 -1.61719524860382 -1.87908327579498 6.08657169342041 3.42219805717468 11.9893884658813 10.1939220428467 -1.31365716457367 -2.77154874801636 -2.68681049346924 -0.403788179159164 7.18844795227051 -4.21524667739868 -4.22375822067261 -4.19063186645508 -4.15687942504883 -4.162672996521 -3.76439166069031 -4.11720848083496 -4.49940538406372 -4.41415739059448 -4.11002635955811 -3.78330183029175 -2.10143208503723 -1.3021035194397 8.80708885192871 22.4415988922119 0.976959228515625 4.99960327148438 -1.15062499046326 -2.75422406196594 -1.83134245872498 -1.75368869304657 -2.05274820327759 -2.39111566543579 -1.7816606760025 -1.76519107818604 -1.78290581703186 5.81646490097046 7.60495042800903 -1.12087643146515 -0.970184624195099 -0.839192807674408 0.193222150206566 0.236062943935394 0.252815961837769 0.266296148300171 0.275348216295242 0.299516946077347 0.300341725349426 0.309449017047882 0.305148601531982 0.307374328374863 0.309231400489807 0.32021626830101 0.328787565231323 0.309310704469681 0.282478719949722 0.359249472618103 0.492705494165421 0.626558780670166 0.889093518257141 1.11200439929962 1.30955123901367 1.48216485977173 1.53083992004395 1.61052846908569 2.02612709999084 2.97600340843201 2.04818201065063 2.06963109970093 2.31861281394958 2.28473305702209 2.38434863090515 1.24251556396484 1.26825404167175 1.31658923625946 1.52183496952057 1.90829527378082 1.90496265888214 1.9453980922699 1.63563406467438 1.45616769790649 1.86701953411102 2.22657775878906 2.90383696556091 3.00885915756226 2.9170286655426 2.72186183929443 2.64825534820557 2.74068927764893 3.01046085357666 3.08142399787903 6.67179679870605 8.58613109588623 13.6077041625977 16.8654937744141 3.20155882835388 1.46111214160919 2.93249464035034 10.0088300704956 4.53176355361938 5.51550102233887 11.9520492553711 9.56900310516357 1.47359919548035 1.58971917629242 12.2143201828003 4.53423023223877 0.101742245256901 0.439213901758194 0.45729073882103 0.23066970705986 0.59450364112854 0.981322765350342 1.04030632972717 1.13303601741791 1.23037159442902 1.93440461158752 2.01746678352356 1.47544324398041 1.32446432113647 2.72175002098083 2.69240760803223 2.38099145889282 1.52248966693878 1.61546313762665 3.30108046531677 2.09739279747009 3.30531334877014 3.53763508796692 1.88420832157135 2.08924293518066 0.850695967674255 0.398678809404373 2.47806859016418 1.9692656993866 2.39723229408264 3.1131157875061 3.32427167892456 3.3796079158783 3.72598361968994 4.25719690322876 4.56779718399048 4.81452131271362 5.11322784423828 5.50333690643311 5.63226127624512 6.0095386505127 6.40778303146362 6.73643445968628 8.66011047363281 13.3559904098511 6.81708765029907 14.4400539398193
11.717095375061 21.9737739562988 25.8673324584961 20.7335109710693 5.15711641311646 16.1142101287842 9.48005676269531 8.4655237197876 -0.981793761253357 3.74237537384033 -3.44379997253418 -4.42867183685303 1.88039720058441 -3.98471021652222 -3.77202439308167 -3.36523985862732 -0.632347464561462 -1.99248898029327 0.466387152671814 3.05783176422119 -3.47119212150574 -3.71888732910156 -0.483510166406631 -1.15369367599487 2.07681846618652 7.93746614456177 9.36403942108154 -1.84779822826385 -0.204790055751801 -2.04848766326904 -2.25162768363953 -3.69727659225464 -3.9924373626709 -4.26015329360962 -3.69504570960999 -3.86314082145691 -3.76848244667053 -3.17065358161926 -3.03657078742981 -3.17316174507141 -3.19306230545044 -3.41896820068359 -3.04372978210449 -0.634009718894958 8.32082557678223 19.617467880249 0.273341357707977 -1.87208449840546 -0.693356513977051 -2.19823431968689 -2.57809710502625 -2.27531743049622 -1.01358723640442 -0.906364619731903 -1.22221291065216 -1.85630071163177 4.96218872070312 -1.52621030807495 -1.05972194671631 -1.12809216976166 -1.17277574539185 -0.983063697814941 -0.15253110229969 -0.728618085384369 0.342369139194489 0.350762724876404 0.365527838468552 0.386972665786743 0.399445116519928 0.38019135594368 0.366116464138031 0.38841786980629 0.396293640136719 0.380687952041626 0.379067629575729 0.387191146612167 0.378541797399521 0.370197951793671 0.35921436548233 0.460053682327271 0.98374480009079 1.31769478321075 1.69156062602997 1.18962824344635 1.39135038852692 1.43188619613647 1.62836372852325 1.73203802108765 1.83237564563751 3.21092009544373 2.26101398468018 2.2699191570282 2.51164722442627 2.62083005905151 2.53530502319336 1.34881460666656 1.39150631427765 1.45376420021057 1.5699098110199 1.98213291168213 1.96342051029205 2.00092339515686 1.7726286649704 1.79189264774323 2.9302544593811 3.42133212089539 3.63350248336792 3.79086470603943 3.65516877174377 3.29525208473206 3.5691614151001 3.62760019302368 3.09413146972656 3.16812324523926 9.63158702850342 15.196457862854 3.93083429336548 1.57815289497375 9.70697784423828 2.92560577392578 1.35649526119232 1.3283486366272 1.31105959415436 1.41237258911133 1.42619371414185 1.56843423843384 1.73370456695557 1.5888968706131 1.40706157684326 1.31872546672821 1.77827751636505 0.562938511371613 0.472217708826065 0.287387371063232 0.629047334194183 0.654326915740967 1.08988797664642 1.19570398330688 1.31944262981415 1.9339851140976 2.14246726036072 1.58014488220215 1.42649948596954 3.67623519897461 3.56783509254456 3.04337930679321 1.97735011577606 1.84267675876617 3.66597175598145 3.93123888969421 1.9668972492218 4.01711988449097 3.29388022422791 2.53353476524353 2.81368112564087 1.78974938392639 2.55471038818359 2.41289281845093 2.47536182403564 3.21047616004944 3.42977142333984 3.48377323150635 3.84215140342712 4.16344213485718 4.51764297485352 4.81214237213135 5.07048749923706 5.48832416534424 5.92488384246826 6.00514698028564 6.73074340820312 7.6371865272522 13.9007053375244 21.6751575469971 6.57361268997192
28.2101383209229 11.3165340423584 24.3190116882324 32.5683441162109 31.874979019165 14.6005840301514 10.504734992981 3.17146730422974 6.50846815109253 -0.110384605824947 0.0803884640336037 6.0169529914856 -4.22990131378174 -4.16891431808472 -3.88523888587952 -3.15166568756104 1.55020332336426 18.0906391143799 4.10364723205566 9.2789192199707 11.6820125579834 -2.40895104408264 -2.6389467716217 0.702838122844696 7.60528755187988 21.330379486084 3.53108668327332 -3.95273637771606 7.67418718338013 8.79809188842773 -0.525581061840057 -3.37572765350342 -3.17035984992981 -2.10977149009705 -3.48153185844421 -3.39270949363708 -3.38053226470947 -2.94065737724304 -2.66484713554382 -2.60495829582214 -2.60492873191833 -3.04722237586975 -2.13818860054016 -2.32285332679749 -2.51103901863098 1.48890614509583 -1.31034910678864 -0.685296177864075 -0.858829438686371 -0.959950923919678 -0.728167235851288 -1.50698411464691 -1.48222291469574 -1.10174334049225 0.103010155260563 0.0185408480465412 17.5222072601318 -1.34890329837799 -1.17127645015717 -0.843059778213501 -0.418804109096527 -0.455390393733978 0.392813146114349 0.42505607008934 0.446809053421021 0.459706127643585 0.46025624871254 0.450022399425507 0.437545776367188 0.433984845876694 0.444276928901672 0.454873114824295 0.454387813806534 0.431944102048874 0.426224917173386 0.438500165939331 0.4407097697258 0.437800139188766 0.452932894229889 0.505311131477356 0.656131565570831 1.08008253574371 1.40767395496368 1.78334152698517 1.26602387428284 1.30429565906525 1.52050614356995 1.75097763538361 1.85080862045288 2.01019024848938 3.45818638801575 3.61289691925049 2.56139230728149 2.53044009208679 2.76230382919312 2.67273616790771 1.44126963615417 1.51539313793182 1.68741452693939 1.88198733329773 2.05992865562439 2.13910484313965 2.13256621360779 2.18919992446899 3.17342400550842 4.12048149108887 4.58430528640747 5.00887012481689 5.01235103607178 4.37194299697876 4.725830078125 4.81330680847168 4.4513783454895 3.18532228469849 3.25366115570068 14.5381765365601 8.26897621154785 13.5152912139893 5.06705856323242 4.50766849517822 10.3056144714355 1.51926898956299 1.39678633213043 1.57915079593658 1.63600301742554 2.78375220298767 1.64232492446899 1.6532678604126 1.93451833724976 2.03309655189514 1.94075083732605 1.85383582115173 0.577053904533386 0.483584821224213 0.490184128284454 0.263206630945206 0.677182972431183 1.13874268531799 1.27662265300751 1.34845066070557 1.52278923988342 2.31465983390808 1.7024884223938 1.30887043476105 5.5132303237915 8.40534114837646 5.11953067779541 5.65574979782104 2.4403223991394 2.94771814346313 4.47617435455322 2.56197762489319 4.6810998916626 4.2323751449585 3.30822920799255 3.60148954391479 1.84321987628937 2.63457536697388 2.48595833778381 2.49277329444885 3.31446862220764 3.53867626190186 3.60787606239319 3.96363568305969 4.29411268234253 4.76224756240845 4.96180438995361 5.2102632522583 5.80208444595337 6.21631002426147 6.43458700180054 6.63205480575562 10.6405010223389 7.68358182907104 6.66110038757324
12.8879375457764 6.22416019439697 11.6261425018311 20.9367923736572 7.78428411483765 7.66419363021851 2.37548160552979 5.63230323791504 0.97524482011795 0.577383935451508 4.68512105941772 8.09401226043701 -4.36746263504028 -3.96422958374023 -3.79978847503662 0.326691955327988 0.260031670331955 5.0089282989502 -2.96325206756592 -0.908405780792236 0.944749772548676 -1.29247415065765 -0.597912728786469 -0.660922765731812 6.81721115112305 3.32368898391724 5.51436233520508 0.148741751909256 7.63958692550659 -1.93167853355408 2.01853942871094 8.54640674591064 -3.54021501541138 -2.4184148311615 -2.72237801551819 -1.38887369632721 -0.38449814915657 -3.00214099884033 -2.76792669296265 -2.16659665107727 1.7005113363266 -2.27354836463928 -1.19047594070435 5.850661277771 14.2054929733276 -1.8496013879776 -1.11967730522156 -0.660125911235809 3.84108710289001 -0.227706611156464 -0.37755686044693 -0.0101926969364285 4.68772077560425 9.54495334625244 2.75147128105164 0.436115592718124 0.370481133460999 -0.535745739936829 -1.09648394584656 -0.510320007801056 -0.463869571685791 0.486557841300964 0.52148973941803 0.551126480102539 0.553096294403076 0.547941863536835 0.518722355365753 0.491063833236694 0.498865872621536 0.503866672515869 0.505590260028839 0.505487263202667 0.497653096914291 0.480276852846146 0.479747205972672 0.490269124507904 0.497460275888443 0.515421748161316 0.53764420747757 0.571189939975739 0.856261253356934 0.735199809074402 1.16590702533722 1.48975849151611 1.86722385883331 1.15112888813019 1.37961363792419 1.63667953014374 1.74792861938477 2.02211952209473 2.15962934494019 2.66361093521118 3.80366921424866 2.69810056686401 2.64810729026794 2.88741302490234 2.78607583045959 2.89748334884644 1.7084972858429 1.93520438671112 2.04336619377136 2.1089882850647 2.21567702293396 2.4784152507782 3.58421230316162 4.64528179168701 5.07515621185303 4.98356294631958 5.16246843338013 5.16064500808716 4.94370889663696 4.8567361831665 4.94982957839966 4.57286977767944 3.27917695045471 3.2566511631012 3.38670325279236 2.4049072265625 1.57601797580719 1.41379690170288 11.8259248733521 10.802321434021 6.58238506317139 1.76128387451172 1.69530880451202 1.68543112277985 1.95646727085114 1.71006679534912 1.82930099964142 2.02051734924316 2.12372040748596 2.18943810462952 1.94745767116547 0.59559029340744 0.604651629924774 1.16151249408722 1.32078778743744 0.812930345535278 1.23477363586426 1.31453025341034 1.49131619930267 1.69680142402649 2.49110221862793 2.61579656600952 1.83429682254791 1.7679443359375 0.987262904644012 0.967457115650177 2.4217324256897 3.22423505783081 6.1658501625061 7.44300651550293 3.70555114746094 5.57817649841309 6.25412893295288 5.20730209350586 8.39011669158936 2.02014088630676 2.71813678741455 2.76970672607422 2.57355380058289 2.96062827110291 3.49267101287842 3.72555446624756 3.85436511039734 4.15776681900024 5.02043724060059 5.22411775588989 5.25922393798828 5.52738189697266 6.33738279342651 6.83018016815186 7.09026575088501 16.6575031280518 25.6631240844727
18.8010807037354 13.4564304351807 10.6192855834961 14.504506111145 23.8907985687256 33.4261512756348 13.9717750549316 3.78516721725464 3.11695384979248 3.05402803421021 12.0841207504272 -0.344181537628174 -4.34104013442993 -3.97228670120239 -2.99865484237671 -0.757399618625641 18.03635597229 -2.86955046653748 -1.93158531188965 -2.07189559936523 -2.42737722396851 -0.0561206415295601 6.59546852111816 11.8762903213501 7.87625026702881 11.4985523223877 16.3576183319092 15.0785894393921 1.33442747592926 -3.66904091835022 -3.4945662021637 -3.50262475013733 -3.79291915893555 -3.52664613723755 -1.11218988895416 -0.281872361898422 6.3831672668457 8.51614570617676 2.54726386070251 1.16001224517822 1.67558872699738 -0.915749549865723 0.0230935644358397 0.152481466531754 -1.31706976890564 -2.32461094856262 1.97405636310577 6.61706924438477 5.35179138183594 10.6677856445312 11.6066255569458 -0.0454285629093647 0.107460975646973 -0.683805406093597 -0.820499181747437 -0.418896287679672 0.617709279060364 0.688294887542725 0.3200443983078 0.67473292350769 0.183194324374199 0.64398854970932 0.65986293554306 0.682909965515137 0.67709869146347 0.647342920303345 0.593091726303101 0.567985892295837 0.556265830993652 0.55713427066803 0.566238045692444 0.555455565452576 0.532460689544678 0.537346363067627 0.549679517745972 0.557818055152893 0.579507112503052 0.590490102767944 0.614814043045044 1.22022724151611 1.54587090015411 0.933954000473022 0.805045485496521 1.24061977863312 1.56453192234039 1.95222795009613 2.02696084976196 1.50212514400482 1.59287130832672 1.84758257865906 2.10626435279846 2.25008082389832 2.36275506019592 3.96343922615051 2.80439496040344 2.75308346748352 3.01715755462646 3.13107991218567 3.03489923477173 1.87333941459656 2.01161360740662 2.19909191131592 2.98603868484497 3.09450197219849 3.53449559211731 5.33600425720215 4.95416212081909 5.30132293701172 5.48315811157227 5.31333923339844 5.31778240203857 5.07707738876343 4.99505281448364 5.08995056152344 4.68998718261719 3.98650550842285 3.41422462463379 3.50075054168701 3.25287318229675 2.79554557800293 9.98161220550537 14.9602069854736 1.62726223468781 2.16203904151917 7.04789972305298 1.91644263267517 1.80605804920197 2.02500438690186 2.19905948638916 2.25364398956299 2.12648892402649 2.18455624580383 2.29777121543884 2.17891526222229 2.08858609199524 0.624459564685822 0.498127907514572 0.0297606103122234 0.823595225811005 0.84565532207489 1.46269869804382 1.6575288772583 1.71889054775238 2.48504376411438 2.79860639572144 2.04816508293152 1.58183109760284 2.85379910469055 1.45608878135681 5.0058274269104 2.69070744514465 0.143388003110886 4.73978471755981 6.61635255813599 4.0322732925415 8.60433101654053 13.4313869476318 3.03964400291443 12.3126096725464 4.8576865196228 2.86517858505249 2.6919858455658 2.70263361930847 3.60360431671143 3.84202408790588 3.90838742256165 4.28091382980347 4.66635227203369 5.63906574249268 5.57728242874146 5.77381944656372 6.7376389503479 7.26430368423462 7.63765001296997 9.62864303588867
32.9512329101562 14.9223537445068 15.007303237915 7.11978721618652 14.1888456344604 6.92537641525269 7.42198467254639 15.7151737213135 7.63093662261963 4.98618268966675 4.50079202651978 -4.07666683197021 -3.92232418060303 -3.49481201171875 -3.16168332099915 11.5180759429932 20.0929718017578 -2.77261757850647 -1.92697978019714 -2.70558381080627 -0.0857277736067772 -1.27478694915771 4.13899612426758 19.1081047058105 5.90480279922485 13.2266817092896 7.97891139984131 14.5804176330566 5.11717510223389 6.60759925842285 -3.53704786300659 -3.28582859039307 -3.37864208221436 4.59167957305908 1.17347586154938 4.58057069778442 9.07186222076416 15.0960721969604 9.50833415985107 20.3707275390625 5.9968523979187 -2.15399575233459 7.91082143783569 1.37547385692596 6.68331384658813 7.88918018341064 -1.80429434776306 -1.66157722473145 -1.24297213554382 -0.828567504882812 -0.0635305941104889 -0.143913388252258 0.0753743723034859 0.486799836158752 0.641633927822113 3.9619448184967 -0.0435719229280949 0.748117208480835 1.77234768867493 1.70184743404388 2.39636445045471 2.15149188041687 1.91573810577393 2.08032989501953 2.03327965736389 0.751600921154022 0.678417861461639 0.644879221916199 0.624868214130402 0.611641347408295 0.611993789672852 0.610419034957886 0.588420331478119 0.586673140525818 0.620475888252258 0.641258418560028 0.658249974250793 0.660961389541626 0.677350282669067 1.23653662204742 1.30272054672241 1.63686525821686 1.00459444522858 0.86311286687851 0.911796450614929 1.37659204006195 1.7255585193634 2.13191413879395 1.36080014705658 1.62370073795319 1.89233839511871 2.17443060874939 2.28341293334961 2.44168043136597 4.13478660583496 4.30634689331055 3.05395150184631 2.98629808425903 3.27106142044067 3.17478060722351 3.28999733924866 2.0773937702179 2.94611167907715 3.07008290290833 3.52705883979797 4.66128253936768 5.48810482025146 5.64444875717163 5.55209445953369 5.63638162612915 5.46060514450073 5.57560682296753 5.56968641281128 5.12979030609131 5.2265305519104 5.31149005889893 4.91107368469238 3.51271462440491 3.59541988372803 3.66821718215942 3.39570736885071 2.6833827495575 1.75017249584198 1.65893483161926 7.13522100448608 1.98962295055389 2.26620221138 2.12464737892151 2.33785486221313 2.38516163825989 2.33768820762634 1.96915137767792 2.29312014579773 2.4218225479126 2.51361680030823 2.22890114784241 0.648055076599121 0.526595711708069 0.647264540195465 0.331577062606812 0.932308495044708 1.57833051681519 1.78219258785248 1.97479736804962 2.43761157989502 3.16981625556946 3.35083532333374 2.41909909248352 2.46339392662048 4.11480569839478 9.99273777008057 11.5691118240356 5.20453071594238 3.48597288131714 8.12959480285645 8.95523834228516 10.1197195053101 0.61296409368515 1.3664402961731 1.81796157360077 2.05542755126953 2.95486783981323 3.01416707038879 2.78999829292297 3.20325231552124 3.78351974487305 4.0421724319458 4.25244379043579 4.53830003738403 6.14299488067627 6.0867772102356 6.4173469543457 7.19807147979736 7.90288591384888 8.71516990661621
17.3771057128906 9.9850606918335 15.2701063156128 21.3653373718262 3.73179268836975 10.5611886978149 13.5206565856934 22.1859188079834 11.9964456558228 -3.45808053016663 -3.50189661979675 -3.52857804298401 -3.38175296783447 -2.82248854637146 0.68453049659729 1.89320516586304 11.1756191253662 -2.87442541122437 -2.4814178943634 4.0684380531311 -2.54470276832581 5.14572048187256 4.53293466567993 4.71928071975708 25.6365985870361 28.368860244751 4.99905490875244 4.78329086303711 3.04819536209106 -3.73481798171997 -3.53884673118591 -3.2865309715271 -3.03265285491943 -2.10480880737305 -0.222333863377571 6.11361789703369 13.5914154052734 9.40188312530518 18.9536628723145 16.1212005615234 0.82247930765152 5.18896675109863 -1.94973373413086 -1.94395983219147 -1.13642406463623 4.09282541275024 -0.991159319877625 0.953360319137573 -1.34715139865875 -0.632194399833679 0.111709386110306 0.190769046545029 1.60300159454346 1.48613035678864 2.4968593120575 5.95141983032227 0.407520592212677 0.61018568277359 1.99217796325684 3.01727223396301 3.04567646980286 2.79935169219971 2.42473459243774 2.02414488792419 2.16434717178345 2.0827534198761 0.898051023483276 1.11353468894958 1.19140589237213 0.670952260494232 0.655891954898834 0.658819198608398 0.667816698551178 0.676426410675049 0.704895257949829 0.718841016292572 0.727003276348114 0.723985016345978 0.732789874076843 1.2137565612793 1.30861759185791 1.37451815605164 1.71680557727814 1.06009411811829 1.11405122280121 0.969115078449249 1.42254102230072 1.76803934574127 2.18398594856262 2.2588267326355 1.67050123214722 1.96174931526184 2.06776165962219 2.36810994148254 2.53581476211548 3.13640141487122 4.5033106803894 3.17806887626648 3.10680437088013 3.40896844863892 3.54897308349609 3.44624495506287 2.94142365455627 3.09527587890625 3.71741104125977 4.88994407653809 4.95133495330811 5.6432900428772 5.80639123916626 5.70133495330811 5.78947591781616 5.5356273651123 5.74014759063721 5.72802829742432 5.46378612518311 5.37237548828125 5.46746683120728 5.04459238052368 4.29308557510376 3.62455058097839 3.68768572807312 3.43050336837769 2.9554979801178 8.49634838104248 1.91859662532806 2.29397344589233 2.65733313560486 2.9355525970459 2.52595210075378 2.30717349052429 2.45725202560425 2.45952033996582 2.4026894569397 2.41912841796875 2.49923849105835 2.66450428962708 2.49486684799194 2.39007091522217 0.715450525283813 0.56845360994339 0.0941840186715126 1.09790813922882 1.06790804862976 1.89540100097656 2.25127053260803 2.84227800369263 3.23666048049927 3.88268136978149 2.76392602920532 2.92954993247986 5.63053369522095 8.35892009735107 -0.0115839317440987 0.266402661800385 5.37457036972046 10.4633255004883 5.19207096099854 10.4030914306641 15.9452657699585 1.39013922214508 1.94012606143951 2.2600839138031 2.95642185211182 3.11376428604126 2.91114854812622 3.04112148284912 3.94658946990967 4.2265625 4.48000526428223 4.74478006362915 6.68325805664062 7.04444456100464 7.07301712036133 8.1605110168457 10.1351070404053
14.523120880127 17.2001342773438 17.8045749664307 17.3814277648926 10.6728010177612 25.1159362792969 12.9581251144409 14.8039083480835 13.7728710174561 1.84757089614868 -2.67642712593079 -2.3915421962738 -2.83787846565247 -2.64537143707275 -0.457693815231323 4.74931621551514 15.4717836380005 8.26420211791992 -2.79034948348999 -0.996060848236084 -2.31939101219177 4.39406728744507 7.30219697952271 4.65373182296753 9.41881656646729 10.5955562591553 -3.41951417922974 1.28434753417969 4.41475820541382 -3.33719229698181 -2.18588447570801 -3.2831974029541 -3.05743074417114 -1.57996952533722 1.41224944591522 5.09449434280396 7.94402503967285 23.8171310424805 19.1308422088623 11.1584138870239 -2.45687103271484 -2.41982936859131 -2.15682029724121 2.20230841636658 14.277361869812 -0.876760125160217 -0.816553056240082 -0.694544792175293 -1.24395883083344 -1.21656453609467 -0.358769148588181 2.07867836952209 8.72904396057129 12.286768913269 1.5037784576416 7.45178937911987 1.78614866733551 1.06603312492371 11.647554397583 11.4444456100464 17.9357738494873 3.79486298561096 3.28392815589905 2.69389128684998 2.0447371006012 2.2021496295929 2.14737272262573 0.992097318172455 1.1643670797348 1.2453932762146 0.717527747154236 0.715124309062958 0.74114316701889 0.759995579719543 0.777568757534027 0.783582627773285 0.78269898891449 0.777194023132324 0.789506137371063 1.51002728939056 1.27486169338226 1.370849609375 1.43803954124451 1.79212355613708 1.8525253534317 1.14097726345062 0.976952493190765 1.02371096611023 1.51062798500061 1.88048410415649 2.32638216018677 1.72315514087677 1.81804025173187 2.13369035720825 2.44993138313293 2.62919282913208 2.75463151931763 4.7101845741272 4.89284658432007 3.4405415058136 3.36476898193359 3.70898056030273 3.63452649116516 3.25137400627136 3.22404718399048 4.15334558486938 5.02681827545166 5.08441400527954 5.83000373840332 5.96306467056274 5.85662794113159 5.9539647102356 6.07205438613892 5.91741704940796 6.03235149383545 6.01785087585449 5.52852344512939 5.63137626647949 5.70310831069946 5.19359350204468 3.62727069854736 3.71879291534424 3.48402070999146 3.03767037391663 2.9806694984436 2.93624210357666 3.63552856445312 3.17930746078491 3.02439522743225 2.72866749763489 2.41173362731934 2.55205941200256 2.60877847671509 2.64720726013184 2.26888585090637 2.64398264884949 2.82684373855591 2.67327952384949 2.52632260322571 0.749483227729797 0.626202344894409 0.0694981217384338 0.401098102331161 1.24107658863068 2.22453641891479 2.64017462730408 2.99116683006287 3.96855902671814 4.58729600906372 3.33511590957642 2.57575964927673 8.90534019470215 9.8340368270874 0.116539865732193 3.11293029785156 1.63323044776917 11.4858779907227 14.5307092666626 2.60022377967834 2.1208484172821 3.1248733997345 3.29577159881592 3.16407990455627 3.25974559783936 3.22188925743103 3.01545834541321 3.22212219238281 4.10175609588623 4.3844633102417 4.8342661857605 5.03348541259766 5.36972332000732 7.77957391738892 7.90614461898804 8.43595504760742
27.5414218902588 17.0263595581055 18.1180095672607 5.43280935287476 7.8445930480957 8.67306900024414 -1.99111592769623 14.1005926132202 22.3748111724854 4.4312858581543 -2.93072915077209 -2.39245581626892 -1.29156231880188 0.610876381397247 4.83294153213501 9.6124324798584 7.03302669525146 3.85242819786072 -2.51442885398865 0.349027305841446 1.56294703483582 2.35520911216736 10.2736368179321 10.6986236572266 14.2262392044067 9.4338493347168 6.29479932785034 7.38770055770874 7.75437784194946 15.2683620452881 6.13372945785522 -2.91097521781921 -2.12323069572449 -0.227777719497681 1.96235764026642 7.94850635528564 19.037317276001 27.3262271881104 16.6150875091553 5.04737234115601 2.50222635269165 2.18674850463867 3.80639338493347 -1.971644282341 3.56690883636475 -1.35886943340302 1.8556946516037 7.27377843856812 -0.0781878158450127 0.554870545864105 0.224727228283882 10.0177421569824 20.4685535430908 2.07316374778748 1.75377333164215 4.06847476959229 27.0909576416016 30.2219181060791 24.1926116943359 14.6985425949097 21.1307315826416 2.49898457527161 4.04370069503784 3.47840166091919 3.16184854507446 2.65031027793884 2.2678370475769 2.30067992210388 2.25402760505676 1.20777702331543 1.29610097408295 0.789171457290649 0.802485048770905 0.818333268165588 0.835795521736145 0.837867319583893 0.84782600402832 0.858348071575165 0.84468948841095 1.17029213905334 1.56708717346191 1.32943189144135 1.42930281162262 1.47167718410492 1.53581249713898 1.89311933517456 1.16625189781189 1.20505487918854 1.03625977039337 1.54819631576538 1.93122124671936 2.39448928833008 1.54765951633453 1.86638414859772 2.19908452033997 2.52275156974792 2.65338540077209 2.84375953674316 3.51578068733215 5.13082075119019 3.59236931800842 3.50261282920837 3.87081480026245 3.82038283348083 4.03063678741455 3.73399686813354 4.49397897720337 5.16671514511108 5.22005271911621 5.77938795089722 6.12816429138184 6.24300670623779 6.13572883605957 6.24426364898682 5.98356056213379 6.21855449676514 6.20737409591675 5.87371158599854 5.77174520492554 5.82634162902832 5.30302667617798 3.70087742805481 3.82255721092224 3.97863459587097 3.79019713401794 3.49410510063171 3.78606605529785 3.73973369598389 3.46710515022278 3.11374711990356 2.80171298980713 2.50881123542786 2.61081480979919 2.70548105239868 2.7992787361145 2.485915184021 2.8327317237854 3.04869103431702 3.1428017616272 2.78393959999084 0.761564612388611 0.633804559707642 0.662116348743439 0.107568882405758 1.47229218482971 2.62439560890198 2.96874594688416 3.87408232688904 5.35101461410522 5.27989625930786 5.94445991516113 4.47302007675171 4.94590520858765 0.0440353602170944 0.430278211832047 0.461536109447479 2.60496163368225 2.6428005695343 2.1147403717041 3.43146347999573 3.61196684837341 3.83923602104187 4.09112405776978 3.58200144767761 3.41726064682007 3.38021850585938 3.44882822036743 3.34589719772339 3.67861580848694 4.39875316619873 4.72548961639404 5.42821788787842 5.51840925216675 8.66486549377441 9.26604747772217
24.4664440155029 25.8318195343018 6.70713949203491 9.7235746383667 10.4112396240234 15.1424417495728 -2.05460548400879 12.3976783752441 8.92218971252441 -2.22034573554993 -2.51370668411255 -2.45845985412598 -2.21617770195007 0.925156772136688 -1.99367952346802 10.1209735870361 -2.09261345863342 -0.150990679860115 -2.54164958000183 -1.13829755783081 4.56961250305176 4.69734287261963 3.66480541229248 6.50838613510132 -1.88044452667236 2.21557950973511 -2.051189661026 12.2143144607544 15.0461349487305 -2.74999666213989 -2.85782504081726 -2.90970873832703 -2.76495933532715 -1.33718907833099 3.36735463142395 8.9925708770752 15.9782400131226 7.74364376068115 1.14189743995667 -2.66711974143982 -0.855487525463104 1.15009593963623 -2.52625560760498 -2.36906552314758 -1.2861567735672 -1.39699411392212 -0.292202144861221 3.62737107276917 0.130227535963058 4.24181604385376 1.68702936172485 2.1546037197113 1.29877805709839 0.165309011936188 20.3598232269287 31.5520114898682 20.8667297363281 2.5121738910675 1.26327526569366 2.20648097991943 1.29298865795135 1.01737582683563 2.29379796981812 4.24752950668335 4.25082159042358 3.33867740631104 2.83097410202026 2.17755770683289 2.38168263435364 2.33243489265442 1.25038754940033 1.35399734973907 1.40160691738129 0.874804794788361 0.90878427028656 0.922365725040436 0.928070604801178 0.943897128105164 0.929126560688019 1.25569748878479 1.21639668941498 1.63399946689606 1.38188052177429 1.4209840297699 1.51226830482483 1.57503151893616 1.94217908382416 1.98310661315918 1.22262179851532 1.06016194820404 1.58778846263885 1.99321579933167 2.47985148429871 2.56311058998108 1.90663933753967 2.24835324287415 2.36850380897522 2.71630907058716 2.91410994529724 3.07646870613098 5.37004899978638 3.68491840362549 3.63177442550659 4.06329488754272 4.2927074432373 4.26455116271973 4.55902910232544 4.6015100479126 5.3022894859314 5.40337800979614 5.92865180969238 6.28278923034668 6.4223165512085 6.29717254638672 6.41923761367798 6.55018091201782 6.42398452758789 6.39341163635254 6.03953742980957 5.93070220947266 5.9825119972229 5.47549152374268 4.63804864883423 3.94170379638672 4.13611650466919 3.95755004882812 3.59829068183899 3.90086817741394 3.86551976203918 3.58139538764954 3.2041003704071 3.26737689971924 2.90846467018127 2.75058579444885 2.8602089881897 2.96051454544067 3.04386639595032 3.03848934173584 3.14942622184753 3.40975332260132 3.15607023239136 3.01457381248474 0.839812219142914 0.706455826759338 0.118770502507687 1.75203204154968 1.95493280887604 3.90746688842773 5.45542526245117 8.76145267486572 13.4752607345581 7.54410791397095 5.74024629592896 8.82337093353271 7.04385662078857 7.96082782745361 2.72545576095581 2.68292641639709 3.32267069816589 3.90086531639099 4.15938758850098 4.20411491394043 4.29159688949585 4.33973455429077 4.47766590118408 4.10186862945557 4.08975744247437 4.0050368309021 3.46020460128784 3.87115454673767 4.61515045166016 5.12051248550415 5.87414455413818 6.13489055633545 6.92981052398682
14.8330154418945 24.8842010498047 15.6717729568481 6.79179763793945 9.61937713623047 5.77912092208862 -1.81508421897888 -1.63130354881287 2.13912582397461 9.62263298034668 -1.92800664901733 -1.67021203041077 -1.80354785919189 -1.62933206558228 17.3155479431152 2.99251556396484 8.52251052856445 -1.94420456886292 -2.03333830833435 -0.371818512678146 0.245556741952896 3.83971166610718 9.58455657958984 5.02002429962158 8.24671649932861 1.1118791103363 8.90682315826416 -1.9201021194458 2.41157197952271 -2.57674360275269 -2.74595713615417 -2.24965310096741 -2.27584767341614 -1.98240685462952 6.885498046875 9.91659641265869 20.5923118591309 9.83179664611816 5.52231645584106 -0.143783643841743 -1.99740397930145 -2.18858528137207 -2.59364819526672 -1.4099782705307 -1.38752269744873 9.55947303771973 20.2383136749268 0.0129726678133011 1.22820007801056 1.68646609783173 1.73468089103699 5.68737363815308 10.3026342391968 26.0087738037109 28.4772186279297 12.5679779052734 1.84090316295624 3.78960943222046 1.54207074642181 10.748706817627 9.49088764190674 12.9843454360962 3.09640407562256 3.03886890411377 4.03498077392578 4.44900703430176 3.85480403900146 3.14653944969177 2.25151634216309 2.46561145782471 2.54250550270081 2.46040391921997 1.34125435352325 1.47882318496704 0.961817026138306 0.988383591175079 0.993058741092682 0.989921271800995 1.24004566669464 1.7579653263092 1.3076308965683 1.26555216312408 1.68172585964203 1.72837090492249 1.45358860492706 1.54852890968323 1.57912027835846 1.6403466463089 2.03373432159424 1.2560065984726 1.13980329036713 1.15978479385376 1.71709907054901 2.1303174495697 2.63178610801697 1.94890201091766 2.04739713668823 2.39586782455444 2.78930830955505 2.94632697105408 3.15166211128235 5.55975341796875 5.84373903274536 4.06016635894775 3.99637603759766 4.52520847320557 4.50779104232788 4.66350269317627 4.71330785751343 4.86280298233032 5.51970338821411 5.59761428833008 6.18732738494873 6.60248756408691 6.71952629089355 6.61180782318115 6.75725221633911 6.63480472564697 6.77097415924072 6.73341464996338 6.12152910232544 6.2375864982605 6.33444595336914 5.81543159484863 4.15719699859619 4.36861324310303 4.16006898880005 3.71941661834717 4.02483081817627 3.98712277412415 4.06135940551758 3.56199264526367 3.38991498947144 3.09009861946106 2.94248533248901 3.04923272132874 3.10780954360962 3.23693656921387 2.92549753189087 3.40845656394958 3.69385266304016 3.40992593765259 3.26222562789917 0.902522444725037 0.753825128078461 0.776795744895935 0.837609469890594 2.57226276397705 5.46031761169434 8.88575267791748 13.5743503570557 0.216265931725502 8.8201732635498 7.93748712539673 5.50930738449097 0.855765998363495 1.94408631324768 2.84729743003845 3.54185104370117 3.82182240486145 4.15969181060791 4.37048482894897 4.35801362991333 4.4939284324646 4.62610816955566 4.61582565307617 4.55824422836304 4.27762794494629 4.13515710830688 3.67509245872498 4.24605274200439 4.84698629379272 5.70670032501221 6.39262104034424 6.72331428527832
10.0991659164429 23.5032730102539 27.4589805603027 10.1758213043213 0.587253987789154 7.59522104263306 -1.48511266708374 -1.56195664405823 -1.44649529457092 -1.47123503684998 -1.60986375808716 -1.67060589790344 -1.62825381755829 2.45576596260071 5.57174348831177 -1.46102941036224 -1.744584441185 -1.61143505573273 -1.30627143383026 -1.22400546073914 -0.618702590465546 2.29320359230042 13.618408203125 3.65851211547852 15.648609161377 0.827741086483002 5.81994104385376 -1.44705021381378 -1.47084414958954 -1.61239469051361 -2.11457872390747 -1.90338289737701 -1.65029406547546 -1.14070284366608 1.70373690128326 7.06046867370605 19.470911026001 5.17290210723877 1.03210747241974 0.305454909801483 8.58810424804688 -2.23319578170776 -2.04440355300903 -1.44886100292206 -0.959753513336182 -0.0324295796453953 3.54417729377747 -0.908078789710999 1.00710189342499 3.1417350769043 2.68662548065186 2.10202145576477 26.3100605010986 30.7997798919678 1.40961468219757 1.45900082588196 5.12665891647339 8.37364768981934 37.3262367248535 22.4057846069336 1.71432423591614 1.86952650547028 3.55854344367981 3.27579617500305 3.13569569587708 4.2286229133606 4.6771354675293 4.11732006072998 4.00484991073608 3.44675850868225 2.3808422088623 2.62409448623657 2.57410717010498 1.41943871974945 1.5587500333786 1.617595911026 1.07381594181061 1.05620539188385 1.73742914199829 1.8122296333313 1.81193065643311 1.34323000907898 1.28870749473572 1.3211168050766 1.76252281665802 1.47889566421509 1.51243257522583 1.60772395133972 1.67353117465973 2.09097051620483 1.2886061668396 2.13955354690552 1.671795129776 1.7528395652771 2.18749094009399 2.71391820907593 2.38284683227539 2.59082460403442 2.46275615692139 2.60414385795593 3.01235818862915 3.23279976844788 4.08575773239136 6.16503095626831 4.23195314407349 4.17052173614502 4.74460887908936 4.7892165184021 5.15079975128174 4.81413745880127 4.9599027633667 5.66335868835449 5.80621337890625 6.35194969177246 6.79370212554932 6.93674850463867 6.82525634765625 6.97884464263916 6.72194194793701 7.0175666809082 6.98289585113525 6.57044744491577 6.49395561218262 6.61717891693115 6.11266136169434 4.42070388793945 4.66247987747192 4.88793897628784 4.61713314056396 4.15736865997314 4.23831367492676 4.19969034194946 3.88633704185486 3.56648468971252 3.61223602294922 3.12087607383728 3.24994587898254 3.38031220436096 3.46008229255676 3.18055820465088 3.68162131309509 4.02256679534912 4.24305963516235 3.78281188011169 0.951653599739075 0.974458515644073 0.819940745830536 0.18556347489357 3.60310363769531 8.73646545410156 13.2473583221436 0.745399296283722 -0.206353709101677 11.4223051071167 26.046215057373 16.9873199462891 10.6352634429932 2.76679182052612 3.71109223365784 3.93671751022339 4.34417057037354 4.31382513046265 4.51766729354858 4.7427453994751 4.80837154388428 4.80777883529663 4.89997100830078 4.70659637451172 4.69389390945435 4.46168231964111 4.12471628189087 3.76421761512756 4.99345970153809 5.25462293624878 6.95013952255249
8.45116424560547 14.1781053543091 20.527473449707 1.25738978385925 -0.360931903123856 -0.465726047754288 -0.640235483646393 7.59098863601685 7.43355464935303 1.89570665359497 3.16762685775757 -1.21951198577881 -1.099773645401 -0.984831869602203 -0.691933274269104 -1.04942512512207 -1.20930981636047 -1.14521479606628 -1.06184768676758 0.957503616809845 -1.04638934135437 -0.111872807145119 12.3186435699463 3.63110208511353 -1.61483359336853 -1.54146480560303 11.1418437957764 -1.43769085407257 -1.37941038608551 -1.28452801704407 -1.37850320339203 -1.43818008899689 -1.17773878574371 1.05581116676331 -0.814584016799927 -0.0203347727656364 8.87835884094238 -2.05344891548157 -2.29813623428345 -1.52961122989655 -2.27624773979187 -2.11723113059998 -1.60102343559265 -1.67441940307617 -1.404669880867 3.21858501434326 2.12384915351868 -0.236235022544861 6.64645624160767 2.91619253158569 15.1132001876831 28.630033493042 27.3181705474854 2.85389828681946 1.81570184230804 3.66885638237 8.91504955291748 34.2085609436035 1.09719824790955 1.08701324462891 25.2461624145508 5.39590978622437 3.06242346763611 4.49867057800293 3.37830090522766 3.25069284439087 3.19828319549561 4.95290327072144 5.09671449661255 4.42071056365967 3.80954170227051 2.4808886051178 2.72282719612122 2.69725012779236 1.29176950454712 1.56236302852631 1.6958190202713 1.16979467868805 1.64156579971313 1.78975021839142 1.86146032810211 1.85632956027985 1.36440014839172 1.37995040416718 1.33461380004883 1.78850519657135 1.83213639259338 1.52724015712738 1.63204860687256 1.70996224880219 2.14466619491577 2.22452092170715 2.16993379592896 1.69185352325439 1.79237020015717 2.24837040901184 2.77709770202637 2.87325692176819 2.63580942153931 2.4094831943512 2.67457890510559 3.12829089164734 3.35582160949707 3.51582980155945 6.51848363876343 4.42988967895508 4.32435035705566 4.97724962234497 5.37678241729736 5.48768949508667 4.98954200744629 5.03639650344849 5.19709777832031 5.95802164077759 6.02067899703979 7.02727556228638 7.2275710105896 7.04548501968384 7.21729755401611 7.39632797241211 7.29163789749146 7.26148891448975 6.82376003265381 6.78224277496338 6.94395971298218 6.42955493927002 5.62500381469727 4.95542526245117 5.1958384513855 4.87591552734375 4.13511657714844 4.38423681259155 4.35477447509766 4.44740200042725 3.91467642784119 3.7512800693512 3.69293403625488 3.46556925773621 3.63410496711731 3.71474838256836 3.81660223007202 3.99885773658752 4.21423387527466 4.67035579681396 4.21997880935669 4.01907253265381 1.01794326305389 0.861485719680786 0.191988438367844 5.61479187011719 5.84032821655273 0.790845453739166 0.829582512378693 0.730245351791382 12.2315092086792 0.288022965192795 1.73406291007996 3.00612330436707 3.79321718215942 4.07868146896362 4.0688681602478 4.48058938980103 4.44826936721802 4.66498279571533 4.88608598709106 4.95638608932495 4.96420478820801 5.0511908531189 5.02415800094604 4.83950281143188 4.59820127487183 4.48244285583496 3.98593735694885 5.54780006408691 5.94490766525269
2.82000350952148 13.8140964508057 22.6787223815918 19.0195026397705 2.02718424797058 12.3719596862793 -0.0471358001232147 5.32018089294434 4.651686668396 -1.12002646923065 -1.13985109329224 -1.39736366271973 -1.09312689304352 -0.902777016162872 -0.76787805557251 -0.386689871549606 1.74304163455963 -0.618516266345978 -0.48654168844223 -0.266866087913513 -0.508922755718231 -0.71174681186676 9.66992092132568 8.98703670501709 1.32566690444946 6.72050189971924 -1.42125618457794 -1.52206778526306 -1.02961802482605 -1.16739737987518 -0.905361771583557 -1.01132225990295 -0.938738763332367 -1.16310453414917 -1.02789258956909 1.94855082035065 3.43775534629822 1.31285917758942 -1.7352180480957 -1.96774208545685 -1.89925420284271 -1.33935952186584 -1.33505427837372 -1.15544044971466 -0.773191511631012 -0.36551421880722 1.32092297077179 -0.262578934431076 4.83115100860596 18.8403358459473 32.0205535888672 20.5472526550293 2.13980460166931 2.43217468261719 2.2788941860199 38.5590286254883 37.6880187988281 4.70960474014282 2.86743211746216 4.99785852432251 10.6012115478516 10.3568410873413 2.2660059928894 4.25172567367554 4.63626909255981 4.67281675338745 3.72055149078369 3.4219663143158 4.91005802154541 5.47349166870117 5.05004072189331 5.27831745147705 4.56834650039673 2.84585976600647 2.9503653049469 2.94481086730957 1.63663768768311 1.76307952404022 1.49706828594208 1.68099403381348 1.83182942867279 1.89674484729767 1.88007736206055 1.89781057834625 1.39166676998138 1.38256359100342 1.37335503101349 1.85457861423492 1.54989504814148 1.66048860549927 1.70200312137604 1.79580295085907 2.2693305015564 2.20334458351135 1.71371400356293 2.26008462905884 2.10884928703308 2.36791086196899 2.95696210861206 2.68623828887939 2.4474925994873 2.74977040290833 3.19234561920166 3.34602999687195 3.619948387146 6.91628217697144 7.35266065597534 4.97136545181274 4.90170431137085 5.74917697906494 5.94132089614868 6.50011777877808 5.15156507492065 5.30872869491577 6.12597179412842 6.2324914932251 6.91856670379639 7.49340963363647 7.62393283843994 7.48515367507935 7.67068958282471 7.58958053588867 7.78053665161133 7.76481914520264 7.09219598770142 7.34523248672485 7.55485725402832 7.07115840911865 5.31390142440796 5.57765626907349 5.730788230896 5.33103084564209 4.53689289093018 4.6312837600708 4.63389730453491 4.28247165679932 3.89258027076721 3.97503066062927 3.72717833518982 3.92663836479187 4.01074981689453 4.1027626991272 4.11060380935669 4.64438247680664 5.18345642089844 5.54326629638672 4.94279146194458 1.09287691116333 0.924502372741699 0.935606956481934 2.3845682144165 -0.128385663032532 7.7003755569458 5.39736318588257 11.5903749465942 3.37690258026123 1.19848787784576 2.38810253143311 3.2245466709137 3.90887141227722 4.22026872634888 4.20072507858276 4.61825227737427 4.5867133140564 4.80505323410034 5.03225803375244 5.1157751083374 5.12268304824829 5.21087408065796 5.20063209533691 5.10702276229858 4.78081178665161 4.64083051681519 4.68724393844604 4.30126810073853
2.90776324272156 3.72949147224426 5.91108798980713 5.37884473800659 1.59843301773071 7.87030601501465 0.387776076793671 1.01452255249023 7.11564350128174 -0.569367289543152 -1.03091716766357 -0.949690222740173 -0.79321414232254 -0.636001944541931 -0.319912165403366 -0.201862499117851 0.0509480684995651 -0.320324838161469 -0.106622248888016 -0.0455149672925472 0.0335629917681217 0.241770058870316 4.84182691574097 13.8718929290771 -0.944169998168945 -1.20750117301941 -1.33802390098572 -1.05352401733398 1.64170908927917 -0.820201992988586 0.831052720546722 -0.601494371891022 -0.602127552032471 -0.784081280231476 -0.777836680412292 1.63583815097809 -0.536361992359161 -0.727644920349121 -1.18239343166351 -1.02921581268311 -0.734399616718292 -0.945960462093353 -0.764892399311066 -0.257885962724686 -0.538129508495331 0.673364520072937 -0.15591624379158 3.22279453277588 2.03455018997192 15.026177406311 14.3588647842407 1.74025142192841 7.75234842300415 37.9004058837891 32.5466194152832 3.55022096633911 2.18435215950012 1.91827237606049 1.7204076051712 2.37162637710571 5.07471609115601 0.0297768749296665 39.2650985717773 3.95110964775085 4.35670280456543 4.21039295196533 4.97203207015991 3.91844487190247 3.67130923271179 5.34533500671387 5.926589012146 5.60828351974487 6.04038619995117 5.23162460327148 2.79703259468079 3.09671926498413 3.06656360626221 1.68510091304779 1.81120848655701 1.84173333644867 1.98480987548828 1.9028867483139 1.90415704250336 1.92501258850098 1.92893016338348 1.40207254886627 1.42893493175507 1.38186192512512 1.88437473773956 1.56866455078125 1.6086585521698 1.72802996635437 1.83011150360107 2.32534742355347 2.24229621887207 2.30119609832764 2.28041219711304 2.13197040557861 2.42654180526733 3.43835377693176 3.18803191184998 2.7887909412384 2.79160737991333 2.9327564239502 3.43160653114319 3.75391960144043 4.93600082397461 7.95227193832397 5.37723684310913 5.30933523178101 6.29595708847046 6.88574171066284 7.14211702346802 5.32900810241699 5.43053865432739 6.36037492752075 6.52574253082275 7.15261363983154 7.7920069694519 7.89745759963989 7.75524711608887 7.96305274963379 7.72779655456543 8.11590957641602 8.12593555450439 7.6734299659729 7.75077056884766 8.01399993896484 7.51119184494019 6.70372247695923 5.91683387756348 6.04697847366333 5.64111518859863 4.8660740852356 4.8271336555481 4.81700849533081 4.44043397903442 4.50800800323486 4.30055570602417 4.02568244934082 4.27051496505737 4.49835109710693 4.60187673568726 4.4411768913269 5.14775228500366 5.51672267913818 6.26709747314453 5.61690139770508 5.26110696792603 1.18312215805054 1.01671159267426 0.205466717481613 0.0823943614959717 0.171851992607117 0.66423374414444 0.853848457336426 11.9990358352661 8.54603672027588 3.2279646396637 3.3455183506012 3.96552395820618 4.34945249557495 4.42257499694824 4.76294898986816 4.85335254669189 4.82609701156616 5.19412660598755 5.30533123016357 5.38374853134155 5.38595914840698 5.48423290252686 5.49250888824463 5.24706029891968 5.01549577713013 4.97135496139526
2.81154632568359 3.03484225273132 5.61712646484375 7.62417888641357 17.0150184631348 6.76590156555176 3.24479508399963 7.02834224700928 2.15489220619202 -0.354821503162384 -0.477107852697372 -0.236643463373184 -0.52003538608551 0.0990763977169991 0.0879073143005371 0.322243571281433 0.71586012840271 1.14303481578827 1.50170874595642 0.865819334983826 0.943139970302582 2.62112927436829 5.78069448471069 11.4148406982422 11.8760776519775 -0.368589639663696 0.845205724239349 -0.649128079414368 -0.616686463356018 -0.0425101108849049 -0.748851358890533 -0.454773098230362 -0.795517444610596 -0.342519849538803 -0.429830998182297 1.03466391563416 -0.368510484695435 -0.58225554227829 -0.377876073122025 -0.493414103984833 -0.241107866168022 7.03710317611694 6.4053955078125 2.68215370178223 0.182314068078995 2.36341333389282 -0.312601149082184 29.6420021057129 25.0044708251953 3.40306043624878 15.687891960144 36.9966735839844 39.0254554748535 8.06658458709717 2.46024179458618 7.11158275604248 5.91880989074707 8.66658210754395 6.18836784362793 10.8549461364746 14.5975570678711 4.97016906738281 2.00376749038696 1.65084767341614 5.09215927124023 4.58536815643311 4.66835069656372 5.41946268081665 4.37459659576416 3.97850179672241 3.530513048172 6.47833156585693 6.76731824874878 7.02981615066528 6.13304710388184 2.92124128341675 3.20201230049133 3.15647220611572 1.88414871692657 2.00675821304321 2.0893075466156 1.910924077034 1.71155023574829 1.87837791442871 1.9530303478241 1.94795250892639 1.98613286018372 1.44156014919281 1.3900431394577 1.92241716384888 1.98197984695435 1.63743877410889 1.76153218746185 1.87098634243011 2.39553809165955 2.46869111061096 2.32896494865417 2.40030002593994 2.01076412200928 3.21291708946228 3.49720215797424 3.24858403205872 3.4326868057251 2.54984378814697 2.99645495414734 3.55985593795776 3.92739629745483 4.22831535339355 8.71324253082275 9.5114631652832 6.47969102859497 6.35894298553467 7.61725425720215 8.01054573059082 5.4908447265625 5.59777021408081 5.79441499710083 6.77300119400024 6.86259651184082 8.0875940322876 8.32304286956787 8.03066253662109 8.25759506225586 8.50314235687256 8.51768779754639 8.84011650085449 8.93486404418945 8.22721385955811 8.60513877868652 8.88248348236084 8.26088809967041 6.26991558074951 6.46208143234253 6.00265884399414 5.41020059585571 5.10725450515747 5.01024341583252 5.13055515289307 4.84620094299316 4.77027559280396 4.92168426513672 4.61361742019653 4.95525979995728 5.06046962738037 5.03245687484741 5.60953378677368 6.43343067169189 7.28974723815918 6.46101427078247 5.98068571090698 1.27509021759033 1.08488047122955 0.195404812693596 0.279769629240036 0.288659304380417 1.41347455978394 1.46729516983032 2.93267965316772 3.18946719169617 3.73453426361084 3.822425365448 4.25631046295166 4.48727369308472 4.57476902008057 4.56661748886108 5.01061344146729 4.98818016052246 5.23523664474487 5.70232343673706 5.55460262298584 5.56575536727905 5.68046379089355 5.69783020019531 5.57826042175293 5.22928333282471
2.46096897125244 2.94166970252991 3.17444539070129 9.61575412750244 12.7296886444092 3.3740131855011 2.3479790687561 2.18408250808716 1.01333510875702 0.659190595149994 0.373244136571884 0.283171445131302 0.35343274474144 0.839160263538361 0.282138705253601 1.27703166007996 1.38486981391907 1.42366290092468 1.63249909877777 1.95393538475037 2.17571187019348 2.49100255966187 6.24519824981689 12.4257965087891 17.7661571502686 0.51124769449234 0.57572877407074 -0.0190139394253492 -0.436625361442566 -0.403912425041199 0.201978504657745 0.793434500694275 0.401995211839676 2.40652847290039 4.35943174362183 6.45894145965576 15.5340690612793 0.777902722358704 2.37490177154541 -0.343708902597427 -0.350343346595764 4.64870262145996 10.9188995361328 39.2898941040039 37.6971702575684 26.2040748596191 24.8760623931885 -0.00120471022091806 2.0405695438385 9.97425746917725 40.3561058044434 4.6270751953125 3.07200789451599 1.46866917610168 13.6239719390869 3.81484436988831 2.6211268901825 10.9154558181763 12.5206890106201 18.8191452026367 8.06622409820557 1.33465874195099 1.58511424064636 6.67938709259033 2.23795390129089 5.42205381393433 5.50786876678467 5.08530521392822 5.97658538818359 6.17228984832764 4.94743967056274 4.49466180801392 6.85349798202515 7.47624158859253 8.40278148651123 9.31939029693604 7.96514797210693 3.27568459510803 3.36027383804321 3.29990839958191 2.15059924125671 1.97306847572327 1.69791531562805 1.71647107601166 1.89093089103699 1.96388149261475 2.0026798248291 2.00877523422241 1.44695699214935 1.40848779678345 1.46412742137909 2.02831482887268 1.66988217830658 1.79857325553894 2.11412811279297 1.98680591583252 2.52683734893799 2.37996506690979 2.44416999816895 2.84742426872253 3.25979542732239 3.53304696083069 3.3407621383667 3.47794008255005 3.46750807762146 3.07342314720154 3.69468069076538 3.97637915611267 4.5122652053833 6.23978614807129 10.6518268585205 7.16166210174561 7.05246686935425 8.66104888916016 9.53064060211182 10.4396419525146 5.78907918930054 5.96698141098022 7.0177173614502 7.08889245986938 7.87173891067505 8.65740966796875 8.72919654846191 8.61215782165527 8.89193725585938 8.74449825286865 9.38561344146729 9.48346519470215 8.93873500823975 9.12020206451416 9.37472534179688 8.73623752593994 6.71789455413818 7.01817655563354 7.20307540893555 6.73302745819092 6.47073602676392 5.38614130020142 5.35053110122681 5.23162269592285 5.26071071624756 5.41787719726562 5.12907552719116 5.50047302246094 5.84034490585327 5.9519510269165 6.76508188247681 7.68863725662231 8.6577844619751 9.70503997802734 8.65692806243896 1.37058198451996 1.18627226352692 1.22783720493317 1.34026396274567 1.1560320854187 2.12000751495361 2.9863076210022 3.93675518035889 4.03241634368896 4.4478497505188 4.28110837936401 4.47156286239624 4.47115850448608 4.73283910751343 5.23773384094238 5.34914445877075 5.5700364112854 5.65601110458374 5.86635398864746 5.77628660202026 5.8748574256897 5.88959836959839 5.98869943618774 5.78646039962769
1.8301637172699 2.57077264785767 2.62853717803955 3.1491584777832 3.38772010803223 2.82534456253052 2.97875142097473 4.63811159133911 2.65049862861633 1.83441853523254 1.67494404315948 4.41484260559082 9.48233413696289 0.68841016292572 1.67644488811493 1.82588398456573 1.65847659111023 1.74308240413666 1.77000379562378 1.93600511550903 2.27069211006165 2.70623278617859 2.6775050163269 13.1244287490845 20.3485794067383 1.17221736907959 1.39015436172485 1.82569205760956 0.428657740354538 0.565018892288208 1.89357423782349 3.42253732681274 6.02968740463257 8.67988777160645 6.71194505691528 13.21799659729 26.3591747283936 37.642448425293 38.3616333007812 28.6684513092041 25.8160076141357 30.6010208129883 27.631649017334 30.4538688659668 -0.367850929498672 -0.20100049674511 5.5770092010498 7.05585145950317 37.5521354675293 2.76192164421082 3.94618487358093 1.48723590373993 1.28127634525299 8.73863697052002 3.54347681999207 2.25580549240112 2.4199686050415 10.4360828399658 17.6987590789795 4.3083028793335 2.38807940483093 2.24010300636292 2.54594421386719 2.0265429019928 2.05477142333984 2.29333424568176 4.82816696166992 5.96946001052856 5.55497932434082 5.67441272735596 6.75805854797363 5.64472723007202 4.96953630447388 4.3131742477417 8.34378337860107 8.80633449554443 11.5374202728271 9.69875431060791 3.12388682365417 3.43546104431152 3.36015105247498 1.90225958824158 1.83584272861481 1.86753821372986 1.7182183265686 1.75748586654663 1.94662272930145 2.02339506149292 2.04329323768616 1.47363078594208 1.53361785411835 1.49845457077026 2.08322787284851 2.30408143997192 2.56345748901367 2.1351044178009 2.22030091285706 2.62060213088989 2.73202896118164 2.64338040351868 2.88656163215637 3.29755711555481 3.59604668617249 3.66882371902466 3.59448313713074 3.91256070137024 3.16101861000061 3.3929238319397 4.19951009750366 4.88984632492065 5.38331747055054 12.0089559555054 8.04843902587891 8.08088970184326 10.08753490448 11.2255535125732 13.1802234649658 6.02225065231323 6.13512468338013 7.24837875366211 7.47094488143921 8.15286350250244 9.03878593444824 9.35048866271973 8.94834423065186 9.37716865539551 9.70180892944336 9.97270393371582 10.0476722717285 9.42930603027344 9.63932228088379 9.94411945343018 9.28742694854736 8.42294979095459 7.65536069869995 7.74070739746094 7.62450742721558 7.3655948638916 6.136887550354 5.59073972702026 5.68919086456299 5.9857292175293 6.29364919662476 6.41193342208862 6.19509124755859 6.64044618606567 6.78647899627686 7.36078262329102 9.77426052093506 11.0426797866821 12.3562955856323 11.0125341415405 9.2628288269043 1.56195461750031 1.36946642398834 1.55245506763458 2.23147201538086 3.00058555603027 3.42853808403015 4.05552387237549 4.60744142532349 4.59888648986816 4.55873918533325 4.61352586746216 4.86145067214966 5.36494779586792 5.74552488327026 5.64052104949951 5.74061679840088 5.82030344009399 6.04344749450684 6.03204488754272 6.09884738922119 6.11504554748535 6.20945453643799
3.28388547897339 1.85256099700928 2.40773963928223 2.74875521659851 3.28846001625061 3.54230856895447 3.58805155754089 3.57963752746582 4.07146072387695 2.70032167434692 2.58038306236267 2.64727830886841 6.41148138046265 0.859148383140564 11.7550277709961 15.4418916702271 2.03575563430786 1.93220198154449 2.06672430038452 2.22730684280396 2.39873480796814 2.78887963294983 3.25552606582642 3.34450101852417 4.27238798141479 2.41567158699036 4.61409854888916 5.55050659179688 5.15010738372803 5.25516510009766 6.61365556716919 8.31778240203857 9.27940654754639 7.91403579711914 13.8802442550659 10.0735445022583 23.5307960510254 34.1693344116211 -0.144435420632362 -0.5533487200737 1.449991106987 6.43039417266846 2.12642455101013 3.92358112335205 2.15135526657104 7.91631555557251 40.4156188964844 0.152818128466606 0.427205473184586 1.64247810840607 2.83402752876282 0.712981581687927 4.52197408676147 0.571130454540253 1.26530349254608 1.41905915737152 2.22635293006897 2.62343811988831 2.78443837165833 2.61371350288391 2.67173719406128 2.78867673873901 3.14915823936462 2.59493851661682 2.26443338394165 2.20398759841919 2.69912838935852 4.03696632385254 6.45859050750732 6.02334499359131 6.24055814743042 7.4811635017395 7.84451866149902 5.58504343032837 5.85924005508423 9.59056663513184 10.218544960022 15.2818288803101 12.6343355178833 3.19003009796143 3.50597667694092 3.59717845916748 3.53351926803589 1.73309087753296 1.88666236400604 1.28137874603271 1.77738738059998 1.97099423408508 2.06743121147156 2.10072755813599 2.17713642120361 1.57643675804138 1.5297783613205 2.4915668964386 2.57068848609924 2.61567974090576 2.18001890182495 2.38755083084106 2.31133008003235 2.82317471504211 2.6810417175293 2.92260646820068 3.3550820350647 3.42061281204224 3.74532628059387 3.87844944000244 3.97688961029053 3.36521196365356 3.57229900360107 4.59402847290039 5.02413129806519 5.8618688583374 13.9740362167358 16.0345802307129 10.7859373092651 10.052788734436 13.3700494766235 16.2583446502686 6.145667552948 6.26752233505249 6.38897037506104 7.70334672927856 7.83448314666748 8.75393104553223 9.81536674499512 9.86261558532715 9.9465217590332 10.2409191131592 10.5961351394653 11.1348829269409 11.2405242919922 10.3037729263306 10.8325366973877 11.1325902938843 10.3740653991699 8.72808170318604 8.67972469329834 8.84088706970215 8.49859237670898 7.10418510437012 5.87570858001709 6.16470146179199 6.55500316619873 7.9437050819397 7.2786545753479 7.16757774353027 7.71356296539307 7.88379001617432 8.01060771942139 13.4420824050903 15.1354522705078 16.8822650909424 15.0928354263306 11.8030118942261 1.73104584217072 1.64614713191986 1.63280856609344 3.15711045265198 3.76196575164795 4.30191040039062 4.54748344421387 4.75677061080933 4.74610567092896 4.83732223510742 5.19384145736694 5.37029409408569 5.57274675369263 5.91798162460327 5.80637884140015 5.90956163406372 5.9973611831665 6.24256086349487 6.37383031845093 6.33331727981567 6.35675382614136
1.56371700763702 3.57449674606323 1.93696296215057 2.52490568161011 2.87195038795471 3.43780755996704 3.68832278251648 3.73775696754456 3.7288920879364 4.32261896133423 4.34994745254517 3.70681810379028 2.89487195014954 9.86445999145508 6.59237670898438 2.1643123626709 1.04341304302216 2.09555840492249 2.13329720497131 2.36129689216614 2.64728283882141 2.86491727828979 3.32220840454102 3.75871896743774 4.04378652572632 4.28005123138428 7.51842403411865 5.89468097686768 7.55520868301392 6.95705652236938 6.69519519805908 8.62559032440186 9.56156826019287 13.0414943695068 9.21974945068359 23.6828346252441 34.6638259887695 12.9657144546509 1.17398262023926 10.6207809448242 12.3684997558594 1.33000135421753 1.02510380744934 0.0047765844501555 36.1439895629883 0.0938659608364105 0.0745818987488747 0.0805878043174744 0.168145895004272 7.96891307830811 2.32866907119751 0.212446838617325 0.0670327097177505 0.780536532402039 0.59767359495163 1.33174431324005 1.69064819812775 1.59037351608276 2.46665740013123 2.85128712654114 2.84518051147461 2.88077855110168 2.86390233039856 4.11170721054077 4.32780599594116 9.73430252075195 2.72226786613464 4.16592645645142 4.15272903442383 7.00091218948364 7.25641918182373 6.9004430770874 7.7071738243103 8.96796989440918 8.71717929840088 6.61057233810425 11.2265434265137 12.1696176528931 22.80100440979 32.5200042724609 27.6312217712402 3.3530707359314 3.70520782470703 3.6435878276825 1.75399374961853 1.93306589126587 1.99530947208405 1.80679655075073 2.01433181762695 2.12426614761353 2.20806264877319 2.25418972969055 2.69397473335266 2.6229989528656 2.87783169746399 2.75895524024963 2.64805793762207 2.46669960021973 2.43652391433716 2.8018536567688 3.36311078071594 3.86134099960327 4.04032468795776 3.75038599967957 3.5309624671936 3.90841603279114 3.94579672813416 4.13571357727051 3.7263298034668 3.9581732749939 4.34280824661255 5.56520080566406 6.60760354995728 9.88336753845215 19.6651992797852 12.4293670654297 11.98814868927 17.2498588562012 23.4777870178223 36.0421562194824 6.38552141189575 6.62610387802124 7.97949361801147 8.28208637237549 9.55089378356934 10.2825498580933 10.3304643630981 10.4761066436768 11.0408973693848 10.9990472793579 11.9775800704956 12.1278381347656 11.294623374939 11.6635732650757 11.9659109115601 11.1006126403809 10.0034217834473 10.0150079727173 10.442774772644 11.7112436294556 11.1137342453003 8.70779037475586 6.64916467666626 7.15958881378174 10.6045303344727 8.37436008453369 9.04555702209473 9.59352493286133 10.3020801544189 11.0373868942261 21.0618095397949 31.3392448425293 34.5087471008301 37.6153907775879 34.4116744995117 1.90862190723419 2.0617139339447 2.31574583053589 3.27321362495422 4.0064058303833 4.44866609573364 4.68796014785767 4.90824842453003 4.89984178543091 4.9897289276123 5.35152149200439 5.53477954864502 5.7409815788269 6.10011291503906 5.9894061088562 6.10031127929688 6.21846723556519 6.31970548629761 6.58606624603271 6.64393186569214
2.9022753238678 1.64817214012146 3.92137098312378 4.14005088806152 2.14929175376892 2.99453544616699 3.05451512336731 3.64454984664917 3.8896427154541 3.90380239486694 3.85976934432983 4.66027498245239 3.95066833496094 3.11931300163269 15.0434694290161 14.8210830688477 1.39781939983368 1.89114785194397 2.32276225090027 2.65407633781433 2.75495529174805 3.0945086479187 3.17170023918152 3.80966234207153 4.42207193374634 5.58744096755981 5.66617870330811 9.60068130493164 10.8246793746948 9.24995517730713 10.3395805358887 9.54788398742676 8.39445686340332 13.1575775146484 18.8054237365723 12.2542123794556 17.9677314758301 0.53123015165329 24.4751739501953 15.5622415542603 2.45967578887939 -0.00427485909312963 37.6521987915039 10.3982887268066 -0.0744846314191818 7.27762794494629 0.143953815102577 0.179218843579292 0.477911919355392 0.606947183609009 0.219574779272079 0.574679970741272 1.67660784721375 1.30149662494659 0.996175706386566 1.08749890327454 0.762584984302521 1.57829892635345 1.85970366001129 2.39348697662354 2.69654107093811 3.74422788619995 3.04427409172058 3.04705929756165 2.79441857337952 2.2557327747345 2.31997990608215 2.93175959587097 4.29123163223267 4.27460098266602 4.72523164749146 7.96860551834106 7.57425498962402 8.04220104217529 10.8412380218506 10.8868284225464 7.54712057113647 8.74297714233398 14.9487104415894 17.8467769622803 2.3764820098877 2.17822194099426 3.44494724273682 3.84157180786133 3.78155207633972 1.91972482204437 1.84842252731323 2.05531787872314 1.84263980388641 1.90160381793976 2.14987516403198 2.27300882339478 2.46241283416748 2.80057764053345 3.01465058326721 2.95453977584839 2.82812404632568 3.06517314910889 3.08203196525574 3.26865434646606 3.76418733596802 3.95178437232971 3.99381256103516 4.12945413589478 3.83216047286987 3.90680503845215 3.97965741157532 4.13291835784912 4.44370269775391 4.28111791610718 3.54631686210632 4.63773679733276 6.19971036911011 7.96360492706299 8.88722133636475 24.9690971374512 15.8338823318481 15.1672859191895 25.0627288818359 36.3644828796387 4.57746124267578 6.61754274368286 6.80395221710205 7.08028554916382 8.62893104553223 12.2939367294312 10.7741184234619 12.3266658782959 11.9554510116577 11.2236814498901 12.0365009307861 12.7833490371704 12.9549999237061 12.0189342498779 12.4627685546875 12.7435073852539 11.8426656723022 11.6443090438843 13.1858110427856 13.0289316177368 14.1677579879761 13.2227458953857 10.7873411178589 7.10267496109009 8.52558612823486 16.4830017089844 25.7686729431152 14.3792676925659 22.1399784088135 20.7926578521729 21.3704509735107 26.344539642334 5.8375129699707 4.65814542770386 0.245827585458755 4.73063278198242 36.281623840332 2.33053040504456 2.38717675209045 3.38754200935364 4.13667345046997 4.59183931350708 4.83709526062012 5.06464290618896 5.16122531890869 5.15933465957642 5.51801490783691 5.7035231590271 5.91885852813721 6.30002307891846 6.41240835189819 6.29481649398804 6.4243049621582 6.53208780288696 6.81953620910645
1.18513441085815 3.18006992340088 3.35404920578003 2.10585331916809 4.58888149261475 2.16297793388367 2.82100892066956 3.17189121246338 3.89968633651733 4.04080867767334 4.09370708465576 4.15274429321289 4.9502100944519 4.96420907974243 4.11624479293823 3.16429924964905 1.1241729259491 2.07445907592773 1.68431878089905 2.56737947463989 3.04471635818481 3.05536246299744 3.55692577362061 4.20205974578857 4.56731224060059 5.71254634857178 6.74636363983154 6.75152492523193 8.89176559448242 13.951434135437 9.67851638793945 13.3627004623413 12.5525016784668 11.1406383514404 18.3755340576172 29.3316516876221 41.6473426818848 21.836311340332 18.8927516937256 0.718807697296143 36.3867416381836 0.365556597709656 1.97522044181824 3.21928262710571 4.64226770401001 1.80289936065674 0.0146534750238061 0.21195325255394 1.71147239208221 1.3299732208252 1.00046145915985 0.697326898574829 0.719653964042664 0.620452284812927 0.50837767124176 1.47928643226624 2.26860046386719 4.2102484703064 2.44728255271912 8.94721221923828 17.9334125518799 3.37142109870911 3.19482350349426 3.09585213661194 3.44405961036682 3.85715007781982 2.70489096641541 3.53059601783752 2.98018169403076 4.41982460021973 4.45376253128052 4.58527612686157 8.82267951965332 9.27698421478271 9.22665977478027 14.4399452209473 14.3302412033081 12.4759855270386 12.7564659118652 16.2168045043945 21.6847171783447 36.0884132385254 29.8158340454102 3.55032539367676 3.98726987838745 4.1610107421875 4.09953451156616 1.88624155521393 2.11665105819702 1.35586154460907 1.95592522621155 2.2108690738678 2.54059171676636 2.59502530097961 2.86384773254395 3.09060382843018 3.20838356018066 3.48988008499146 3.23184728622437 3.3919985294342 3.69874382019043 3.96815848350525 4.02652168273926 4.09984827041626 4.23503637313843 4.15381336212158 4.39944839477539 4.18100452423096 4.11365509033203 4.67915344238281 4.33815765380859 3.99991798400879 5.29644727706909 7.60958576202393 8.21021938323975 10.0499410629272 35.5613975524902 48.0063667297363 33.6545829772949 32.5800552368164 3.87296414375305 6.00985145568848 6.83590650558472 7.06358528137207 7.35232067108154 9.01177978515625 17.4831581115723 27.9883327484131 11.2098512649536 11.3611097335815 12.4974031448364 12.7672872543335 13.700478553772 14.6689949035645 14.7814178466797 13.2698993682861 14.0542392730713 14.3880987167358 13.3472204208374 15.4588565826416 15.1369190216064 17.4645481109619 16.7527198791504 13.9182176589966 11.0222129821777 13.6917562484741 22.1879577636719 6.17947006225586 12.5375452041626 7.9802451133728 9.82960414886475 9.9857006072998 7.01825571060181 1.81487786769867 1.15129935741425 0.643229126930237 0.416878193616867 0.670452833175659 2.73385715484619 2.68238496780396 3.49417948722839 4.2710394859314 4.73804092407227 4.99057102203369 5.0840277671814 5.33506536483765 5.33567047119141 5.69009160995483 5.88607168197632 6.11022901535034 6.21930980682373 6.63125324249268 6.50440311431885 6.65052509307861 6.79812145233154
1.24177587032318 1.26168441772461 1.30471158027649 3.72138738632202 1.88871610164642 5.10126924514771 5.42364501953125 2.94172620773315 3.28938031196594 3.93964862823486 4.60102939605713 4.31052160263062 4.37965297698975 4.333420753479 5.24161911010742 4.40873336791992 3.74414753913879 2.94885683059692 2.45620346069336 2.04979491233826 2.98993301391602 3.39680099487305 3.72466492652893 4.40126991271973 4.94403505325317 5.39786434173584 6.81779050827026 8.16784858703613 9.25297451019287 9.21303176879883 19.1219062805176 12.5054540634155 18.5893516540527 17.4334087371826 15.5109243392944 28.4899768829346 40.6094970703125 0.210462599992752 38.8261070251465 0.174927309155464 0.765654683113098 2.21360421180725 2.94926285743713 3.20566463470459 3.53725290298462 1.61760902404785 2.45298051834106 0.94782555103302 2.14535760879517 2.44273233413696 2.46492576599121 1.22742366790771 1.45400238037109 1.52314281463623 1.75681817531586 2.1072690486908 2.04338526725769 2.42799210548401 4.45702266693115 4.22499656677246 4.88589429855347 1.98791909217834 2.93392729759216 3.30743885040283 6.9488263130188 10.3909378051758 9.06906795501709 3.00964617729187 2.71478462219238 3.37795495986938 4.36783933639526 4.5861234664917 5.02719831466675 9.72008419036865 11.9426336288452 10.825478553772 21.731538772583 30.7073040008545 21.5203475952148 10.0103940963745 20.4976177215576 38.804630279541 3.38191795349121 6.52330207824707 3.43315267562866 3.8590292930603 4.35096311569214 4.31393432617188 2.03296089172363 2.20873069763184 2.34370446205139 2.7385151386261 2.66798377037048 2.59607577323914 2.82880616188049 2.93219804763794 3.16033363342285 3.2684223651886 3.54631519317627 3.68035078048706 4.11507558822632 3.75608682632446 4.20142412185669 4.10404586791992 4.31788158416748 4.36433410644531 4.43911075592041 4.46996879577637 4.24408769607544 4.21067094802856 4.98423862457275 5.46150779724121 4.60085773468018 6.54372882843018 6.78047800064087 9.12251472473145 12.6801042556763 23.3615474700928 1.68243408203125 3.17927074432373 4.32891988754272 6.190269947052 6.22895288467407 7.10733079910278 7.38049983978271 7.58949041366577 9.38545703887939 14.5584936141968 8.96407508850098 12.0973014831543 12.6618385314941 13.3648319244385 14.1845264434814 13.785361289978 15.7243824005127 20.2190189361572 14.3449392318726 15.0407266616821 16.4823017120361 14.0393047332764 18.9002532958984 18.555269241333 25.0894355773926 37.7260284423828 37.8402099609375 25.0872116088867 9.61526203155518 7.53036212921143 13.9775667190552 26.5523147583008 27.9136619567871 30.3136024475098 31.9046974182129 19.529224395752 14.8369789123535 8.53172874450684 1.31070709228516 3.53404879570007 2.45787644386292 3.33504486083984 3.74494600296021 3.85036516189575 4.4097204208374 4.49401521682739 4.98887729644775 5.25294208526611 5.51270437240601 5.623046875 5.64814424514771 6.00037431716919 6.19640350341797 6.42489957809448 6.85646200180054 6.99215936660767 6.92162704467773
1.358114361763 1.32457673549652 1.3256927728653 1.37574231624603 4.13527631759644 4.41676807403564 2.38707828521729 6.15090227127075 2.46193265914917 3.42856550216675 3.50941038131714 5.37516641616821 4.54321241378784 5.1798267364502 5.3545970916748 5.60493278503418 4.70819139480591 4.47009086608887 4.21633911132812 2.74168658256531 2.37221693992615 3.25878858566284 3.92510652542114 4.60397529602051 4.93890953063965 5.77195167541504 6.26775217056274 8.24220752716064 9.34325218200684 11.89333152771 11.8144502639771 29.5494937896729 42.0388412475586 28.7372436523438 41.0285987854004 39.0315170288086 35.6515960693359 0.338919669389725 0.291426867246628 2.43932795524597 0.893110513687134 2.51041054725647 3.55328488349915 5.24311971664429 7.16045236587524 0.112253047525883 -0.101212456822395 0.603981733322144 1.36055099964142 3.43495774269104 2.44869613647461 5.31244659423828 1.6392410993576 1.65904653072357 1.66423869132996 2.14258980751038 5.09892559051514 7.52239561080933 12.0715351104736 4.39021682739258 3.26016235351562 5.01551055908203 10.8420152664185 8.1035270690918 15.3917837142944 17.6213703155518 3.56294941902161 3.70911073684692 3.35056567192078 6.27312421798706 6.34680128097534 4.90016412734985 4.7314977645874 4.76658725738525 5.90563631057739 18.2365055084229 25.920093536377 11.2059659957886 9.71374034881592 3.85646176338196 7.35181713104248 7.88675308227539 8.29251766204834 18.6866054534912 2.45593881607056 3.57401871681213 4.05063533782959 4.60611200332642 4.58308076858521 2.1719024181366 2.43452048301697 2.66303181648254 2.88863134384155 2.71223020553589 3.06763553619385 2.88554906845093 2.98531723022461 3.36819624900818 3.42642521858215 3.76390242576599 3.71851778030396 4.17798566818237 4.32099437713623 4.28776264190674 4.30406427383423 4.38956928253174 4.42639684677124 4.51955413818359 4.55441284179688 4.31694555282593 4.28831195831299 4.43066167831421 6.20676612854004 5.20312881469727 5.80933332443237 7.41078805923462 10.9827632904053 16.5996589660645 10.9044809341431 2.68208932876587 3.56865763664246 5.75881052017212 6.42673492431641 6.42468404769897 6.7063570022583 7.58271741867065 7.8771915435791 8.28681182861328 9.58959865570068 10.5121507644653 13.531665802002 14.4143562316895 13.5699510574341 15.09361743927 19.4131622314453 33.2759284973145 16.3894729614258 18.3392086029053 16.0523529052734 20.0170974731445 17.2160968780518 26.1421489715576 39.066291809082 40.1538352966309 6.64196300506592 4.52390718460083 6.36724185943604 8.78971195220947 12.6770677566528 22.2676086425781 15.1387100219727 16.5167751312256 4.51377058029175 2.982013463974 3.29544401168823 9.71329975128174 2.38147830963135 1.66646087169647 8.19768238067627 9.25548458099365 2.87795305252075 4.73726224899292 5.3068151473999 3.84621834754944 4.64276266098022 5.15734815597534 5.43239450454712 5.54196786880493 5.84171295166016 5.86859798431396 6.20361137390137 6.40474939346313 6.64193487167358 6.778395652771 7.2460618019104
2.02793884277344 1.56667196750641 1.4939284324646 1.46847367286682 1.46088814735413 1.55654144287109 4.99141883850098 2.14084434509277 7.0923056602478 2.47958159446716 3.29786276817322 3.70540428161621 6.46576833724976 7.10295486450195 4.88298463821411 6.95566749572754 5.94472551345825 5.96602153778076 4.90034198760986 5.41180562973022 2.92636227607727 2.77263212203979 2.89296722412109 4.56825971603394 5.29118633270264 5.59087753295898 6.82570648193359 7.45676469802856 8.46308040618896 11.9861059188843 16.435417175293 16.50315284729 27.7871150970459 0.0198492854833603 39.0469169616699 0.941033184528351 3.50607752799988 10.8378601074219 0.692043781280518 0.30778381228447 0.241942167282104 3.31216406822205 10.2407236099243 5.50504064559937 0.201200351119041 0.139658942818642 0.124122634530067 0.0712597742676735 4.54309225082397 2.26382207870483 3.34451770782471 2.50974655151367 2.58467483520508 2.44303727149963 4.66875219345093 8.36436939239502 3.52696514129639 8.2233829498291 6.67384719848633 2.8984751701355 4.72442960739136 4.91075801849365 3.14246559143066 2.27698087692261 2.48024368286133 3.21766901016235 3.69357824325562 3.87425541877747 3.87274599075317 4.22080707550049 3.48468375205994 2.76846218109131 5.5192346572876 4.58697366714478 4.92490482330322 6.69173955917358 17.5077171325684 9.55542659759521 19.2091655731201 31.4299430847168 39.7290344238281 19.715669631958 28.3822288513184 23.6385879516602 2.15187215805054 32.1540756225586 3.79836964607239 4.30387687683105 4.88445329666138 5.2439603805542 5.24220180511475 2.48047637939453 2.69737863540649 2.92824149131775 3.09632420539856 3.10867023468018 3.20108246803284 3.28937745094299 3.4001669883728 3.46115255355835 3.90315818786621 3.77913928031921 4.26229572296143 4.41030263900757 4.35936403274536 4.3613543510437 4.46894884109497 4.51845026016235 4.60019063949585 4.63483333587646 4.70538806915283 4.50983858108521 5.14593696594238 7.30169486999512 4.8520770072937 6.51679229736328 8.84505844116211 15.2537975311279 21.20432472229 2.79347491264343 3.18936371803284 4.87345409393311 6.00609445571899 6.65168380737305 6.89188814163208 6.91875457763672 7.89157676696777 8.2504940032959 8.54032802581787 10.9145631790161 11.175971031189 12.5286045074463 15.2600317001343 14.7614135742188 16.0832252502441 17.613166809082 13.780613899231 19.3787002563477 19.3847503662109 17.2859954833984 27.4988975524902 39.9564399719238 21.2492256164551 7.36994504928589 8.34400272369385 10.6553182601929 9.44429016113281 14.6918458938599 20.5917453765869 10.2584142684937 9.66604709625244 3.93448781967163 2.99281811714172 2.0000159740448 1.55976736545563 2.93028116226196 1.99044251441956 5.9667706489563 6.77985429763794 9.0060453414917 11.6363430023193 3.8450756072998 6.5486159324646 8.42769050598145 13.0977802276611 4.78893423080444 4.88696527481079 5.45946884155273 5.75202131271362 6.0668044090271 6.10375213623047 6.23522567749023 6.5478835105896 6.77232122421265 7.02519273757935
5.42304372787476 2.19585061073303 1.74784398078918 1.63657569885254 1.60470533370972 1.57243168354034 1.61575055122375 5.76470851898193 2.26193690299988 8.41610527038574 9.40392017364502 2.79491066932678 3.9150185585022 4.01734352111816 9.1081371307373 5.15521144866943 8.97799396514893 5.1210036277771 6.22998189926147 5.24143648147583 7.41062688827515 5.15606355667114 8.98888301849365 4.82236480712891 5.31200170516968 6.07688760757446 6.60251998901367 8.24753284454346 9.36354923248291 10.9588680267334 16.6883316040039 25.8796520233154 37.6150360107422 36.7915077209473 0.344374358654022 0.381447196006775 0.11415009945631 3.16327428817749 0.0711569935083389 0.698251008987427 0.957532584667206 1.00092399120331 0.767845571041107 3.17897009849548 0.28850468993187 0.538101077079773 0.345297932624817 2.08322739601135 1.84923708438873 1.64118087291718 6.68743276596069 2.51956176757812 2.53467130661011 2.85371541976929 4.14976739883423 3.21842741966248 2.59203481674194 8.17365169525146 5.90432262420654 2.98164033889771 4.23995065689087 8.48736000061035 8.810378074646 6.25996971130371 7.88129663467407 4.31844329833984 3.34951543807983 3.32481122016907 4.25312376022339 6.63927745819092 4.37059545516968 5.14553594589233 4.05399084091187 6.32559204101562 5.22892570495605 5.08768653869629 7.76528978347778 26.3186340332031 18.803108215332 34.5218315124512 35.5635414123535 3.33492302894592 21.4240131378174 3.37882351875305 3.59659934043884 4.35538721084595 2.13602614402771 3.92585062980652 4.30783224105835 4.93845796585083 5.67794322967529 5.65954828262329 2.8519012928009 2.99539971351624 3.19142150878906 3.26230001449585 3.57176446914673 3.55460429191589 3.66676783561707 3.99302935600281 4.17597246170044 4.47880125045776 3.90664935112 4.32199954986572 4.47377634048462 4.44053602218628 4.52447462081909 4.56659698486328 4.63015031814575 4.68322229385376 4.75167179107666 4.84516906738281 4.68208026885986 6.30525970458984 7.92756843566895 8.4337682723999 8.20080471038818 11.9391374588013 16.689661026001 2.85765314102173 3.05013036727905 4.22289943695068 5.10260391235352 5.36571788787842 6.59493541717529 7.11122560501099 7.19290924072266 8.24805450439453 8.56860542297363 8.96765995025635 11.557258605957 12.1454219818115 12.4432678222656 16.0645942687988 17.4645729064941 17.211446762085 19.2016010284424 19.5911846160889 21.9493637084961 30.8111915588379 21.1173038482666 27.5185432434082 14.6514434814453 17.0000190734863 20.3941955566406 20.9010963439941 21.4545745849609 20.3023567199707 7.0019383430481 6.35380744934082 14.5844135284424 17.4921016693115 16.5929374694824 4.30608177185059 3.27383685112 2.30675220489502 6.12326908111572 3.07679772377014 11.0675678253174 14.4353952407837 10.4744539260864 15.9087982177734 4.99729251861572 10.2541265487671 15.8620309829712 2.43869638442993 4.16989088058472 5.07568883895874 5.66550445556641 5.97532844543457 6.30406427383423 6.45631742477417 6.49296951293945 6.7901029586792 7.02936410903931
7.50756311416626 6.28663158416748 2.39722657203674 2.5754988193512 1.80229842662811 1.72654294967651 1.68699526786804 1.75616097450256 6.89837980270386 7.75102663040161 2.9290919303894 12.0821380615234 2.83384823799133 3.81970691680908 4.23483848571777 12.2086095809937 5.39274263381958 12.2921924591064 16.8251285552979 6.74967288970947 7.81679630279541 11.7886991500854 19.2881851196289 2.88729119300842 3.42581582069397 4.37561321258545 6.84099149703979 7.57281637191772 8.2151403427124 11.9968576431274 15.0931520462036 25.8754367828369 37.6914138793945 3.37823987007141 2.14940524101257 7.09021186828613 0.441746294498444 0.403740525245667 0.321526199579239 0.203707173466682 7.65757846832275 1.06316983699799 1.23227691650391 0.90084570646286 1.38524150848389 0.853300213813782 0.616320669651031 2.78030967712402 3.54432201385498 11.2108001708984 11.4853610992432 2.42097401618958 2.57670593261719 3.08044219017029 6.21971035003662 3.08085656166077 4.38596248626709 13.9623594284058 3.02170324325562 2.51136589050293 4.63773536682129 5.61710691452026 9.82533550262451 19.3620758056641 12.6401519775391 2.3671133518219 2.28853964805603 3.10269975662231 4.09375476837158 9.66879272460938 5.02318620681763 5.53305101394653 4.66523885726929 3.77195334434509 7.44753122329712 8.02259540557861 5.28450679779053 5.93847894668579 14.889669418335 10.1525096893311 10.3179197311401 6.4515528678894 24.134651184082 4.94614696502686 5.68453359603882 5.08843231201172 4.88044166564941 4.51218128204346 4.9599986076355 4.7051854133606 5.42984056472778 6.21238279342651 6.70346307754517 6.58432722091675 3.37317824363708 3.41210341453552 3.689129114151 3.95998692512512 4.13947868347168 4.32767057418823 4.43210506439209 4.22470855712891 4.53634357452393 4.4933557510376 4.32930374145508 4.57009077072144 4.66438388824463 4.63445043563843 4.62226343154907 4.73538446426392 4.83342170715332 4.90863656997681 5.03330850601196 5.21600532531738 5.99125862121582 7.59037351608276 9.93499279022217 8.58849811553955 3.63598012924194 2.48399567604065 3.4206383228302 4.03034591674805 4.36503124237061 4.61545848846436 5.65799713134766 6.96344709396362 7.40809297561646 7.44626951217651 7.88888120651245 9.01252746582031 9.41872119903564 9.81392288208008 12.7790260314941 13.2840709686279 14.9155378341675 19.3925018310547 17.4347896575928 20.9126377105713 22.38205909729 25.0451126098633 22.4013767242432 24.6429252624512 19.1937427520752 24.2389259338379 31.4019470214844 30.9123420715332 31.0259017944336 30.791223526001 32.5767211914062 31.628927230835 25.7720737457275 14.4273338317871 12.6060848236084 4.0769624710083 9.11891841888428 3.94881820678711 2.44817543029785 3.9955575466156 12.9043102264404 17.25657081604 19.3556365966797 14.2264089584351 24.3483982086182 35.6126861572266 11.9844102859497 1.58503437042236 12.6743307113647 4.32009077072144 5.27692937850952 5.89810943603516 6.20625925064087 6.35477018356323 6.71774101257324 6.77550315856934 7.06708431243896
8.82553195953369 8.57096862792969 6.91301202774048 7.09769439697266 2.93594932556152 2.03466272354126 1.94619572162628 1.90505063533783 1.84948921203613 1.97497832775116 9.61580753326416 2.63793706893921 16.3292427062988 3.113520860672 4.0422248840332 4.44574165344238 16.9167518615723 22.9135456085205 5.63317203521729 4.39593601226807 6.92545557022095 6.86596775054932 5.45085048675537 3.25720381736755 5.46412897109985 5.33832693099976 5.53413915634155 8.24224853515625 8.83479118347168 9.80961036682129 16.4337158203125 23.5295543670654 34.8976936340332 3.13713049888611 7.149254322052 9.64873027801514 0.526564538478851 3.8039026260376 0.53479266166687 1.07726383209229 9.09181690216064 1.53155124187469 2.11751389503479 1.28500831127167 1.40621256828308 1.3141918182373 1.9639607667923 1.05024790763855 12.7846450805664 15.2126779556274 0.864602327346802 1.69833385944366 10.624960899353 2.6154248714447 3.24285459518433 2.85255408287048 3.16457986831665 11.0919952392578 2.72992396354675 3.06740641593933 3.98786759376526 5.88149261474609 8.04306793212891 12.7030630111694 1.41859638690948 1.3906729221344 4.11242008209229 11.5073184967041 3.27262043952942 4.80321216583252 5.24691581726074 5.51618194580078 5.74696063995361 5.15238428115845 5.03743314743042 7.54469203948975 10.1409292221069 5.12259340286255 6.2936897277832 12.777530670166 26.6163349151611 26.0014133453369 3.75607967376709 4.52252912521362 6.26631689071655 5.99636888504028 5.48056077957153 5.21361970901489 4.35079002380371 5.57720708847046 5.22314786911011 5.73372030258179 6.5531530380249 7.42283916473389 7.2634711265564 3.71299695968628 3.76239061355591 4.00319576263428 4.28337287902832 4.34039640426636 4.44430923461914 4.49768304824829 4.30803680419922 4.63508605957031 4.58611583709717 4.4293098449707 4.62401008605957 4.79146337509155 4.74554824829102 4.83580732345581 4.86934471130371 5.54034185409546 5.07808542251587 5.22926759719849 5.34569549560547 7.2915506362915 9.53616905212402 12.5061569213867 5.01248788833618 4.09975337982178 3.34914207458496 4.13101291656494 4.28150129318237 4.24706888198853 4.6435432434082 5.95291900634766 7.42333030700684 7.87271499633789 8.10571479797363 8.29842662811279 9.47022533416748 9.870436668396 10.3154058456421 13.9241104125977 13.9079751968384 15.8590097427368 19.37331199646 20.9974632263184 21.7582321166992 26.6624870300293 26.7301921844482 27.2183876037598 30.4037570953369 32.4618263244629 28.6170654296875 24.9926815032959 22.1454429626465 23.6467914581299 31.9675559997559 33.0455093383789 28.8503017425537 4.89516878128052 12.9135284423828 5.80847454071045 17.3163280487061 4.48289728164673 7.15949058532715 6.09609794616699 13.8487892150879 20.6519336700439 23.0409641265869 29.1267757415771 41.464729309082 32.2787208557129 4.44139623641968 4.33211421966553 13.1572885513306 2.63706159591675 4.47323131561279 5.48381280899048 5.60806131362915 6.2785210609436 6.62292671203613 7.00336313247681 7.08145666122437
9.34114551544189 9.69542121887207 9.403564453125 9.79415416717529 8.21499347686768 3.37979078292847 2.92068910598755 2.26813840866089 2.12907457351685 2.07875299453735 2.10428619384766 13.2063894271851 2.83936500549316 24.8399410247803 35.9993858337402 3.17040824890137 4.4888858795166 4.58382558822632 3.71568036079407 6.29476070404053 7.44063425064087 7.10129356384277 8.22000026702881 6.99280548095703 5.90145492553711 6.51286840438843 6.06498193740845 6.46895217895508 9.75994873046875 11.1619672775269 11.8503637313843 25.5517387390137 37.4977836608887 6.79746246337891 10.0488262176514 0.426895201206207 0.12742292881012 1.74600386619568 0.417590200901031 2.94220972061157 2.83477187156677 0.97613525390625 0.976977169513702 2.71817946434021 2.31615042686462 2.88220858573914 8.66854763031006 4.36920213699341 1.01614844799042 7.66689014434814 0.759151816368103 1.05410540103912 1.7762336730957 2.18898439407349 3.76121830940247 6.55936908721924 3.20958590507507 3.27140712738037 3.36807703971863 7.94393110275269 2.92109227180481 3.22272658348083 8.7077054977417 13.467661857605 1.71183955669403 4.18645620346069 6.41397571563721 14.5085248947144 3.58710098266602 3.36576795578003 5.11154079437256 5.30481386184692 5.97524404525757 5.81947898864746 12.8593549728394 5.49815893173218 12.2296314239502 13.4421768188477 6.47261190414429 5.99880838394165 16.5728416442871 16.3115634918213 2.96789765357971 6.05215644836426 5.82734155654907 6.83893585205078 6.35585737228394 5.78174781799316 5.9236102104187 5.44385623931885 6.36015748977661 5.90880060195923 6.48054933547974 7.35554981231689 8.30497741699219 8.08047389984131 3.93037867546082 4.24793672561646 4.14535808563232 4.33022880554199 4.41212368011475 4.5240683555603 4.58153533935547 4.39278888702393 4.7337760925293 4.83726978302002 4.52858877182007 4.63619184494019 4.90333271026611 5.00495862960815 4.97319459915161 4.97538661956787 6.42469310760498 7.23831224441528 5.41750955581665 5.51503372192383 10.1067981719971 14.1513690948486 20.1364212036133 23.6355285644531 5.19994258880615 4.03282308578491 4.38487005233765 4.54011058807373 4.35690546035767 4.77436351776123 6.36821174621582 6.69926738739014 8.39395523071289 8.49205493927002 8.74710369110107 9.92900466918945 10.4069328308105 11.0511484146118 11.750560760498 15.6253700256348 16.8073806762695 21.534086227417 23.8311233520508 27.9668083190918 31.3569850921631 40.3773307800293 34.8339920043945 25.5366287231445 24.2671642303467 22.9547500610352 25.6270771026611 28.4815845489502 27.4915523529053 0.849869310855865 0.286626607179642 1.96862304210663 16.798397064209 15.956690788269 6.46570587158203 7.77660417556763 7.42138528823853 13.793830871582 34.0088729858398 23.4793109893799 35.120906829834 43.5342102050781 46.4455909729004 -0.326777577400208 10.2430973052979 0.453249990940094 1.69024980068207 2.15941953659058 2.34768509864807 3.37077903747559 4.81228351593018 5.83655405044556 6.55425214767456 6.89848518371582 7.31437110900879
