NCOLS 171
NROWS 32
XLLCORNER 353904
YLLCORNER 6700320
CELLSIZE 16 
NODATA_value -3.4e+38 
0.291233628988266 0.173944786190987 0.00543443812057376 -0.160969600081444 0.273260146379471 1.70734226703644 2.98024415969849 4.94214820861816 6.59877967834473 6.9833288192749 7.0147385597229 7.74854183197021 8.65966892242432 10.5457057952881 11.0321846008301 9.10449028015137 4.11661005020142 3.2467303276062 3.09666872024536 2.39448070526123 2.81284117698669 3.18276619911194 3.34680867195129 3.55512547492981 3.64798212051392 3.75207114219666 3.82246828079224 3.82718420028687 3.67653822898865 3.42365288734436 3.76655030250549 4.77179622650146 4.64806222915649 4.18354654312134 3.2057044506073 3.47067666053772 3.5957350730896 3.72235107421875 3.73541212081909 3.68336081504822 3.69199752807617 3.75173306465149 3.77208137512207 3.74479603767395 3.72185802459717 3.73479604721069 3.73380994796753 3.7340099811554 3.76368594169617 3.75626111030579 3.65606355667114 3.60311007499695 3.5844202041626 3.49162197113037 3.32516002655029 3.19505548477173 2.99927425384521 2.80736494064331 2.58297610282898 2.41849565505981 2.22546744346619 2.15465235710144 2.15501189231873 2.27003049850464 2.56021690368652 2.74149918556213 2.74257254600525 2.70037817955017 2.6358802318573 2.53312611579895 2.42450881004333 2.26793622970581 1.89639854431152 1.99036300182343 2.61316537857056 1.96550345420837 1.11593914031982 0.850432693958282 0.706776142120361 0.750813364982605 0.430202573537827 0.857903242111206 1.07312941551208 2.44877004623413 3.83330106735229 6.49102449417114 10.4807662963867 8.94841384887695 6.71323871612549 3.80736064910889 2.83843493461609 1.47821021080017 0.266721695661545 -0.457996100187302 -0.96470034122467 -1.06410312652588 -0.784903585910797 -0.41018682718277 0.496651589870453 1.28427028656006 0.843604028224945 -0.548884510993958 -2.60831260681152 -1.22929358482361 0.0926017612218857 1.49137258529663 -0.957659959793091 -2.05838394165039 -0.962008416652679 -0.111454404890537 -1.45932710170746 -1.32311153411865 -1.1401618719101 -1.01279783248901 -0.949199199676514 -0.846375346183777 -0.782466769218445 -0.827742755413055 -0.830247700214386 -0.735231280326843 -0.477546155452728 -0.236671358346939 -0.212610498070717 -0.137174129486084 0.0442778468132019 0.377717643976212 -0.135114550590515 -0.631359815597534 -0.972196519374847 -1.18885719776154 -1.62375473976135 -2.23117280006409 -2.41739821434021 -2.48224472999573 -2.64289116859436 -2.75850987434387 -2.78385734558105 -2.80552387237549 -2.83213686943054 -2.91729331016541 -2.61322832107544 -1.56046640872955 0.634450674057007 1.81124746799469 2.48628091812134 3.32510948181152 3.48248815536499 3.49579167366028 3.99190807342529 5.10711908340454 6.19993019104004 6.07276487350464 5.41948127746582 4.08847188949585 1.6812264919281 0.0194537360221148 -1.636354804039 -2.17294430732727 -1.04716992378235 0.530690550804138 3.08332920074463 4.8662896156311 6.61150646209717 8.19520092010498 9.86645889282227 10.4426765441895 8.42311573028564 6.23151874542236 4.23375558853149 3.19391775131226 0.169826567173004
5.75274229049683 5.46410942077637 0.0174989439547062 -0.235060647130013 -0.173880279064178 1.31935930252075 2.69690608978271 2.802734375 4.51270389556885 5.06751441955566 5.70623254776001 6.74560737609863 7.16058731079102 8.46856307983398 10.1283731460571 8.23753070831299 5.67996215820312 3.39375805854797 3.03312683105469 2.66887784004211 2.67308211326599 3.06320309638977 3.26087713241577 3.45979595184326 3.56998872756958 3.66521668434143 3.7319188117981 3.80474233627319 3.67916941642761 3.42221856117249 3.77020907402039 4.0175633430481 4.37695980072021 4.20193672180176 3.70452332496643 3.28190755844116 3.4431574344635 3.54369568824768 3.59608912467957 3.56753087043762 3.57063937187195 3.64390635490417 3.64704608917236 3.63877367973328 3.63562083244324 3.66782402992249 3.65660452842712 3.67380928993225 3.63465905189514 3.60165929794312 3.55616760253906 3.34701561927795 3.24766421318054 3.21590137481689 3.24236059188843 3.16508984565735 3.03194832801819 2.779465675354 2.87258124351501 2.21805953979492 2.07766008377075 2.05445337295532 2.11444997787476 2.23119211196899 2.48411870002747 2.60489225387573 2.55750322341919 2.52336955070496 2.55020308494568 2.51243090629578 2.36801862716675 2.16789150238037 2.73661804199219 4.07949876785278 3.11456847190857 2.260174036026 2.01698184013367 1.37661921977997 0.584748148918152 0.714769542217255 2.97908616065979 4.53061485290527 2.51380777359009 1.67954039573669 2.83856964111328 4.69573163986206 6.84955406188965 8.29100131988525 7.21339416503906 4.17315244674683 2.96043825149536 2.35776090621948 0.131321132183075 -0.416215300559998 -0.700237095355988 -0.637503564357758 -1.26507329940796 -0.685663640499115 0.535662472248077 1.98070311546326 -0.520691990852356 0.984843611717224 2.43772506713867 3.56893563270569 3.53900671005249 3.08317041397095 0.863102614879608 -0.912525653839111 -0.774990677833557 -1.14729571342468 -1.62562155723572 -1.50219488143921 -1.35775113105774 -1.2841283082962 -1.14630913734436 -1.03622233867645 -0.895289361476898 -0.888438940048218 -0.809856116771698 -0.658318936824799 -0.480277568101883 -0.469330817461014 -0.32776352763176 -0.228250056505203 -0.141017064452171 -0.00558709492906928 -0.357310503721237 -0.788752615451813 -1.01704800128937 -1.29742586612701 -1.80001473426819 -2.30263948440552 -1.99505650997162 -2.5429048538208 -1.98400497436523 -2.84659337997437 -2.92017912864685 -2.95856022834778 -3.02135539054871 -3.18126249313354 -3.25363397598267 -2.96039175987244 -1.4808943271637 0.31922122836113 1.53683984279633 2.52272415161133 2.68696308135986 3.22430825233459 4.01987838745117 6.70736503601074 6.53115653991699 5.01343250274658 3.94454956054688 3.34165120124817 1.59285914897919 -0.261987239122391 -1.28081786632538 -2.17379522323608 -2.26690244674683 -0.178614139556885 0.983735680580139 1.82622408866882 3.64124655723572 6.220458984375 7.99436044692993 8.47686862945557 8.34878635406494 5.56290531158447 4.26558542251587 3.2518196105957 1.21451318264008
0.500216662883759 2.12055635452271 4.09443521499634 2.72861766815186 0.0296291653066874 1.22440850734711 2.82651448249817 2.94177031517029 3.65294623374939 4.09056901931763 4.92687082290649 6.04370212554932 6.29076719284058 7.13568782806396 8.5342493057251 8.38825988769531 6.65808439254761 4.1953558921814 2.95244145393372 2.48212170600891 2.43711042404175 2.92212700843811 3.0880491733551 3.21303629875183 3.41020941734314 3.51542735099792 3.63992547988892 3.72667551040649 3.65911912918091 3.39347958564758 3.69153213500977 3.76207542419434 4.1890606880188 4.17329406738281 3.90776348114014 3.15371370315552 3.24922347068787 3.29786658287048 3.35381245613098 3.31278038024902 3.28617215156555 3.40484690666199 3.50051331520081 3.52185678482056 3.56843304634094 3.57385563850403 3.59293818473816 3.60735654830933 3.62076854705811 3.53286075592041 3.42154288291931 3.08048391342163 2.84689950942993 3.04204392433167 3.0995569229126 3.12967729568481 2.92948698997498 2.68220901489258 2.50886726379395 3.01337552070618 3.62310004234314 2.28017425537109 2.18863892555237 2.29250359535217 2.37623906135559 2.27693367004395 2.66958570480347 2.77227115631104 3.10813975334167 2.9704897403717 3.05482745170593 2.71971750259399 2.65805768966675 2.59784483909607 1.9545214176178 1.66346836090088 1.28091204166412 1.50943672657013 2.21641039848328 1.64986777305603 3.50078082084656 7.32915258407593 4.54961967468262 1.36259806156158 1.35794246196747 2.67337512969971 4.28259515762329 5.71237325668335 5.32661485671997 5.79172706604004 3.41625142097473 2.61977982521057 1.07755303382874 -0.212898343801498 -1.03648626804352 -0.999783575534821 0.0874536707997322 0.0849948152899742 0.308257132768631 -1.90399181842804 1.71484875679016 1.86070871353149 2.89912414550781 5.57523632049561 4.07342004776001 3.22094058990479 1.60998558998108 0.212681472301483 -0.480592161417007 -0.740468084812164 -0.947778105735779 -1.65447390079498 -1.56830525398254 -1.54079461097717 -1.38707435131073 -1.26167738437653 -1.12836837768555 -0.941123783588409 -0.77867990732193 -0.0666197836399078 -0.164169579744339 -0.504182815551758 -0.371449321508408 -0.34846293926239 -0.184335991740227 -0.182732701301575 -0.408342778682709 -0.859821498394012 -1.13728761672974 -1.54753220081329 -2.00463080406189 -2.35391354560852 -1.98752510547638 -2.39719867706299 -2.73866319656372 -2.96209502220154 -3.11766934394836 -3.19607090950012 -3.29420018196106 -3.38035345077515 -3.47104740142822 -3.46707248687744 -3.13139176368713 -0.806645333766937 1.59151637554169 1.69170212745667 9.76781558990479 10.0343236923218 7.0844612121582 7.03808403015137 4.62141609191895 4.11402559280396 3.17877411842346 2.92343974113464 1.9185551404953 0.623720228672028 -1.10622894763947 -2.41074705123901 -2.46267676353455 -1.73964011669159 -0.0809754803776741 0.2976094186306 1.2735687494278 4.19025945663452 6.26675605773926 7.41816663742065 7.51097869873047 6.05026960372925 4.10372686386108 2.38241386413574 0.664198219776154
0.017741397023201 1.40087950229645 3.17258667945862 6.985764503479 5.8040714263916 3.54050970077515 4.7539234161377 3.2182183265686 3.64112758636475 3.84255981445312 4.20610570907593 5.04530477523804 5.68918657302856 5.98661661148071 7.06943130493164 7.77073431015015 6.4483380317688 4.56657361984253 2.94799971580505 2.32454013824463 2.18544507026672 2.60259079933167 2.93836331367493 3.11597466468811 3.3144965171814 3.44591450691223 3.56510019302368 3.63985824584961 3.57329034805298 3.33953285217285 3.25279355049133 3.24803137779236 3.72491073608398 4.04445600509644 3.94261264801025 3.35947847366333 3.04498481750488 3.00688457489014 2.94866490364075 2.92222952842712 3.11174035072327 3.20112061500549 3.3808376789093 3.41572713851929 3.46267700195312 3.49230098724365 3.5441677570343 3.54219508171082 3.56005501747131 3.450439453125 3.11834597587585 2.70676708221436 2.57343029975891 2.75793886184692 2.96477031707764 3.03550720214844 2.9127414226532 2.70753288269043 2.59423446655273 2.41550159454346 2.14520263671875 3.64274644851685 4.31378316879272 3.89732193946838 4.29331254959106 3.79198431968689 2.62978267669678 3.20689058303833 3.11031889915466 2.71858763694763 2.61080598831177 2.58634066581726 2.22718119621277 1.82220757007599 1.46317338943481 1.30339133739471 1.10897898674011 0.931202471256256 0.851912319660187 0.768882691860199 0.360642343759537 0.251280277967453 0.917161405086517 0.140442073345184 -0.368287801742554 0.05450489372015 1.00448131561279 2.72854280471802 4.40432643890381 4.64276885986328 4.16991090774536 2.61511206626892 1.79162013530731 0.0816522315144539 0.749611496925354 0.888413488864899 1.3191134929657 2.23517870903015 0.253808170557022 1.24967181682587 0.316972196102142 2.33397722244263 2.32085752487183 4.40661096572876 3.34862160682678 3.23527574539185 2.47562170028687 1.18603587150574 0.528459429740906 0.179973691701889 -0.974943816661835 -1.91897332668304 -1.89065444469452 -1.84076261520386 -1.76825654506683 -1.6039754152298 -1.3425999879837 -1.10170471668243 -0.917309105396271 0.0693138912320137 -0.190304085612297 -0.517431378364563 -0.538220942020416 -0.443697214126587 -0.218253925442696 -0.232388719916344 -0.423305839300156 -0.872193038463593 -1.39253687858582 -1.93204998970032 -2.24171757698059 -2.41269612312317 -2.5119457244873 -2.62764430046082 -2.79685640335083 -3.04933929443359 -3.26375102996826 -3.4335618019104 -3.65788054466248 -3.69954013824463 -3.68525671958923 -3.6701226234436 -3.57846450805664 -1.93809962272644 0.128542929887772 7.02820825576782 9.19583320617676 9.35788536071777 8.5024299621582 4.39192628860474 3.82922220230103 3.54477405548096 2.91521644592285 2.81230640411377 2.74510908126831 1.88289678096771 -0.90443754196167 -2.16683030128479 -2.66622066497803 -2.42342519760132 -0.947389781475067 -0.465403527021408 0.557466566562653 1.29858899116516 3.95396208763123 6.42613172531128 6.60250329971313 6.43784523010254 4.15736436843872 2.32086777687073 1.4291820526123
2.91524291038513 4.34146451950073 4.15053415298462 4.38654041290283 6.46552133560181 7.06309080123901 5.44096040725708 4.53737497329712 4.79734754562378 3.56476736068726 4.3031063079834 4.70186042785645 5.22114086151123 5.50855827331543 6.14917516708374 7.1383843421936 6.82713174819946 5.53892135620117 3.56619119644165 2.56960511207581 2.1445996761322 2.36329007148743 2.78809261322021 2.94638824462891 3.10209202766418 3.32149004936218 3.45367383956909 3.53463411331177 3.4241681098938 3.21430468559265 2.89637899398804 2.88286972045898 3.20687961578369 3.86881804466248 3.80723142623901 3.42701244354248 2.94743943214417 3.36610984802246 3.88406443595886 2.7147741317749 2.90539932250977 3.16323590278625 3.26946997642517 3.32123208045959 3.3766942024231 3.41421890258789 3.45333671569824 3.44732999801636 3.40020966529846 3.18840551376343 2.74241805076599 2.3225109577179 2.37644696235657 2.56817650794983 2.77734112739563 2.86244606971741 2.87425422668457 2.76710391044617 2.52497625350952 2.35380530357361 2.18379712104797 2.0616774559021 1.87628984451294 2.3051609992981 2.33253383636475 1.85200500488281 1.82958686351776 2.07066679000854 2.1512508392334 2.10935497283936 1.92619013786316 1.82784342765808 1.51350593566895 1.42624294757843 1.24037158489227 1.13124263286591 1.03579413890839 0.905506014823914 0.751120805740356 0.617170572280884 1.38760948181152 0.170801311731339 -0.120608195662498 -0.603497862815857 -0.641952812671661 -0.720307230949402 -0.799338817596436 1.10262846946716 2.73639345169067 3.75415945053101 3.48637747764587 2.94050240516663 2.0205352306366 0.758285284042358 -0.0634980276226997 0.685895800590515 1.8069965839386 2.86822080612183 2.40914416313171 1.97090661525726 5.49483585357666 4.39190483093262 0.80503511428833 2.09929060935974 3.18612384796143 3.31148195266724 3.01463723182678 1.85606694221497 0.566613435745239 -0.390927910804749 -1.25136959552765 -2.0587043762207 -2.05845952033997 -2.07080793380737 -2.07357859611511 -2.329421043396 -2.38729333877563 -2.22866177558899 -1.57362532615662 -0.807668149471283 -0.384666353464127 -0.543730854988098 -0.664520680904388 -0.571372926235199 -0.425466120243073 -0.339940965175629 -0.424300104379654 -0.89128053188324 -1.65242493152618 -2.08827686309814 -2.29818296432495 -2.45957279205322 -2.56975507736206 -2.71844458580017 -2.90793180465698 -3.14482426643372 -3.41161680221558 -3.64932489395142 -3.91355156898499 -3.98715090751648 -3.97092032432556 -3.84252500534058 -1.41074991226196 1.89586007595062 1.88310146331787 4.10976552963257 5.8732852935791 7.44250726699829 6.59039354324341 3.99473524093628 3.48896169662476 3.57891774177551 6.76327466964722 4.23295497894287 6.1448392868042 5.07894325256348 7.13123035430908 -0.623517036437988 -1.49295997619629 -1.54658448696136 -1.92196977138519 -1.18257689476013 -1.28123116493225 0.275373101234436 2.64314079284668 4.95736122131348 5.51809930801392 5.49353361129761 3.82885122299194 2.54893732070923 1.57280910015106
6.15803241729736 5.89855146408081 4.38322305679321 3.84366345405579 4.89280986785889 6.03784084320068 5.50359678268433 4.19897508621216 4.09333181381226 3.55832576751709 4.93642616271973 4.59357690811157 4.52309513092041 4.90930128097534 5.42235326766968 6.13213062286377 6.33163118362427 5.47045803070068 3.78321385383606 2.62615871429443 2.05991530418396 2.16192007064819 2.65407371520996 4.49385166168213 3.74826979637146 3.25522613525391 3.34245872497559 3.40975999832153 3.23046350479126 3.03430247306824 2.74916911125183 2.56300282478333 2.98560070991516 3.60105681419373 3.50823307037354 3.13943457603455 2.83513903617859 2.68979001045227 2.59972167015076 3.52806711196899 2.856520652771 3.01899743080139 3.09816932678223 3.27429246902466 3.30403757095337 3.34564828872681 3.34393858909607 3.35166144371033 3.32426953315735 3.1063244342804 2.60426163673401 2.09305000305176 2.08782982826233 2.26969313621521 2.49545240402222 2.60214710235596 2.72461581230164 2.72293519973755 2.57272863388062 2.45765328407288 2.288818359375 2.02868366241455 1.91678237915039 1.79967391490936 1.77029001712799 1.75387299060822 1.548095703125 1.33997786045074 1.52060282230377 1.48971509933472 1.44586527347565 1.34216701984406 1.29804480075836 1.20976293087006 1.1159051656723 1.00917100906372 0.921733796596527 0.851739943027496 0.762464702129364 0.76668393611908 1.10864722728729 0.765577673912048 -0.385008543729782 -1.08262610435486 -1.1483029127121 -1.06845140457153 -1.07106077671051 -0.228945806622505 2.13322710990906 2.94093084335327 2.78784251213074 2.29804229736328 1.85578620433807 1.01753985881805 0.00327906315214932 0.0716825723648071 0.539609968662262 1.98335003852844 4.37381553649902 5.3036322593689 7.64571332931519 4.55746555328369 1.41118681430817 0.123753719031811 1.84466195106506 2.35469532012939 2.98001623153687 2.44678497314453 0.72546249628067 -0.344628900289536 -1.13667011260986 -2.08089709281921 -2.15286612510681 -2.21186542510986 -2.4112286567688 -2.54995846748352 -2.72741985321045 -2.91225957870483 -2.75027346611023 -1.25500762462616 -0.925213098526001 -0.871494650840759 -0.83669650554657 -0.71333259344101 -0.651796042919159 -0.473474621772766 -0.571252524852753 -0.958494424819946 -1.52825665473938 -1.98516595363617 -2.315105676651 -2.5305483341217 -2.69178867340088 -2.83543586730957 -3.02292227745056 -3.23360061645508 -3.45046663284302 -3.71956133842468 -3.99339008331299 -4.16584062576294 -4.15889453887939 -3.94165730476379 0.86455625295639 4.51396703720093 5.1349630355835 4.53516721725464 4.95719337463379 4.90612506866455 4.9632568359375 3.28584766387939 3.05812835693359 3.29661202430725 4.26278877258301 8.31531715393066 7.16957426071167 5.51671314239502 5.27318429946899 1.81680130958557 1.13497245311737 1.85936236381531 -1.16058373451233 -1.95588910579681 -1.55366849899292 0.0634927898645401 1.89314186573029 3.5163938999176 5.09869241714478 5.25496196746826 4.18273305892944 2.68584108352661 1.75124573707581
5.18063497543335 3.80790185928345 3.78860139846802 3.83884644508362 3.81482696533203 4.71801376342773 5.33349800109863 4.37817621231079 3.46726751327515 4.94477844238281 4.60592269897461 3.95532894134521 4.23515367507935 4.63155269622803 4.97438192367554 5.72587490081787 5.86879444122314 5.53426218032837 4.67518043518066 3.2048966884613 3.88021612167358 2.74623560905457 3.11760568618774 2.72702717781067 2.81932759284973 2.95463037490845 3.14978361129761 3.24855494499207 3.15319681167603 2.8511905670166 2.61902165412903 2.59038925170898 2.47414875030518 2.95484280586243 3.22498869895935 3.15540075302124 2.64521741867065 2.36892080307007 2.36022591590881 2.38882040977478 2.57616758346558 2.8058135509491 3.05393719673157 3.15805864334106 3.18305325508118 3.24389672279358 3.2794554233551 3.24178528785706 3.14506912231445 2.8401026725769 3.39537763595581 1.94790840148926 1.96057546138763 2.03771615028381 2.19802784919739 2.41492462158203 2.53292202949524 2.59846162796021 2.57052326202393 2.39561367034912 2.22175073623657 2.07634329795837 1.95172572135925 1.75597250461578 1.64078760147095 1.57079243659973 1.34446573257446 1.19999349117279 1.3341783285141 1.36072266101837 1.2329603433609 1.13852858543396 1.10576033592224 1.06420993804932 1.02171695232391 0.928398311138153 0.867633879184723 0.800981521606445 0.740356743335724 0.977223336696625 1.50306165218353 2.03381776809692 -0.557903170585632 -1.19164848327637 -1.39259815216064 -1.38677835464478 -1.35738849639893 -1.33670330047607 0.172979980707169 1.77367305755615 1.67020452022552 1.25695967674255 1.04286515712738 0.604641675949097 0.117044217884541 -0.31222265958786 -0.204024985432625 0.643486022949219 2.96531271934509 3.74203991889954 6.35406589508057 4.96054697036743 3.08170223236084 1.18738126754761 1.14234888553619 2.78956604003906 3.11915731430054 2.61017823219299 1.2065657377243 -0.278324663639069 -1.10937285423279 -2.0068666934967 -2.26796770095825 -2.42843580245972 -2.66499924659729 -2.86392545700073 -2.94485759735107 -3.16250705718994 -3.23221492767334 -2.55724954605103 -1.18608570098877 -1.02617955207825 -1.0939267873764 -0.914049327373505 -0.833934843540192 -0.762468695640564 -0.823940217494965 -1.10564172267914 -1.66038239002228 -2.16459774971008 -2.48275089263916 -2.72537994384766 -2.82037711143494 -2.95417737960815 -3.1320972442627 -3.33097720146179 -3.49046087265015 -3.54707789421082 -1.65490424633026 -1.34852206707001 2.99866271018982 3.42733860015869 5.42398405075073 5.04724788665771 3.51004934310913 3.67715835571289 3.09595823287964 4.40076303482056 5.3268723487854 5.20572328567505 9.38677597045898 3.42794823646545 5.37260103225708 7.58789730072021 6.91650104522705 4.8199725151062 3.49743247032166 4.67016744613647 1.93395829200745 0.91976922750473 -1.26140010356903 -2.1490490436554 1.75322663784027 3.69268846511841 4.90486145019531 5.28875684738159 4.34178400039673 4.51719093322754 4.51168823242188 3.29760646820068 2.19098114967346
4.12832164764404 3.89912986755371 3.98990893363953 3.52351784706116 3.38164782524109 4.24038219451904 4.72097063064575 3.58871650695801 4.38535928726196 3.99465608596802 3.85032892227173 3.55131649971008 3.92394471168518 4.21826553344727 4.39772939682007 4.84618997573853 5.49520206451416 5.26128721237183 5.38017129898071 5.77685308456421 5.53371953964233 2.06483292579651 2.04252600669861 2.36444044113159 2.6675009727478 2.84132409095764 3.03692436218262 3.15617704391479 3.10154414176941 2.74467134475708 2.54298043251038 2.54351353645325 2.42303061485291 2.53998422622681 3.00750517845154 2.9368999004364 2.55739212036133 2.17990970611572 2.1971480846405 2.2600519657135 2.46806263923645 2.74273824691772 2.91738104820251 3.00576281547546 3.13449215888977 3.11532878875732 3.16895914077759 3.07046294212341 2.87916231155396 2.5409677028656 2.10348892211914 1.95299160480499 1.70081388950348 1.83740496635437 1.99786376953125 2.19499206542969 2.35106492042542 2.4738974571228 2.47657442092896 2.41173624992371 2.32862854003906 2.1703314781189 1.91820311546326 1.70707952976227 1.58118391036987 1.45472586154938 1.23173499107361 0.886213481426239 0.827397584915161 0.992948114871979 1.12290966510773 1.12147796154022 1.06984376907349 1.01784384250641 0.971056818962097 0.908592402935028 0.836958348751068 0.772576689720154 0.727151572704315 0.608745157718658 0.68185293674469 3.19464826583862 -0.60105288028717 0.105731211602688 -1.45579087734222 -1.56754004955292 -1.59299647808075 -1.56138288974762 -1.54308331012726 0.162644237279892 0.754227876663208 0.557140171527863 0.180049359798431 -0.243193730711937 -0.377580106258392 -0.618865132331848 -0.49370464682579 -0.247242480516434 1.37279653549194 3.28714656829834 2.09077596664429 4.39918375015259 3.66918063163757 2.30094575881958 1.47012710571289 4.13205909729004 4.19818782806396 2.64957213401794 1.80293524265289 0.220323860645294 -1.12198340892792 -2.1328399181366 -2.40582418441772 -2.68684840202332 -2.98528242111206 -3.25588297843933 -3.15484189987183 -3.26602649688721 -3.42033338546753 -3.15312600135803 -1.88628005981445 -1.13238441944122 -1.2332079410553 -1.13795685768127 -1.03806793689728 -1.03191018104553 -1.09225845336914 -1.32578074932098 -1.75227570533752 -2.26198291778564 -2.65325474739075 -2.83912777900696 -2.98907852172852 -3.10321426391602 -3.26805305480957 -3.43881011009216 -3.59319043159485 -1.82847630977631 3.18673610687256 5.9736909866333 6.48356676101685 8.88899898529053 8.8815450668335 6.38979625701904 5.06852436065674 4.14782953262329 3.2912425994873 3.92407083511353 6.84255170822144 11.8289012908936 12.9518575668335 13.3824167251587 9.36392784118652 7.29955863952637 6.46359252929688 4.86519145965576 3.48780989646912 4.85179233551025 1.32525038719177 0.499107509851456 0.93064671754837 4.24971961975098 6.26245880126953 8.05900001525879 8.3889684677124 6.06162357330322 3.4823579788208 4.49932909011841 4.92416524887085 4.4122748374939 4.20347261428833
3.41484498977661 3.77126455307007 3.85416197776794 3.22111368179321 3.10303473472595 3.5042450428009 3.822594165802 4.28123044967651 4.11909151077271 4.07148694992065 3.43343997001648 3.40045762062073 3.61632776260376 3.79208898544312 4.19002819061279 5.71012783050537 7.89956092834473 6.38397836685181 4.53075456619263 3.17368626594543 2.24134421348572 1.59064781665802 1.82849168777466 2.14151906967163 2.53161263465881 2.68149590492249 2.79290509223938 2.87771320343018 2.87128829956055 2.56346225738525 2.47145342826843 2.48421835899353 2.47777652740479 2.36725807189941 2.52128648757935 2.75394797325134 2.66234636306763 2.2303147315979 2.07663559913635 2.17109370231628 2.28673315048218 2.49202585220337 2.72540950775146 2.78745365142822 2.92778253555298 2.96004796028137 2.88710498809814 2.75501608848572 2.54085922241211 2.23327851295471 2.30615568161011 1.6822692155838 1.59400510787964 1.73735320568085 1.85968637466431 2.01736664772034 2.22984457015991 2.3578519821167 2.42602252960205 2.42642378807068 2.27518963813782 2.10894918441772 1.88667380809784 1.72984516620636 1.60199522972107 1.42860436439514 1.2023857831955 0.852333188056946 0.742363691329956 0.824417054653168 0.893837153911591 0.893189013004303 0.911168277263641 0.921119749546051 0.922119498252869 1.05586862564087 1.11615753173828 1.43223822116852 0.905197978019714 0.686906516551971 0.487970381975174 2.1761577129364 6.62808322906494 1.63492202758789 -0.873458862304688 -1.6425154209137 -1.73902702331543 -1.75890624523163 -1.76506018638611 -1.42664301395416 -0.320700287818909 -0.979144096374512 -1.11980867385864 -0.57484769821167 -0.716861248016357 -0.890374004840851 -0.775281071662903 -0.474023312330246 0.131576538085938 2.54549264907837 2.21932935714722 5.16168928146362 3.9166567325592 4.74053335189819 4.71491765975952 5.15694856643677 4.03101587295532 2.72371077537537 1.90247058868408 0.456413954496384 -1.22352004051208 -2.35186719894409 -2.5347900390625 -3.03778839111328 -3.21760773658752 -3.38668775558472 -3.39755368232727 -3.40158605575562 -3.54081392288208 -3.49218487739563 -0.345649063587189 -1.33662509918213 -1.27250671386719 -1.37140142917633 -1.2805153131485 -1.37300193309784 -1.48308181762695 -1.61828410625458 -1.85457253456116 -2.3026180267334 -2.69813656806946 -2.98468565940857 -3.10562872886658 -3.2251250743866 -3.3690812587738 -3.5281970500946 -3.13201546669006 0.591364085674286 4.60122585296631 5.06997108459473 6.78559112548828 7.6411337852478 7.60217094421387 6.14221048355103 5.71819686889648 4.47799921035767 3.21854114532471 2.60043406486511 3.95566272735596 7.22065448760986 10.1864995956421 11.683177947998 11.9413576126099 8.34816265106201 6.09691524505615 4.60756492614746 3.17116522789001 2.03133463859558 0.718996167182922 0.745079636573792 7.33786058425903 5.83580303192139 6.46399688720703 8.36494255065918 10.0155553817749 8.75142288208008 6.36435794830322 7.42863941192627 8.15920734405518 7.67402935028076 7.65562963485718
3.49277949333191 3.70109391212463 3.44287323951721 5.19800090789795 4.25173044204712 3.11872506141663 3.53240013122559 4.18546390533447 4.26645565032959 3.44192290306091 3.32303619384766 3.63767170906067 5.20751142501831 6.71195840835571 5.42436361312866 3.86574268341064 3.65597081184387 4.11395835876465 3.75961494445801 3.17570638656616 2.11479687690735 1.58732545375824 1.55116403102875 1.87653338909149 2.20345759391785 2.42866158485413 2.56044554710388 2.62716126441956 2.57428312301636 2.28942346572876 2.21905755996704 2.37830877304077 2.43413138389587 2.31361722946167 2.28710865974426 2.60227847099304 2.53212904930115 2.23938965797424 2.01154279708862 2.1121973991394 2.16367697715759 2.28287196159363 2.43296241760254 2.54527735710144 2.63440442085266 2.69640040397644 2.51502823829651 2.3483350276947 2.12526392936707 1.96612656116486 1.76039850711823 1.50133752822876 1.31480967998505 1.46231043338776 1.63555765151978 1.88648498058319 2.07621812820435 2.21222734451294 2.35427260398865 2.36916923522949 2.20299983024597 1.99797439575195 1.83419346809387 1.69785487651825 1.56323945522308 1.39936780929565 1.18223106861115 0.844316363334656 0.730007231235504 0.765613794326782 0.80138897895813 0.786444127559662 0.79695463180542 0.829365491867065 0.806143224239349 0.799461662769318 0.751644492149353 0.75560736656189 0.707958459854126 0.992231667041779 1.67906272411346 1.9003084897995 12.4765634536743 9.93280410766602 2.76018261909485 0.61491197347641 -1.37746572494507 -1.90301597118378 -1.97007822990417 -2.07264256477356 -1.6825658082962 -1.49632465839386 -1.58429610729218 -0.930741727352142 -0.744264364242554 -0.868039608001709 -0.796373009681702 -0.647916197776794 -0.351996213197708 0.953488349914551 1.77588129043579 3.6994903087616 6.25687074661255 9.70380210876465 13.0340604782104 7.88208436965942 4.60205030441284 2.62237095832825 1.49355208873749 0.218295097351074 -1.4698737859726 -2.4430456161499 -2.7018415927887 -3.16829442977905 -3.38620948791504 -3.50818681716919 -3.55430507659912 -3.53053617477417 -3.57477593421936 -2.55590867996216 12.2372694015503 1.65363025665283 -1.47873651981354 -1.51619231700897 -1.52524316310883 -1.90241599082947 -1.92572283744812 -1.95698988437653 -2.05417275428772 -2.35951948165894 -2.3031280040741 -2.95388174057007 -3.19311881065369 -3.35361385345459 -3.51881265640259 -3.64188766479492 -1.88805484771729 0.155946493148804 0.40119069814682 2.42881536483765 4.2008056640625 3.72752475738525 4.76203775405884 6.19861650466919 5.67854642868042 4.74230098724365 3.969318151474 6.10067796707153 6.02127742767334 6.96867179870605 8.79998874664307 9.35007190704346 10.3515005111694 8.38148212432861 5.74356889724731 4.6901969909668 2.71289873123169 1.80233430862427 6.2520923614502 11.5937213897705 8.92704010009766 8.40458488464355 7.97468614578247 8.88775253295898 9.47585773468018 9.7874755859375 10.1992464065552 10.1211223602295 9.94194030761719 6.52620601654053 4.66020679473877
3.00628018379211 3.31738591194153 3.39638781547546 3.25654435157776 3.21277666091919 2.87592244148254 4.02031803131104 3.77919769287109 4.03695487976074 3.64564538002014 3.44132947921753 4.64074659347534 3.36410760879517 3.21198153495789 3.25282669067383 3.18580842018127 3.12729120254517 3.64655637741089 3.62019014358521 3.21438121795654 2.12638807296753 1.46832394599915 1.2272641658783 1.62395405769348 1.93730628490448 2.17365741729736 2.2516942024231 2.30848479270935 2.26216387748718 2.11125493049622 2.00415325164795 2.16664791107178 2.38301825523376 2.27981352806091 2.06260991096497 2.20826530456543 2.46649932861328 2.40453672409058 2.04086756706238 1.9958678483963 2.07821393013 2.18821787834167 2.23470640182495 2.28949427604675 2.33625054359436 2.31477546691895 2.21735453605652 2.04909658432007 2.12444424629211 1.72481870651245 1.54068374633789 1.24307656288147 1.15985548496246 1.34658455848694 1.556676030159 1.75866508483887 1.96025800704956 2.16212916374207 2.29749250411987 2.4010181427002 2.05248260498047 1.84298920631409 1.66696488857269 1.47713422775269 1.30443203449249 1.19934749603271 1.00853645801544 0.735101819038391 0.691003203392029 0.717201769351959 0.71336817741394 0.704164028167725 0.707856833934784 0.707649886608124 0.730330586433411 0.709917366504669 0.695522129535675 0.683894336223602 0.658784747123718 0.614223778247833 0.538039803504944 0.303380519151688 13.0703840255737 19.5278415679932 9.84283828735352 3.5423150062561 2.70866370201111 1.00150430202484 -2.10037851333618 -2.26467871665955 -2.36723709106445 -1.98522794246674 -1.61390447616577 -1.38234353065491 -1.41457188129425 -1.18850529193878 -1.01897251605988 -0.863448679447174 -0.720015048980713 1.00052094459534 4.1640682220459 6.10067796707153 11.330096244812 13.9012451171875 10.5957155227661 9.41035938262939 5.34754228591919 2.75254392623901 1.6884104013443 0.467536151409149 -1.20779502391815 -2.5173008441925 -2.8027446269989 1.16061818599701 -3.05290675163269 -3.55633735656738 -3.61837267875671 -3.62714576721191 -3.58891940116882 7.8259015083313 18.3999538421631 6.43797492980957 -1.69190871715546 -1.64389181137085 -1.86680853366852 -2.24866724014282 -2.28229355812073 -2.20059776306152 -2.14925837516785 -2.31781935691833 -2.64586186408997 -2.95436882972717 -3.30842351913452 -3.50900173187256 -3.68358063697815 -3.76909971237183 -3.81251811981201 -3.30173373222351 -0.638680577278137 0.751505494117737 1.11405074596405 2.32940101623535 2.20066428184509 3.87731194496155 5.16450691223145 4.92214441299438 5.19175386428833 6.60801315307617 8.66226863861084 8.53930759429932 7.67949867248535 8.0879487991333 8.20011138916016 8.16090106964111 5.76289129257202 4.32469797134399 2.758633852005 3.77359580993652 10.8319692611694 9.94274044036865 11.9066190719604 9.16831684112549 9.15867042541504 9.57855987548828 9.59434223175049 9.75893115997314 9.77898025512695 9.2917594909668 7.51092100143433 6.78242540359497 6.45541906356812
2.21117854118347 3.09095525741577 3.11747312545776 3.00561547279358 2.90034174919128 5.43788814544678 3.81965851783752 3.92208528518677 3.8036060333252 3.54162168502808 4.30824089050293 3.04811692237854 2.79309797286987 2.60087776184082 2.86746716499329 2.86978268623352 2.82173013687134 3.07101702690125 3.40030479431152 3.17651557922363 2.55779576301575 1.67064046859741 1.25441098213196 1.29871952533722 1.63498973846436 1.9058883190155 2.0253689289093 2.08229231834412 2.03644633293152 1.88865923881531 1.74543046951294 1.83445239067078 1.98997628688812 2.05672359466553 1.93168759346008 1.99963331222534 2.33791875839233 2.25317859649658 2.03070759773254 1.90696573257446 2.00231456756592 2.06312537193298 2.07528758049011 2.10872340202332 2.12335443496704 2.16302156448364 2.02787089347839 1.82843470573425 1.65623986721039 1.45860803127289 1.26606702804565 1.45843577384949 3.14301991462708 2.15541005134583 1.64719259738922 1.60087907314301 1.84417128562927 2.17944121360779 2.38713812828064 3.11795139312744 1.82076573371887 1.64385044574738 1.43086409568787 1.22323334217072 1.03810238838196 0.862792313098907 0.705319106578827 0.572555243968964 0.593855977058411 0.64701384305954 0.647520303726196 0.633649170398712 0.625131905078888 0.64620304107666 0.66308718919754 0.661222279071808 0.649921357631683 0.630151629447937 0.625165998935699 0.565378725528717 0.497837543487549 0.925956428050995 4.31465244293213 17.9189701080322 20.7694854736328 11.5446863174438 4.36887216567993 0.385626643896103 3.47113847732544 3.65021562576294 2.00594425201416 3.20125293731689 1.93193781375885 -0.138725325465202 -1.43146765232086 -1.47193193435669 -1.20742642879486 -1.17818939685822 -0.433818012475967 1.14445090293884 4.73117160797119 6.27547025680542 7.23509311676025 7.87269735336304 8.91316699981689 8.06561183929443 6.04334306716919 3.60354423522949 1.91612207889557 0.2625572681427 -1.14252984523773 -2.68674802780151 -2.93565893173218 -3.17455792427063 -3.39966559410095 -0.709784269332886 -0.664110541343689 -3.73980379104614 -3.06072568893433 6.05186128616333 16.9807605743408 8.14872550964355 -0.844296872615814 -1.78235578536987 -2.11991691589355 -2.33875370025635 -2.35240387916565 -2.3431556224823 -2.33252906799316 -2.4003643989563 -2.79296851158142 -3.10957646369934 -3.35870456695557 -3.58957529067993 -3.10390377044678 -3.26955509185791 -2.3995988368988 0.0103818876668811 -0.541372001171112 -0.546180367469788 1.09100091457367 2.28795409202576 5.15618801116943 5.51862573623657 5.70855522155762 5.4114670753479 7.12217950820923 8.21829891204834 8.09624195098877 7.42921495437622 6.20725202560425 7.63129186630249 7.82329320907593 7.57533168792725 6.31920337677002 9.4291353225708 14.6479053497314 17.1216068267822 12.0225715637207 10.9301195144653 10.9218797683716 9.0146484375 9.25151634216309 9.42969989776611 8.74860382080078 9.02239799499512 9.10881423950195 9.11850738525391 8.47422027587891 7.64270305633545 5.81909465789795
3.55369758605957 2.98535537719727 2.70471334457397 2.76658511161804 4.15185213088989 3.63568520545959 4.3487548828125 3.45880150794983 3.63042449951172 3.48939776420593 3.23510408401489 2.67042708396912 2.46526718139648 2.42042660713196 2.47254681587219 2.60167598724365 2.64563512802124 2.75066518783569 3.13040494918823 3.05974054336548 2.69463515281677 1.7373731136322 1.1972439289093 1.00349414348602 1.30550599098206 1.6018328666687 1.79709279537201 1.87003743648529 1.75222337245941 1.61879372596741 1.62493062019348 1.48885250091553 1.71795296669006 1.6574342250824 1.57703924179077 1.62367212772369 1.92310512065887 2.14577603340149 2.09265208244324 1.80278861522675 1.87957012653351 1.9182254076004 1.88950073719025 1.8588273525238 1.86763310432434 1.87681925296783 1.77296483516693 1.51676046848297 1.38013601303101 1.22182846069336 2.42248034477234 4.05152702331543 5.16742086410522 4.67830896377563 2.39908051490784 1.95482122898102 1.45234286785126 1.93145632743835 2.86398077011108 3.53891539573669 1.94383454322815 1.36938726902008 1.18609762191772 1.00242257118225 0.836840748786926 0.619063913822174 0.466115832328796 0.513557612895966 0.548340260982513 0.579139351844788 0.595163404941559 0.584230959415436 0.5754114985466 0.579293727874756 0.596397459506989 0.602083742618561 0.587662220001221 0.575941920280457 0.574718713760376 0.525924324989319 0.447757005691528 1.01384937763214 5.55415439605713 8.65814018249512 17.3201179504395 18.2069396972656 10.906590461731 7.3327808380127 11.5660333633423 12.3565807342529 11.6416387557983 12.6777782440186 9.3068962097168 7.75681686401367 6.34726524353027 2.66900587081909 1.50328946113586 -0.209904432296753 1.01148974895477 3.1742889881134 5.4755072593689 4.98985862731934 3.76548767089844 6.41315650939941 6.76027917861938 5.94734048843384 5.27828359603882 3.70991730690002 1.89211368560791 0.629014492034912 -1.416344165802 -2.94092631340027 -3.0940055847168 -3.24254107475281 -0.381774604320526 2.70165801048279 5.9907431602478 8.86604404449463 7.88440227508545 11.481143951416 13.7307739257812 11.3560094833374 2.88000130653381 -1.81553530693054 -1.00106728076935 1.54374086856842 2.74475455284119 2.15268182754517 -1.62962603569031 -2.53279137611389 -2.74727344512939 -3.02397322654724 -2.0992066860199 0.401171445846558 0.955919206142426 1.39420354366302 2.03055691719055 1.25914752483368 1.34920465946198 2.00867295265198 2.29128980636597 6.13125419616699 7.25587034225464 10.5060815811157 7.57586812973022 5.15464544296265 7.69424867630005 7.17507123947144 6.54130601882935 6.77527189254761 6.22570085525513 5.79449701309204 6.7330150604248 7.3923282623291 7.58471727371216 7.97521638870239 7.43078851699829 9.72513675689697 11.4007835388184 10.2073059082031 9.28612518310547 9.64128017425537 7.53488206863403 7.26957321166992 7.63666296005249 7.8702073097229 8.40204811096191 8.03254985809326 7.47590208053589 6.47338533401489 5.68143796920776
3.70050811767578 2.3924925327301 2.56361174583435 4.2491626739502 3.0235435962677 3.11817669868469 3.44636130332947 3.10036873817444 3.33589434623718 3.74775815010071 3.07336854934692 2.55295395851135 2.32852506637573 2.25885319709778 2.12293696403503 2.34467673301697 2.38757562637329 2.42942786216736 2.64634299278259 2.8706362247467 2.72031116485596 2.08752202987671 1.27023601531982 1.02236342430115 0.962680459022522 1.20032143592834 1.44524753093719 1.49758088588715 1.42724514007568 1.31951999664307 1.27005505561829 1.2772114276886 1.51184964179993 1.57146871089935 1.46251106262207 1.53349351882935 1.77714788913727 2.04573178291321 1.98728454113007 1.73711490631104 1.56925785541534 1.74183785915375 1.74804675579071 1.62988615036011 1.45741391181946 1.38445425033569 1.30307424068451 1.20538401603699 1.06815278530121 0.934387981891632 0.848739206790924 2.92820024490356 3.45618057250977 4.49224948883057 4.82016277313232 4.54061937332153 3.59003663063049 2.73712348937988 2.97797918319702 3.41488790512085 2.35607767105103 1.06729173660278 0.933058381080627 0.785200715065002 0.577697336673737 0.451970994472504 0.333821207284927 0.409283190965652 0.472952544689178 0.488870352506638 0.527445614337921 0.540327489376068 0.527787148952484 0.522863864898682 0.537162005901337 0.524778485298157 0.517714560031891 0.511465430259705 0.464812278747559 0.457971662282944 0.407621800899506 0.344392210245132 2.7029664516449 6.80895042419434 11.4849166870117 13.5010166168213 17.3855667114258 17.9795112609863 14.2039270401001 16.436767578125 18.0484962463379 15.0294075012207 15.9107532501221 15.5573263168335 15.0429124832153 11.2824144363403 9.00477981567383 4.86659240722656 5.25840854644775 3.17284679412842 2.69848227500916 4.03155946731567 4.09487009048462 2.99170541763306 4.76304817199707 5.36270236968994 4.56625986099243 3.75250005722046 2.11737442016602 1.63623225688934 1.93854188919067 -2.03686022758484 -0.707544326782227 3.09472370147705 6.14718914031982 6.78566217422485 8.49536418914795 15.7102327346802 13.1925535202026 15.4445209503174 14.9513683319092 11.6443948745728 5.83978939056396 -1.09727728366852 2.35860633850098 5.48276233673096 5.00891923904419 2.06733822822571 -1.90740406513214 -2.63996529579163 -0.176245644688606 4.35990858078003 5.67674589157104 5.73574352264404 5.15496873855591 4.44407653808594 3.37136459350586 2.37572765350342 2.35011315345764 1.23458158969879 3.8657751083374 5.23503684997559 8.28716564178467 10.2206907272339 7.77930593490601 6.75965070724487 6.64824485778809 5.94343614578247 6.295814037323 5.88165426254272 5.39995002746582 5.16642284393311 6.2351713180542 6.5686092376709 6.91483020782471 6.20135593414307 8.77527046203613 9.5824146270752 10.74147605896 9.35843276977539 9.29109573364258 8.59761047363281 7.21043539047241 6.76932811737061 6.59386157989502 6.81881237030029 7.29986619949341 7.33617734909058 6.93745756149292 6.48336553573608 5.84513998031616
2.9189338684082 2.35254335403442 2.81919193267822 2.99455714225769 3.17022800445557 2.77080631256104 2.77875566482544 2.77730298042297 3.09362244606018 3.50808811187744 2.88636612892151 2.49174904823303 2.26497507095337 2.11629986763 2.04969668388367 2.08250379562378 2.33151912689209 2.38084697723389 2.54615616798401 2.71519875526428 2.59655690193176 2.24040770530701 1.32462978363037 0.947306573390961 0.823572397232056 0.846129179000854 1.00347030162811 1.04878926277161 1.10873425006866 1.05128538608551 1.14428770542145 1.2355147600174 1.29627752304077 1.514524102211 1.47940289974213 1.41736268997192 1.64418876171112 1.95743417739868 1.91578805446625 1.76207101345062 1.38280999660492 1.32279598712921 1.34147751331329 1.31138288974762 1.22658455371857 1.11738502979279 0.998601973056793 0.898786723613739 0.741247713565826 0.738182306289673 0.782294929027557 2.35624718666077 3.07832431793213 3.1933000087738 3.25415515899658 3.78492903709412 4.27452945709229 4.12341690063477 3.53192257881165 2.59500074386597 1.85127317905426 1.02328670024872 0.597664535045624 0.460049510002136 0.393935918807983 0.239107206463814 0.268730401992798 0.346535950899124 0.419264376163483 0.456826627254486 0.48448982834816 0.500853419303894 0.480076760053635 0.469733476638794 0.466105937957764 0.465783685445786 0.431916117668152 0.372009307146072 0.343278020620346 0.346555382013321 0.378142148256302 0.331224709749222 0.960043489933014 4.49224948883057 8.09042835235596 13.0188636779785 12.3196096420288 15.4198083877563 16.3870525360107 13.9449234008789 17.1185626983643 19.0888996124268 16.6814823150635 15.193395614624 14.5929336547852 13.3404808044434 11.7089061737061 7.98831033706665 6.51341533660889 4.1199893951416 3.62220191955566 5.4676833152771 4.31432628631592 2.73477816581726 3.72543478012085 3.699871301651 4.0364670753479 3.47481060028076 2.41324543952942 1.50030422210693 1.62356567382812 6.26572513580322 7.13774013519287 8.72566986083984 8.28051376342773 9.40531158447266 10.2759809494019 12.0036487579346 14.3474349975586 15.4075756072998 12.9916200637817 9.94597053527832 8.58540821075439 2.08335375785828 3.76138186454773 4.01924419403076 4.7228684425354 4.42093849182129 -1.24027788639069 1.64158284664154 7.56059598922729 8.35343170166016 8.4247989654541 7.17741250991821 5.68656587600708 3.67486715316772 3.16069746017456 2.8270411491394 2.61158037185669 3.96437835693359 3.53905534744263 5.15389442443848 7.15188074111938 9.72574138641357 10.1586942672729 9.14185523986816 7.39813280105591 6.11095571517944 5.25657892227173 5.01777839660645 5.22134876251221 4.94474077224731 5.10944318771362 6.04595756530762 6.66879606246948 6.32833242416382 6.19949197769165 6.9863748550415 8.34611415863037 9.32525062561035 8.83523845672607 7.8508882522583 7.55025196075439 6.15975856781006 5.85742712020874 6.15859127044678 6.55477952957153 6.874436378479 6.52390098571777 5.79471921920776 5.24323034286499
2.59641218185425 2.18426036834717 2.53773975372314 3.08164143562317 2.65129446983337 2.60278940200806 2.59812927246094 2.49107313156128 2.72333765029907 3.14271116256714 3.11402750015259 2.52708053588867 2.20066738128662 2.01956653594971 1.94364011287689 1.83138167858124 2.14471673965454 2.20858716964722 2.23118185997009 2.53389644622803 2.47614312171936 2.11785006523132 1.6983585357666 1.08887732028961 0.806016504764557 0.683218657970428 0.658751428127289 0.677072644233704 0.808667480945587 0.942299485206604 1.04879176616669 1.12234771251678 1.16462349891663 1.35783219337463 1.43682372570038 1.34050405025482 1.39064991474152 1.64956617355347 1.87931418418884 1.83720219135284 1.57549929618835 1.18774998188019 0.987358152866364 0.998605728149414 0.912099838256836 0.806995272636414 0.657526254653931 0.617123067378998 0.555407345294952 0.561916589736938 0.834235012531281 2.38777589797974 4.28513526916504 4.5926342010498 3.46513628959656 3.57605409622192 3.72084355354309 3.45322203636169 2.79386687278748 1.95986759662628 1.30640971660614 0.348495811223984 0.256231665611267 0.201504305005074 0.100923761725426 0.148127615451813 0.16664357483387 0.286341369152069 0.34485712647438 0.38361731171608 0.40861576795578 0.432664841413498 0.424820393323898 0.412626773118973 0.392082333564758 0.342877864837646 0.311197102069855 0.30261966586113 0.279798746109009 0.272460341453552 0.32797783613205 0.317564755678177 0.280488938093185 2.76149082183838 4.606614112854 10.471625328064 14.8114414215088 15.7481260299683 16.5562534332275 18.290376663208 16.7147426605225 17.9830093383789 18.4241733551025 16.953197479248 16.0837497711182 15.0166521072388 12.0161371231079 10.0908536911011 8.13194465637207 5.0705246925354 3.28096508979797 2.64750361442566 2.06155371665955 1.55388653278351 1.76468932628632 3.09437012672424 3.52991104125977 3.09138464927673 2.54002857208252 1.37088894844055 4.64023113250732 6.80349540710449 7.81485414505005 9.73530769348145 12.5869102478027 10.7298059463501 11.0819292068481 11.1284847259521 13.0069522857666 13.5331048965454 13.3706340789795 10.2990388870239 9.27732849121094 4.78317737579346 3.39943408966064 4.58917331695557 3.47649383544922 3.73627257347107 7.59815263748169 7.56416654586792 8.64466953277588 7.68220853805542 7.89206886291504 8.01300716400146 5.67393207550049 4.30590486526489 3.35557317733765 2.74687027931213 3.87341713905334 5.96931314468384 4.78391456604004 5.49291324615479 7.97593259811401 9.45765686035156 10.1374616622925 10.5299634933472 7.81905174255371 6.03636503219604 5.38341999053955 5.06352949142456 5.05256509780884 4.86773252487183 5.02543115615845 5.83732271194458 6.42965650558472 6.12608337402344 5.32373142242432 6.49846839904785 8.02015495300293 8.78146839141846 7.83591508865356 7.7369236946106 7.17899894714355 6.21989917755127 5.81875610351562 5.71021747589111 5.95785522460938 6.22351694107056 5.85540676116943 5.63207674026489 5.21635580062866
2.31778860092163 1.82309448719025 2.33773231506348 2.41549825668335 2.44909191131592 2.39931440353394 2.40883278846741 2.41580629348755 2.5125846862793 2.80390024185181 3.06420135498047 2.50221014022827 2.14989113807678 1.98089170455933 1.85608470439911 1.76993834972382 1.9517434835434 1.99922573566437 2.03820443153381 2.18449068069458 2.35460901260376 2.18640565872192 1.52858972549438 0.941112160682678 0.673399746417999 0.550890207290649 0.571735143661499 0.628165006637573 0.765468299388885 0.881417155265808 0.931176006793976 1.03904628753662 1.1333464384079 1.17214691638947 1.3924252986908 1.37084245681763 1.30204546451569 1.53729569911957 1.82037627696991 1.76384449005127 1.59946095943451 1.24790799617767 1.0123199224472 0.827501833438873 0.600607693195343 0.6010901927948 0.638172805309296 0.798329174518585 0.631589353084564 0.421264588832855 0.727266788482666 1.48438704013824 3.51982021331787 5.05785369873047 4.8650426864624 3.8418550491333 3.36394572257996 3.37234401702881 3.02788782119751 1.9305145740509 0.98087602853775 0.187434375286102 -0.0790974348783493 -0.0941446051001549 0.0264717377722263 0.103502452373505 0.140787795186043 0.219554454088211 0.28208863735199 0.326781779527664 0.323722720146179 0.314510375261307 0.340274900197983 0.293857902288437 0.284344911575317 0.280334144830704 0.257244288921356 0.247751459479332 0.249431282281876 0.248863250017166 0.261370033025742 0.298389434814453 0.269520580768585 0.721339166164398 1.06851387023926 4.13531398773193 12.0015840530396 15.4352560043335 15.6525430679321 16.7102813720703 16.5969219207764 15.1234302520752 15.5405178070068 15.5001211166382 15.0840425491333 14.8656902313232 13.0248155593872 11.0027923583984 8.34799480438232 6.38954257965088 4.45074367523193 3.37400555610657 1.38366389274597 0.487234890460968 1.24611699581146 2.15160918235779 2.46535968780518 2.71745109558105 2.27416944503784 1.47040808200836 5.97458267211914 8.60589122772217 11.4135723114014 11.4363555908203 13.4438629150391 14.9975996017456 11.7229518890381 10.4658737182617 9.6923828125 11.6040058135986 11.6638431549072 10.2117443084717 8.80954360961914 7.37611293792725 4.01783084869385 6.07855415344238 5.73714971542358 5.52455759048462 7.9349799156189 10.9800682067871 6.85953998565674 8.68528079986572 9.9721097946167 7.96108150482178 8.22876453399658 8.30986022949219 8.53181266784668 8.68685626983643 10.4574642181396 8.09427165985107 10.4158992767334 9.4845609664917 10.3741445541382 10.5115737915039 10.594220161438 9.88082408905029 8.10014629364014 6.73520231246948 5.77974319458008 4.97470569610596 4.90448522567749 5.18579149246216 5.23882913589478 5.69248485565186 5.86673402786255 6.24246454238892 5.78647708892822 5.58444833755493 6.13181257247925 7.2785792350769 7.83896732330322 7.4261646270752 6.76249313354492 6.50810241699219 5.55752468109131 5.34381580352783 5.54294013977051 5.7474946975708 5.85777187347412 5.19961166381836 4.56701469421387
2.26171922683716 3.05316567420959 2.09498834609985 2.24273920059204 2.15914344787598 2.28516721725464 2.29267811775208 2.36718583106995 2.34114074707031 2.53009438514709 2.82606792449951 2.64688754081726 2.17407298088074 1.92439591884613 1.8155106306076 1.74451994895935 1.72693741321564 1.84877121448517 1.90981674194336 1.94680857658386 2.20648431777954 2.19033908843994 1.81115067005157 1.05322790145874 0.650644838809967 0.522815763950348 0.499417960643768 0.571825563907623 0.503987789154053 0.684686660766602 0.868097126483917 0.954975187778473 1.02382111549377 1.06369757652283 1.255242228508 1.35606181621552 1.26796591281891 1.29274308681488 1.49072802066803 1.69254910945892 1.64717614650726 1.40713882446289 1.06570374965668 0.794666349887848 1.23048794269562 0.877173662185669 0.563464164733887 0.525903046131134 0.60734498500824 0.611319720745087 0.60785037279129 0.96147745847702 1.81724524497986 3.78791785240173 5.38091611862183 4.83570671081543 3.56018233299255 3.22850513458252 2.73401188850403 1.99617147445679 1.25064253807068 0.519236981868744 0.00783951114863157 -0.137357920408249 -0.0440632589161396 0.0694702491164207 0.128088563680649 0.144919410347939 0.208080664277077 0.201947584748268 0.13866725564003 0.117504574358463 0.132245272397995 0.178172186017036 0.232573702931404 0.219807952642441 0.225420325994492 0.216448992490768 0.215268760919571 0.216347351670265 0.218723371624947 0.255768537521362 0.251394391059875 0.208282604813576 2.15506887435913 0.421374082565308 4.7354998588562 9.8949728012085 12.4633617401123 13.4449844360352 13.9492635726929 13.0829238891602 13.7211389541626 13.4326295852661 13.6290721893311 13.2834100723267 12.4621782302856 10.7237815856934 8.68234825134277 6.44802141189575 4.41289854049683 3.1905083656311 2.65626835823059 1.25491487979889 0.270573377609253 0.971760332584381 1.63376009464264 2.04656314849854 1.76542663574219 1.3203284740448 5.52122831344604 10.0812864303589 11.1744365692139 12.2647581100464 12.5153522491455 13.7206916809082 12.3261127471924 10.1548471450806 8.8445930480957 10.3212766647339 10.2753210067749 11.0760354995728 9.2060489654541 8.03738975524902 4.04342889785767 4.15952968597412 4.84669256210327 6.19574403762817 5.08143711090088 5.1619873046875 6.93098211288452 8.1820068359375 13.9861936569214 16.7865409851074 15.8851280212402 17.8252143859863 15.3696517944336 13.9336776733398 11.6756000518799 14.4580364227295 13.0455732345581 13.3577461242676 13.0491228103638 13.7169494628906 12.7993640899658 9.46248340606689 7.5359206199646 6.65890884399414 5.80544281005859 5.21468639373779 5.1203875541687 5.27035427093506 4.98139190673828 4.96006202697754 5.55066919326782 6.0239691734314 5.7639946937561 5.12838506698608 5.83521938323975 6.92633390426636 7.42707967758179 6.67557382583618 6.64501523971558 6.31173706054688 5.34486389160156 5.10239410400391 5.31489372253418 5.49832105636597 5.62294626235962 5.23421382904053 4.59367513656616
1.77060031890869 2.20019197463989 2.1611340045929 1.99348413944244 2.18063187599182 2.17233276367188 2.14772415161133 2.25715637207031 2.3242814540863 2.40691590309143 2.6245129108429 2.60543847084045 2.17702388763428 1.87211310863495 1.72169673442841 1.65472114086151 1.55344223976135 1.7196763753891 1.82045769691467 1.81893587112427 1.94412708282471 2.11475157737732 1.96459662914276 1.37144875526428 0.77382493019104 0.511924684047699 0.433934897184372 0.500734388828278 0.509530961513519 0.675995528697968 0.803131401538849 0.842155933380127 0.94526469707489 1.00705802440643 1.0911158323288 1.27792990207672 1.25008630752563 1.16179096698761 1.35907185077667 1.63343191146851 1.61801218986511 1.4939546585083 1.1844402551651 0.883862733840942 0.580184280872345 0.563074886798859 0.833483815193176 0.991903901100159 0.456387042999268 0.82944118976593 0.907983958721161 0.658865630626678 0.880642533302307 1.73346948623657 3.03680419921875 3.65984702110291 2.96399116516113 2.84291815757751 2.68145775794983 2.20740842819214 1.37688338756561 0.781147658824921 0.458264887332916 0.184164509177208 0.62736189365387 0.400964677333832 0.0850403010845184 0.111701339483261 0.127754390239716 0.125429093837738 0.0532399713993073 0.0698824599385262 0.00719012599438429 -0.0010779375443235 0.0667834430932999 0.187353223562241 0.190831154584885 0.181750804185867 0.176549807190895 0.186514854431152 0.194762632250786 0.208956390619278 0.224721565842628 0.17768032848835 5.84503602981567 7.60184335708618 5.06979465484619 7.26492309570312 10.0552911758423 11.5247926712036 11.820894241333 11.0795660018921 11.1335172653198 11.5593156814575 11.6169195175171 11.4256658554077 11.039324760437 10.3163414001465 8.85633945465088 6.4406852722168 4.8188362121582 2.64217138290405 3.95796132087708 3.15012907981873 -0.193848937749863 -1.07436370849609 -0.420881539583206 0.0440578646957874 0.695281207561493 0.976635634899139 3.49367666244507 5.39138269424438 7.5707893371582 10.574652671814 11.7784299850464 12.5841197967529 12.6331253051758 14.0333633422852 11.6492910385132 8.76467895507812 9.75345516204834 10.2622327804565 8.91125202178955 7.44262647628784 4.49605417251587 3.68836975097656 5.74488544464111 5.77084922790527 9.50242137908936 6.71318483352661 6.58620738983154 10.0577402114868 11.1811676025391 17.0266380310059 20.7126293182373 19.7180595397949 19.0111293792725 16.2257709503174 14.4150667190552 16.4102725982666 19.0932903289795 16.04518699646 15.7331647872925 14.9845972061157 12.5573625564575 9.20996952056885 8.61542415618896 7.3260931968689 6.35621976852417 5.54660987854004 4.95414352416992 4.92112302780151 4.69081592559814 4.69576835632324 5.29060935974121 5.44318437576294 5.82255172729492 5.4422812461853 4.99668598175049 5.4672966003418 6.35410737991333 6.71811771392822 6.5869312286377 6.3158392906189 5.6544189453125 5.31083726882935 5.12291955947876 5.18862438201904 5.27949523925781 5.39404392242432 4.75553846359253
1.60250341892242 2.06356239318848 2.00283575057983 1.95622622966766 2.10919499397278 1.99033737182617 2.12656140327454 2.16903400421143 2.23712944984436 2.34895205497742 2.42739868164062 2.52287626266479 2.29294919967651 1.87632846832275 1.68639802932739 1.60262858867645 1.53567945957184 1.50579369068146 1.64988875389099 1.67730414867401 1.71632862091064 1.9905788898468 2.00169277191162 1.64215779304504 0.92553973197937 0.55925178527832 0.428146541118622 0.40026006102562 0.451860904693604 1.3703351020813 0.670074820518494 0.78609436750412 0.861467659473419 0.953614056110382 0.99714469909668 1.11968731880188 1.19088995456696 1.12549662590027 1.17770898342133 1.38175272941589 1.57328867912292 1.52594232559204 1.29287672042847 0.974389851093292 0.706778764724731 0.486518919467926 0.503244280815125 0.505077958106995 1.80186533927917 1.49787437915802 0.488046199083328 0.374542504549026 0.391885310411453 0.987465620040894 1.84248268604279 2.41122126579285 2.46285057067871 2.63747954368591 2.47657251358032 2.11996126174927 1.53100836277008 1.38743197917938 0.659919321537018 0.904365956783295 1.74366652965546 1.06018173694611 0.0545663684606552 0.099566176533699 0.0984265208244324 0.069959320127964 -0.0175109673291445 -0.113213531672955 -0.185837835073471 -0.181528866291046 -0.137339174747467 0.0772490426898003 0.144944086670876 0.158041939139366 0.156672641634941 0.159075722098351 0.160173773765564 0.171248018741608 0.204737544059753 0.166618868708611 0.140869364142418 7.70261383056641 10.0307607650757 6.92935419082642 7.82015371322632 9.77624988555908 10.9210081100464 10.4338092803955 10.2796821594238 10.643027305603 10.5260066986084 10.544620513916 10.0474538803101 9.32518005371094 8.27661418914795 6.71495294570923 4.51274490356445 3.0652551651001 1.17387628555298 1.03610873222351 -0.122478768229485 -1.98349905014038 -1.97170639038086 -1.30336999893188 -0.40387761592865 0.592840075492859 2.5186071395874 4.75610780715942 6.03116369247437 7.48748207092285 10.1352052688599 10.9485702514648 11.5394773483276 11.1896152496338 11.3303318023682 11.4859790802002 9.86571788787842 9.84970283508301 9.36509037017822 7.38259601593018 6.20130920410156 3.45492339134216 3.63544034957886 5.40113115310669 6.86816310882568 10.0022659301758 12.5273551940918 10.7141914367676 10.651819229126 11.0044965744019 13.6392908096313 17.2246055603027 18.3934173583984 15.5566167831421 14.0000076293945 15.0832757949829 16.3505363464355 17.0643539428711 15.3604383468628 14.0091867446899 11.7047243118286 9.81956768035889 8.99034309387207 7.97511148452759 6.56759643554688 5.70469045639038 4.8428168296814 4.6928882598877 4.76220846176147 4.50587511062622 4.68079566955566 5.11829471588135 5.57532262802124 5.35173606872559 4.85192441940308 5.18465900421143 6.04776811599731 6.43829822540283 6.38167428970337 6.217369556427 6.04815006256104 5.21373414993286 4.93925333023071 5.01232624053955 5.06950044631958 5.13390922546387 4.76665878295898
1.82900857925415 1.75753927230835 2.09705257415771 2.08989000320435 1.80566954612732 2.05851769447327 2.07671523094177 2.02876281738281 2.09454941749573 2.16058588027954 2.31982707977295 2.44606065750122 2.23505067825317 1.81085312366486 1.62378215789795 1.50232648849487 1.43584024906158 1.35284388065338 1.49470150470734 1.59620213508606 1.61812210083008 1.76239347457886 1.93760228157043 1.80452120304108 1.23247992992401 0.708835065364838 0.453715592622757 0.360859394073486 0.393854677677155 0.475592374801636 0.481170415878296 0.711110949516296 0.800043404102325 0.806657671928406 0.902612447738647 1.06431567668915 1.1402599811554 1.08325088024139 1.07395112514496 1.24882876873016 1.48560082912445 1.46313381195068 1.34185826778412 1.0651615858078 0.761156857013702 0.429449588060379 0.484679490327835 0.488225370645523 0.492683172225952 0.661886155605316 2.35660171508789 0.633201062679291 0.304515212774277 0.262330919504166 0.773887991905212 1.53213000297546 1.88049507141113 2.24968123435974 2.22285747528076 2.07094621658325 1.65431547164917 1.73087155818939 1.01738631725311 1.31255638599396 1.67865645885468 1.13114356994629 0.172508433461189 0.0505755357444286 0.0381151586771011 -0.000452137988759205 -0.0803463384509087 -0.177282944321632 -0.256569594144821 -0.298412531614304 -0.258926868438721 0.018456457182765 0.126535952091217 0.13339065015316 0.131440922617912 0.126993343234062 0.14226122200489 0.159533217549324 0.183002829551697 0.167618930339813 0.122594617307186 1.41509604454041 4.23283100128174 4.4660849571228 6.14311361312866 7.39427375793457 8.29521179199219 8.32102966308594 8.81935119628906 9.16249084472656 9.2495756149292 9.35568523406982 8.85541915893555 8.25912475585938 7.65250110626221 6.49604558944702 4.64452838897705 3.30315089225769 0.931196451187134 -0.377953052520752 1.3767284154892 5.39181566238403 -0.236623734235764 1.30322122573853 -0.874280869960785 0.270517766475677 2.48404264450073 5.56309938430786 8.41787433624268 7.13568782806396 9.12477493286133 10.0045251846313 10.1922845840454 10.3249635696411 9.36832809448242 8.75716400146484 8.66901779174805 9.28549861907959 8.53955841064453 6.540602684021 6.33432245254517 4.16079998016357 3.18774461746216 4.74552583694458 3.97144770622253 4.8235239982605 7.65812826156616 10.8582153320312 9.42448139190674 9.07065486907959 10.5165853500366 12.8546152114868 13.458963394165 13.5495185852051 13.2951831817627 14.2346124649048 14.4171257019043 14.7285127639771 13.7139625549316 12.9133892059326 11.3817739486694 9.92837715148926 8.8621768951416 7.96991109848022 7.02506494522095 6.12318468093872 5.13280534744263 4.80034589767456 4.57997798919678 4.30212020874023 4.54292297363281 4.87187004089355 5.05278873443604 5.42468452453613 5.06364488601685 4.92089605331421 5.72978115081787 6.11507797241211 5.78087186813354 6.04440879821777 5.92864322662354 5.45065069198608 5.05161237716675 4.77597284317017 4.78800106048584 4.8128023147583 4.87352275848389
3.78213739395142 2.14505934715271 1.97863507270813 1.85793685913086 1.90824937820435 2.03869986534119 1.93028378486633 2.01747989654541 2.01941752433777 2.06532835960388 2.18426990509033 2.32640814781189 2.18196630477905 1.85764932632446 1.56206929683685 1.46949291229248 1.38550817966461 1.32338571548462 1.29928338527679 1.42943918704987 1.48653650283813 1.55186605453491 1.82512974739075 1.84585320949554 1.49201774597168 0.847700178623199 0.485214412212372 0.347858130931854 0.334705412387848 0.400724947452545 0.411079257726669 0.568431735038757 0.681712031364441 0.756676912307739 0.825069010257721 0.89272403717041 1.11920082569122 1.07928061485291 0.97284597158432 1.03973460197449 1.2313894033432 1.42019438743591 1.38043808937073 1.17709171772003 0.793607294559479 0.510564148426056 0.467130154371262 0.472089558839798 0.851921319961548 1.19229698181152 0.669563055038452 0.547969341278076 0.229873925447464 0.159482181072235 0.0862093344330788 0.61080664396286 1.20197749137878 1.63046896457672 1.88883423805237 1.86367344856262 1.59232783317566 1.19001662731171 1.19538283348083 0.951503694057465 0.742798268795013 0.701198816299438 0.244662135839462 0.00471753813326359 -0.00227756053209305 -0.0522408746182919 -0.11901468038559 -0.194474369287491 -0.262712925672531 -0.177898541092873 -0.215040668845177 2.2509024143219 0.404214560985565 0.0995853394269943 0.107032261788845 0.108929291367531 0.122541099786758 0.131709158420563 0.146383553743362 0.163171947002411 0.123722299933434 0.316193580627441 1.99838423728943 3.26337313652039 4.27394151687622 6.30837249755859 6.68094348907471 6.82650804519653 7.26167297363281 7.74217653274536 7.87428665161133 8.05601787567139 7.86207485198975 7.47696590423584 6.88592004776001 5.81620645523071 4.14699506759644 3.00318908691406 1.87462747097015 -0.414980411529541 1.5436589717865 18.7669715881348 21.5752391815186 20.0492496490479 16.4027061462402 6.07850170135498 5.28589773178101 5.30921745300293 7.10502862930298 9.38866424560547 8.90655422210693 8.63364791870117 8.89344882965088 9.16891098022461 8.62752532958984 8.1308069229126 8.10067462921143 8.6020450592041 7.61171674728394 6.65764045715332 5.90469646453857 5.51462125778198 3.06022143363953 4.11468505859375 9.286940574646 10.6674184799194 10.5145225524902 10.5376224517822 9.06425094604492 8.99969959259033 9.18659782409668 10.4508152008057 11.2068586349487 12.1087369918823 12.5249271392822 13.3541126251221 13.158465385437 13.0451040267944 12.6070718765259 11.8974704742432 11.0639343261719 9.88185596466064 8.92580795288086 8.22664165496826 7.19763231277466 6.26936340332031 5.38769674301147 4.85260581970215 4.57676839828491 4.55106353759766 4.30163383483887 4.5244836807251 4.86880159378052 5.26478433609009 4.99088573455811 4.55783176422119 4.65116739273071 5.30791616439819 5.58710050582886 5.67571258544922 5.62978649139404 5.53190135955811 4.84584951400757 4.60973405838013 4.68140697479248 4.71430826187134 4.69470834732056
1.4469518661499 1.48719918727875 1.68483293056488 1.99409580230713 1.81896042823792 1.70990681648254 1.97608506679535 1.98379969596863 1.96981728076935 1.98921370506287 1.96489119529724 2.16816234588623 2.14119005203247 1.96110963821411 1.59281587600708 1.42926383018494 1.29911684989929 1.24841153621674 1.18101322650909 1.45634710788727 1.43587672710419 1.45905768871307 1.61338543891907 1.77865934371948 1.6439642906189 1.11160385608673 0.614724457263947 0.374629616737366 0.291877746582031 0.306898385286331 0.331912934780121 0.456064492464066 0.606954991817474 0.695331215858459 0.71653014421463 0.773397028446198 0.907655537128448 1.05825054645538 1.00678813457489 1.01498508453369 1.18846094608307 1.37390565872192 1.34990251064301 1.16194140911102 0.889660000801086 0.643324613571167 0.41604208946228 0.856209754943848 0.486838519573212 0.447892189025879 0.354349613189697 0.301174253225327 0.764881134033203 0.132643908262253 0.0183237008750439 0.202885702252388 0.738144934177399 1.21898341178894 1.61206233501434 1.62266170978546 1.49500346183777 1.17543029785156 1.23742413520813 0.626199901103973 0.189772605895996 -0.0619565024971962 0.018111465498805 -0.0392952859401703 -0.0427582189440727 -0.0890949741005898 -0.168058827519417 -0.244761094450951 -0.292107671499252 -0.27125209569931 1.52722370624542 4.3784613609314 0.816103160381317 0.0890337005257607 0.0909882560372353 0.0885826498270035 0.10153716802597 0.116797149181366 0.129041314125061 0.146717488765717 0.130415409803391 0.132573738694191 0.824005484580994 2.53564596176147 2.88026189804077 4.62000036239624 5.03359937667847 5.60199117660522 5.47499847412109 5.88099765777588 6.24951791763306 6.63864660263062 6.85135793685913 6.68905258178711 6.2636833190918 5.67651748657227 4.5145320892334 2.89782214164734 2.96880030632019 8.44156074523926 8.33021640777588 12.3075084686279 22.2095336914062 21.8405475616455 20.1646499633789 14.266713142395 9.26191234588623 6.3421516418457 5.85679817199707 7.26097917556763 7.03293037414551 7.85026693344116 7.86670684814453 7.89290237426758 7.93905162811279 7.70748329162598 7.45272302627563 8.03739833831787 7.61423778533936 7.15809440612793 5.90747785568237 5.70133781433105 3.89579916000366 4.01957035064697 8.61011123657227 12.7934989929199 11.7531623840332 10.850679397583 10.3184690475464 11.7418098449707 11.1376714706421 10.5494871139526 9.72181606292725 10.3312196731567 11.8576364517212 12.5136613845825 12.2561979293823 11.4666261672974 11.3950223922729 11.1205291748047 10.3710308074951 9.79073143005371 9.11735725402832 8.2968053817749 7.26014137268066 6.29207563400269 5.65854072570801 5.36848926544189 6.23554277420044 6.02257442474365 5.47912120819092 5.22929573059082 4.81032037734985 4.90771102905273 5.16109704971313 4.7598237991333 4.4352068901062 5.04041862487793 5.26560878753662 5.0813889503479 5.30976819992065 5.22861814498901 4.90022420883179 4.62999486923218 4.46831512451172 4.48254203796387 4.47554492950439
1.25786626338959 1.58186590671539 2.02174353599548 2.94769692420959 2.25267744064331 1.79554760456085 1.84410655498505 1.89747548103333 1.85430073738098 1.89715659618378 1.91814172267914 2.04322338104248 2.06945300102234 1.93824887275696 1.68175160884857 1.40251266956329 1.30777859687805 1.22260808944702 1.16520917415619 1.21436750888824 1.4219229221344 1.42204618453979 1.56163322925568 1.7206746339798 1.58802843093872 1.346271276474 0.750492990016937 0.415496468544006 0.293194055557251 0.256845057010651 0.322082042694092 0.389951646327972 0.445103198289871 0.532457411289215 0.647139728069305 0.70582515001297 0.736294388771057 0.913468360900879 0.927314400672913 0.845734298229218 1.0326075553894 1.27150475978851 1.28849852085114 1.20472204685211 0.961196839809418 0.740404725074768 0.678916335105896 0.441556066274643 0.39249449968338 0.309368014335632 0.273939281702042 0.253301620483398 0.206051722168922 -0.00725293299183249 -0.15815831720829 -0.106358215212822 0.445289254188538 1.55913841724396 1.42011630535126 1.43253433704376 1.43425071239471 1.23214936256409 1.03336381912231 0.651770412921906 0.0922319144010544 -0.264022409915924 -0.17560775578022 -0.106338284909725 -0.0901720449328423 -0.134091049432755 -0.227631792426109 -0.326614260673523 -0.363288164138794 -0.332655519247055 2.39267134666443 4.994948387146 1.58375203609467 0.0709589496254921 0.0719921439886093 0.082529753446579 0.0915205478668213 0.104296833276749 0.11123551428318 0.121419414877892 0.128253042697906 0.250843912363052 0.557011723518372 1.27951371669769 2.07365012168884 2.70930671691895 3.20994925498962 3.45762538909912 3.8547465801239 4.35241842269897 5.09600162506104 5.72534942626953 6.03526973724365 5.98065376281738 5.64859104156494 5.13836288452148 4.07575607299805 2.64702224731445 1.85648739337921 7.58419370651245 10.9447689056396 10.306661605835 11.7912464141846 15.1783962249756 14.4012327194214 13.1335916519165 10.7674226760864 7.25599050521851 4.92599534988403 4.90133333206177 5.95445728302002 6.51216840744019 7.18576526641846 7.41502332687378 7.5904426574707 7.57262849807739 7.18830585479736 7.30607795715332 9.48878765106201 7.2301459312439 6.36422824859619 5.53215837478638 5.09289216995239 5.12606477737427 6.37383270263672 9.49034214019775 11.3769035339355 10.986572265625 10.492639541626 10.4890060424805 12.9211959838867 9.67930030822754 12.6497020721436 11.5180377960205 10.8679914474487 11.2468175888062 11.4213094711304 10.868709564209 10.6388454437256 10.0419359207153 10.0294399261475 9.87179756164551 9.13839340209961 8.24435234069824 7.99171113967896 6.90268087387085 6.03257703781128 5.90165996551514 6.43823528289795 6.99709606170654 7.38553142547607 6.7184796333313 5.59888458251953 4.85039567947388 5.05693817138672 4.65720319747925 4.1290488243103 4.18306016921997 4.59560203552246 4.82822465896606 4.89975309371948 4.89002752304077 4.80367851257324 4.28661870956421 4.17560434341431 4.24251079559326 4.27057504653931
3.95416831970215 5.2547492980957 4.41348314285278 3.02044916152954 2.18364429473877 1.76233160495758 1.75427258014679 1.76409268379211 1.86278188228607 1.81059849262238 1.85069382190704 1.83566451072693 1.97604203224182 1.88746964931488 1.76645863056183 1.43489849567413 1.29315710067749 1.1529712677002 1.10732305049896 1.05460679531097 1.28532195091248 1.30494749546051 1.36999619007111 1.61749339103699 1.63075470924377 1.29310727119446 0.995356321334839 0.535454452037811 0.322492122650146 0.222256630659103 0.2340197712183 0.272546082735062 0.344622313976288 0.454602092504501 0.576482653617859 0.627332091331482 0.67066901922226 0.751476645469666 0.849774122238159 0.81906521320343 0.807061493396759 0.973979771137238 1.14950370788574 1.1346675157547 0.981505870819092 0.75890177488327 0.537090599536896 0.262495934963226 0.245304301381111 0.260517865419388 0.233940407633781 0.175514414906502 0.121507816016674 1.85938513278961 2.19682312011719 0.547163486480713 0.0534006617963314 0.529045104980469 1.04946208000183 1.33599996566772 1.31660258769989 1.1870528459549 1.00271344184875 0.785085618495941 0.189526230096817 -0.332076847553253 -0.305235147476196 -0.237331211566925 -0.1618692278862 -0.188269481062889 -0.300686657428741 -0.384547710418701 -0.402221709489822 -0.364506959915161 2.52104806900024 4.3228120803833 2.46980142593384 0.320715606212616 0.0651464983820915 0.0741840675473213 0.0719935223460197 0.0835390686988831 0.0974702164530754 0.109146013855934 0.12392619997263 0.357227921485901 0.224630117416382 0.564346611499786 1.14244520664215 0.0425634905695915 0.542738974094391 1.2637038230896 1.61896693706512 2.09314513206482 3.18967890739441 4.01650619506836 4.6728777885437 5.07807397842407 4.96683406829834 4.65399360656738 4.16633272171021 3.18034362792969 2.01559138298035 1.62364757061005 5.35838508605957 6.89902353286743 8.2155294418335 10.9720182418823 11.5546684265137 11.0691747665405 10.5444717407227 7.96735858917236 5.07003974914551 3.86936020851135 4.49772882461548 5.83219718933105 6.72144508361816 7.0839581489563 7.30858325958252 7.29021453857422 8.43503761291504 7.33163166046143 7.69416236877441 8.16516971588135 6.94301795959473 5.79184341430664 7.73357343673706 6.01500129699707 6.66385507583618 8.11264133453369 10.6026973724365 11.0442132949829 12.2419681549072 10.775276184082 10.8500747680664 11.6362524032593 10.4817695617676 11.6521215438843 9.75875759124756 10.2929363250732 10.6111164093018 10.4687595367432 9.76552295684814 8.72371292114258 8.93306922912598 9.26483917236328 8.6939525604248 8.1883487701416 7.93344163894653 7.03101110458374 6.22976207733154 5.65793561935425 5.79122877120972 6.45506143569946 6.53901958465576 6.28426170349121 5.36071443557739 4.78545713424683 4.89303541183472 4.50142669677734 4.10285711288452 4.03670454025269 4.35602474212646 4.5214204788208 4.36896371841431 4.50969266891479 4.35449934005737 4.10097217559814 3.8428955078125 3.71824789047241 3.7468466758728
4.00410127639771 4.39162874221802 4.25189924240112 2.62087726593018 1.93742144107819 1.93153262138367 3.17087078094482 1.90003573894501 1.83790373802185 1.80014586448669 1.72889125347137 1.78724789619446 1.88686692714691 1.78496265411377 1.73532283306122 1.50370717048645 1.25438475608826 1.16906642913818 1.09357964992523 1.0438517332077 1.16980767250061 1.27723371982574 1.31215524673462 1.45301687717438 1.58992516994476 1.44474351406097 0.94800192117691 0.494716733694077 0.275649577379227 0.171853482723236 0.192419320344925 0.215484246611595 0.260450601577759 0.359074145555496 0.392835736274719 0.558096349239349 0.616561949253082 0.614608824253082 0.782551825046539 0.799676895141602 0.696504056453705 0.836341142654419 1.03588950634003 1.04721438884735 0.951557815074921 0.740025699138641 0.550655961036682 0.314814805984497 0.178424045443535 0.157505810260773 0.138956919312477 0.0954236164689064 0.0369464866816998 -0.0293108932673931 0.618231058120728 1.11593770980835 0.196486428380013 0.277898252010345 0.79792857170105 1.20897138118744 1.2151505947113 1.18259954452515 1.01508367061615 0.752146303653717 0.0972860455513 -0.540904343128204 -0.499664753675461 -0.410748541355133 -0.289628505706787 -0.238384827971458 -0.339099526405334 -0.428297460079193 -0.430477440357208 -0.388000518083572 1.63303506374359 2.8983736038208 2.48998475074768 1.00608277320862 0.0580399334430695 0.06102105230093 0.0657544508576393 0.0700475201010704 0.0819815620779991 0.0954895317554474 0.110311642289162 0.109520643949509 0.363607078790665 0.42802631855011 1.78397417068481 0.319526582956314 -0.998786449432373 -0.519965946674347 -0.248383194208145 0.592040181159973 1.16554045677185 2.44195699691772 3.24384140968323 3.72851872444153 4.10691261291504 4.08408117294312 3.78581237792969 2.99262428283691 2.06320548057556 1.54793846607208 2.94003677368164 5.01348400115967 5.58232498168945 8.65548515319824 10.5207357406616 9.55166625976562 9.15260696411133 7.17430734634399 5.11925029754639 3.40225434303284 3.64159774780273 5.02088356018066 6.06734609603882 6.71237325668335 7.08915519714355 7.30094623565674 7.9077091217041 7.69419479370117 7.21443700790405 7.80123138427734 9.70193099975586 6.35557746887207 7.11793279647827 7.22521448135376 5.74153089523315 7.05071401596069 8.87601089477539 10.2443447113037 10.2546443939209 10.1264390945435 9.51338481903076 10.1116733551025 11.9214296340942 9.12731456756592 9.43054294586182 10.1133718490601 10.3259181976318 10.1347379684448 9.27890110015869 8.11628913879395 8.08017921447754 8.39285469055176 8.54059410095215 8.1381311416626 7.71988773345947 7.61516332626343 6.63836240768433 5.77974319458008 5.36050367355347 5.4912543296814 5.58267593383789 5.29097366333008 4.81178331375122 4.58730506896973 4.47956657409668 4.59115982055664 4.19556474685669 3.75561785697937 3.80620837211609 3.94219493865967 4.02001094818115 3.89046764373779 3.80343413352966 3.71721196174622 3.275883436203 3.11500000953674 3.02546381950378
2.38483905792236 3.31961226463318 3.33738851547241 2.41459918022156 2.01085591316223 1.92465031147003 1.78053498268127 2.29997277259827 1.70155465602875 1.75567674636841 1.7338365316391 1.75455904006958 1.61723816394806 1.71986210346222 1.68809819221497 1.57374680042267 1.26610517501831 1.15140330791473 1.07667171955109 1.03103673458099 1.20651113986969 1.70111870765686 1.21563494205475 1.27837586402893 1.49703645706177 1.50658810138702 1.18515157699585 0.633477449417114 0.328755885362625 0.188187211751938 0.13043212890625 0.144526690244675 0.155183181166649 0.207693412899971 0.26607945561409 0.366648405790329 0.498334139585495 0.560817778110504 0.633551478385925 0.700481951236725 0.649176418781281 0.63013231754303 0.782030165195465 0.928996443748474 0.889617085456848 0.73496150970459 0.536880075931549 0.325098633766174 0.0195127166807652 0.0253655444830656 0.00898910500109196 -0.00674239592626691 -0.0475788116455078 -0.0921255573630333 -0.120142981410027 0.769809544086456 0.0418544486165047 0.0292100887745619 0.454921841621399 0.901311457157135 1.15971040725708 1.11516106128693 0.983999252319336 0.646369993686676 -0.0864469334483147 -0.595884919166565 -0.619589805603027 -0.528372406959534 -0.408283740282059 -0.306405305862427 -0.354578167200089 -0.441220462322235 -0.45451807975769 -0.161664873361588 1.50018203258514 1.90587270259857 2.07288646697998 1.56591784954071 0.128411173820496 0.0427075624465942 0.0540439262986183 0.0573692359030247 0.0745568871498108 0.0834820196032524 0.0978179350495338 0.103068672120571 0.168131455779076 0.165904834866524 3.59552025794983 8.36616134643555 0.150455057621002 -1.4248788356781 -1.2310574054718 -0.697257578372955 -0.0955914705991745 0.902933478355408 1.78851175308228 2.33513951301575 2.9842746257782 3.32555818557739 3.4171462059021 3.27550554275513 2.70741200447083 1.76312172412872 1.32829988002777 3.37549757957458 4.54444885253906 5.49576377868652 6.60300064086914 6.24891328811646 6.90696811676025 7.30563735961914 5.6525354385376 3.43457841873169 3.31800770759583 4.39220666885376 5.35321044921875 6.4897608757019 6.91528844833374 7.19520235061646 7.24646234512329 7.85530710220337 8.44137287139893 9.06615829467773 10.4167051315308 12.1828422546387 7.95160579681396 7.12982988357544 6.20818614959717 6.43964242935181 7.75901746749878 9.45378971099854 9.58225917816162 9.30284786224365 9.12649059295654 8.81657791137695 8.72044277191162 8.96299266815186 9.38577175140381 9.9681282043457 10.1172218322754 9.91991901397705 8.82663249969482 8.05532932281494 7.7216534614563 8.17730045318604 8.30884456634521 7.89337921142578 7.70316696166992 7.47603273391724 6.70156145095825 5.96849822998047 5.38385152816772 5.02798795700073 4.82866430282593 4.62426662445068 4.2637939453125 4.29677534103394 4.29125690460205 4.40326642990112 4.03944492340088 3.72918677330017 3.67155265808105 3.73505449295044 3.70359563827515 3.0232982635498 3.14442992210388 3.09940099716187 2.70851683616638 2.59024000167847 2.48546051979065
1.97466468811035 2.1908323764801 2.70237374305725 2.20406460762024 1.85599410533905 1.90932631492615 1.80894875526428 1.97262167930603 1.74921488761902 1.73286032676697 2.31870269775391 1.68379199504852 1.5919942855835 1.62249863147736 1.57925188541412 1.55264866352081 1.32912766933441 1.12440860271454 1.00780606269836 0.973404109477997 0.936543941497803 1.59681248664856 1.71321105957031 1.24412715435028 1.34930729866028 1.46669828891754 1.33497953414917 0.861297488212585 0.43611016869545 0.201327994465828 0.0947705209255219 0.110666252672672 0.122538395226002 0.178790584206581 0.238981112837791 0.274633049964905 0.432638376951218 0.468069136142731 0.45744514465332 0.610809743404388 0.635230541229248 0.534298717975616 0.63980096578598 0.810518741607666 0.808629035949707 0.708727478981018 0.487202793359756 0.310239344835281 0.0799678191542625 -0.118801914155483 -0.113667108118534 -0.121124051511288 -0.133396178483963 -0.147382572293282 -0.162832781672478 -0.125753775238991 0.519525587558746 0.0304600037634373 0.280144810676575 0.699305832386017 1.03403890132904 1.05872762203217 1.01735723018646 0.630342304706573 0.487499803304672 1.82020652294159 0.561983585357666 -0.598667502403259 -0.447184562683105 -0.351629197597504 -0.308653265237808 1.68190157413483 1.77206003665924 1.50140988826752 2.28703618049622 1.58829379081726 1.58820521831512 1.50934135913849 0.653858363628387 0.0327500775456429 0.0425275526940823 0.0515793599188328 0.063696525990963 0.0745176449418068 0.0871138721704483 0.0974781885743141 0.0937386453151703 0.230831831693649 1.3026477098465 14.530933380127 9.77578926086426 2.46807742118835 -1.3920921087265 -1.15155863761902 -0.537457406520844 0.0832876414060593 0.746030390262604 1.67199349403381 2.17498350143433 2.59918713569641 2.83451795578003 2.8724582195282 2.46460366249084 1.72330546379089 1.32674503326416 1.82615566253662 3.06929349899292 3.5459463596344 5.85037517547607 6.04336500167847 5.30558347702026 5.73360347747803 4.73218679428101 3.99080467224121 6.38315534591675 8.37394332885742 8.26068782806396 6.98526906967163 6.66008520126343 7.04238891601562 7.26186847686768 7.49601697921753 8.35182666778564 8.92396545410156 9.51911067962646 9.57477378845215 9.67295551300049 8.85849571228027 7.57648611068726 6.88078451156616 6.76223564147949 7.95398378372192 9.04715728759766 8.79912376403809 8.73290252685547 8.40619564056396 8.01630020141602 7.99450254440308 8.58271312713623 8.92404651641846 9.28961849212646 9.38133430480957 10.2376747131348 10.6247749328613 8.79656410217285 7.89967727661133 7.78858661651611 7.82203578948975 7.46516895294189 7.23085260391235 7.21742868423462 6.38944292068481 5.56018400192261 5.0708909034729 4.58633756637573 4.39409637451172 4.10872983932495 3.93973922729492 3.99494934082031 3.97005748748779 4.13802766799927 3.7930109500885 3.46527576446533 3.44552850723267 3.15038156509399 2.17007637023926 2.19151401519775 2.33898377418518 2.39693784713745 2.16117572784424 2.00352954864502
1.83550977706909 1.8271895647049 2.30838441848755 2.22874641418457 1.76934134960175 1.86837065219879 1.78145563602448 1.64185166358948 1.67141366004944 1.62589478492737 1.64515650272369 1.57973217964172 1.54227828979492 1.62600803375244 1.52894639968872 1.4759259223938 1.37714993953705 1.08965420722961 1.00796282291412 0.949033796787262 0.912477552890778 0.929236829280853 1.12944400310516 1.14909756183624 1.18943214416504 1.38260138034821 1.40034115314484 1.09463667869568 0.575859665870667 0.258293509483337 0.104958206415176 0.0685401409864426 0.0583856962621212 0.0769961103796959 0.183068886399269 0.265238881111145 0.342793673276901 0.385271310806274 0.374806076288223 0.455289721488953 0.541776359081268 0.474455237388611 0.467559486627579 0.590030610561371 0.714072704315186 0.652901351451874 0.483691960573196 0.29470083117485 0.0783172398805618 -0.2173672914505 -0.225902497768402 -0.215864390134811 -0.194233730435371 -0.188136890530586 -0.183500215411186 -0.184663325548172 0.340515851974487 -0.00424891989678144 0.0167091712355614 0.383001148700714 0.743638515472412 0.985484421253204 0.970310866832733 2.07373666763306 4.9639368057251 4.65176582336426 5.76872634887695 5.12908697128296 2.23300576210022 0.160290330648422 -0.369261801242828 2.89090800285339 4.61073970794678 4.50710201263428 3.82997345924377 2.96346044540405 1.57232344150543 1.25855028629303 1.08130574226379 0.0248302966356277 0.0258279833942652 0.0450107790529728 0.0542367175221443 0.0658577159047127 0.0761601477861404 0.089956670999527 0.0921537354588509 0.081611305475235 0.322832316160202 6.95592546463013 15.7224349975586 9.68556499481201 6.14956569671631 0.499383479356766 -0.848587810993195 -0.595794320106506 0.0507836528122425 0.988681197166443 1.66229689121246 2.23049664497375 2.40850305557251 2.4934389591217 2.23794889450073 1.88192594051361 1.30649745464325 1.120734333992 2.40930223464966 3.14748501777649 3.50044417381287 8.92137908935547 6.9432053565979 4.29355955123901 4.53405332565308 4.30744028091431 4.78853702545166 8.25714492797852 8.4898681640625 7.81229972839355 6.36976528167725 6.7873477935791 7.23627233505249 8.29520130157471 8.24494075775146 8.61630535125732 9.1753454208374 9.44532299041748 9.85702228546143 9.473557472229 8.72968673706055 7.52175092697144 6.47587871551514 7.1319580078125 8.04553699493408 8.14467811584473 8.29585456848145 7.84397029876709 7.53792905807495 7.43964910507202 7.94340944290161 8.62289333343506 9.13252735137939 9.25808143615723 10.2742357254028 12.5417261123657 10.3389492034912 7.58227682113647 7.61407423019409 7.49318552017212 7.27441215515137 7.23218965530396 7.09065914154053 6.35317182540894 5.61643171310425 4.97187757492065 4.45397710800171 4.22881889343262 4.14688062667847 3.82721161842346 3.83979320526123 3.75965046882629 3.94646620750427 3.65565276145935 3.40202856063843 3.33367609977722 2.98083066940308 7.29458713531494 1.82659184932709 1.95149326324463 1.9992858171463 1.83271872997284 1.7852041721344
1.76179361343384 1.74189805984497 1.65491008758545 2.00505948066711 2.08668327331543 2.53408145904541 2.79910469055176 1.64165842533112 1.4763947725296 1.60303223133087 1.52907705307007 1.45233821868896 1.47588241100311 1.45020115375519 1.52176737785339 1.46406638622284 1.30599844455719 1.06285202503204 0.977559328079224 0.879562139511108 0.847729921340942 0.817180097103119 0.97564709186554 1.12581837177277 1.15388691425323 1.25017929077148 1.36456823348999 1.2416867017746 0.790582418441772 0.376760870218277 0.146647125482559 0.050811767578125 0.0410488247871399 0.0479010604321957 0.100594595074654 0.175627470016479 0.251950919628143 0.272056579589844 0.291691690683365 0.338243126869202 0.42619925737381 0.420204818248749 0.355292111635208 0.455409526824951 0.613607585430145 0.613387584686279 0.507434010505676 0.279506951570511 0.0383475422859192 -0.276668012142181 -0.308093279600143 -0.297389835119247 -0.256169199943542 -0.21922542154789 -0.201492980122566 -0.206859350204468 -0.169821456074715 0.357272237539291 0.0138045446947217 0.230833023786545 0.689210772514343 0.930311620235443 0.946994721889496 1.78576195240021 4.42402076721191 6.16012525558472 4.07960748672485 4.73379039764404 4.69391679763794 1.163081407547 -0.0233865659683943 1.44219028949738 3.2543420791626 4.73371553421021 4.93814134597778 4.02581834793091 2.2441074848175 1.20589709281921 1.07601094245911 0.0303286593407393 0.019140250980854 0.0241829976439476 0.0384500697255135 0.0586555115878582 0.0718801319599152 0.0823055803775787 0.0873033404350281 0.0809478759765625 0.0693958699703217 4.82472038269043 15.2782688140869 12.1018953323364 8.78521060943604 3.63198447227478 -0.160126537084579 -0.822623729705811 -0.161717340350151 0.601758599281311 1.5180116891861 2.10524225234985 2.23994851112366 2.22765469551086 1.95296633243561 1.4284942150116 1.0572282075882 1.00923109054565 1.31930434703827 2.10786056518555 2.30866265296936 4.08103227615356 4.6558690071106 3.43011426925659 3.7411835193634 3.8495557308197 4.76821374893188 6.80736398696899 6.56366395950317 5.94535493850708 5.7466402053833 6.12575435638428 6.56883430480957 6.97737741470337 7.2928261756897 8.09578990936279 8.46455192565918 8.73594284057617 9.03135204315186 9.14620208740234 8.82890129089355 7.86176872253418 6.82874488830566 6.37455987930298 7.03087568283081 7.61717748641968 7.38686656951904 7.52072381973267 7.17072486877441 6.97339725494385 7.13109254837036 7.70251989364624 8.15985679626465 8.59084987640381 8.6788387298584 8.58611583709717 9.0486536026001 8.08625030517578 7.45857000350952 7.21819448471069 7.18040943145752 6.99025821685791 6.85722160339355 6.31154251098633 5.68795394897461 5.01019096374512 4.48342275619507 4.1680850982666 4.02308988571167 3.78667855262756 3.84667181968689 3.62922167778015 3.59897971153259 3.78806972503662 3.48792767524719 3.28184986114502 3.71945977210999 11.1381454467773 12.2646408081055 8.94625473022461 4.05552339553833 2.01356053352356 1.81197559833527
1.65726828575134 1.60274124145508 1.50725150108337 1.77073192596436 1.77085018157959 3.16199135780334 1.86612117290497 1.60070502758026 1.55511426925659 1.5203253030777 1.39416813850403 1.44654488563538 1.42975282669067 1.40184533596039 1.48066914081573 1.38264012336731 1.32082378864288 1.10401046276093 0.918573379516602 0.863514184951782 0.810311853885651 0.77903413772583 0.803909361362457 0.987552046775818 1.04897379875183 1.0948052406311 1.28188836574554 1.30483520030975 1.00847256183624 0.497015535831451 0.207600325345993 0.0635563507676125 0.00190990080591291 0.00308330380357802 0.0293222777545452 0.100439265370369 0.134846597909927 0.192654997110367 0.207109868526459 0.203788220882416 0.304761916399002 0.351005166769028 0.281904250383377 0.305547386407852 0.422660499811172 0.543103277683258 0.480412900447845 0.306401908397675 0.0506009869277477 -0.160264074802399 -0.371112823486328 -0.346774280071259 -0.316056162118912 -0.262909650802612 -0.225261852145195 0.183499231934547 0.458936840295792 0.24311962723732 -0.0428442023694515 0.162063226103783 0.52433830499649 0.809011518955231 0.882243931293488 0.825077533721924 1.46086573600769 2.01013684272766 3.20134449005127 3.8879930973053 4.08058929443359 2.29003500938416 1.33557915687561 1.81451261043549 3.09352469444275 4.43440532684326 4.37193155288696 3.50913333892822 2.32373213768005 1.2290278673172 0.950216770172119 0.423316568136215 0.022881131619215 0.110403038561344 0.0286512095481157 0.0410309657454491 0.0615289732813835 0.0760434344410896 0.0827606171369553 0.0790024027228355 0.0670252740383148 2.10525012016296 13.759373664856 9.8777379989624 7.65856790542603 7.12111568450928 6.14754009246826 2.14250540733337 1.69888031482697 0.157151892781258 2.14099025726318 2.05388116836548 2.17215204238892 2.25676202774048 5.58650875091553 7.69283437728882 3.33686780929565 1.08851182460785 0.984727740287781 1.95885837078094 2.32662725448608 3.82594633102417 4.3530387878418 3.19097137451172 3.54669761657715 4.52348661422729 5.62207078933716 5.60482025146484 6.01905536651611 5.3818507194519 5.09304428100586 5.61898612976074 5.94400691986084 6.35397720336914 6.73396253585815 7.13900184631348 7.64170551300049 8.01669502258301 8.49363136291504 8.94468116760254 8.33452320098877 7.91670083999634 7.14212512969971 6.21641254425049 6.62738513946533 7.10293436050415 6.95563459396362 7.20641279220581 7.01051998138428 6.79024410247803 6.76509618759155 7.29706478118896 7.89980173110962 8.35254096984863 8.48099517822266 8.38106441497803 8.08208274841309 8.36406230926514 7.32736444473267 7.25334405899048 6.98544597625732 6.79946279525757 6.63569211959839 6.50981378555298 5.68066835403442 4.93334293365479 4.56193208694458 4.13289833068848 3.8977677822113 3.82798504829407 3.82289743423462 5.31162261962891 4.46092700958252 3.77482199668884 3.44854331016541 3.27176451683044 4.71461915969849 10.0379133224487 13.4088134765625 13.0653295516968 15.0648746490479 11.1708345413208 6.75104284286499
1.42729234695435 1.50032699108124 1.4708000421524 1.39353346824646 1.67499566078186 2.41286110877991 1.63354885578156 2.18233704566956 1.48729813098907 1.32930433750153 1.43545591831207 1.40875816345215 1.38405203819275 1.35547244548798 1.30572879314423 1.35376739501953 1.27545475959778 1.1532427072525 0.921058654785156 0.825143873691559 0.741064429283142 0.715164542198181 0.69098025560379 0.908388614654541 1.01342570781708 1.05896067619324 1.16362357139587 1.28154706954956 1.1431896686554 0.685661852359772 0.30343171954155 0.0993224456906319 -0.0129629569128156 -0.0328550189733505 -0.0515302605926991 -0.0102285528555512 0.0611636191606522 0.11140213906765 0.116573624312878 0.144109144806862 0.175004675984383 0.260642617940903 0.26218968629837 0.219454646110535 0.347000986337662 0.468323260545731 0.413319557905197 0.253923237323761 0.0933402553200722 -0.0868266299366951 -0.178950369358063 -0.185206770896912 -0.315726697444916 -0.165645286440849 0.669901728630066 1.15764153003693 1.32968330383301 1.20875179767609 0.282822161912918 -0.00594226457178593 0.461902022361755 1.97860193252563 0.815996170043945 0.743128836154938 0.539788484573364 0.590088486671448 1.79818332195282 2.48498773574829 3.37095284461975 3.41161704063416 3.78060054779053 3.12508988380432 3.57450389862061 3.47155237197876 3.52399253845215 3.18061828613281 2.24014043807983 1.34285807609558 0.858265817165375 0.755751073360443 0.00419336836785078 0.0125271631404757 0.084585003554821 0.0296807270497084 0.0427102707326412 0.0638847500085831 0.074702575802803 0.0725799947977066 0.0664417818188667 0.825821936130524 13.3863849639893 16.3572254180908 9.12079429626465 7.97940969467163 8.11138248443604 10.6152744293213 6.66055059432983 3.56286311149597 3.5258002281189 2.31071352958679 2.42955183982849 3.08205628395081 5.68687725067139 8.13529300689697 7.6898512840271 4.66555881500244 3.1586377620697 5.85758113861084 3.72227549552917 4.22856664657593 3.34476375579834 3.61753511428833 3.22718048095703 6.74444484710693 6.04784965515137 4.85682153701782 5.14652967453003 4.64121246337891 4.69203948974609 5.16719818115234 5.61303758621216 6.0337553024292 6.45833110809326 6.838791847229 7.08429765701294 7.43877124786377 7.54604434967041 8.00273513793945 7.91092252731323 7.41733312606812 6.98074293136597 6.03941631317139 5.95602369308472 6.27110290527344 6.45310115814209 6.57023477554321 6.72151517868042 6.55408334732056 6.56712770462036 6.71316003799438 7.09751319885254 7.52841520309448 7.92093896865845 8.00799751281738 7.94702577590942 7.69672012329102 7.32732391357422 7.18209838867188 6.87303829193115 6.75218868255615 6.52780866622925 6.28883647918701 5.60144710540771 5.12043523788452 4.61078548431396 4.18273496627808 3.85182762145996 3.74252438545227 3.61808657646179 4.61021041870117 4.97897243499756 3.64042782783508 3.68569564819336 3.71988153457642 4.39429473876953 5.61254072189331 11.5904579162598 13.064266204834 10.8774003982544 10.331280708313 8.78877258300781
