NCOLS 171
NROWS 32
XLLCORNER 354032
YLLCORNER 6699056
CELLSIZE 16 
NODATA_value -3.4e+38 
0.385436415672302 0.279620170593262 0.254061430692673 0.199449315667152 0.379363656044006 0.674142718315125 0.202685013413429 -0.195520237088203 -0.639561235904694 -0.728338360786438 0.0635617151856422 -0.950060546398163 -1.11260426044464 -1.13262569904327 -1.2085645198822 -1.2465945482254 -1.27365791797638 -1.23997533321381 -1.1648930311203 -1.08770430088043 -1.00518071651459 -0.920753121376038 -0.852838635444641 -0.758940875530243 -0.666495144367218 -0.529941022396088 -0.17860996723175 -0.155133202672005 0.50934112071991 -0.851419687271118 0.95956552028656 3.49004292488098 1.5261105298996 0.666021287441254 0.844577193260193 1.08082020282745 1.48880183696747 2.05749869346619 1.97707307338715 1.29065930843353 0.417814522981644 -0.153327897191048 -0.334739983081818 -0.366164743900299 -0.452891886234283 -0.443393915891647 -0.184753000736237 -0.191698461771011 -0.360435992479324 -0.421462804079056 -0.429955542087555 -0.0672212913632393 0.387623637914658 0.00566876260563731 -0.118592038750648 0.836071014404297 1.13765466213226 0.981432616710663 0.414864748716354 0.349705845117569 1.58859527111053 0.331916153430939 -0.312655627727509 0.180207118391991 0.101106390357018 0.683041512966156 1.04745233058929 1.36483490467072 1.52284181118011 3.30250453948975 2.12329816818237 1.10808777809143 0.850384473800659 1.78502440452576 3.0812840461731 3.72134184837341 3.70852780342102 2.88558650016785 1.90540659427643 0.857813358306885 0.0228849221020937 -0.480244427919388 -0.555587589740753 -0.079422265291214 -0.695232510566711 -2.11339998245239 -1.77839243412018 0.732197403907776 0.928544163703918 1.92985355854034 3.09380459785461 -0.74303150177002 -1.75839293003082 -1.76503908634186 0.756276607513428 1.24445593357086 0.581024289131165 0.318747967481613 0.66828453540802 1.79967224597931 3.13915205001831 1.99728393554688 2.08897519111633 4.29180479049683 4.42130517959595 3.86467361450195 3.85547065734863 4.42716121673584 5.50475358963013 6.01227951049805 7.07024049758911 7.98580026626587 6.3675856590271 4.34607172012329 2.35641193389893 2.25795984268188 2.00600576400757 2.27217960357666 3.5919017791748 5.01792049407959 7.68298673629761 8.24377632141113 7.8075065612793 9.77113246917725 8.97957706451416 10.0550394058228 11.213324546814 11.1412258148193 10.256085395813 9.56335258483887 9.13393783569336 11.7906045913696 12.3690547943115 11.3229122161865 10.9647569656372 8.82026290893555 7.99053907394409 7.24805974960327 7.24953889846802 7.86943054199219 7.31467151641846 5.54794216156006 4.31689977645874 3.8074312210083 4.25860738754272 3.96741008758545 6.09119653701782 8.66279983520508 8.41152477264404 6.17448902130127 5.37450265884399 2.9080286026001 2.54713988304138 2.54712653160095 2.54750561714172 2.45521402359009 2.28533053398132 1.78621172904968 1.65575504302979 1.69410991668701 1.73829817771912 1.88175141811371 2.17798256874084 2.42871761322021 2.63837027549744 2.77896308898926 3.23015069961548 4.23945808410645 5.7027382850647 6.20793771743774 6.2775182723999
0.310063451528549 0.205552160739899 0.110384434461594 0.0722389295697212 0.0282533951103687 0.0335498861968517 -0.238686412572861 -0.311651617288589 -0.30710968375206 -0.750972390174866 -0.037422601133585 -0.593699753284454 -0.565917432308197 -1.22166347503662 -1.26623284816742 -1.330442070961 -1.35299634933472 -1.32763123512268 -1.26165997982025 -1.18043005466461 -1.10691750049591 -1.02096652984619 -0.926992356777191 -0.821506559848785 -0.734937310218811 -0.57703971862793 -0.225300818681717 -0.197634488344193 0.301980346441269 1.89071571826935 1.74580228328705 1.70515859127045 1.84044861793518 0.570713877677917 0.471046715974808 0.77363383769989 1.16271603107452 1.52144801616669 1.68306422233582 1.0678848028183 0.233264490962029 -0.356668561697006 -0.4053855240345 -0.458627492189407 -0.600669324398041 -0.825526118278503 -0.58990889787674 -0.622640013694763 -0.774918437004089 -0.85442316532135 -0.857331573963165 -0.947522580623627 -1.08336210250854 -1.22446513175964 -1.53631901741028 -0.567595660686493 -0.164871856570244 0.406549364328384 0.327804416418076 0.327741205692291 -0.0145756229758263 0.103559218347073 1.48332226276398 3.91108202934265 3.69402170181274 1.24524796009064 1.00918829441071 1.28165066242218 1.4336599111557 2.02826499938965 1.49026238918304 1.07613921165466 0.604953944683075 1.42816305160522 2.23415184020996 2.49360346794128 2.3454155921936 1.47776079177856 0.0754858180880547 -1.78144156932831 -2.96843552589417 -3.2129967212677 -3.25411367416382 -2.28854942321777 -1.71447479724884 -2.48420572280884 -1.39829921722412 -1.13130116462708 0.856654405593872 1.21843791007996 2.65033864974976 -0.406900197267532 -1.84836673736572 -2.1117947101593 -2.48970985412598 -2.69860816001892 0.112971179187298 1.82446432113647 0.373777002096176 1.41529512405396 1.9676525592804 4.50560855865479 6.47547483444214 5.35509395599365 3.65785098075867 3.37263584136963 3.74699592590332 4.17841958999634 4.52877998352051 5.29234981536865 6.09656190872192 6.1472315788269 5.1373291015625 3.68025040626526 2.44015574455261 2.06640291213989 1.5698002576828 2.08682465553284 2.69071221351624 4.48815774917603 6.09126424789429 10.524320602417 10.7632436752319 9.7386646270752 9.84091091156006 10.1685056686401 10.3853492736816 10.744686126709 10.0944499969482 9.47547054290771 8.41082096099854 8.37308788299561 10.2102098464966 10.7756299972534 9.81633472442627 7.77613353729248 6.99980974197388 5.86590576171875 6.22674894332886 6.9344220161438 7.17546701431274 5.8268871307373 4.98964166641235 3.67941617965698 4.13360023498535 3.86610722541809 3.73108816146851 5.5019359588623 6.08156299591064 5.83172941207886 4.13761520385742 2.58823943138123 2.43656611442566 2.44831204414368 2.48006248474121 3.02307462692261 5.31741952896118 10.6573657989502 4.76207685470581 1.5497875213623 1.58485472202301 1.75212669372559 1.8735203742981 2.15687370300293 2.38619780540466 2.57814192771912 3.01470708847046 3.83413600921631 5.24235010147095 5.86142110824585 6.01056098937988
0.25527286529541 0.162001356482506 0.0747312158346176 -0.00425466522574425 -0.100595384836197 -0.241849184036255 -0.413036227226257 -0.19297944009304 -0.21897479891777 -0.777822971343994 -0.340658515691757 0.730654001235962 -0.626255571842194 -1.26693212985992 -1.31887543201447 -1.37235224246979 -1.41115832328796 -1.40683627128601 -1.35183155536652 -1.26859676837921 -1.17573356628418 -1.09376227855682 -0.99476170539856 -0.898865759372711 -0.800219237804413 -0.599190056324005 -0.261332511901855 -0.243662148714066 -0.290840625762939 2.61127066612244 2.30919694900513 1.47554755210876 1.21293067932129 0.471377968788147 0.338745713233948 0.654701590538025 0.939569711685181 1.27937996387482 1.34997653961182 0.726158022880554 0.163977324962616 -0.449520468711853 -0.536073446273804 -0.669648885726929 -0.827461898326874 -1.08529961109161 -0.976864755153656 -0.992090702056885 -1.15842688083649 -1.23820006847382 -1.1341964006424 -1.296959400177 -1.50806891918182 -1.63907539844513 -1.8352438211441 -1.77594137191772 -1.28119623661041 -0.951490342617035 -0.183148816227913 0.196172848343849 -0.188566982746124 0.376802444458008 1.59244453907013 3.12696242332458 3.38411998748779 3.18041729927063 1.00774836540222 1.22708773612976 1.37102818489075 1.48767864704132 1.42362380027771 0.9972003698349 0.399276196956635 0.386286854743958 0.605463922023773 0.654890596866608 -0.146310746669769 -1.04777598381042 -2.17403483390808 -3.14418745040894 -3.53472590446472 -3.65397310256958 -3.62983059883118 -3.47064137458801 -2.96447944641113 -2.69692492485046 -2.38969874382019 -1.50568795204163 0.596666216850281 3.05072736740112 3.04383850097656 -0.964138150215149 -1.95419788360596 -2.51210904121399 -3.02824544906616 -1.06650650501251 -0.217963948845863 1.30907845497131 4.21265697479248 3.61500453948975 4.28974008560181 6.5627179145813 7.67083168029785 6.09044027328491 4.27116918563843 3.30754113197327 3.75235033035278 4.16235589981079 3.94591188430786 4.85203838348389 5.19052267074585 5.10446071624756 4.14882183074951 3.28863286972046 3.60096287727356 2.22268462181091 1.4556850194931 1.60724115371704 2.1224672794342 4.00925064086914 5.85962009429932 9.49850177764893 12.2355098724365 12.0297069549561 11.4923648834229 10.7512245178223 9.83519077301025 10.7733125686646 9.66884136199951 9.16320705413818 8.79798698425293 7.78074502944946 9.22298049926758 9.4722318649292 8.82533073425293 6.85708332061768 6.46745109558105 8.27406597137451 6.20032548904419 6.44786262512207 6.57389307022095 6.17741584777832 6.04397344589233 4.64501094818115 4.04396438598633 3.75365734100342 3.27772879600525 4.4438624382019 4.85110235214233 4.30802822113037 3.22321319580078 2.46940159797668 2.31471133232117 2.33781456947327 2.33473420143127 2.35726284980774 4.25409412384033 9.1921329498291 11.8620576858521 7.88874483108521 3.0468316078186 1.72399854660034 1.78202927112579 1.98927640914917 2.19261837005615 2.38612055778503 2.56631803512573 3.20877408981323 4.23383235931396 5.42135667800903 5.67880010604858
0.193728640675545 0.109442129731178 0.0216415598988533 -0.0636513158679008 -0.13727080821991 -0.278776347637177 -0.423773318529129 -0.495415419340134 -0.309233814477921 -0.442846983671188 -0.590483069419861 0.0152176609262824 -0.868665218353271 -1.21456718444824 -1.38095390796661 -1.42228364944458 -1.45142388343811 -1.46978545188904 -1.44153654575348 -1.36801636219025 -1.26212787628174 -1.1751207113266 -1.0829108953476 -0.972250401973724 -0.883521258831024 -0.702884256839752 -0.348840832710266 -0.281485140323639 -0.485410064458847 0.121303975582123 0.710081100463867 1.042121052742 0.900465250015259 0.33033749461174 0.200474306941032 0.429314345121384 0.638795495033264 0.945699155330658 0.923505783081055 0.595853507518768 -0.0620990470051765 -0.785092711448669 -0.781120955944061 -0.81814706325531 -0.89193332195282 -1.22865498065948 -1.24721550941467 -1.35179615020752 -1.5411913394928 -1.69428181648254 -1.53590059280396 -1.72529745101929 -2.00952363014221 -2.17246294021606 -2.23652267456055 -2.16091704368591 -1.79906940460205 -1.43269801139832 -0.79388552904129 -0.332825094461441 -0.366607844829559 -0.243108823895454 0.628133654594421 1.00785434246063 2.31395030021667 2.99363541603088 1.65774953365326 1.07518076896667 1.27715921401978 1.40045702457428 1.30068063735962 1.05303037166595 0.605896592140198 -0.185299754142761 -0.460124611854553 -0.262995660305023 -1.39382803440094 -2.24670147895813 -2.97567319869995 -3.5210587978363 -3.72397136688232 -3.7693247795105 -3.72645878791809 -3.66127228736877 -3.42419600486755 -2.96046423912048 -2.64030432701111 -0.594013929367065 1.23104774951935 2.99442601203918 2.60861968994141 -0.750804662704468 -2.11741900444031 -2.66967821121216 -3.22842025756836 -1.77686393260956 -1.07156789302826 0.725341022014618 4.03864145278931 4.45466756820679 5.0788893699646 6.77472448348999 6.93993854522705 6.2387843132019 3.97095417976379 3.12889671325684 3.49671316146851 3.51313042640686 3.8171648979187 4.45532608032227 4.57570648193359 4.3906192779541 3.86345362663269 3.35592436790466 6.54508304595947 5.84691524505615 4.61686086654663 2.24619388580322 2.8096444606781 4.32437372207642 5.45988368988037 7.4085636138916 10.9533414840698 12.3866357803345 12.0759382247925 11.5366868972778 11.1610260009766 9.85378742218018 9.33187007904053 8.88294410705566 8.61383724212646 7.78831243515015 8.61402988433838 8.31196308135986 7.30427551269531 6.03323554992676 6.06844425201416 8.52857971191406 10.3285312652588 6.43894958496094 6.26667165756226 5.91683292388916 6.01877450942993 6.21069431304932 3.93487977981567 3.59711718559265 3.30897402763367 3.61353063583374 3.95653128623962 3.45348429679871 2.57772994041443 2.34363770484924 2.18315672874451 2.15649366378784 2.1980836391449 2.27930378913879 2.82990288734436 5.65238332748413 10.1767711639404 10.8350267410278 8.40771484375 4.36572122573853 3.13414001464844 2.30014085769653 2.13460087776184 2.31026816368103 2.54268479347229 2.96941781044006 3.46177053451538 4.94293880462646 5.39871978759766
0.131776481866837 0.0407671928405762 -0.0555376969277859 -0.124472878873348 -0.20707967877388 -0.320830792188644 -0.441593855619431 -0.573375999927521 -0.702225387096405 -0.732934951782227 -0.645336806774139 -0.0493822544813156 -0.534556090831757 -0.773048520088196 -1.43410229682922 -1.47134816646576 -1.48482418060303 -1.5419305562973 -1.5191787481308 -1.46539282798767 -1.39469659328461 -1.30211675167084 -1.16360330581665 -1.04071998596191 -0.95564216375351 -0.845828831195831 -0.6016805768013 -0.40594556927681 -0.389842808246613 -0.213100925087929 0.329284906387329 0.599885821342468 0.470764219760895 0.0418082773685455 -0.0626236200332642 -0.074105866253376 -0.0118422955274582 0.154058009386063 0.212959662079811 0.069920226931572 -0.490240484476089 -1.06502676010132 -0.911572158336639 -0.944172024726868 -1.0409848690033 -1.28033769130707 -1.66715705394745 -1.90962767601013 -2.00802755355835 -2.10963535308838 -2.024334192276 -2.11937975883484 -2.31571197509766 -2.55406999588013 -2.70753812789917 -2.67238664627075 -2.15451622009277 -1.72177302837372 -1.07963538169861 -0.88142466545105 -0.600946128368378 -0.514347672462463 -0.346708506345749 0.536518931388855 1.39124047756195 1.81682729721069 1.33728528022766 0.964934229850769 1.13919460773468 1.18497538566589 1.10391187667847 0.690243244171143 0.00938928872346878 -0.812516510486603 -1.75370156764984 -1.45437967777252 -2.1124279499054 -2.8089611530304 -3.18089580535889 -3.62400698661804 -3.82809376716614 -3.64433813095093 -2.96939992904663 -1.54868233203888 -3.51887965202332 -3.1494677066803 -2.80289196968079 -1.41447865962982 1.61159121990204 3.27665638923645 2.95778298377991 -0.056068055331707 -2.21943187713623 1.78144943714142 -0.804270267486572 -3.57339978218079 -2.52390265464783 1.72442972660065 2.6452271938324 4.00320672988892 3.28310632705688 5.393958568573 6.37968444824219 5.45206785202026 3.4501690864563 2.80335664749146 3.07825040817261 3.05696678161621 3.59625363349915 4.04756212234497 4.26382398605347 4.15951299667358 3.82944893836975 4.69445657730103 5.80968284606934 7.04069471359253 4.24342584609985 5.14212226867676 4.99626779556274 5.13392066955566 4.88150978088379 7.09359455108643 8.86776542663574 10.9007205963135 12.5777502059937 12.1134157180786 11.4357213973999 10.0808610916138 9.39882278442383 8.75978946685791 8.37052154541016 7.66826677322388 8.034836769104 7.773850440979 6.58041381835938 5.7876124382019 5.87256956100464 8.43485069274902 10.9265308380127 10.8699960708618 6.51802682876587 6.295081615448 5.80139112472534 5.56704044342041 3.76977634429932 3.60650539398193 3.31676959991455 2.97118377685547 3.27706813812256 2.77369165420532 2.43058443069458 2.25531482696533 2.16007256507874 2.03539490699768 2.05844950675964 2.14003920555115 2.25627851486206 5.04166984558105 7.39854955673218 10.5198974609375 11.5912570953369 9.9143533706665 6.5407772064209 5.11413955688477 3.23888564109802 2.40479421615601 2.5014066696167 2.82522559165955 3.77771711349487 4.67375087738037 5.09631824493408
0.102829217910767 -0.0333645306527615 -0.130040377378464 -0.253835886716843 -0.296826362609863 -0.347424656152725 -0.463528096675873 -0.56883317232132 -0.691408932209015 -0.552531540393829 -0.455850869417191 -0.152087464928627 0.390544176101685 -1.17115962505341 -0.873691082000732 -1.20858657360077 -1.52474462985992 -1.59313952922821 -1.59468996524811 -1.55136978626251 -1.50507962703705 -1.41573870182037 -1.26153290271759 -1.14169383049011 -1.03330385684967 -0.969605207443237 -0.79470032453537 -0.52569192647934 -0.449265450239182 -0.608088135719299 -0.195811539888382 -0.0550343915820122 -0.19451916217804 -0.39512711763382 -0.439786344766617 -0.590023636817932 -0.369426965713501 -0.405067920684814 -0.337383031845093 -0.483309030532837 -1.09193921089172 -1.24866890907288 -1.08356761932373 -1.13787198066711 -1.28070116043091 -1.55030953884125 -1.9505957365036 -2.23664426803589 -2.31864929199219 -2.51257014274597 -2.48720741271973 -2.46204018592834 -2.6019606590271 -2.7097864151001 -2.94845867156982 -3.13119196891785 -2.93313956260681 -2.26472210884094 -1.74328815937042 -1.26451361179352 -0.849532067775726 -0.762336611747742 -0.754689455032349 -0.161967799067497 0.849915862083435 1.34353971481323 0.864175796508789 0.867695212364197 1.01177227497101 0.924568057060242 0.406767934560776 -0.242421880364418 -0.876339316368103 -1.60636520385742 -2.41490411758423 -2.56305575370789 -2.80728912353516 -2.98764967918396 -3.32681202888489 -3.70978379249573 -0.843030393123627 -3.29234766960144 -1.4215897321701 -0.0902130603790283 -1.09125030040741 -3.1130838394165 -2.38647842407227 -1.05328822135925 2.02893495559692 2.93109679222107 1.80826807022095 -0.308876663446426 -2.26309418678284 -0.288518399000168 -2.77710914611816 -0.979217171669006 -0.622233092784882 0.835423171520233 2.6631064414978 3.58894968032837 3.79035234451294 4.50594043731689 5.51181650161743 4.99198150634766 3.78882908821106 2.56749987602234 2.56377267837524 2.89305830001831 4.50104713439941 7.10736894607544 5.28196144104004 4.13858079910278 3.79285383224487 4.88057088851929 6.7309422492981 8.10972213745117 7.59375047683716 6.49329996109009 6.89522171020508 6.58291625976562 4.74001932144165 6.39198112487793 8.05741310119629 9.91952133178711 11.7650098800659 11.6303453445435 11.2603015899658 10.4622392654419 9.12765979766846 8.59786796569824 8.1386890411377 7.54609394073486 7.67927217483521 7.37065601348877 6.23697185516357 8.03256320953369 7.75611972808838 6.61541318893433 8.96179676055908 9.40360927581787 7.99312496185303 6.58289909362793 5.59354782104492 4.50544023513794 3.44404911994934 3.50287318229675 3.15152621269226 2.70741558074951 2.43942785263062 2.55753922462463 2.33789682388306 2.31073832511902 2.06526565551758 1.93994796276093 1.95239520072937 2.01067781448364 2.11437010765076 3.04413437843323 5.54041242599487 9.05496883392334 12.0458307266235 11.1107892990112 8.52151679992676 6.96482181549072 5.2413969039917 4.16131353378296 3.37726140022278 2.70666575431824 3.32513070106506 4.43709945678711 4.8264217376709
0.0476285368204117 -0.109552688896656 -0.269986182451248 -0.356494963169098 -0.413342356681824 -0.425811022520065 -0.474451452493668 -0.569203019142151 -0.677323460578918 -0.542287170886993 -0.397770166397095 -0.470637261867523 0.0314256958663464 1.01510572433472 0.0183732081204653 -1.10302126407623 -1.57054018974304 -1.6642392873764 -1.67516589164734 -1.62027668952942 -1.57338619232178 -1.49560117721558 -1.38386034965515 -1.25577437877655 -1.14447677135468 -1.0631856918335 -0.937822341918945 -0.823812365531921 -0.64303070306778 -0.734693586826324 -0.87730860710144 -0.949573755264282 -1.00433135032654 -0.987937867641449 -0.9808189868927 -1.14829814434052 -1.0144819021225 -0.957594633102417 -0.963393151760101 -1.39400064945221 -1.58786535263062 -1.56082713603973 -1.36419463157654 -1.44959461688995 -1.60746657848358 -1.8628214597702 -2.24635791778564 -2.51719188690186 -2.69017028808594 -2.76426815986633 -2.72644543647766 -2.7031147480011 -2.84628224372864 -2.90018558502197 -3.04612636566162 -3.21850967407227 -3.23279142379761 -2.7526113986969 -2.22854614257812 -1.72449600696564 -1.32550251483917 -1.12325584888458 -1.02834522724152 -1.05609977245331 0.0584853887557983 0.292547136545181 0.552344441413879 0.691963791847229 0.478375166654587 0.454299867153168 -0.0659935846924782 -0.976760566234589 -1.29334211349487 -1.70976626873016 -2.26962208747864 -2.75339150428772 -2.92957234382629 -3.16048002243042 -3.48227620124817 -3.81890439987183 -1.09292995929718 0.684871435165405 0.728222846984863 1.67515921592712 5.09515285491943 3.90071201324463 1.70598590373993 1.18282401561737 2.17372941970825 1.97317397594452 1.06108701229095 -0.512126684188843 -2.31722354888916 -1.88557136058807 3.57840275764465 1.23547160625458 2.36160659790039 3.21391725540161 3.56890678405762 3.83090758323669 3.18524193763733 3.62405872344971 4.63993501663208 4.57402276992798 4.37446737289429 4.40124797821045 3.20492959022522 2.83692789077759 3.74878668785095 5.56508827209473 5.22118091583252 5.43432760238647 5.36118745803833 5.66254234313965 8.49164962768555 9.30761432647705 9.44346523284912 7.90158462524414 8.32033920288086 7.29358053207397 5.37226724624634 6.55250215530396 8.00321769714355 9.64915370941162 10.6354465484619 10.4477396011353 10.1042032241821 9.44148731231689 8.71708202362061 8.18817901611328 7.95271968841553 7.69613933563232 7.04856824874878 6.76108932495117 8.09686851501465 9.00140571594238 8.80679607391357 6.81187868118286 7.20147132873535 7.8070216178894 7.48957967758179 6.41398429870605 5.4553050994873 4.09737062454224 3.2712070941925 3.30135941505432 2.95241785049438 2.57762241363525 2.31566023826599 2.30939674377441 2.30634570121765 2.20462894439697 1.96936631202698 1.83354365825653 1.85672008991241 1.90605878829956 2.00053524971008 2.17905688285828 4.86668300628662 6.77173471450806 9.52221965789795 9.75406455993652 9.45626831054688 7.18864488601685 4.93964004516602 4.24193906784058 3.81491374969482 4.24948883056641 3.36615490913391 4.17859697341919 4.53256702423096
0.0151307014748454 -0.180949434638023 -0.334747701883316 -0.422996640205383 -0.515670597553253 -0.533982455730438 -0.522449374198914 -0.577451884746552 -0.679247319698334 -0.75820916891098 -0.574638724327087 -0.817265510559082 0.382361978292465 1.53605556488037 1.74862730503082 -0.305661737918854 -0.870399653911591 -1.71688449382782 -1.53688836097717 -1.64176189899445 -1.60236632823944 -1.5399671792984 -1.47063910961151 -1.39011287689209 -1.27393233776093 -1.18621563911438 -1.13241803646088 -1.05597794055939 -0.958926320075989 -0.954145967960358 -1.02709913253784 -1.08584642410278 -1.19431185722351 -1.27764487266541 -1.34952092170715 -1.41740739345551 -1.50200986862183 -1.62464487552643 -1.79504013061523 -1.92751705646515 -1.97933065891266 -1.99009680747986 -1.793625831604 -1.80362486839294 -1.90333271026611 -2.12945890426636 -2.46558952331543 -2.70221543312073 -2.86129713058472 -2.8818371295929 -2.92720627784729 -2.83595681190491 -2.96070766448975 -3.05479860305786 -3.1213960647583 -3.21484518051147 1.8102171421051 -2.84586405754089 -2.44010233879089 -1.87831234931946 -1.61730170249939 -1.51094961166382 -1.50469362735748 -1.71283161640167 -1.21757841110229 -0.356086552143097 0.135580688714981 0.320141762495041 -0.17203788459301 -0.222212418913841 -0.197522342205048 -1.01995360851288 -1.30868494510651 -1.49065840244293 0.230886459350586 0.698748350143433 -2.67325234413147 -3.33495259284973 -1.86043584346771 6.11734437942505 2.5180344581604 5.11480331420898 5.85840606689453 6.6921648979187 6.52350950241089 7.43194818496704 5.63378715515137 4.20932149887085 3.1961510181427 1.49072575569153 0.748686850070953 -0.487409055233002 -1.74626636505127 2.07664251327515 6.0138201713562 7.16366910934448 7.81490755081177 5.27345561981201 4.00457382202148 3.35726070404053 2.66353178024292 2.53030490875244 3.52826547622681 4.1882004737854 3.64571857452393 4.06786441802979 3.01593637466431 2.60341787338257 3.12832832336426 3.69243478775024 4.12448310852051 4.02240991592407 5.17009019851685 7.99671840667725 7.33002614974976 8.12194538116455 9.36452865600586 10.1599760055542 9.90805435180664 8.34197521209717 6.09260702133179 7.26902151107788 8.37924480438232 9.08212184906006 9.58194160461426 9.96397304534912 9.45646286010742 8.7570219039917 8.16208076477051 7.8945164680481 7.59156465530396 7.29659938812256 6.7118182182312 6.5445384979248 8.03698253631592 11.2947368621826 8.91623306274414 7.40074396133423 6.56154870986938 7.07154512405396 6.53137016296387 5.92139959335327 4.94656896591187 3.66228270530701 3.13871645927429 3.01712369918823 2.69603085517883 2.5507378578186 2.21083331108093 2.15898489952087 2.17719125747681 2.08499836921692 1.90137541294098 1.78256392478943 1.78310918807983 1.79894125461578 1.88572657108307 2.0434844493866 4.44240856170654 6.02075052261353 7.47565364837646 8.6796350479126 8.44462871551514 6.34545660018921 4.22298383712769 3.14858508110046 2.38604998588562 3.73798513412476 3.83335900306702 3.54338335990906 4.15175199508667
-0.0514514856040478 -0.218525633215904 -0.370327919721603 -0.487842053174973 -0.599627077579498 -0.616951882839203 -0.613239347934723 -0.619312286376953 -0.691956281661987 -0.807165682315826 -0.906734347343445 -0.691495776176453 0.320940405130386 1.10943233966827 1.33986616134644 1.79884934425354 -1.0487539768219 0.386091083288193 0.686237275600433 -1.05186760425568 -1.63461053371429 -1.58665072917938 -1.53135395050049 -1.47830426692963 -1.41059768199921 -1.35039854049683 -1.3296502828598 -1.22355604171753 -1.18022060394287 -1.17268300056458 -1.16922199726105 -1.24564957618713 -1.39591348171234 -1.55426263809204 -1.67637050151825 -1.74654901027679 -1.81950700283051 -1.96590566635132 -2.13211917877197 -2.25997304916382 -2.32513427734375 -2.3660352230072 -2.25303220748901 -2.10093641281128 -2.16661548614502 -2.24315738677979 -2.53412961959839 -2.83067917823792 -2.91048383712769 -2.96360611915588 -2.98210525512695 -2.86982703208923 -2.88947725296021 -3.02495527267456 -3.12825202941895 0.449116706848145 1.29968500137329 -2.88692426681519 -2.61654543876648 -2.08955645561218 -1.9608941078186 -2.15976572036743 -2.04016995429993 -2.21266865730286 -2.1704375743866 -1.71009194850922 -0.344832241535187 0.0236631464213133 -0.260874807834625 -0.431609988212585 -0.420975118875504 8.20173358917236 4.68680334091187 5.2660870552063 7.56706619262695 6.09006214141846 -3.06330323219299 -3.44099712371826 -0.529324591159821 4.25677061080933 3.88065123558044 4.88845014572144 6.54724025726318 6.62328481674194 7.60488939285278 8.77917289733887 7.72465944290161 5.4070258140564 3.53181314468384 1.05897986888885 0.480902373790741 -0.153459325432777 -0.127259880304337 3.15484142303467 7.37988901138306 7.41288280487061 7.72811412811279 5.23430776596069 4.62193059921265 3.36119556427002 2.51454973220825 2.24407029151917 2.91583514213562 4.02134275436401 3.75687265396118 2.89895057678223 2.36457395553589 2.49471831321716 3.00339484214783 3.6465151309967 6.73584651947021 8.83856964111328 5.14537477493286 6.139573097229 8.01691818237305 11.049036026001 11.8756637573242 10.3154373168945 10.8525495529175 9.12361335754395 6.87050104141235 7.22515916824341 8.18971061706543 8.0797643661499 8.89258766174316 9.17223930358887 8.6846981048584 8.13454627990723 7.89217185974121 7.48638725280762 7.13660001754761 6.87537384033203 6.31827640533447 6.17591714859009 6.25286674499512 6.11269807815552 6.46202421188354 6.34005260467529 6.26849699020386 6.21858596801758 5.97963333129883 5.37956380844116 4.46695280075073 3.37592887878418 2.89237689971924 2.79496121406555 2.68220496177673 2.47961354255676 2.06671118736267 2.01099276542664 2.05875134468079 1.97169923782349 1.82400786876678 1.76024162769318 1.74665331840515 1.79318881034851 2.45962381362915 2.12460780143738 3.19901537895203 5.4666109085083 6.68469619750977 7.62611627578735 7.38365125656128 5.5479850769043 3.96103286743164 2.56329584121704 4.12682056427002 3.60849332809448 4.28359651565552 3.15702199935913 3.91329622268677
-0.0405190922319889 -0.24927531182766 -0.405697166919708 -0.550800800323486 -0.648009419441223 -0.69040834903717 -0.693760395050049 -0.699137628078461 -0.739363074302673 -0.837212324142456 -0.546699047088623 0.00547781167551875 0.211297780275345 1.34419405460358 1.16796445846558 0.856612622737885 0.308079540729523 0.178185403347015 0.205464869737625 -1.29978060722351 -1.678715467453 -1.01625287532806 -1.3713493347168 -1.54812788963318 -1.55168068408966 -1.53369724750519 -1.49201595783234 -1.42638635635376 -1.36041343212128 -1.40532410144806 -1.47424268722534 -1.5541170835495 -1.73874843120575 -1.94629335403442 -2.08330035209656 -2.13485312461853 -2.20821118354797 -2.30724740028381 -2.42088723182678 -2.5318558216095 -2.61754536628723 -2.63193511962891 -2.5269980430603 -2.33224058151245 -2.36477446556091 -2.41520810127258 -2.57237386703491 -2.81840896606445 -2.95077729225159 -2.98204064369202 -2.99902272224426 -2.97020769119263 -2.97897434234619 -3.1340172290802 -3.17355298995972 -1.29034602642059 -1.39402377605438 -0.58563095331192 -2.84796929359436 -2.41524934768677 -2.42924165725708 -2.38908100128174 -2.20940279960632 -2.31918215751648 -2.27956914901733 -1.94319236278534 -0.980257213115692 -0.10109731554985 4.38182830810547 2.55236387252808 3.81594800949097 10.9406480789185 14.8694553375244 11.6123085021973 9.02293968200684 8.67804527282715 -0.899953663349152 -2.33381342887878 -0.986523330211639 1.02582573890686 3.0103919506073 3.6852879524231 6.80421209335327 6.87467384338379 6.055419921875 5.33878087997437 4.25887441635132 5.00004053115845 2.48655080795288 0.537115275859833 0.300031960010529 0.0778805539011955 0.999674320220947 4.39888525009155 5.85766267776489 5.39566135406494 6.48998594284058 5.54077386856079 4.25336694717407 3.03133153915405 2.8514199256897 2.18529629707336 2.92223024368286 3.56030821800232 3.72059607505798 2.88897323608398 2.38178944587708 5.07409143447876 6.36877298355103 7.73262119293213 7.8424186706543 7.62498044967651 5.10175275802612 6.03481435775757 8.104660987854 9.08392810821533 7.85704469680786 8.65943717956543 9.57322883605957 9.11869430541992 7.85680770874023 6.71613359451294 7.20910549163818 7.50412750244141 8.19733715057373 8.47091865539551 7.98016023635864 7.77813243865967 7.40703392028809 6.99725389480591 6.7042384147644 6.4765043258667 5.97764015197754 5.79869270324707 5.8089656829834 5.45472574234009 5.26301717758179 5.23354148864746 5.37275505065918 5.57220315933228 5.38071203231812 5.13444566726685 4.56157159805298 3.6713445186615 2.82099437713623 2.56976675987244 2.54641246795654 2.23038148880005 1.85009157657623 1.83252918720245 1.92530393600464 1.85750544071198 1.7432450056076 1.76725375652313 1.74680399894714 2.52733278274536 2.71989464759827 2.56276798248291 2.53968572616577 4.01869583129883 5.69614219665527 6.77406072616577 6.52976989746094 5.66894054412842 4.31505012512207 3.20431590080261 3.76712203025818 3.84173202514648 3.40936398506165 2.99312615394592 3.68701505661011
-0.0872668027877808 -0.273127138614655 -0.443305969238281 -0.585878729820251 -0.670632004737854 -0.730220794677734 -0.77162367105484 -0.795422375202179 -0.814307808876038 -0.884778380393982 -0.296468555927277 -0.122376315295696 -0.189823925495148 0.545708775520325 1.09151661396027 -0.586706399917603 -0.284823358058929 1.10818290710449 -0.369958877563477 0.255447387695312 0.549212336540222 -1.04437518119812 -1.6118483543396 -1.64991295337677 -1.6688746213913 -1.69040834903717 -1.69392895698547 -1.69601333141327 -1.71025240421295 -1.80742812156677 -1.86136186122894 -1.93008434772491 -2.14573740959167 -2.39630246162415 -2.58254456520081 -2.58874654769897 -2.6108295917511 -2.65127468109131 -2.68632173538208 -2.76207971572876 -2.83363509178162 -2.8595871925354 -2.79637217521667 -2.67294383049011 -2.6255259513855 -2.59178900718689 -2.69289994239807 -2.8499231338501 -2.97706460952759 -3.01607322692871 -3.07191562652588 -3.13986897468567 -3.17866539955139 -3.32266068458557 -3.41000843048096 -3.25237941741943 -2.15988254547119 -1.97593474388123 -3.14142155647278 -2.88213229179382 -2.57329702377319 -2.34815382957458 -2.4317672252655 -2.4717812538147 -2.40151286125183 -2.09098267555237 -1.38507962226868 -0.424806296825409 2.72035813331604 7.54985666275024 6.67232894897461 7.93077230453491 11.3728113174438 9.68543243408203 7.15078067779541 6.14165258407593 8.22742652893066 0.39598074555397 -1.6349493265152 -1.21780323982239 1.69980847835541 2.86818933486938 5.81116485595703 5.46769571304321 4.17229318618774 2.98378610610962 1.65247058868408 2.81671071052551 1.04611003398895 0.519673109054565 0.316354155540466 0.136549219489098 0.568621873855591 3.1755690574646 4.45789909362793 2.73092103004456 4.22712659835815 5.26300048828125 4.19136762619019 2.82563829421997 2.68560814857483 2.72262072563171 3.1668496131897 3.26880288124084 3.70844173431396 8.21433925628662 8.10120677947998 10.0065584182739 10.6118955612183 7.60487699508667 6.58431529998779 7.47079849243164 8.2467737197876 7.50393962860107 7.62868499755859 9.05612850189209 9.14172744750977 10.8186063766479 10.1897001266479 8.98424434661865 8.456374168396 7.91609525680542 5.79486846923828 6.932373046875 7.55905437469482 7.806480884552 7.632737159729 7.27858209609985 6.89748477935791 6.56055641174316 6.32247114181519 6.0722279548645 5.73868322372437 5.49427461624146 5.16915273666382 4.72191143035889 4.52325582504272 4.5940089225769 4.63522958755493 4.66959047317505 4.90265417098999 4.72307682037354 4.20375871658325 3.30799245834351 2.51154971122742 2.39834117889404 2.36656427383423 2.05571031570435 1.73007154464722 1.63233363628387 1.72093820571899 1.70683908462524 1.73780190944672 1.64307451248169 1.674689412117 1.78310143947601 2.50023603439331 2.87884092330933 2.39004039764404 3.66540503501892 4.62817907333374 5.65468454360962 6.15233039855957 5.78053617477417 4.65300846099854 7.45166063308716 6.2288875579834 5.84653425216675 3.37715792655945 2.85983538627625 3.58019614219666
-0.16352191567421 -0.337957948446274 -0.484314501285553 -0.614400863647461 -0.688418805599213 -0.791776895523071 -0.9033043384552 -0.924261152744293 -0.897704124450684 -0.907462060451508 -0.784917235374451 -0.78683614730835 -1.05160129070282 -0.411429852247238 0.370477944612503 0.883032560348511 0.42902347445488 0.756235599517822 0.0488221794366837 -0.385899841785431 -0.70560485124588 -1.71918618679047 -1.72424328327179 -1.74946618080139 -1.80009317398071 -1.89339625835419 -2.03474831581116 -2.0920889377594 -2.11785483360291 -2.15934371948242 -2.19114875793457 -2.29779720306396 -2.5158257484436 -2.73109984397888 -2.87134170532227 -2.89990854263306 -2.89622044563293 -2.91473841667175 -2.9194700717926 -2.94627094268799 -2.99172282218933 -3.01362562179565 -3.0123815536499 -2.98362612724304 -2.88855147361755 -2.83813762664795 -2.8674647808075 -2.88884615898132 -2.99820518493652 -3.06703042984009 -3.1886932849884 -3.26163864135742 -3.27572870254517 -3.34654712677002 -3.45522618293762 -3.40280437469482 -3.23888993263245 -2.44971370697021 -3.00364875793457 -2.19682312011719 -0.737619698047638 -2.36254048347473 -2.52159094810486 -2.61149454116821 -2.50974535942078 -1.84907495975494 -1.51064610481262 -0.789299368858337 -0.188103184103966 4.86917924880981 4.52419376373291 3.82054471969604 6.04809379577637 5.82902765274048 5.19780158996582 3.79241681098938 6.40147638320923 1.32476592063904 -1.84067618846893 -0.588768899440765 1.27491760253906 2.51332807540894 4.70149517059326 4.56598043441772 3.19420504570007 2.30428671836853 2.00609087944031 2.06619334220886 1.29530227184296 0.638857305049896 0.204572081565857 0.0336204022169113 -0.244369029998779 1.06288766860962 3.91454935073853 3.69592618942261 3.26517653465271 4.93038368225098 6.10764741897583 5.95982694625854 4.14844131469727 5.88268327713013 4.90742158889771 3.856609582901 3.70230150222778 8.3756275177002 9.25223827362061 10.3505296707153 9.82034492492676 7.85245847702026 5.89395236968994 7.39576864242554 7.99271297454834 7.0333080291748 9.93296241760254 9.78893566131592 12.6511459350586 12.0454387664795 12.9344711303711 13.8783044815063 10.9368286132812 9.64689445495605 6.38262796401978 6.50807857513428 6.99225568771362 7.2041974067688 7.22212362289429 6.82358741760254 6.47893667221069 6.1223316192627 5.87310791015625 5.86403131484985 5.62613201141357 5.10928201675415 4.75696086883545 4.35503768920898 3.95150065422058 3.93050265312195 3.98838114738464 4.04039430618286 4.4013204574585 4.30453968048096 3.80462431907654 2.94813108444214 2.20958280563354 2.19877409934998 2.20700979232788 1.9454437494278 1.65367829799652 1.50176525115967 1.48160517215729 1.59448957443237 1.62907373905182 1.54242897033691 1.54697144031525 1.69093036651611 1.92178463935852 2.21716451644897 2.02600622177124 3.35003542900085 4.22837162017822 5.0233588218689 5.63450956344604 5.65938997268677 4.57246065139771 6.0784125328064 6.51793527603149 9.63847637176514 10.2551231384277 7.61078214645386 5.81292772293091
-0.28023099899292 -0.422894805669785 -0.55123907327652 -0.659579694271088 -0.759167551994324 -0.874293804168701 -0.945926904678345 -0.950536370277405 -0.926401555538177 -0.944867730140686 -1.00164937973022 -1.12184870243073 -0.954416990280151 -1.21042573451996 -0.565549850463867 1.27255547046661 1.48441433906555 0.128748849034309 -0.383823573589325 -0.953691482543945 -1.67188251018524 -1.81344091892242 -1.83322465419769 -1.89729070663452 -2.02161145210266 -2.23765921592712 -2.37779211997986 -2.43349242210388 -2.47397994995117 -2.51746654510498 -2.56553053855896 -2.70158648490906 -2.97225213050842 -3.04940581321716 -3.10782670974731 -3.15025544166565 -3.15626955032349 -3.16526627540588 -3.1557719707489 -3.13059067726135 -3.14939737319946 -3.18057703971863 -3.20051336288452 -3.18938779830933 -3.12457227706909 -3.11083960533142 -3.09218811988831 -3.06716799736023 -3.05853247642517 -2.99092483520508 -1.74113476276398 -0.876763939857483 -0.0412543341517448 -0.328446537256241 1.88240551948547 -1.0328586101532 -2.43325257301331 -2.30923795700073 1.70990812778473 2.3178026676178 1.88035869598389 -1.34601521492004 -1.58667683601379 -2.61511135101318 -1.93548548221588 -0.839456737041473 0.567472398281097 -0.995946168899536 -0.372432112693787 0.81489509344101 2.91232872009277 3.08588218688965 5.32601594924927 5.81553173065186 3.72931146621704 2.49650382995605 4.40365171432495 6.56959390640259 2.50350046157837 0.643950462341309 1.11236548423767 2.2853090763092 4.07920408248901 4.46310615539551 3.45170259475708 3.52742743492126 3.60792922973633 3.1096978187561 1.91650950908661 0.760586678981781 0.105521373450756 -0.00398806342855096 -0.265364617109299 0.14135730266571 4.31690692901611 5.93347501754761 3.0389199256897 4.87468719482422 6.89188766479492 11.080376625061 13.2379693984985 12.9109563827515 6.99919557571411 9.39632320404053 8.5394811630249 9.07079410552979 14.5290260314941 13.6772899627686 9.87180709838867 8.68973922729492 10.5834131240845 11.6340637207031 10.9875717163086 15.3908090591431 14.2511358261108 9.84604454040527 11.3306474685669 13.2790985107422 13.9851131439209 15.7038269042969 15.0201053619385 12.1865549087524 11.4763498306274 7.43937110900879 6.68212938308716 6.79421615600586 6.7241325378418 6.34388780593872 6.06734704971313 5.83769464492798 5.6976318359375 5.44523000717163 5.0864520072937 4.54115533828735 4.32494163513184 4.04719161987305 3.49798727035522 3.31846451759338 3.29633045196533 3.35339093208313 3.76200342178345 3.84282279014587 3.41832041740417 2.57125926017761 2.13793206214905 2.02855110168457 2.05265617370605 1.84936678409576 1.64901161193848 1.3675708770752 1.35481202602386 1.45712792873383 1.49596011638641 1.43509149551392 1.44501757621765 1.57063031196594 1.73061168193817 1.85729765892029 1.96886968612671 2.36157155036926 3.76707291603088 4.51866626739502 5.00967264175415 4.72637605667114 5.97893381118774 6.80156278610229 8.50038719177246 7.45642995834351 6.62683439254761 5.26733303070068 3.52301263809204
-0.478011518716812 -0.516460120677948 -0.628154397010803 -0.713107407093048 -0.799422085285187 -0.893721342086792 -0.963599026203156 -0.840257942676544 -0.969186246395111 -0.961457788944244 -1.02199065685272 -0.627177536487579 -0.203757345676422 -0.49206206202507 -1.16821324825287 0.0970978736877441 0.846574485301971 0.4943568110466 -0.551140010356903 -1.20998871326447 -1.85857582092285 -1.909184217453 -1.9789115190506 -2.16260528564453 -2.34353637695312 -2.6375629901886 -2.76462316513062 -2.80015707015991 -2.8452308177948 -2.99061322212219 -3.09046196937561 -3.10943555831909 -3.17984819412231 -3.24502491950989 -3.26052594184875 -3.2937490940094 -3.31723976135254 -3.33270478248596 -3.34605598449707 -3.32794523239136 -3.31782150268555 -3.32530999183655 -3.34788990020752 -3.34717106819153 -3.32259631156921 -3.27740454673767 -3.19996523857117 -3.17147588729858 -3.16212892532349 -3.15222477912903 -1.71678686141968 0.633460581302643 1.63953542709351 2.7894561290741 2.45746922492981 2.76792359352112 0.269380688667297 -0.409940958023071 0.597975015640259 0.853136837482452 0.618233144283295 0.229345113039017 -0.979797184467316 -1.92546093463898 -1.80061292648315 -0.397569894790649 1.42710196971893 2.61575841903687 -0.335704386234283 0.439104318618774 2.22634506225586 2.67064452171326 4.76859378814697 5.57571458816528 6.63416194915771 2.30032706260681 4.43188285827637 11.9341011047363 6.34642887115479 3.40509676933289 2.83265542984009 3.89639735221863 4.67548751831055 4.33184623718262 4.89611196517944 7.29294776916504 5.89779472351074 5.28496360778809 1.87473034858704 0.717986941337585 0.127038389444351 -0.0219090301543474 0.660258829593658 2.05170369148254 4.08689260482788 6.19018173217773 7.01367521286011 8.04183101654053 8.61726951599121 10.9208278656006 13.7721452713013 12.6199426651001 10.8734474182129 12.388747215271 12.2493133544922 11.3541011810303 14.2742576599121 13.2611627578735 13.2098255157471 12.5151700973511 20.0480442047119 20.7236480712891 23.0472030639648 21.7722511291504 16.6344394683838 20.9089298248291 21.4599208831787 20.4486141204834 18.2991943359375 16.2975940704346 16.0145492553711 13.4703779220581 9.90356826782227 7.0606575012207 6.33257627487183 6.31977844238281 6.26227712631226 5.99780797958374 5.87833642959595 5.65176153182983 5.25835800170898 4.89201736450195 4.44117259979248 3.96571040153503 3.75077390670776 3.53349232673645 3.08895921707153 2.86411547660828 2.74593448638916 2.83130121231079 3.15030479431152 3.24361038208008 2.97836256027222 2.411452293396 1.99171805381775 1.83410441875458 1.91043269634247 1.85121309757233 1.59109807014465 1.24568068981171 1.27094793319702 1.34627449512482 1.35730195045471 1.38162064552307 1.42799937725067 1.48700702190399 1.65538454055786 1.77917349338531 1.90452408790588 2.03629469871521 2.86759781837463 3.80708575248718 4.60822057723999 10.0534229278564 5.76100492477417 6.50388431549072 5.89165878295898 4.37247133255005 3.37887454032898 2.6049439907074 2.55639386177063
-0.730772972106934 -0.677729845046997 -0.707795798778534 -0.773480832576752 -0.843481719493866 -0.904475510120392 -0.992965877056122 -1.00403773784637 -0.981908917427063 -0.980940818786621 -1.07162535190582 -0.960166394710541 -0.693189382553101 0.583114087581635 1.8245462179184 -0.981092751026154 -0.540333926677704 -1.07677888870239 -1.00503301620483 -1.53663051128387 -1.95266366004944 -2.05826115608215 -2.26291275024414 -2.46187520027161 -2.68370604515076 -2.90796494483948 -3.01089644432068 -3.10300827026367 -3.14792966842651 -3.20312666893005 -3.25147724151611 -3.28024101257324 -3.306640625 -2.14790725708008 -1.41899585723877 -1.48209357261658 -2.57845759391785 -2.84434723854065 -3.12144660949707 -3.4335618019104 -3.4306333065033 -3.44621586799622 -3.45335793495178 -3.47326040267944 -3.46525096893311 -1.70952606201172 -2.80785369873047 -3.05463337898254 -2.89890623092651 -2.57575821876526 -1.80721485614777 1.00937020778656 3.50979018211365 4.81232261657715 5.63296985626221 4.17363405227661 2.09029150009155 -0.549961626529694 -0.959629595279694 -0.267125308513641 -1.90766608715057 -2.31741523742676 -2.42506909370422 -2.62719321250916 -2.68783831596375 -2.7809476852417 -1.35816431045532 0.990662574768066 1.90997886657715 0.179075717926025 1.87549877166748 2.21350193023682 4.15467929840088 4.87741613388062 5.99591827392578 5.76446676254272 4.37473917007446 11.1799449920654 13.0714731216431 6.39416408538818 3.56201934814453 3.80761981010437 5.16426706314087 4.51043605804443 4.2504997253418 6.07334041595459 7.12103414535522 6.62200498580933 1.98337376117706 2.47140431404114 1.48968362808228 0.437260210514069 0.342297673225403 2.28921675682068 3.52500510215759 5.58213806152344 5.90102529525757 7.0335636138916 7.57877111434937 10.3760280609131 12.9386491775513 13.7670936584473 11.7503604888916 12.2957983016968 13.6002464294434 12.5664806365967 11.3945913314819 12.3959064483643 15.220947265625 23.2839279174805 23.1975421905518 23.3667469024658 25.0512561798096 20.169849395752 18.7372074127197 20.3257675170898 22.2944412231445 19.7978668212891 17.5360145568848 15.7998027801514 13.8359451293945 11.1798725128174 7.86840057373047 5.82852411270142 5.97572469711304 5.96805477142334 5.88662481307983 5.74539995193481 5.53833818435669 5.27009248733521 4.78006458282471 4.3734769821167 3.88627243041992 3.42779636383057 3.18954992294312 3.00998187065125 2.76556468009949 2.52593350410461 2.30708885192871 2.21976661682129 2.60123491287231 2.73772740364075 2.83750367164612 2.64038991928101 2.06828165054321 1.71480846405029 1.73371481895447 1.71263599395752 1.46611344814301 1.22627079486847 1.1972428560257 1.25585734844208 1.25268030166626 1.35804569721222 1.34618008136749 1.43887567520142 1.60000288486481 1.71783125400543 1.8490983247757 1.96747994422913 2.67230153083801 3.42334818840027 5.38478851318359 5.01770973205566 4.81990003585815 4.23043060302734 3.52712941169739 2.70132613182068 2.22505974769592 2.16775059700012 2.1776876449585
-0.922709703445435 -0.888237476348877 -0.829755902290344 -0.844343364238739 -0.89153379201889 -0.954654514789581 -1.05111169815063 -1.02583110332489 -1.00563216209412 -1.03837990760803 -1.10115683078766 -1.16839349269867 -1.24740588665009 -0.529269993305206 0.595338821411133 -1.10191512107849 -1.29203915596008 -1.51594710350037 -1.76239049434662 -2.03090000152588 -2.17702436447144 -2.57451510429382 -2.78326416015625 -2.89269065856934 -2.96390438079834 -3.087233543396 -3.19903039932251 -3.26206159591675 -3.27714347839355 -2.34194159507751 -1.10176491737366 -0.866056680679321 -0.11583985388279 0.855048894882202 2.01055574417114 2.1486439704895 2.04823851585388 1.5428671836853 0.825821936130524 1.05888664722443 -0.239437714219093 -0.664793431758881 -1.42306411266327 -0.37606480717659 -0.113736160099506 1.45771217346191 3.73537492752075 4.64052963256836 5.11846256256104 4.5408501625061 2.68123984336853 2.06428241729736 2.6309278011322 3.2554624080658 4.08440542221069 3.00652480125427 0.758441865444183 -3.06477880477905 -3.47546815872192 -3.42389678955078 -3.29608821868896 -2.91295623779297 -2.7458291053772 -2.90467953681946 -2.94603300094604 -3.00286316871643 -2.40676522254944 -1.6418970823288 -0.441923141479492 -0.0310247354209423 1.51726758480072 1.91431069374084 2.95623254776001 4.26411008834839 4.03361701965332 6.5943717956543 6.59712171554565 8.90156650543213 11.1727142333984 10.2299489974976 7.09437465667725 6.24053764343262 5.76136827468872 4.03960847854614 4.26892900466919 8.07908725738525 8.41987228393555 7.77177143096924 6.09562683105469 2.55481791496277 1.18178296089172 0.515924632549286 0.442560136318207 1.65823459625244 2.63875222206116 3.45051860809326 4.3283166885376 5.94976806640625 6.28445625305176 9.81597423553467 10.9995489120483 12.9010791778564 16.0719051361084 13.0677547454834 12.6816682815552 11.319972038269 9.94996738433838 12.7359895706177 19.9370346069336 21.7792835235596 19.9605598449707 19.5958786010742 20.0131320953369 20.0950908660889 18.6923789978027 16.7913093566895 16.8418445587158 16.3528823852539 14.6742753982544 12.8212766647339 11.3351039886475 9.08961868286133 7.01432514190674 5.47942352294922 5.67795467376709 5.59966230392456 5.481849193573 5.38057231903076 5.13057947158813 4.78132486343384 4.32117938995361 3.95433497428894 3.46748781204224 3.1744441986084 2.87402653694153 2.54394435882568 2.41999626159668 2.15755939483643 1.93337678909302 1.80819094181061 1.96206080913544 2.41071128845215 2.54203271865845 2.32256031036377 1.84633660316467 1.61060011386871 1.61113941669464 1.58211541175842 1.33729779720306 1.14715361595154 1.12634646892548 1.14828252792358 1.23691236972809 1.25326836109161 1.2414482831955 1.36389911174774 1.54468595981598 1.64635705947876 1.76816141605377 1.89903604984283 2.47383737564087 3.14552283287048 3.77611207962036 3.97530889511108 3.82719421386719 3.75123357772827 3.18966436386108 1.97066783905029 1.82520747184753 1.96793520450592 2.02237772941589
-0.984033644199371 -1.0123188495636 -0.946322321891785 -0.907293140888214 -0.943583130836487 -1.0007735490799 -0.140373766422272 -1.0611160993576 -1.06261801719666 -1.05080986022949 -0.176150023937225 -0.0502838380634785 0.503645181655884 0.455345451831818 -0.491734236478806 -1.35966265201569 -1.61001241207123 -1.88482475280762 -2.05167508125305 -2.25556015968323 -2.54769468307495 -2.82644248008728 -2.97853779792786 -3.10066723823547 -3.19844055175781 -3.24375247955322 -2.55040073394775 0.220559373497963 1.75202560424805 2.546147108078 3.10553812980652 2.68486547470093 1.52711451053619 2.4673957824707 4.05540084838867 4.53227090835571 3.78202867507935 3.49735116958618 3.25588440895081 2.54922819137573 2.29718160629272 2.27909684181213 0.94682389497757 3.25144553184509 5.27201986312866 5.65772676467896 6.87239122390747 6.37775850296021 5.17239332199097 3.74371314048767 1.63668274879456 1.10882472991943 1.14718317985535 1.39807462692261 1.71247005462646 0.83180958032608 -3.0144464969635 -3.88769006729126 -3.87317276000977 -3.68146347999573 -3.44343876838684 -3.04927539825439 -2.90268111228943 -3.06887435913086 -3.20767879486084 -3.32604384422302 -2.69978404045105 -1.86479079723358 -1.14551210403442 -0.367362946271896 0.947819948196411 1.38902854919434 1.62047278881073 3.16128087043762 3.65471887588501 4.82469320297241 6.62195062637329 8.80177974700928 7.77929353713989 8.37199115753174 7.93602514266968 6.95598554611206 6.19745111465454 5.25031995773315 7.21180772781372 8.1616325378418 8.31472206115723 7.47348499298096 5.48119688034058 3.25269913673401 1.98744678497314 1.08368897438049 0.681265592575073 0.687125086784363 1.83375751972198 2.14632487297058 3.30853605270386 5.08880805969238 6.37354946136475 9.33275985717773 11.1030292510986 12.4259424209595 14.812105178833 13.817699432373 12.6486158370972 14.939998626709 19.7087383270264 19.6266841888428 16.5875682830811 15.4622631072998 15.9260368347168 15.617486000061 15.490382194519 16.1556396484375 15.1633462905884 13.5534439086914 13.2464981079102 12.793553352356 11.8374757766724 10.7717590332031 9.63056564331055 8.39738178253174 6.79603099822998 5.22138786315918 5.3572826385498 5.20013332366943 5.06005573272705 4.90906286239624 4.60307550430298 4.2273473739624 3.84931612014771 3.46872472763062 3.21381020545959 2.93787145614624 2.70766448974609 2.47754192352295 2.299800157547 2.02796053886414 1.81327748298645 1.61170244216919 1.62864279747009 2.02435088157654 2.26702308654785 2.05471324920654 1.53318047523499 1.45545876026154 1.44040715694427 1.39600336551666 1.16851663589478 1.02998805046082 1.01065123081207 1.08736288547516 1.20184516906738 1.1877053976059 1.14553236961365 1.25150775909424 1.44366359710693 1.52751040458679 1.59956920146942 1.72841954231262 2.26784729957581 2.86075949668884 3.29333710670471 3.47984290122986 3.80279517173767 3.30413269996643 2.37550735473633 1.62154293060303 1.59122788906097 1.63604724407196 1.84716248512268
2.18606090545654 -0.865059673786163 -0.986702263355255 -0.753968358039856 -0.444390505552292 -0.470876306295395 -0.28076633810997 0.243863597512245 -1.06596839427948 -1.06222856044769 -0.386077433824539 0.143706873059273 0.470405042171478 0.740761041641235 -0.898628950119019 -1.63489556312561 -1.8462165594101 -1.98718845844269 -2.20826125144958 -2.51886343955994 -2.719890832901 -2.6298508644104 -2.49627423286438 -1.45249736309052 2.18443751335144 5.4689826965332 6.57048368453979 6.3325572013855 5.77690744400024 5.70274305343628 6.62882471084595 7.047287940979 7.02263736724854 5.22067975997925 3.62052845954895 4.54573726654053 4.68593502044678 4.74951457977295 4.84048080444336 4.02538824081421 4.73844385147095 5.16160821914673 6.34032964706421 5.051185131073 5.48579406738281 5.85724353790283 5.64779710769653 4.77060794830322 4.04252099990845 2.79574227333069 0.292827427387238 0.235297694802284 0.671348214149475 1.09800684452057 0.269062787294388 -1.26795136928558 -3.73205304145813 -4.02461338043213 -3.97807574272156 -3.76998591423035 -3.51887965202332 -3.1597945690155 -3.0337860584259 -3.16761875152588 -3.29867792129517 -3.4126718044281 -3.11599636077881 -2.23700451850891 -1.50447225570679 -0.716318845748901 -0.0107302982360125 1.20473623275757 1.42512583732605 2.83359432220459 3.35410928726196 3.23609852790833 5.12335443496704 5.07067584991455 5.94393491744995 4.75309896469116 6.26899194717407 7.62342739105225 7.02052116394043 7.25496196746826 7.65051698684692 8.53560256958008 8.17551517486572 7.01015520095825 4.99267530441284 3.243079662323 1.77990245819092 1.18435001373291 0.63097470998764 0.261202692985535 1.53641057014465 4.66096687316895 5.65675258636475 7.88743114471436 10.1770753860474 10.7333927154541 12.0130844116211 12.895977973938 14.2916536331177 14.6051902770996 14.6644630432129 14.3186016082764 15.1207208633423 12.5111751556396 12.1189498901367 12.3689794540405 12.5111513137817 12.8200340270996 12.7090396881104 13.2831382751465 12.8663454055786 11.3884153366089 10.7269430160522 10.6828594207764 10.2547197341919 10.0604362487793 9.218186378479 8.05036354064941 6.34649515151978 4.92877626419067 5.00270795822144 4.75736141204834 4.61112403869629 4.3708324432373 4.07683324813843 3.7134313583374 3.37128663063049 3.03125286102295 2.86272263526917 2.67143392562866 2.5443332195282 2.38762927055359 2.2189519405365 1.98572194576263 2.46314167976379 1.56139969825745 1.39291870594025 1.71512639522552 1.97835600376129 1.78134846687317 1.32317924499512 1.22395527362823 1.22400450706482 1.19848561286926 1.09504902362823 1.07609033584595 0.958776235580444 1.07224631309509 1.17989933490753 1.16002833843231 1.07819437980652 1.10658669471741 1.24307084083557 1.38199090957642 1.46326279640198 1.64602935314178 1.83228862285614 2.50204706192017 3.0134117603302 3.15838432312012 3.49940371513367 2.72752785682678 1.79644012451172 1.3245130777359 1.35498929023743 1.36562252044678 1.61382699012756
1.43910503387451 1.57154643535614 -0.130920842289925 -0.56240701675415 -0.475472718477249 -0.533620417118073 -0.475725412368774 0.0355921126902103 -0.281428843736649 -1.05935084819794 -0.656830489635468 0.395120173692703 0.164422690868378 -0.00535486824810505 -0.592593431472778 -1.66296422481537 -1.8782035112381 -2.06712341308594 -2.33829736709595 -2.63098907470703 -2.78329348564148 0.981320261955261 5.73379611968994 8.79908561706543 9.28486442565918 8.57223510742188 7.79645776748657 7.61686134338379 6.3421106338501 5.51019763946533 5.50839757919312 5.64588975906372 5.05676937103271 3.3267388343811 2.7268807888031 3.5683605670929 5.62211990356445 6.31301689147949 6.27147531509399 6.81836462020874 5.96631336212158 5.59478950500488 5.96620512008667 4.81481838226318 4.71155261993408 4.77800369262695 4.56553268432617 3.61159467697144 3.00580525398254 1.83523619174957 0.276504933834076 0.0268297120928764 0.249088302254677 0.26829805970192 -0.552617251873016 -2.57493424415588 -3.79713892936707 -4.04358625411987 -4.03131675720215 -3.82993221282959 -3.56757164001465 -3.2617826461792 -3.14395809173584 -3.04614806175232 -3.12144470214844 -3.30723571777344 -3.35502672195435 -2.61235666275024 -1.7539005279541 -1.0178427696228 -0.323955237865448 0.946152091026306 1.25467681884766 2.57278394699097 3.04136443138123 2.92478704452515 2.42872142791748 2.84685468673706 5.34069013595581 6.29663324356079 6.0933575630188 7.24343204498291 6.38298082351685 6.40905284881592 7.69460010528564 7.81399726867676 6.73976802825928 5.62422943115234 4.42993545532227 2.91634488105774 1.9389785528183 1.56893932819366 0.790803730487823 0.746333539485931 1.33062303066254 4.27223014831543 5.05140209197998 7.54275465011597 8.34889316558838 12.426362991333 11.5592365264893 11.5567903518677 12.039008140564 13.2078456878662 11.8168649673462 10.9081945419312 10.2117805480957 10.818546295166 10.5075511932373 10.4611034393311 10.6135063171387 10.8498010635376 10.8384790420532 11.111255645752 11.0663509368896 10.2983160018921 9.63576412200928 9.00021171569824 9.1978063583374 9.01494693756104 8.58072948455811 7.69159507751465 6.21459054946899 4.63975858688354 4.51114416122437 4.26416444778442 4.04992628097534 3.87746691703796 3.64141702651978 3.36852431297302 2.91914200782776 2.64688348770142 2.59069633483887 2.44867348670959 2.36630487442017 2.24116206169128 2.15729856491089 1.94733393192291 2.92700123786926 4.24512767791748 5.15000915527344 1.75175261497498 1.75719177722931 1.91935443878174 1.63150942325592 1.19295871257782 1.149489402771 2.32369422912598 3.60496306419373 2.75023341178894 3.4415488243103 2.27893304824829 1.17614161968231 1.14132142066956 1.07670092582703 1.0809873342514 1.09624993801117 1.15556144714355 1.23730170726776 1.37565863132477 1.53894901275635 1.96989703178406 2.51821494102478 2.88943481445312 3.19181203842163 2.9044885635376 1.63226163387299 1.21504127979279 1.09593176841736 0.966712832450867 1.26365447044373
-0.148487985134125 0.944809556007385 0.95062530040741 0.497363924980164 -0.137942239642143 -0.365546762943268 -0.441016614437103 -0.416962027549744 -0.402960866689682 -0.798643290996552 -0.265706121921539 -0.0565402880311012 -0.873656928539276 -1.31396150588989 -1.38283789157867 -1.72109913825989 -1.90466785430908 -2.12744092941284 -2.42370390892029 0.15411601960659 4.4589581489563 7.55157470703125 10.0833253860474 8.83766269683838 8.54978084564209 7.26532602310181 6.64344835281372 6.03234195709229 4.75853633880615 3.89324760437012 3.25121784210205 3.01189780235291 2.60965466499329 2.83201861381531 5.01409769058228 3.46134185791016 3.84078073501587 4.59662485122681 5.18525171279907 5.67282295227051 5.45516157150269 4.35482883453369 4.11827278137207 4.02710723876953 3.42344951629639 3.61305332183838 3.34854483604431 2.59098863601685 1.52832412719727 0.272422194480896 -0.416237473487854 -0.550050318241119 -0.541324555873871 -0.692777037620544 -1.206791639328 -3.26340317726135 -3.42292833328247 -4.04811573028564 -4.07405281066895 -3.8880820274353 -3.65142965316772 -3.45484352111816 -3.20667862892151 -3.04752039909363 -3.13232922554016 -3.26391959190369 -3.38080501556396 -2.92139291763306 -1.99661135673523 -1.26417469978333 -0.554920792579651 0.502688407897949 0.993629693984985 1.6810907125473 2.47229361534119 2.4885151386261 2.15683221817017 2.59418940544128 4.68109703063965 5.92698812484741 5.67396593093872 6.58610582351685 5.85281658172607 4.74403142929077 5.88041973114014 6.23669242858887 5.69346809387207 5.66356945037842 4.77913904190063 2.70039105415344 1.98586058616638 1.54728996753693 1.87315380573273 1.86204600334167 1.70248353481293 2.80758118629456 3.00044751167297 6.36370134353638 10.2743711471558 12.3803949356079 10.8825969696045 10.4004621505737 10.8798313140869 11.0689888000488 10.3743438720703 9.94689464569092 9.16913890838623 8.81601142883301 9.41599369049072 9.34641551971436 9.07942390441895 9.2555685043335 9.22150421142578 9.56942558288574 9.55237102508545 9.5003604888916 8.60195446014404 8.24576187133789 8.31948852539062 8.30865859985352 7.9595685005188 7.1025767326355 5.87141847610474 4.42498636245728 3.98499464988708 3.83550429344177 3.70054578781128 3.46796607971191 3.18425393104553 2.89098405838013 2.50164270401001 2.22936367988586 2.32823967933655 2.29048562049866 2.28477001190186 2.09933972358704 1.94075787067413 1.69476306438446 1.61983346939087 2.40840792655945 4.46409034729004 3.9733510017395 1.78481602668762 1.89606034755707 2.6284875869751 5.70663833618164 5.83334255218506 6.48772048950195 6.96229219436646 4.43131256103516 2.7169234752655 1.99766361713409 1.27377426624298 1.11375999450684 1.11399698257446 1.02181160449982 0.981829702854156 0.949300289154053 0.957092583179474 0.96726655960083 1.02279329299927 1.62150192260742 2.30357503890991 2.5906445980072 2.73055338859558 2.75099921226501 1.69054985046387 1.10248339176178 0.868224143981934 0.665585160255432 0.809618592262268
-0.987354099750519 1.55684518814087 1.8037623167038 0.996427774429321 0.189974188804626 -0.0927812084555626 -0.558200061321259 -0.779064834117889 -0.888099372386932 -0.877310216426849 -0.586255669593811 -1.18044745922089 -1.25851845741272 -0.748272955417633 -0.409831672906876 -0.156793430447578 -0.12187771499157 0.592811942100525 6.50336360931396 7.7902626991272 8.84707927703857 9.04329776763916 8.17555618286133 7.4445424079895 6.2125391960144 5.23534393310547 4.65414428710938 4.50186204910278 3.92253470420837 3.07576656341553 2.0132908821106 1.69619238376617 1.93276929855347 2.69742321968079 2.78736686706543 2.7841649055481 2.91332197189331 3.17881608009338 3.39681172370911 3.64931201934814 3.33014011383057 2.92136788368225 2.9041576385498 3.13154816627502 2.44759035110474 2.35199403762817 1.82743120193481 1.24951815605164 0.309978187084198 -0.579200208187103 -0.971114039421082 -1.18099510669708 -1.45975601673126 -1.70495319366455 -1.99121367931366 -3.16451072692871 -3.29193925857544 -4.05326843261719 -4.11012315750122 -3.96609020233154 -3.81093907356262 -3.5764319896698 -3.24220609664917 -3.10541987419128 -3.27042651176453 -3.34055876731873 -3.27316880226135 -3.14991426467896 -2.31195640563965 -1.56076848506927 -0.832591891288757 -0.100091509521008 0.461985856294632 0.7328240275383 1.81543684005737 2.04557251930237 1.7891960144043 1.7075332403183 3.29340434074402 5.60961866378784 5.61922073364258 5.93624448776245 5.31399011611938 4.96149444580078 4.87709379196167 4.98308563232422 5.22937440872192 5.45402812957764 4.59972476959229 2.83812737464905 1.7887237071991 1.62531280517578 2.97223353385925 3.86501359939575 4.33896541595459 3.16244077682495 4.92881917953491 5.43018770217896 10.455605506897 10.884804725647 9.20579433441162 9.57747459411621 9.85326385498047 9.71772384643555 9.55676746368408 8.97440528869629 8.34670352935791 7.99600887298584 8.44619941711426 8.45282936096191 8.12614345550537 7.83899831771851 8.1548547744751 8.1591911315918 8.40088367462158 8.4127140045166 7.92191123962402 7.6211838722229 7.65869092941284 7.75956201553345 7.44151020050049 6.90719556808472 5.63933038711548 4.09695339202881 3.81355214118958 3.55236053466797 3.36266088485718 3.075199842453 2.67441201210022 2.37962985038757 2.0336709022522 1.88125967979431 2.05575442314148 2.22070121765137 2.12374329566956 1.98501110076904 1.8196804523468 1.52396810054779 1.37221729755402 1.49540746212006 2.20339775085449 4.13397026062012 5.79202461242676 4.17871618270874 5.12366628646851 6.05640172958374 6.36588573455811 5.53384160995483 5.43829441070557 4.48101377487183 3.08865308761597 2.3092668056488 1.384681224823 1.13371527194977 1.09203970432281 0.935759782791138 0.802823901176453 0.713735282421112 0.584412753582001 0.485759556293488 0.438697785139084 0.838957071304321 1.78156507015228 2.33515906333923 2.58378028869629 2.57139897346497 1.63261103630066 1.01385521888733 0.838352918624878 0.696289837360382 0.615057170391083
2.52142930030823 2.53079581260681 1.79922330379486 1.24262189865112 0.190083056688309 -0.404197067022324 -0.986912488937378 -1.21014440059662 -1.20090985298157 -1.19111478328705 -1.17356657981873 -1.21645951271057 -1.06897819042206 -0.791145145893097 0.237675562500954 3.50483655929565 3.80955600738525 6.13090324401855 8.7566032409668 11.0850858688354 10.1755132675171 7.98028087615967 5.33384656906128 4.89611577987671 5.02785348892212 4.4426474571228 3.95995664596558 3.7152578830719 3.30838060379028 2.212895154953 1.46961688995361 1.38282740116119 1.56415963172913 2.24368405342102 2.39839553833008 2.34462571144104 2.45037245750427 2.67079663276672 2.76222658157349 2.71957397460938 2.72188234329224 2.54729056358337 2.2602231502533 2.20332384109497 1.86955833435059 1.38697516918182 0.332173466682434 -0.406732767820358 -0.60316526889801 -0.994113564491272 -1.29348731040955 -1.73484075069427 -2.09218311309814 -2.11764478683472 -2.22784042358398 0.975366055965424 2.28452515602112 0.159361556172371 -2.81491279602051 -4.03630495071411 -3.5665488243103 -3.65560913085938 -3.44076728820801 -3.29845571517944 -3.45559668540955 -3.47499632835388 -3.5696074962616 -3.49933218955994 -2.8492648601532 -1.98238158226013 -1.11418437957764 -0.525154531002045 0.0873294398188591 0.480331778526306 1.5152462720871 1.57389307022095 1.33821558952332 0.960153758525848 1.84330594539642 3.83623862266541 5.13006114959717 5.5127158164978 5.23126363754272 4.95379638671875 4.59659147262573 4.62898445129395 5.10872030258179 5.02566480636597 4.26182126998901 3.265549659729 3.70452356338501 4.97673511505127 6.12144994735718 8.58959865570068 8.89343357086182 9.14529609680176 8.6079216003418 5.03181266784668 9.09140300750732 10.9313125610352 8.71861267089844 8.70560550689697 8.97795009613037 8.84691619873047 8.70756721496582 8.1917142868042 7.47166538238525 7.16049194335938 7.63261938095093 7.51452827453613 7.48717451095581 6.90323638916016 6.36386156082153 5.95187568664551 6.19526290893555 7.13458681106567 7.24741268157959 7.05169868469238 7.09807586669922 7.2469425201416 7.14623355865479 6.62013912200928 5.50661325454712 4.05861377716064 3.65024375915527 3.4503014087677 3.14000129699707 2.80987691879272 2.29716753959656 1.9329731464386 1.78340435028076 1.78994274139404 1.84804904460907 2.02719879150391 1.96549475193024 1.85376691818237 1.73285341262817 1.49452614784241 1.96602201461792 1.44954335689545 1.54007482528687 4.01156759262085 5.35892581939697 5.30417394638062 4.93313121795654 5.40761613845825 5.90753555297852 5.32324409484863 4.58853054046631 4.00169372558594 2.85513472557068 2.10176014900208 1.17882359027863 1.10615086555481 0.977232158184052 0.784432470798492 0.555626153945923 0.347218334674835 0.193423941731453 0.216670677065849 0.20046803355217 0.496611177921295 1.19809114933014 1.83217096328735 2.31824350357056 2.31498217582703 2.64724445343018 1.16452074050903 0.648790776729584 2.00618982315063 6.69919872283936
2.50545001029968 1.82612919807434 1.82456374168396 1.23442685604095 -0.0957783162593842 -0.979631960391998 -1.24138939380646 -1.29520511627197 -1.29485011100769 -1.25009834766388 -1.21110486984253 -0.65132611989975 0.791131496429443 0.376174092292786 1.96539437770844 4.76754426956177 6.17929887771606 5.70164728164673 7.30575561523438 9.1132698059082 8.10492897033691 4.99216938018799 4.40742778778076 4.4348030090332 4.45198965072632 3.87265992164612 3.31513142585754 2.9554808139801 2.77483153343201 2.48610281944275 2.54456567764282 2.38208937644958 2.35186958312988 1.86664640903473 1.98293626308441 2.007244348526 2.13426876068115 2.23314476013184 2.24547839164734 2.26137232780457 2.07405638694763 1.88861036300659 1.63932311534882 1.62630081176758 1.23209536075592 -0.00700109405443072 -0.678394258022308 -0.686970770359039 -0.766502857208252 -1.11901593208313 -1.63096368312836 -2.15289735794067 -2.52631497383118 -2.5569441318512 -2.55760502815247 -0.527822077274323 1.04517614841461 1.48255777359009 0.0383310168981552 -1.95696210861206 -1.89828896522522 -0.894463539123535 -3.25408554077148 -3.23648285865784 -3.6111056804657 -3.60334753990173 -3.66226315498352 -3.68631553649902 -3.14664506912231 -2.46457695960999 -1.59698712825775 -0.950286865234375 -0.508985757827759 0.0613570027053356 1.21951496601105 1.39030659198761 0.914466738700867 0.626476526260376 1.0136638879776 3.64738488197327 4.46154928207397 4.96636199951172 5.11910343170166 6.03097772598267 5.56765651702881 6.40085554122925 5.15437459945679 4.82971143722534 4.35738849639893 5.7588415145874 6.45335578918457 7.24423456192017 8.19493579864502 8.01425266265869 8.30123329162598 9.89592742919922 8.49599266052246 6.13509273529053 9.59774780273438 9.91989994049072 8.13350391387939 8.03654384613037 8.31426429748535 8.13400173187256 7.79718112945557 7.38226938247681 6.93487024307251 6.32804346084595 6.62423753738403 6.46281099319458 6.06519651412964 5.06827449798584 3.59146857261658 3.62202548980713 3.71726322174072 5.03469896316528 5.99630737304688 6.28592729568481 6.45700407028198 6.60484886169434 6.60811567306519 6.16608905792236 5.2363133430481 3.97042751312256 3.40508198738098 3.29075121879578 3.13605499267578 2.78698587417603 2.2976975440979 1.79058516025543 1.58613979816437 1.63261890411377 1.69666635990143 1.78939640522003 1.77106118202209 1.68895149230957 1.66619622707367 5.08100366592407 5.92560958862305 7.38343572616577 4.11044502258301 3.78304076194763 4.67171144485474 5.39196348190308 4.75657081604004 4.61070346832275 4.82605314254761 4.33933687210083 3.79842042922974 3.51002740859985 2.61607122421265 2.0068690776825 1.26234257221222 1.05045294761658 0.918256819248199 1.03299510478973 0.543174982070923 0.10344572365284 0.0231475029140711 0.0333336852490902 -0.0154296271502972 0.190851956605911 0.725686192512512 1.44090032577515 1.98098623752594 2.07375288009644 1.83278179168701 2.35146045684814 7.22729587554932 9.1633768081665 10.3683748245239
2.35066962242126 2.10292291641235 1.46424293518066 0.958292663097382 -0.161110386252403 -0.974355518817902 -1.30574917793274 -1.34523701667786 -1.39055693149567 -1.33444976806641 -1.26467514038086 -0.655990540981293 0.553993046283722 -0.0615399815142155 0.967861831188202 4.00126695632935 5.88534593582153 6.57781744003296 6.08122873306274 4.84486150741577 4.8498101234436 4.41525602340698 4.35219812393188 4.22597217559814 4.15580940246582 3.56818771362305 3.04623055458069 2.65188264846802 2.29629921913147 2.03750228881836 2.42091226577759 2.93937230110168 2.25441026687622 1.50086200237274 1.55071520805359 1.73104321956635 1.72865056991577 1.73135948181152 1.82355546951294 1.51843369007111 1.00310289859772 0.656626403331757 0.497725397348404 0.727595567703247 0.432504117488861 -0.435764372348785 0.947151660919189 0.195834428071976 -0.974564373493195 -1.42062723636627 -1.8208703994751 -2.34190034866333 -2.73471832275391 -3.0172131061554 -3.0116593837738 -3.12598967552185 -0.846308171749115 0.750881671905518 0.730462789535522 1.52695071697235 -1.56618201732635 -1.86878716945648 -2.36663293838501 -2.86701726913452 -3.80742979049683 -3.7501699924469 -2.99384021759033 -3.77635264396667 -3.28972816467285 -2.78178715705872 -1.91581225395203 -1.34091901779175 -0.927020490169525 -0.451512604951859 0.877066850662231 1.0937215089798 0.707119464874268 0.374348044395447 0.604759573936462 3.26603484153748 4.45410919189453 5.76295232772827 8.83382129669189 11.7564878463745 8.98386859893799 6.85412406921387 5.7681245803833 8.23042392730713 8.15976238250732 5.79475545883179 5.5386323928833 5.65845727920532 5.67731380462646 5.79386568069458 5.76366853713989 8.15321731567383 10.8304147720337 9.20070552825928 10.963475227356 8.30422592163086 8.12129878997803 7.30592203140259 7.21709012985229 7.368004322052 7.20713138580322 6.90017795562744 6.51789283752441 5.73883247375488 5.28520154953003 5.03835153579712 4.36045169830322 2.93075442314148 2.81283259391785 2.94653511047363 3.30784916877747 3.90845227241516 4.22221612930298 5.12224531173706 5.71671390533447 6.00197744369507 5.98237943649292 5.55937671661377 4.85352754592896 3.98452472686768 3.07322359085083 3.09140205383301 3.01276111602783 2.7094144821167 3.8101544380188 1.66653788089752 1.30871856212616 1.46684324741364 1.53918433189392 1.6131626367569 1.62791562080383 1.58258712291718 1.58903026580811 3.95116353034973 8.72767162322998 9.33706474304199 8.85046672821045 4.83782243728638 4.66367816925049 4.76798534393311 3.88427400588989 3.4783947467804 3.83100771903992 3.43750548362732 3.09049654006958 3.04356455802917 2.47987198829651 1.99514603614807 1.30163741111755 0.928020775318146 2.01186561584473 1.57644689083099 0.879003703594208 -0.00532492995262146 -0.102078229188919 -0.0191202871501446 -0.0514889694750309 0.0681494101881981 0.45023649930954 1.14637792110443 1.72919583320618 2.11547803878784 2.04782629013062 3.60450053215027 8.16273403167725 7.8404746055603 7.45707321166992
2.18161392211914 1.95006632804871 1.42025697231293 0.932149231433868 1.15593457221985 1.88352453708649 1.16075479984283 0.319676846265793 2.02917909622192 0.599545776844025 -1.00758123397827 -0.0690395161509514 0.110027380287647 -0.388604491949081 1.34867227077484 2.63312244415283 4.52602624893188 5.70608377456665 4.72383165359497 4.06424140930176 4.21757221221924 4.12128448486328 4.3371376991272 4.21046686172485 3.97125434875488 3.36757254600525 2.64267945289612 2.16559505462646 1.70940816402435 1.76599729061127 2.35585165023804 1.8961056470871 1.57121884822845 1.1501772403717 1.18068718910217 1.48769211769104 1.48756694793701 1.48722159862518 1.28176712989807 0.922149121761322 0.523658931255341 0.249878704547882 -0.0133854616433382 0.0497131831943989 0.0641713663935661 3.32251834869385 2.5928807258606 1.49481654167175 -0.539268493652344 -1.34368896484375 -2.02941989898682 -2.68096113204956 -2.98892021179199 -3.22699522972107 -3.15852570533752 -2.61695528030396 -1.67005455493927 -0.197678551077843 0.184059306979179 -0.464975416660309 -1.27634751796722 -2.45966291427612 -2.36019015312195 -2.58488392829895 -1.51977038383484 -2.38234734535217 -2.52262139320374 -1.57057738304138 -2.32672452926636 -2.81430125236511 -2.14775323867798 -1.58996725082397 -1.25995206832886 -0.771087944507599 0.132338806986809 0.678639531135559 0.66641229391098 0.349757045507431 0.323296427726746 5.50238847732544 7.39794492721558 8.07330226898193 7.49830007553101 8.09800720214844 8.51103019714355 7.95510530471802 6.79792547225952 6.46777391433716 5.68180465698242 5.02349758148193 4.56595325469971 4.53703832626343 5.00487184524536 5.16578817367554 5.27853298187256 5.74853134155273 8.82963275909424 11.5114011764526 10.6122922897339 7.98563051223755 7.23639726638794 6.58919429779053 6.61179828643799 6.79739904403687 6.64578866958618 6.29511976242065 5.79106092453003 4.32080411911011 3.86462569236755 3.55374145507812 2.6487557888031 2.38367819786072 2.54586052894592 2.84122562408447 3.14454889297485 3.48473596572876 3.40487051010132 4.00331020355225 4.80272150039673 5.22328758239746 5.28819704055786 5.20214653015137 4.66098690032959 3.82337427139282 2.71783185005188 2.82573270797729 2.77003598213196 2.59802627563477 2.39657139778137 6.91288995742798 1.29794943332672 1.32607066631317 1.41942524909973 1.47750854492188 1.60700404644012 3.83830571174622 1.78505229949951 1.44525480270386 1.4366569519043 5.69130563735962 7.17293691635132 6.08467960357666 4.27764701843262 4.17422866821289 3.3900842666626 2.69695901870728 2.87405896186829 2.49710035324097 2.69411039352417 2.78058385848999 2.33637022972107 2.06987571716309 3.44037818908691 3.9552149772644 2.32478523254395 1.43885934352875 0.80582720041275 1.09810531139374 -0.180109143257141 -0.0453067794442177 0.944420337677002 0.0192978456616402 0.362768739461899 0.945566236972809 1.57720744609833 1.93434846401215 1.87009727954865 3.18380808830261 6.00529479980469 5.39174795150757 5.8080267906189
2.09999799728394 1.90699398517609 1.36705112457275 1.09260022640228 0.731323301792145 1.14660155773163 0.949787378311157 2.05152630805969 1.40487957000732 0.538223564624786 0.428668320178986 0.0584390796720982 -0.353724181652069 -0.0418963730335236 1.10764360427856 1.58980333805084 2.76515007019043 4.34124040603638 3.58331179618835 3.80633497238159 3.90685629844666 3.91041111946106 4.13285160064697 3.72587418556213 2.94633674621582 2.78699350357056 2.89667153358459 3.08903026580811 3.15034699440002 1.61483037471771 1.3530877828598 1.10856091976166 1.15133631229401 0.995863139629364 0.834940731525421 1.04135453701019 1.10195672512054 0.970712602138519 0.63238662481308 0.355655431747437 0.189410954713821 0.0493689030408859 -0.153901323676109 -0.162841156125069 -0.00887559540569782 1.89049744606018 1.64274299144745 0.625716090202332 -0.671581745147705 -1.39307701587677 -1.83497202396393 -2.23018646240234 -3.09863567352295 -2.85666584968567 -3.12989068031311 -2.56048941612244 -1.90598487854004 -0.243863597512245 0.603001475334167 -0.673501491546631 -1.87244629859924 -3.10399174690247 -2.71052718162537 -2.46293973922729 -0.745514035224915 -1.55384516716003 -1.71271014213562 -1.01487195491791 0.133619531989098 0.335186034440994 -1.0598521232605 -1.78833246231079 -1.37778973579407 -0.980408191680908 -0.549416780471802 0.559812724590302 0.598858296871185 0.316051632165909 1.35816085338593 5.28532075881958 7.40756320953369 9.59371280670166 10.7400913238525 8.99379444122314 8.05471897125244 7.7022533416748 6.1693434715271 5.38083982467651 5.31891012191772 4.4692234992981 3.94658708572388 3.96707010269165 4.50004625320435 4.70904159545898 4.98566961288452 5.52650499343872 6.98518419265747 8.63867378234863 9.30529975891113 7.17224931716919 6.05357456207275 5.70057964324951 5.8122615814209 6.0615291595459 5.88345527648926 5.63081169128418 4.95622062683105 3.61757349967957 2.69269919395447 2.25797653198242 2.14029383659363 2.15548229217529 2.466064453125 2.78869390487671 3.04334402084351 3.26622343063354 3.20166063308716 3.27613925933838 3.69123029708862 4.40737771987915 4.77431392669678 4.76943302154541 4.51773452758789 3.50334620475769 2.4537091255188 2.56626677513123 2.55312824249268 2.48537755012512 2.31848669052124 6.05280828475952 7.54878234863281 1.29919874668121 1.3569450378418 1.72372007369995 3.49310517311096 3.43298745155334 2.70024061203003 1.35943496227264 1.13272225856781 1.37144839763641 5.28896617889404 5.56158018112183 4.16811561584473 3.65149688720703 3.02635645866394 2.49994349479675 2.26487517356873 2.25309371948242 2.16606879234314 2.46006536483765 2.63210701942444 2.82055449485779 3.68093466758728 3.88989782333374 2.41937136650085 1.21987867355347 0.753435730934143 0.725122451782227 0.397182792425156 -0.144684478640556 -0.0646857023239136 0.0950698703527451 0.276625245809555 3.05563116073608 1.99713730812073 1.81901776790619 1.69950819015503 1.53716468811035 3.31215739250183 4.50927686691284 5.09312057495117
1.90512835979462 1.74863970279694 1.2182559967041 0.977123975753784 0.394421696662903 0.185459479689598 0.423088371753693 1.70281100273132 2.03672361373901 0.964918851852417 0.51313841342926 -0.16735965013504 0.0765253975987434 2.02552270889282 1.46620345115662 1.3224995136261 2.87991213798523 3.04039120674133 3.07491540908813 3.6342306137085 3.84954357147217 3.78808259963989 3.30022048950195 2.65235018730164 2.50519371032715 2.60483360290527 2.41093420982361 2.72605538368225 2.94371843338013 1.61596119403839 1.39322054386139 1.27815341949463 1.03148210048676 0.836443483829498 0.599953472614288 0.695993423461914 0.717316687107086 0.50817197561264 0.285001784563065 0.216379389166832 0.119181171059608 -0.050666555762291 -0.244213730096817 -0.248340979218483 -0.104983665049076 -0.246684208512306 -0.481960505247116 -0.719549357891083 -1.16364920139313 -1.56567299365997 -1.98977363109589 -2.55173683166504 -2.47151350975037 -2.39965343475342 -1.34655606746674 -1.88685405254364 -1.4349684715271 -0.834303259849548 -0.436700165271759 -0.881022930145264 -0.450482666492462 -1.3254486322403 -0.881926357746124 0.526374220848083 -1.21817028522491 -2.04821991920471 -3.11150693893433 -2.15995168685913 1.01826620101929 2.89355134963989 3.53398203849792 -1.5801157951355 -1.52624678611755 -1.11083400249481 -0.750972926616669 0.24737623333931 5.56366729736328 6.24599075317383 6.18164825439453 5.25323247909546 6.51289081573486 7.49228429794312 7.80320167541504 7.78515434265137 6.93550252914429 6.57692718505859 5.46264410018921 4.98740148544312 4.75312519073486 4.131516456604 3.64484977722168 3.78359007835388 4.26897001266479 4.4656867980957 4.6777400970459 5.21374034881592 6.56931924819946 7.53579330444336 7.99002170562744 6.37964105606079 5.29632425308228 5.09557914733887 5.05965852737427 5.15754127502441 4.94541454315186 4.89426040649414 4.2110652923584 3.23781085014343 2.43141055107117 1.84541726112366 1.86727273464203 1.94958412647247 2.05065751075745 2.3376157283783 2.69292783737183 2.96342611312866 2.9598925113678 2.99400234222412 3.18509364128113 3.89278745651245 4.42925453186035 4.4880199432373 4.18296241760254 3.30294418334961 2.31229710578918 2.31961750984192 2.42841744422913 2.43217325210571 2.34172034263611 4.57097148895264 6.41999816894531 4.12993288040161 1.537761926651 3.65236520767212 2.75822234153748 2.78162407875061 2.26617217063904 3.57451105117798 1.10047292709351 1.23465156555176 3.17952132225037 4.48752498626709 3.87027072906494 3.96027255058289 4.33002805709839 4.19627141952515 6.28470230102539 3.16516447067261 2.35739088058472 2.28778314590454 2.55677390098572 2.46715021133423 3.06106615066528 3.62882804870605 2.79041028022766 2.23215055465698 2.1358757019043 3.33027839660645 2.6921169757843 3.66697669029236 -0.0706436485052109 0.790203809738159 1.62344396114349 3.51187062263489 3.32798600196838 1.7462170124054 1.64015531539917 1.53563117980957 1.80523610115051 3.9452440738678 4.42180728912354
1.66906261444092 1.53980803489685 0.979665517807007 0.793479204177856 0.236511200666428 -0.0890041217207909 1.54951500892639 1.20102894306183 1.98142623901367 1.18273878097534 0.257455408573151 -0.372089803218842 0.445510596036911 1.3026819229126 1.43918013572693 1.15048635005951 1.59426724910736 2.36218881607056 2.90058183670044 3.14660263061523 5.42699003219604 5.03638315200806 4.04664754867554 3.22726225852966 2.47693300247192 2.46525812149048 2.34121823310852 2.21695828437805 2.65992140769958 3.28047490119934 2.8176383972168 1.95638906955719 0.57945591211319 0.161651432514191 0.208153456449509 0.331598490476608 0.521175682544708 0.448177635669708 1.7806578874588 1.53680634498596 0.819730699062347 0.036363922059536 -0.312942296266556 -0.55352771282196 -0.797764539718628 -1.07293283939362 -1.30344748497009 -1.31945884227753 -1.57573580741882 -2.03595399856567 -2.25100302696228 -2.65702199935913 -2.32955861091614 -1.09277975559235 -1.08739948272705 -1.9179790019989 -1.7298070192337 -1.9090348482132 -1.51715564727783 -1.36078226566315 -0.908065915107727 -0.434364378452301 -1.8695033788681 -1.2918564081192 -1.98013782501221 -2.669105052948 -3.20079922676086 -2.87988376617432 -0.503121733665466 2.81267833709717 3.15684962272644 0.96474277973175 -1.71998119354248 -1.12289822101593 -0.875587165355682 0.0379724316298962 2.17737174034119 8.36741828918457 7.54099607467651 6.27270221710205 4.98897743225098 5.62149953842163 6.13107061386108 6.67137956619263 6.04556751251221 5.58137559890747 5.1419882774353 4.75047874450684 4.53936767578125 4.11855936050415 3.73303413391113 3.67418098449707 4.01650619506836 4.12960386276245 4.32590627670288 4.84100914001465 6.00958919525146 6.86917734146118 7.20476484298706 5.65534019470215 4.86051464080811 4.58208131790161 4.463210105896 4.45473289489746 4.40394926071167 4.37405824661255 3.78205680847168 2.96877837181091 2.18676161766052 1.70769202709198 1.67795050144196 1.63765478134155 1.53430676460266 1.8240282535553 2.32685327529907 2.8014440536499 2.93907737731934 4.08793878555298 3.73363375663757 3.82489371299744 4.25348424911499 4.25287485122681 4.09411478042603 3.31160259246826 2.38209390640259 2.14968872070312 2.39111971855164 2.38285827636719 2.29234600067139 3.27466106414795 4.81976938247681 3.96486759185791 2.15456819534302 2.75199031829834 3.97877192497253 2.7250964641571 2.03482294082642 1.34173536300659 3.55978775024414 1.22673273086548 1.7776700258255 3.46171426773071 3.71082401275635 3.94349575042725 4.32273435592651 3.96344017982483 6.02346611022949 6.15399503707886 3.94442009925842 2.73979353904724 2.56236481666565 2.27714109420776 2.20719337463379 3.358717918396 5.24189424514771 3.74900412559509 3.6890697479248 3.29083633422852 5.09547805786133 7.75756788253784 8.35656070709229 4.75103378295898 2.65223526954651 4.83415269851685 4.80548334121704 2.35398006439209 1.81761562824249 1.60379230976105 1.33139336109161 3.47439432144165 3.75078845024109
1.3389607667923 1.19380748271942 0.998528778553009 0.533951044082642 0.309744656085968 -0.175842627882957 1.1882346868515 0.939674615859985 0.97525680065155 0.647778332233429 0.139565974473953 -0.0823720246553421 0.239854350686073 0.610568463802338 1.08061265945435 0.923819124698639 1.05280041694641 1.84318625926971 4.22489833831787 8.45337581634521 7.43413305282593 4.73746681213379 3.88182067871094 3.86724352836609 2.42225861549377 2.29012727737427 2.03241419792175 1.65115690231323 2.0898072719574 3.27948093414307 2.78961968421936 2.24464440345764 0.654850006103516 1.02859795093536 2.01470351219177 2.36223387718201 2.87685990333557 2.13854956626892 1.48552000522614 1.57420825958252 0.554075002670288 -0.466694265604019 -0.752338349819183 -0.961153388023376 -1.08555269241333 -1.43235313892365 -1.53431057929993 -1.7572193145752 -2.14066243171692 -2.40562415122986 -2.64956140518188 -2.88922476768494 -3.10868382453918 -2.1130805015564 -1.67971777915955 -2.53119111061096 -3.21002793312073 -3.28407716751099 -2.62753105163574 -2.71662020683289 -2.82746195793152 -3.13148522377014 -3.3443284034729 -3.59311437606812 -3.70072174072266 -3.96573948860168 -3.80893468856812 -4.21912384033203 -3.62626814842224 -0.762597382068634 0.0338585190474987 -1.10991775989532 -1.92398488521576 -1.33774304389954 -0.451598882675171 -0.0451917424798012 2.66899967193604 6.02495241165161 6.50016593933105 5.68021011352539 3.57754755020142 4.24690246582031 4.94857215881348 5.7662034034729 5.29213380813599 5.28831911087036 4.82755613327026 4.48911952972412 4.45569372177124 4.38631343841553 3.95051598548889 3.40492010116577 3.52714371681213 3.78292655944824 3.98426175117493 4.25669050216675 4.97750473022461 5.88356161117554 6.35218095779419 5.29861640930176 4.62296295166016 4.49671316146851 4.19702911376953 4.05681037902832 4.10839414596558 4.06246089935303 3.49996256828308 2.85905647277832 6.07723045349121 6.34904670715332 1.5746887922287 1.43574023246765 1.43336927890778 1.656623005867 2.23672008514404 2.67896032333374 2.89028072357178 7.18098926544189 6.22466230392456 3.86457848548889 4.06405067443848 4.16434764862061 4.05764245986938 3.44860410690308 2.54148173332214 1.97379434108734 2.28303670883179 2.28852105140686 2.22956585884094 2.42974829673767 5.07506704330444 4.81517124176025 2.53777146339417 2.13580346107483 4.14438724517822 3.06440329551697 3.5278627872467 6.03424692153931 6.4698371887207 3.36006569862366 1.69020664691925 2.83295512199402 3.74042391777039 3.97006106376648 3.85690879821777 5.33513307571411 5.47327375411987 5.70389270782471 5.00325298309326 3.66022872924805 2.5440399646759 2.23779058456421 2.14944338798523 2.65494728088379 4.80001974105835 6.90392398834229 5.52572154998779 5.99687719345093 5.75613689422607 6.79632997512817 6.62794876098633 4.3127236366272 3.19192218780518 4.74964666366577 3.96704411506653 2.59873914718628 1.79006040096283 1.60083258152008 1.29897403717041 2.99689078330994 3.16456842422485
1.06734263896942 1.01512932777405 0.869410395622253 0.473690152168274 0.344142645597458 0.0829047784209251 0.359877943992615 0.213430821895599 0.329684674739838 1.01234722137451 1.19648885726929 0.902411937713623 0.783182680606842 1.41062712669373 1.69212436676025 2.85943198204041 4.60911130905151 3.88694715499878 5.29114484786987 7.76557445526123 6.43629312515259 3.64077353477478 3.12677359580994 2.72207427024841 1.79644882678986 1.17885899543762 1.09100937843323 1.15819406509399 1.59683632850647 2.30451893806458 2.66353368759155 2.59372591972351 2.52288818359375 6.10818719863892 5.36199998855591 3.51896286010742 1.86724519729614 0.639074325561523 0.529092371463776 0.883251070976257 -0.126303121447563 -0.778946876525879 -1.09628927707672 -1.18316233158112 -1.2690337896347 -1.50966620445251 -1.79682278633118 -1.96981644630432 -2.24461364746094 -2.44167685508728 -2.65977430343628 -2.8545401096344 -3.13901400566101 -3.29625201225281 -3.2772490978241 -3.28038740158081 -3.37855100631714 -3.7789146900177 -3.72104859352112 -3.55298733711243 -3.53205442428589 -3.8130955696106 -3.75844621658325 -3.73769235610962 -4.27202796936035 -4.60443305969238 -4.13644886016846 -4.15994787216187 -3.58441853523254 -2.64791369438171 -2.20031189918518 -2.70014333724976 -2.32753801345825 -1.09835374355316 -0.0312061663717031 2.257080078125 3.40192723274231 4.07786989212036 6.21614408493042 5.26472854614258 3.31343913078308 3.96172428131104 4.73927164077759 5.17532777786255 5.02154779434204 4.90839338302612 4.56596755981445 4.29159307479858 4.37030839920044 4.29721450805664 3.83931732177734 3.2541663646698 3.30271792411804 3.581378698349 3.79001569747925 3.99970960617065 4.31984615325928 5.07652902603149 5.76226329803467 4.94942045211792 4.5701117515564 4.34045743942261 4.04798460006714 3.95171165466309 3.95038962364197 3.89847183227539 3.46201586723328 2.97474026679993 5.48004150390625 4.94711065292358 1.30923879146576 1.23690259456635 1.37284815311432 1.64315342903137 2.06779098510742 2.56713008880615 3.8971586227417 6.28918552398682 8.3341178894043 6.74116849899292 3.88300228118896 4.01992464065552 3.88818407058716 3.44458365440369 2.50726437568665 1.78575217723846 1.93933463096619 1.90384614467621 2.05786681175232 2.08018755912781 4.80086088180542 10.1427164077759 11.4402666091919 8.14426136016846 3.7471969127655 2.96788763999939 5.35988759994507 8.31002140045166 9.37068653106689 8.39883804321289 5.2910361289978 2.91539645195007 4.02616596221924 6.83694934844971 5.51421737670898 5.09001636505127 4.42951488494873 4.89067602157593 4.51596689224243 3.76670050621033 3.00203585624695 2.43608999252319 2.15437507629395 2.44861054420471 2.9425196647644 5.66116285324097 7.19704437255859 5.77809715270996 4.92282581329346 4.72688436508179 5.3134708404541 5.94440078735352 6.02541160583496 4.22929954528809 3.39282727241516 2.326655626297 1.89809536933899 1.57879281044006 1.27313685417175 1.90311062335968 2.20472574234009
0.895838499069214 0.872525751590729 0.715929627418518 0.249884948134422 0.13056606054306 -0.339918851852417 -0.537754774093628 -0.212010085582733 0.014863801188767 0.457694530487061 0.541467607021332 0.892852008342743 1.48023700714111 1.58328557014465 1.60994350910187 2.64402079582214 4.77800321578979 3.65422916412354 4.44960975646973 3.83742165565491 3.20044898986816 3.17373967170715 2.94346594810486 1.73218834400177 0.714135587215424 0.53727388381958 0.649127840995789 0.834810554981232 1.32585167884827 1.6596177816391 2.55022358894348 2.24371695518494 7.08832120895386 8.00432682037354 6.48550844192505 5.30463457107544 2.11714172363281 0.294198513031006 0.244028493762016 0.248977705836296 2.00872755050659 5.13106536865234 3.349365234375 -1.20371663570404 -1.40245032310486 -1.69977927207947 -1.38341808319092 -1.19803178310394 1.00794994831085 -0.204112514853477 0.271812170743942 -0.776654243469238 -2.62017226219177 -3.08527088165283 -3.38051867485046 -3.38335108757019 -3.50202059745789 -3.90067768096924 -4.05265378952026 -4.27934217453003 -4.58606767654419 -4.47284317016602 -4.08044338226318 -3.86137127876282 -4.09000682830811 -4.73842430114746 -4.62114381790161 -3.86199259757996 -2.03956151008606 -2.43268585205078 -2.2030782699585 -3.00356197357178 -2.63501238822937 -0.62427145242691 1.67478096485138 4.3678560256958 5.46409225463867 4.96234703063965 5.55528545379639 5.00973081588745 4.09875726699829 4.54049730300903 4.4476432800293 4.89065217971802 4.91459274291992 4.70885944366455 4.35976934432983 4.17243576049805 4.2190580368042 4.14702796936035 3.7069628238678 3.15656781196594 3.13707280158997 3.37591624259949 3.52753949165344 3.70441007614136 3.9750554561615 4.70185565948486 5.14381456375122 4.65827465057373 4.43153858184814 4.24126195907593 3.97534346580505 3.86145925521851 3.82249450683594 3.76809000968933 3.35469436645508 2.82211756706238 3.4003324508667 4.22469472885132 11.2399215698242 2.97395014762878 1.56410717964172 2.19865083694458 1.88837277889252 2.38012933731079 2.98288249969482 6.26244115829468 7.64510345458984 5.91060400009155 3.75718116760254 3.88178324699402 3.71780347824097 3.12386465072632 2.04734873771667 1.47377860546112 1.68691492080688 1.64821207523346 1.84570467472076 2.10803198814392 10.31591796875 11.776047706604 12.3330907821655 11.3647365570068 7.00054121017456 4.24034595489502 5.77555513381958 7.67779493331909 9.42525386810303 12.339165687561 12.793888092041 7.73793268203735 4.63304615020752 3.82825422286987 3.68414521217346 3.81888318061829 3.94831037521362 4.34086179733276 3.74215602874756 3.34062695503235 2.66201043128967 2.338787317276 2.06558418273926 2.24467968940735 2.66243100166321 2.83279514312744 4.3574366569519 4.25071144104004 3.65689587593079 3.85166954994202 4.88789987564087 5.69461822509766 6.08190393447876 5.2137975692749 3.34171962738037 2.42312335968018 2.02533674240112 1.51744198799133 1.36400437355042 1.06318438053131 1.94851183891296
0.832507610321045 0.803671181201935 0.61873197555542 0.0701581537723541 -0.174066036939621 -0.607219099998474 -1.01519525051117 -0.908707916736603 -0.240075841546059 0.00607572868466377 0.199393197894096 0.697614729404449 1.4459308385849 2.17135620117188 2.59879732131958 2.37378454208374 4.22262954711914 6.04775619506836 5.25126791000366 2.61260581016541 2.61662077903748 3.26446270942688 2.7859947681427 1.58086371421814 2.23875212669373 2.5105357170105 1.40908443927765 3.46800827980042 3.58926105499268 4.2374382019043 6.235191822052 7.23939514160156 7.16175937652588 6.70867109298706 5.46969985961914 3.99536037445068 2.47034096717834 4.49849462509155 0.152425199747086 0.0536379478871822 0.73192423582077 3.05553579330444 2.23496031761169 0.721175253391266 0.592292904853821 0.466600894927979 -1.58114242553711 -1.11211562156677 0.638282120227814 0.286127895116806 -0.210737705230713 -1.99380135536194 -3.12036442756653 -3.47581791877747 -3.61695027351379 -3.67824101448059 -3.81001877784729 -4.17459058761597 -4.49873113632202 -4.57795238494873 -4.92644357681274 -4.68415975570679 -4.14475631713867 -4.13876676559448 -4.58682155609131 -4.80783891677856 -4.74164295196533 -4.05703926086426 -0.997321724891663 -0.694692015647888 -2.29591131210327 -1.9862824678421 -1.97426307201385 1.15420424938202 3.34563732147217 4.66501712799072 6.04982376098633 4.88855171203613 5.06142950057983 4.76650190353394 3.56301259994507 3.49358224868774 4.10663890838623 4.41745805740356 4.64442682266235 4.51880168914795 4.14912748336792 3.97147870063782 3.94701170921326 3.96492838859558 3.55895972251892 3.04732728004456 2.96476674079895 3.16732287406921 3.27871751785278 3.44550442695618 3.82031059265137 4.34045314788818 4.65029335021973 4.47912502288818 4.2967586517334 4.18685340881348 3.93778491020203 3.75830864906311 3.68195581436157 3.58230566978455 3.3305971622467 2.74667096138 3.05620336532593 3.34302115440369 8.41084289550781 6.49184703826904 5.4401216506958 2.42087125778198 3.26046681404114 2.17997431755066 2.61126136779785 5.46760225296021 5.8548059463501 4.72224807739258 3.64942932128906 3.75183510780334 3.53444910049438 2.74005794525146 1.653444647789 1.14435434341431 1.3409868478775 1.48876953125 1.71384489536285 2.04984831809998 6.97511863708496 8.98798656463623 10.6952257156372 11.2172374725342 9.62622165679932 8.67294597625732 7.06407880783081 8.47414398193359 9.10382747650146 11.465630531311 12.6234159469604 10.8342618942261 6.8184289932251 3.56544017791748 3.44673204421997 3.40484428405762 3.47387290000916 3.79585766792297 3.26790022850037 3.07717752456665 2.49934363365173 2.30165600776672 2.02950263023376 1.93559908866882 2.24008512496948 2.52904963493347 3.07386517524719 3.33287024497986 3.15825986862183 3.45070290565491 4.53154277801514 5.15427827835083 5.37489652633667 6.09599781036377 4.13067865371704 2.52425956726074 1.74409508705139 1.54147934913635 1.39704823493958 1.19081723690033 1.85169148445129
