NCOLS 174
NROWS 32
XLLCORNER 353952
YLLCORNER 6700048
CELLSIZE 16 
NODATA_value -3.4e+38 
3.39327907562256 4.02463817596436 4.05281925201416 4.57762718200684 3.8898549079895 4.30839490890503 3.55508852005005 3.54188537597656 3.23222017288208 3.23774838447571 3.29911684989929 3.10906076431274 2.6994423866272 2.66760802268982 1.95432114601135 1.65365481376648 0.98254805803299 1.02038681507111 0.540239334106445 0.602948069572449 0.887922286987305 1.79624283313751 3.08929753303528 4.01380491256714 4.02605056762695 2.52449178695679 3.35799837112427 3.33266162872314 3.08535599708557 3.02688694000244 2.65370225906372 2.47182130813599 2.35051369667053 2.17964506149292 2.01943135261536 2.03828144073486 2.07906365394592 4.95341730117798 4.6200532913208 5.27068614959717 5.36788558959961 5.09803533554077 5.49726915359497 5.8835768699646 4.96336889266968 4.41586208343506 4.55370140075684 4.62806415557861 4.78583574295044 4.36208772659302 4.11220455169678 3.96491312980652 3.25567245483398 3.52491164207458 3.7503604888916 3.64350652694702 3.96237707138062 7.80283403396606 6.08304738998413 4.77584457397461 3.81858921051025 5.3105001449585 3.71351456642151 4.64630365371704 4.0570330619812 1.83623087406158 3.39373183250427 0.0264002121984959 -0.682445049285889 -0.237107202410698 2.19648551940918 2.09794545173645 2.40651774406433 3.33199262619019 2.52090978622437 4.30593729019165 3.42899179458618 3.31793427467346 3.18393898010254 1.7552889585495 1.11272048950195 28.1938743591309 2.16789579391479 19.730899810791 7.837975025177 4.20674896240234 1.46873295307159 10.827844619751 2.71977806091309 1.61911249160767 1.70474088191986 0.974229574203491 3.77537298202515 6.11078548431396 11.6088132858276 4.04442405700684 7.1371865272522 7.47612524032593 5.70824098587036 5.2101469039917 1.8915513753891 20.1752796173096 2.70099854469299 12.2145214080811 32.3306732177734 23.872802734375 30.7177295684814 16.4029426574707 3.71621704101562 3.92280864715576 -0.615097999572754 -2.87993931770325 -3.81596875190735 -3.5581431388855 -3.43028736114502 -3.97490429878235 -1.69256293773651 -2.30628037452698 20.6576709747314 14.8920936584473 23.2491989135742 11.192403793335 8.30922317504883 6.92789268493652 -1.69082891941071 -2.63378357887268 -2.94753980636597 -2.94845175743103 1.34558534622192 -3.03501772880554 -3.07594966888428 -3.25622487068176 -2.98373961448669 -2.6571741104126 -2.94502282142639 -2.57865595817566 -2.34516835212708 -2.80811977386475 -2.22341895103455 -1.67515003681183 31.2114944458008 10.5625038146973 0.840337634086609 0.0344587340950966 4.57571268081665 -0.177428156137466 14.5375957489014 6.16244745254517 3.89220428466797 2.66457867622375 0.574272394180298 0.69984757900238 0.853523015975952 0.971617758274078 0.964702308177948 1.37132954597473 1.47915756702423 1.5393899679184 1.49592757225037 1.46719598770142 1.5192586183548 1.68062400817871 1.60512018203735 1.68450045585632 2.54085659980774 2.89809226989746 2.76855897903442 2.65824604034424 2.56705212593079 6.72998476028442 9.69470405578613 9.84522533416748 10.2733097076416 9.81984901428223
3.93732666969299 4.31442546844482 4.85422277450562 4.10623836517334 4.58584022521973 3.77238273620605 3.60167360305786 3.47545909881592 3.54639005661011 3.51489949226379 3.32940936088562 2.92504572868347 2.89659881591797 2.17556095123291 1.86823785305023 1.17492604255676 0.974211990833282 1.05664837360382 0.623767077922821 0.684757471084595 0.484056949615479 0.762260973453522 1.97239303588867 2.89217662811279 3.91279935836792 2.92404270172119 4.41209936141968 3.70020151138306 3.18488907814026 3.41150259971619 2.85913801193237 2.67001843452454 2.41593050956726 2.22256326675415 2.10479927062988 2.14420390129089 5.26409101486206 4.92584323883057 5.60588455200195 5.80159473419189 5.50219106674194 5.94065237045288 6.38510227203369 5.34697198867798 4.84405279159546 4.90777158737183 4.99668645858765 5.14301109313965 4.70049810409546 4.44732713699341 4.30347967147827 3.57775187492371 3.87674236297607 4.05129623413086 5.37040567398071 6.00722217559814 12.9843244552612 8.93164920806885 6.0448431968689 4.37481498718262 5.62432241439819 3.73158860206604 5.13238573074341 2.29810571670532 4.34042167663574 4.88061666488647 4.25872325897217 -0.202705383300781 -0.0760725662112236 2.26769828796387 2.1346173286438 2.01100420951843 12.2978658676147 1.73382532596588 3.89957571029663 3.91464757919312 4.08246803283691 3.70514750480652 7.223952293396 1.4048855304718 1.18220818042755 8.29671859741211 6.09025287628174 9.21517086029053 12.3839426040649 16.211784362793 1.44976651668549 2.83135104179382 6.82879638671875 18.6510543823242 3.57473015785217 4.87509107589722 2.76497483253479 4.25689554214478 8.22139453887939 8.49543762207031 9.14974498748779 8.13274574279785 8.33818340301514 7.95192956924438 3.05040431022644 3.19306397438049 0.122066989541054 1.13279318809509 6.78304052352905 23.8716945648193 31.0338134765625 24.1975841522217 5.83375072479248 5.98662185668945 1.60687446594238 -2.40708541870117 -2.44658398628235 -2.24036478996277 -3.00172591209412 -3.74086928367615 -2.23788380622864 -0.768911182880402 17.7112808227539 40.0391807556152 14.8415784835815 10.7560205459595 28.4362659454346 8.51614761352539 1.3485871553421 -2.15994310379028 -2.78983545303345 -3.04584956169128 -2.91170907020569 -0.946997165679932 -2.37697005271912 -2.1927285194397 -2.23033595085144 -2.42420530319214 -1.93368911743164 -2.00246405601501 -2.09438490867615 -2.15482592582703 0.86952942609787 -0.951182305812836 5.63017654418945 3.41044116020203 0.203284844756126 5.39390897750854 0.0936085283756256 6.85081481933594 7.11771726608276 4.36222553253174 2.99629497528076 0.590097546577454 0.838477611541748 0.993740797042847 1.20540511608124 1.39058578014374 1.45018720626831 1.57920944690704 1.65529155731201 1.6396392583847 1.65729677677155 1.72473907470703 1.82483088970184 1.75995028018951 1.56174278259277 1.58082902431488 1.87276291847229 2.63915181159973 3.2250714302063 2.72624707221985 7.25174570083618 10.5537090301514 10.7467489242554 11.361517906189 10.8571500778198 10.9511461257935
4.47637748718262 4.5136079788208 5.07968235015869 4.84760713577271 3.97422933578491 3.8039128780365 3.60232257843018 3.75133657455444 3.85520386695862 3.58795714378357 3.13842868804932 3.10186862945557 2.386962890625 2.07697677612305 1.39362478256226 1.16839826107025 1.19693768024445 0.718299746513367 0.727481603622437 0.216434925794601 0.24216802418232 0.255613595247269 1.47133588790894 2.18751239776611 3.14111137390137 3.25421690940857 4.66309070587158 4.02339792251587 4.95393228530884 3.43930888175964 3.00397348403931 2.84460020065308 2.52904677391052 2.37076640129089 2.28887987136841 5.61550188064575 5.37728977203369 5.94450283050537 6.27996969223022 5.96220731735229 6.43977022171021 6.935706615448 5.74596452713013 5.23850727081299 5.17068147659302 5.17960453033447 5.57265758514404 5.06775808334351 4.76740026473999 4.58096027374268 3.8316376209259 4.18370532989502 4.38353967666626 8.81299495697021 10.6377029418945 26.0514106750488 14.6293382644653 10.5334272384644 6.96482086181641 3.52048873901367 6.23248529434204 5.62836503982544 2.77949142456055 5.21120405197144 5.67614889144897 4.68507242202759 4.80904388427734 5.69587707519531 2.77094769477844 2.15724205970764 2.02404808998108 1.40999126434326 1.92433714866638 3.26058125495911 6.05089473724365 4.31578874588013 5.80541706085205 1.93665659427643 2.68233418464661 1.34310865402222 1.20875763893127 1.2759325504303 0.909567475318909 5.30729627609253 1.5672310590744 21.3047218322754 5.17581176757812 1.96559154987335 2.04119944572449 14.42347240448 12.8349962234497 7.754478931427 9.98588085174561 11.2267179489136 11.054801940918 11.478572845459 11.646674156189 13.1670303344727 9.62369632720947 4.13063335418701 3.37785005569458 2.32284164428711 0.00875166710466146 -0.747219681739807 -0.962978720664978 -0.119664572179317 3.02594494819641 13.3722333908081 11.8570489883423 -1.15608859062195 -1.69325625896454 8.08460903167725 -1.72877526283264 -2.18831348419189 -1.81773364543915 -1.13345575332642 -1.17983329296112 -0.224042952060699 0.465953022241592 21.1286716461182 13.8024644851685 47.5173377990723 30.5148277282715 24.2385101318359 -1.82198703289032 -2.1461009979248 3.58886933326721 -2.70805549621582 4.03186559677124 1.76679873466492 -2.05376291275024 -1.76225328445435 -1.81161820888519 -1.61998426914215 -1.52450823783875 -1.66789102554321 -1.45631873607635 -1.60633969306946 2.6187207698822 0.399040460586548 0.608540296554565 0.838103294372559 13.297926902771 1.00263905525208 0.862977087497711 10.7716264724731 8.40516471862793 3.41637897491455 0.761517107486725 0.732612907886505 0.856775879859924 0.828252196311951 1.06112205982208 1.47172093391418 1.6472282409668 1.73624217510223 1.73261761665344 1.7767117023468 1.872225522995 1.99856293201447 1.93413400650024 1.67601633071899 1.61434173583984 1.29759621620178 1.24900674819946 2.29991960525513 2.95499181747437 8.08225536346436 11.8370208740234 12.0435934066772 12.6911706924438 11.99866771698 12.0794878005981 11.5158224105835
4.81313991546631 5.48178768157959 4.69841289520264 5.07363748550415 4.0019965171814 3.76854825019836 3.91763806343079 4.01258420944214 3.96566820144653 3.42951941490173 3.32111358642578 2.56134819984436 2.26146078109741 1.60898172855377 1.37508749961853 1.38336539268494 0.882189214229584 0.837807595729828 0.240710869431496 0.073198027908802 0.0175809096544981 0.492965161800385 1.0834949016571 1.77754127979279 2.82769727706909 3.36442875862122 3.51735305786133 2.71476721763611 5.09044647216797 3.62601256370544 2.90760159492493 2.83868432044983 2.82838773727417 2.54327344894409 2.41238236427307 5.87383699417114 6.28924369812012 6.81952428817749 6.4907374382019 7.03912305831909 7.59474515914917 6.25057792663574 5.88019704818726 5.5011191368103 5.58973550796509 5.65567445755005 5.78690719604492 5.36395359039307 4.90423202514648 4.02816534042358 4.40013360977173 4.66911506652832 18.4121494293213 8.51818752288818 1.14913070201874 28.3497543334961 22.4574279785156 16.6576232910156 3.79450106620789 7.63162326812744 6.30971622467041 6.07024192810059 6.55840539932251 4.30807828903198 6.09717655181885 6.05839920043945 7.56696033477783 2.96172881126404 2.9976978302002 2.52383136749268 2.24897956848145 3.95110416412354 2.68723058700562 13.7031860351562 4.63625860214233 2.96955919265747 2.27666044235229 1.30232512950897 1.56727409362793 1.54057633876801 6.97912502288818 1.61290991306305 2.41305422782898 2.26327657699585 1.84989583492279 8.21835136413574 4.20860528945923 2.38585472106934 32.0052833557129 17.9521083831787 13.3474388122559 18.2159099578857 22.0663375854492 24.3739929199219 20.7983074188232 15.7302865982056 14.8752717971802 14.9040555953979 10.5037021636963 7.50663423538208 6.50964879989624 3.40481233596802 1.81871831417084 -0.665328323841095 0.467166811227798 0.856520771980286 16.8352527618408 22.4647827148438 12.2888107299805 -1.38317716121674 -1.98352313041687 -1.33066356182098 4.05158805847168 2.69457292556763 7.78442668914795 1.85407912731171 1.87553691864014 0.794850945472717 38.010383605957 19.6232509613037 -0.301466017961502 20.043758392334 42.3922500610352 16.7264442443848 3.33879113197327 -1.92493903636932 -2.57290530204773 -2.68175768852234 -1.70390653610229 -1.89542388916016 -1.71768546104431 -1.58118283748627 -1.14684975147247 -1.08621668815613 0.750526905059814 -0.460441768169403 -0.557812094688416 -0.535978496074677 10.2938289642334 0.731835782527924 1.3819864988327 1.11445701122284 1.67651689052582 6.6644287109375 13.3067350387573 10.2199230194092 6.11104774475098 4.35131072998047 1.33383417129517 1.31602334976196 0.853876352310181 0.984189987182617 1.47208273410797 1.66015601158142 1.78937458992004 1.81156480312347 1.8581371307373 1.97065889835358 2.11788153648376 2.04924178123474 1.81185019016266 1.7344856262207 1.3570009469986 1.42996978759766 1.83532702922821 2.3574321269989 9.02508449554443 13.5620355606079 13.794361114502 14.5586090087891 13.4536714553833 13.3670530319214 12.8149185180664 16.2094097137451
5.72786569595337 4.9272403717041 5.48291683197021 4.4349799156189 3.99509644508362 4.11869239807129 4.18716144561768 4.11268472671509 3.79189515113831 3.62644004821777 2.78365159034729 2.44187426567078 1.79301846027374 1.56892144680023 1.56608164310455 1.10671198368073 1.0113627910614 0.302331179380417 0.1015530154109 0.0182422380894423 0.503551065921783 0.477163195610046 0.666078507900238 1.28259515762329 2.0023877620697 3.2055344581604 3.61574721336365 2.78677225112915 3.42138290405273 3.72567224502563 3.13005876541138 3.03804707527161 2.85361933708191 2.86905670166016 6.43042182922363 6.76611757278442 7.4570369720459 7.13815498352051 7.76664113998413 8.35656929016113 6.88989305496216 6.31745290756226 5.86862897872925 6.08210039138794 6.12331819534302 6.26167964935303 5.78797435760498 5.40716743469238 4.35971784591675 4.6630482673645 4.90654563903809 2.72394752502441 2.67476844787598 9.5800313949585 0.269787192344666 3.80364871025085 5.92264032363892 4.14456987380981 10.7213792800903 12.3246631622314 7.00052356719971 7.95384645462036 4.50528001785278 7.29463243484497 7.88134860992432 10.1402702331543 3.85785675048828 3.18745923042297 2.73690128326416 3.13573813438416 4.66897439956665 4.42414474487305 4.91396331787109 18.2613639831543 4.74725866317749 2.87002086639404 5.21085691452026 2.04126667976379 8.55709743499756 1.61251056194305 3.89013576507568 5.70421838760376 8.04636287689209 5.17253398895264 1.9195659160614 2.47814679145813 13.9698352813721 1.43310141563416 13.6755466461182 23.2205696105957 15.5770301818848 25.4250526428223 16.201171875 37.8164939880371 19.81325340271 29.7850017547607 19.4357376098633 15.3353872299194 14.6980724334717 12.2039661407471 8.36829471588135 6.63271284103394 6.20756101608276 1.46965837478638 1.56861674785614 0.0278098490089178 -1.09037148952484 -0.230286732316017 2.89333868026733 5.78006935119629 -0.581344187259674 6.87766981124878 8.90178871154785 10.4061756134033 8.9736909866333 6.56409740447998 1.08651924133301 0.821725189685822 36.2247047424316 0.440856516361237 -0.188154965639114 -0.969240009784698 30.588529586792 30.7173042297363 16.2584953308105 -0.56127518415451 -2.53020119667053 -1.43363666534424 -1.84290623664856 -1.60369956493378 -1.52793264389038 -1.35762131214142 -0.866798758506775 -1.09393668174744 -0.174299255013466 0.0879938155412674 0.346104681491852 0.202084377408028 12.4556427001953 1.52387320995331 1.88593316078186 2.28994607925415 16.087869644165 17.6703224182129 13.649790763855 7.55617427825928 5.42715740203857 2.86053943634033 1.94291150569916 1.57611703872681 1.05484545230865 1.5339469909668 1.69962561130524 1.82064306735992 1.87685179710388 1.95178115367889 2.06236171722412 2.21040010452271 2.14491939544678 1.88196384906769 1.82426524162292 1.90775394439697 1.87265574932098 1.89204454421997 2.38853764533997 2.38277339935303 10.1089420318604 15.0139942169189 15.3985767364502 15.9940528869629 16.7681465148926 14.34645652771 20.5749320983887 20.5124168395996
5.18520498275757 5.8437614440918 4.73629426956177 4.48929738998413 4.41817140579224 4.42283010482788 4.33465433120728 3.9289653301239 3.92350387573242 3.09750699996948 2.69896078109741 2.03316068649292 1.7629988193512 1.73060870170593 1.32109475135803 1.25522065162659 0.413610726594925 0.16847825050354 0.0403848886489868 0.538060128688812 0.486198961734772 0.131521433591843 0.560600876808167 1.04110491275787 1.64710211753845 2.75525045394897 3.23861908912659 2.91862344741821 3.26514983177185 3.72060322761536 4.41796636581421 3.11929488182068 2.87817716598511 7.08351850509644 8.02417659759521 8.33195877075195 7.93098402023315 8.61428260803223 9.31649017333984 7.71143341064453 6.93735074996948 6.40819311141968 6.68403005599976 6.66021060943604 6.7767481803894 6.25619888305664 5.79735088348389 4.87662744522095 5.05492258071899 5.34770059585571 3.9639720916748 3.93085122108459 2.19985055923462 0.742565155029297 0.0655287727713585 11.3277215957642 4.35468721389771 14.1943426132202 3.36040377616882 9.60165309906006 14.7976570129395 4.55316591262817 8.08596229553223 10.4237747192383 14.5976057052612 5.29152679443359 4.32419395446777 3.66880106925964 4.452561378479 6.3745379447937 4.77069568634033 7.83210754394531 4.4077935218811 5.96282577514648 4.70567750930786 2.19442701339722 2.18762898445129 1.6833930015564 14.5278911590576 2.28053331375122 1.78513514995575 3.06156539916992 13.4695434570312 2.62416887283325 1.96807420253754 3.20837116241455 2.13174605369568 1.22147822380066 12.1603698730469 15.4950180053711 29.5396385192871 19.0473823547363 13.8085975646973 22.8836345672607 14.191258430481 25.0701847076416 17.7494297027588 18.4267959594727 20.5097179412842 12.9752140045166 7.77776765823364 7.45615386962891 15.5294876098633 8.79825592041016 7.56688594818115 1.47216773033142 1.97439455986023 15.5245037078857 0.0227770581841469 16.2735729217529 2.44703435897827 15.4827575683594 20.6466541290283 11.3361654281616 10.0359020233154 10.3648920059204 3.00425267219543 1.0844954252243 2.49113249778748 -0.0958569869399071 -0.668123245239258 -0.599932193756104 7.25434875488281 29.9438781738281 25.9429721832275 12.9585494995117 1.74576985836029 -0.02189483307302 -1.09958159923553 -1.28020012378693 -0.910862684249878 -0.624390244483948 -0.169284075498581 0.0687162205576897 24.2314739227295 2.52921748161316 3.73616075515747 1.03366839885712 1.68100321292877 2.05549073219299 2.51690149307251 2.29443526268005 25.8102607727051 20.4893589019775 10.4953641891479 7.60257196426392 3.87299203872681 3.66192054748535 3.18577241897583 2.43118500709534 1.80984902381897 1.85399651527405 1.94923150539398 1.96712863445282 2.05069255828857 2.17687010765076 2.31780886650085 2.23860454559326 1.9775173664093 1.87721610069275 1.9623361825943 1.92663168907166 1.99295508861542 2.46043634414673 2.40710210800171 12.007381439209 18.0533103942871 18.446798324585 19.4395904541016 30.0715389251709 17.1265811920166 28.5705585479736 28.4009227752686 22.587308883667
6.3707447052002 5.07376337051392 4.77420234680176 4.40202379226685 4.6877818107605 4.62089347839355 4.17165422439575 4.08963537216187 3.31186819076538 3.03293967247009 1.52953279018402 2.16898512840271 1.93300914764404 1.53372132778168 1.46062755584717 0.521956622600555 0.282604724168777 0.125169590115547 0.610498309135437 0.529285073280334 -0.064182385802269 -0.0980329886078835 0.217247307300568 0.614455759525299 1.23539340496063 2.0788893699646 2.65333032608032 3.43059372901917 3.69167876243591 2.7659957408905 3.31241631507874 3.38335800170898 7.8638973236084 6.45534801483154 9.053053855896 8.65167808532715 9.46139526367188 10.2838153839111 8.5161075592041 7.60857343673706 7.10216474533081 7.37467813491821 7.31770086288452 7.35799264907837 6.76865911483765 6.22906494140625 5.72615432739258 4.85399532318115 5.2844295501709 5.49725484848022 4.14597082138062 2.75279831886292 1.16336405277252 1.33644092082977 21.7461071014404 4.59750080108643 23.373851776123 3.66303634643555 12.2700242996216 0.797113001346588 5.7821307182312 11.1778373718262 15.6046571731567 24.2364101409912 7.82793569564819 6.56238651275635 5.27774143218994 6.90430879592896 9.02023983001709 5.13599252700806 8.32838249206543 4.77591753005981 6.49429368972778 5.27278327941895 4.35730075836182 2.26928997039795 2.09944939613342 1.66298162937164 1.73492693901062 7.64420366287231 3.10136532783508 1.70103716850281 2.38350343704224 2.09178829193115 5.32901525497437 2.37509250640869 1.38970649242401 0.720478773117065 2.75597906112671 5.77060317993164 19.7056655883789 30.1789302825928 22.4839630126953 17.6418972015381 30.2362022399902 30.1749534606934 19.4662475585938 15.2774353027344 15.8213195800781 11.7159242630005 9.02047824859619 20.1037750244141 14.6087875366211 12.3342208862305 6.32197856903076 3.66565728187561 -0.541441380977631 0.138397485017776 0.846410810947418 18.0263023376465 3.24778723716736 6.17127752304077 14.9258460998535 14.1147203445435 16.3844871520996 8.4447660446167 7.33855104446411 3.70948243141174 4.14353704452515 1.46355760097504 0.411714464426041 -0.99478280544281 0.0484624058008194 0.168455839157104 5.20507955551147 4.19934940338135 3.00226402282715 0.934608519077301 1.15799903869629 0.933659374713898 -0.207478553056717 0.376801490783691 0.908635854721069 0.882027626037598 11.4533863067627 7.53835344314575 2.30505347251892 2.12464666366577 2.23557472229004 2.67181420326233 3.08083438873291 41.9553070068359 37.2210998535156 15.8391256332397 11.7741384506226 4.03286266326904 4.18813848495483 4.16153001785278 3.94111585617065 3.63309025764465 2.70591068267822 2.32601141929626 2.17714500427246 2.21202540397644 2.31523132324219 2.45435762405396 2.34788084030151 2.06983685493469 2.00278377532959 2.1927502155304 1.98096990585327 2.0828320980072 2.54694795608521 2.38843750953674 14.6202802658081 22.3378925323486 22.9214878082275 24.3414211273193 13.3805208206177 30.5836067199707 46.8883934020996 46.4999885559082 38.6178245544434 19.0420265197754
5.61492538452148 5.17358922958374 4.77325439453125 4.92302703857422 4.79255723953247 4.83525228500366 4.31022500991821 3.48156905174255 3.21598339080811 1.74740350246429 2.46527338027954 2.16521620750427 0.696324706077576 1.69939196109772 0.614181041717529 0.370330214500427 0.236382067203522 0.810297727584839 0.635090470314026 -0.0429881401360035 -0.0876926481723785 -0.16658291220665 -0.137519851326942 0.367349565029144 0.878554940223694 1.65269994735718 2.13737463951111 2.66727733612061 3.21300649642944 3.19445109367371 3.59814071655273 8.93351650238037 7.19026279449463 10.2182445526123 9.68898487091064 10.6124486923218 11.5376243591309 9.4310302734375 8.23977661132812 7.63827848434448 7.91421127319336 7.85383653640747 7.86995315551758 7.25953483581543 6.66494131088257 6.0992751121521 5.32581233978271 5.77485418319702 5.87804651260376 4.59432888031006 3.23772120475769 1.96916139125824 1.77388346195221 0.716589093208313 4.87830257415771 2.99945950508118 3.67110991477966 27.3330974578857 10.1518840789795 4.20278692245483 24.3150749206543 2.73330664634705 -0.190151333808899 6.37036323547363 6.70304012298584 6.53469467163086 15.0784111022949 18.5397071838379 5.71822023391724 9.02512741088867 8.13793563842773 7.03308820724487 6.06644868850708 5.15135383605957 3.83281660079956 3.64946579933167 1.86022508144379 1.75889253616333 1.89635241031647 1.85925555229187 1.85895013809204 3.76953840255737 2.46633648872375 2.50094819068909 2.43607711791992 1.82104480266571 0.937455832958221 0.283065348863602 0.236480697989464 3.33316802978516 10.3248071670532 24.0615520477295 21.6863307952881 33.9686126708984 18.1565742492676 25.9094085693359 28.1014766693115 16.5186214447021 17.9415512084961 10.8228664398193 3.40433621406555 5.50436019897461 29.2126808166504 9.44197273254395 9.15788459777832 5.51249694824219 1.02828454971313 2.15637540817261 3.26100087165833 8.04675102233887 20.7945232391357 16.0674629211426 12.4205169677734 31.6164627075195 13.4607772827148 12.7359228134155 8.66097927093506 5.62788534164429 5.71311283111572 4.19287109375 1.53494596481323 2.64524054527283 4.54747295379639 17.9993934631348 4.59944295883179 3.40744256973267 3.29872274398804 3.17269062995911 3.2176399230957 1.6489679813385 1.02457797527313 1.43484342098236 1.98023366928101 1.77520382404327 23.8552436828613 6.79576921463013 2.93318629264832 2.53069829940796 2.93469429016113 3.28807020187378 1.59646725654602 2.29314923286438 28.7139282226562 22.1549072265625 4.1604790687561 4.53576040267944 4.53510808944702 4.33963918685913 4.07392120361328 4.19176149368286 4.03494787216187 2.76315307617188 2.43793678283691 2.50942182540894 2.61396360397339 2.4794659614563 2.2176513671875 2.09141421318054 2.27903461456299 2.28005814552307 2.46856021881104 2.67152500152588 2.42261743545532 19.7869606018066 29.581901550293 29.8268146514893 31.5874423980713 24.4702186584473 15.7272644042969 8.08716773986816 2.92106580734253 6.48781538009644 32.7433128356934 23.6034145355225
5.69369125366211 5.13288021087646 5.35390472412109 5.25357389450073 5.2471399307251 4.72688245773315 3.81254768371582 3.35260939598083 1.83215248584747 2.81298613548279 2.42046737670898 1.84185171127319 1.91077756881714 1.79237699508667 0.460427433252335 0.316479325294495 1.0237420797348 0.862558543682098 0.0208962708711624 -0.0595408715307713 -0.145723715424538 -0.231710731983185 -0.286174774169922 0.157775357365608 0.529326796531677 1.37360489368439 1.77159678936005 2.28505825996399 2.71255683898926 2.95218825340271 7.73870611190796 9.2695426940918 12.8025274276733 11.2353029251099 12.2138528823853 13.3089370727539 10.9130449295044 9.26986694335938 8.5230016708374 8.64924049377441 8.44930839538574 8.38801956176758 7.77514266967773 7.14777231216431 6.53188323974609 5.77465963363647 6.26161575317383 6.29212188720703 4.62804174423218 4.64968013763428 2.19447493553162 1.77316510677338 2.12125587463379 2.1589937210083 5.38437414169312 4.85128307342529 1.87272560596466 1.27710974216461 14.7333726882935 1.52361655235291 16.5009422302246 0.144571349024773 4.80206823348999 3.53859043121338 7.16804647445679 2.46055293083191 1.72843027114868 12.9640779495239 10.1247682571411 8.83315563201904 8.6531810760498 6.8539834022522 4.7487587928772 4.70713949203491 4.63815450668335 2.79524612426758 1.78468561172485 3.44890165328979 12.2029705047607 2.70547890663147 2.43027520179749 3.93450021743774 2.89427947998047 2.59741640090942 2.28078579902649 1.90913271903992 0.871573686599731 -0.061738695949316 -0.317650347948074 -0.583477735519409 3.46654486656189 8.1242847442627 5.19612884521484 18.0272960662842 36.3716621398926 29.6221408843994 36.7049407958984 23.205509185791 16.4422359466553 11.7473239898682 9.11819267272949 2.72474408149719 8.02166843414307 4.03720378875732 12.8716087341309 4.44536781311035 3.5161726474762 0.0224869456142187 9.03991031646729 9.65958976745605 35.211742401123 18.929708480835 7.10461568832397 24.2977180480957 26.8506488800049 10.5540323257446 8.25228309631348 7.28373289108276 6.91480112075806 5.13015174865723 5.71324110031128 0.445387005805969 -0.311559736728668 5.21375703811646 3.59122610092163 3.46763586997986 3.46844100952148 5.04340696334839 4.40625810623169 3.12042379379272 3.64721441268921 2.87318396568298 2.50590801239014 2.1667582988739 3.06840991973877 10.3839569091797 3.21868276596069 3.24220013618469 3.62650394439697 2.57925271987915 29.5919361114502 2.97869038581848 3.43412065505981 4.57818937301636 4.65026378631592 4.66750478744507 4.47937297821045 4.20035696029663 4.59457349777222 4.84692859649658 4.22592067718506 3.2271409034729 2.67746162414551 2.78839921951294 2.63625526428223 2.31836748123169 2.62573480606079 2.8313250541687 2.87974381446838 2.57026648521423 2.72623515129089 2.66403198242188 33.9815902709961 46.3825187683105 46.112979888916 47.5459289550781 31.0901107788086 25.246976852417 18.2223091125488 3.13151979446411 6.51509046554565 19.8083591461182 17.631706237793 42.5968322753906
5.72823190689087 5.83338499069214 5.69088220596313 5.69410943984985 5.140549659729 4.88287878036499 3.90827369689941 3.55631637573242 3.0941481590271 2.64914202690125 2.07412886619568 2.19386959075928 2.08008861541748 0.564432680606842 0.402963906526566 1.20343601703644 1.072869181633 0.143206343054771 0.0334766767919064 -0.102554760873318 -0.205161437392235 -0.276369571685791 -0.346453130245209 0.0129435239359736 0.258269846439362 1.04934132099152 1.8093044757843 2.10625648498535 2.5309944152832 8.24637317657471 10.6466073989868 16.1067333221436 12.3519887924194 12.5252103805542 13.7602214813232 14.371524810791 11.6215353012085 9.62551784515381 9.63531017303467 9.2621431350708 9.07218265533447 8.32583332061768 7.59567213058472 6.88487148284912 6.19451475143433 6.78134489059448 6.65934944152832 4.83383750915527 4.91841459274292 3.42437100410461 1.82268893718719 1.90753483772278 2.19491863250732 5.413498878479 5.57056045532227 4.07102060317993 2.00800347328186 0.843433201313019 10.1064367294312 0.596910536289215 5.07850074768066 12.5240898132324 2.96605634689331 3.11108660697937 3.0953893661499 6.42607736587524 5.71328067779541 15.3375730514526 9.93111705780029 9.35581016540527 7.81897640228271 6.46922922134399 5.7957444190979 5.55030202865601 8.49731922149658 7.97782754898071 2.06710696220398 2.27250409126282 2.29868149757385 2.91017150878906 2.52326130867004 2.8945631980896 8.98313045501709 7.57698488235474 2.10793542861938 2.67110824584961 1.1063038110733 0.323659062385559 -0.4373379945755 -0.61591374874115 -0.946689605712891 15.0078563690186 20.7345504760742 6.97785711288452 7.504234790802 16.0080280303955 24.0022888183594 18.4895610809326 18.7629661560059 12.8070688247681 10.4843463897705 2.28421306610107 1.3257360458374 2.11767315864563 3.28441977500916 5.22070264816284 2.37394642829895 -0.460254490375519 -1.79464375972748 6.16794729232788 17.1003494262695 9.88104343414307 11.671781539917 8.207275390625 13.4433927536011 12.1378870010376 9.75164318084717 9.71908855438232 6.94899463653564 7.71033954620361 5.44606876373291 4.74986124038696 6.64087438583374 4.42438793182373 3.90698957443237 3.61959314346313 5.35114002227783 4.92777299880981 3.66072344779968 4.29848003387451 3.44808173179626 4.15864372253418 3.66216325759888 3.50197720527649 3.01651120185852 3.52190256118774 3.56833267211914 6.26192331314087 3.22790050506592 2.60382676124573 3.98856043815613 10.2380056381226 4.22860860824585 4.71145820617676 4.76268911361694 4.59001922607422 4.33170557022095 4.75179576873779 4.99322128295898 4.53236865997314 4.29544734954834 3.62142729759216 3.14923191070557 2.80490207672119 2.52345395088196 2.72443866729736 2.92762804031372 2.97553515434265 3.07221674919128 3.35382556915283 2.96576476097107 1.88805830478668 0.930045127868652 1.7975070476532 6.6800389289856 47.0204315185547 32.4746856689453 30.3457431793213 8.95746421813965 8.65369033813477 3.60430574417114 19.0844917297363 4.31986236572266 49.577938079834
6.45873498916626 6.12020587921143 6.15260982513428 5.6317663192749 5.29741430282593 4.2591290473938 3.88418507575989 3.4988112449646 3.05090355873108 2.29611992835999 2.40312337875366 2.33420705795288 0.864367961883545 0.496734529733658 1.40294504165649 1.24896621704102 0.216381728649139 0.130515679717064 0.00191566080320626 -0.134813472628593 -0.233471930027008 -0.326781272888184 -0.383993029594421 -0.429333180189133 1.05116498470306 1.8289520740509 2.11010503768921 2.19713425636292 8.99389171600342 13.3557472229004 29.0834693908691 15.6618728637695 16.4348888397217 17.3941650390625 17.229061126709 13.9079284667969 11.3201932907104 11.1317167282104 10.4423799514771 10.0358648300171 9.13585376739502 8.1522798538208 7.24096298217773 6.61247682571411 7.31284236907959 7.0759072303772 5.04787397384644 5.12936019897461 3.54904747009277 2.25635838508606 1.99690437316895 2.21180129051208 5.78022193908691 5.96560525894165 5.34196043014526 2.13588666915894 1.86010754108429 4.67415142059326 7.77476978302002 14.273663520813 1.78974068164825 3.39183831214905 4.83045387268066 2.7714695930481 2.93179416656494 6.57865953445435 11.3682556152344 12.4015092849731 10.6032466888428 8.70932006835938 6.85016775131226 7.31850719451904 9.50465965270996 2.86839580535889 10.4896717071533 3.93070673942566 3.4061176776886 2.60575532913208 3.21015167236328 3.04014801979065 3.32687878608704 2.74816846847534 2.46101975440979 12.6135139465332 3.01175141334534 2.92697811126709 0.877118587493896 0.275700896978378 -0.33049687743187 -0.923974990844727 -0.983551025390625 -1.08699929714203 6.85459041595459 8.75339317321777 7.67036390304565 27.1066417694092 22.7706069946289 22.500997543335 15.5077123641968 16.0866680145264 8.23650646209717 7.21307992935181 2.53116488456726 5.12777328491211 3.78317666053772 7.01359033584595 2.38062429428101 -0.89921635389328 -2.26264476776123 -0.538191318511963 15.8674688339233 35.4083557128906 24.7089462280273 17.4316005706787 22.4699192047119 13.7424411773682 13.9946775436401 9.29414081573486 8.6841459274292 9.66496849060059 6.63935232162476 8.57735824584961 6.13752746582031 5.04028415679932 4.30769443511963 6.03607892990112 5.26363182067871 3.86931395530701 4.84095811843872 3.98002910614014 4.79647159576416 3.88348722457886 4.28130292892456 3.97931861877441 3.86759662628174 3.91692328453064 3.90436100959778 4.43920993804932 4.31062650680542 4.21591854095459 3.86245799064636 4.43741512298584 4.76379489898682 4.80022811889648 4.64894104003906 4.40926551818848 4.86847114562988 5.15596437454224 4.69359827041626 4.75608348846436 4.25336360931396 3.91839790344238 3.0232892036438 2.96677422523499 2.86042070388794 3.0058970451355 3.05323791503906 3.16772127151489 3.46725559234619 3.80717277526855 3.50466322898865 2.60428547859192 1.47205400466919 1.30117785930634 1.00454115867615 48.7551765441895 46.5095596313477 14.2761106491089 20.3184394836426 4.41238927841187 3.85179829597473 4.4142484664917 3.95994138717651 9.13405990600586
6.85286283493042 6.72302865982056 6.11707973480225 5.70948553085327 4.59343147277832 4.18319654464722 3.87092566490173 3.35773372650146 2.89333033561707 2.78759670257568 2.66833448410034 0.944613099098206 0.649039149284363 0.508555054664612 1.45885956287384 1.30178809165955 0.187075525522232 0.0585995465517044 -0.0615674890577793 -0.158285304903984 -0.271321952342987 -0.349654972553253 -0.427655607461929 1.1010559797287 1.90918266773224 2.20870590209961 2.24984526634216 10.01535987854 18.6860885620117 6.561936378479 23.348030090332 29.4747409820557 23.9448699951172 21.8126926422119 17.719898223877 13.385290145874 12.2905855178833 11.90416431427 11.2940139770508 10.2903203964233 9.01164722442627 7.79252338409424 7.25422382354736 8.04842853546143 7.57424211502075 5.31624841690063 5.39944076538086 3.66145610809326 2.27279734611511 2.78555822372437 2.33488011360168 6.11390733718872 6.23204946517944 5.70912027359009 2.28620100021362 2.1929395198822 29.7318248748779 2.70407271385193 1.74411904811859 13.7125511169434 4.02216720581055 3.28685665130615 5.74430370330811 6.21507883071899 2.55694079399109 12.6955671310425 15.3490877151489 19.885555267334 10.655876159668 8.07228660583496 8.44559097290039 7.89554882049561 10.6673851013184 18.472677230835 4.13180303573608 3.99966430664062 3.78954529762268 3.32269382476807 3.32206702232361 3.43273735046387 3.82303953170776 2.73556590080261 2.26661801338196 18.1625499725342 2.20550584793091 3.66371464729309 1.38891386985779 0.387399971485138 -0.316839009523392 -0.653249979019165 -0.988710820674896 -1.01300704479218 14.2102537155151 9.19742965698242 8.27461528778076 27.8483619689941 27.8037433624268 18.2032012939453 19.5995101928711 10.1302537918091 11.2135448455811 2.78676724433899 3.35810041427612 5.08803606033325 9.30583953857422 6.11137437820435 -0.226828575134277 3.06529402732849 -2.28621888160706 -2.49637269973755 17.0318489074707 11.0292797088623 33.9937438964844 12.9335384368896 19.3339385986328 20.3212547302246 12.9885234832764 11.7399101257324 13.0109462738037 8.96072196960449 10.9788980484009 8.31857299804688 6.80288648605347 5.41548013687134 7.55921697616577 6.42164373397827 4.33297300338745 5.20164060592651 4.3346209526062 5.39826822280884 4.10037803649902 4.51321363449097 4.25310754776001 4.13807249069214 4.2063364982605 4.62525367736816 4.79864549636841 4.65118885040283 5.03542232513428 4.5496129989624 4.67038822174072 5.13971567153931 4.95982313156128 4.6856746673584 4.42606973648071 4.93337202072144 5.26450681686401 5.06139278411865 5.12533569335938 5.06935882568359 4.46003246307373 4.03563261032104 3.08009839057922 3.16602873802185 3.21413612365723 3.16083836555481 3.21806621551514 3.55794191360474 3.93121314048767 3.9502968788147 3.74317741394043 2.98095750808716 2.08121037483215 1.51275229454041 1.07042920589447 1.36129176616669 22.6514911651611 34.3549766540527 5.05669260025024 5.23759460449219 5.10668087005615 4.67708826065063 5.74344205856323 5.61648845672607
7.62576913833618 6.83701944351196 6.30358028411865 5.16476345062256 4.65285444259644 4.29129409790039 3.72769546508789 3.1016252040863 3.10343503952026 2.97074413299561 1.06072497367859 0.792003452777863 0.604672253131866 1.65119957923889 1.51125514507294 0.250396430492401 0.105962418019772 -0.0283647403120995 -0.120771817862988 -0.215392023324966 -0.289881676435471 -0.387959033250809 1.20170319080353 2.01062083244324 2.34480357170105 2.371342420578 11.6980428695679 32.9245643615723 24.116870880127 20.0164585113525 11.2798414230347 39.5848426818848 29.8397808074951 24.6010341644287 17.0776691436768 15.3699350357056 13.8735418319702 12.7216138839722 11.6969232559204 10.1111507415771 8.53971862792969 8.30286121368408 9.20224285125732 8.25176525115967 5.69318103790283 5.74032783508301 3.8241913318634 2.27348375320435 2.00243926048279 2.44397330284119 6.59587430953979 6.69855070114136 5.94060230255127 4.20872974395752 2.35106801986694 1.0778820514679 26.1303195953369 1.79156541824341 2.21220254898071 5.00062322616577 8.45381927490234 3.01534843444824 4.10363674163818 3.11881065368652 9.72082328796387 13.2390060424805 11.2977313995361 20.0055503845215 9.51672840118408 10.1262903213501 8.06402778625488 13.3254117965698 2.68620014190674 4.36597156524658 4.32935810089111 4.7668776512146 13.5753908157349 4.68133306503296 4.38672828674316 4.66552257537842 3.6580696105957 3.19950723648071 2.34780812263489 7.89581775665283 1.99030447006226 1.72251439094543 1.4047042131424 0.488884329795837 0.000633487245067954 -0.735243797302246 -0.971574783325195 -1.15718245506287 1.97490930557251 0.320721715688705 6.39530467987061 40.1508102416992 20.2747192382812 29.9274501800537 13.7235307693481 12.8714246749878 4.72036170959473 5.18387699127197 4.68234825134277 13.1086673736572 11.3729238510132 18.0722198486328 -0.402955830097198 -1.4047064781189 -1.07428312301636 -1.98351895809174 5.62957382202148 8.577805519104 12.218092918396 33.3066062927246 34.212646484375 20.1056747436523 13.9820175170898 16.1463813781738 10.9357490539551 10.9760103225708 13.0134296417236 10.177357673645 6.69288492202759 9.5570764541626 8.2669563293457 5.60102796554565 6.25050830841064 4.77059459686279 5.92449998855591 4.28510189056396 4.72284507751465 4.47518873214722 4.4196925163269 4.54728364944458 4.91412830352783 5.08728742599487 5.21223831176758 5.39464998245239 5.5308690071106 5.4655704498291 5.64320182800293 5.4546160697937 5.01897144317627 4.57314920425415 4.9978551864624 5.31162643432617 5.33424997329712 5.26386404037476 5.34050559997559 5.35856771469116 5.04961538314819 4.6569676399231 3.28232336044312 3.43315720558167 3.44073987007141 3.4556827545166 3.68278408050537 4.02568054199219 4.39561796188354 4.18119812011719 4.08429145812988 3.91701006889343 3.39343786239624 3.05759000778198 3.16765284538269 3.61545825004578 3.2944757938385 5.37096405029297 5.54154300689697 5.85267877578735 6.27850103378296 6.81035137176514 5.6235785484314 6.4815993309021
7.690514087677 6.87816953659058 5.78893136978149 5.21500444412231 4.72839307785034 4.26666116714478 3.41203880310059 3.51623320579529 3.31469988822937 1.13107430934906 0.947054326534271 0.705653965473175 1.9680712223053 1.76813173294067 0.355973541736603 0.155104547739029 0.0139247123152018 -0.0938770025968552 -0.199794664978981 -0.26397430896759 -0.346620708703995 1.35819447040558 2.1962685585022 2.29441809654236 2.51274037361145 2.34838795661926 5.64977073669434 9.14885807037354 10.834451675415 11.402738571167 11.3092422485352 47.5492324829102 40.8288459777832 23.7706871032715 21.6834106445312 17.6333312988281 14.8800859451294 13.4909639358521 12.4001493453979 9.38046169281006 7.89013814926147 8.83863925933838 9.84202671051025 6.22103118896484 6.21028280258179 4.07743644714355 2.40696620941162 2.08261013031006 2.36322402954102 7.03324508666992 7.20769357681274 6.39305114746094 4.44445085525513 2.3840229511261 1.67498552799225 1.53153538703918 11.0830726623535 2.75033688545227 7.18840503692627 12.7582597732544 6.27119827270508 17.1543884277344 3.45987010002136 21.4105625152588 24.9754905700684 15.2359180450439 10.9717473983765 10.1490325927734 10.715765953064 11.5003995895386 17.8086471557617 4.87839889526367 4.36946487426758 4.7947096824646 5.31378602981567 4.30560255050659 5.34438943862915 4.79865312576294 5.07481241226196 4.58302164077759 4.08083486557007 3.34645366668701 2.07055759429932 2.03964424133301 7.49411487579346 1.91633570194244 1.581538438797 1.24513304233551 -0.022976690903306 -0.28885605931282 -0.734640300273895 -0.766798138618469 0.502477884292603 8.12566661834717 0.846433281898499 23.3210926055908 21.1043376922607 29.623140335083 20.1874160766602 8.49411582946777 8.54609966278076 8.01859092712402 18.5399723052979 23.251916885376 0.270286560058594 7.82538747787476 -0.43537425994873 -1.67658090591431 -2.08764290809631 12.1741743087769 10.7034406661987 15.3062448501587 9.23029613494873 6.76966190338135 13.3658514022827 18.5108413696289 21.3714389801025 12.6840343475342 12.6240406036377 15.1806783676147 12.5274629592896 10.3640947341919 11.8307104110718 10.4541425704956 7.17683839797974 7.96088695526123 5.81877946853638 6.87283802032471 4.78249025344849 4.94210290908813 4.67925977706909 4.61280155181885 4.87438201904297 5.34503078460693 5.46981430053711 5.52455806732178 5.71197366714478 5.90233135223389 5.86850214004517 6.05376958847046 5.89664936065674 5.50491666793823 5.1177077293396 5.28256607055664 5.48906564712524 5.41891527175903 5.2995343208313 5.46499347686768 5.51837968826294 5.5108904838562 5.01960563659668 4.48766040802002 3.55435991287231 3.62088322639465 3.69628429412842 4.12431383132935 4.70123815536499 4.59432172775269 4.37115955352783 4.56668758392334 6.36455965042114 3.55770206451416 25.131893157959 5.48503494262695 5.48573780059814 5.57543611526489 5.56698274612427 6.09827947616577 6.47881412506104 6.91090726852417 8.04362964630127 7.92884683609009 7.16844749450684 6.52543020248413
7.54747676849365 6.22133874893188 5.93701267242432 5.8540997505188 4.83756542205811 3.80613040924072 4.13081121444702 3.7886655330658 1.21082580089569 1.09243500232697 0.773664712905884 2.26081609725952 2.07803630828857 0.448807030916214 0.327367067337036 0.118303462862968 -0.0530169382691383 -0.173650965094566 -0.253348559141159 -0.342263966798782 1.490567445755 2.41447257995605 2.49008107185364 2.73013091087341 2.49187016487122 15.8433647155762 6.59494256973267 4.57720327377319 2.96683144569397 0.555824756622314 0.0838940739631653 6.24656200408936 39.5251045227051 37.0864486694336 24.8629741668701 20.3040332794189 16.2524032592773 14.6490240097046 12.0842237472534 9.47600364685059 10.5293941497803 11.8529224395752 6.85580110549927 6.81638431549072 4.4178204536438 2.57252144813538 2.3408305644989 2.63582921028137 7.73854732513428 7.78798198699951 6.90112257003784 4.77056169509888 2.56382346153259 2.27836394309998 2.5414867401123 2.02996969223022 2.86109471321106 14.4940004348755 25.2171745300293 3.46429538726807 10.2471218109131 3.77615237236023 39.3051910400391 35.005126953125 24.9589614868164 19.4185218811035 15.5905990600586 13.4824247360229 14.2301321029663 31.2003536224365 11.5139350891113 5.28698539733887 4.86652326583862 7.88302707672119 12.7784357070923 7.15778923034668 5.34611797332764 5.31710004806519 4.99987363815308 4.64575147628784 4.39507865905762 3.20822620391846 2.81983828544617 2.24560928344727 2.00206017494202 6.09838581085205 1.98377847671509 1.89011430740356 0.902069509029388 -0.0981802120804787 -0.203967869281769 -0.518503785133362 -0.173546567559242 -0.0981078147888184 2.45036768913269 3.20278239250183 12.3794364929199 23.4329242706299 9.98297500610352 9.02017402648926 8.42963123321533 19.684061050415 3.39709424972534 11.0864152908325 19.3459987640381 4.04655790328979 -0.914397358894348 -1.66694736480713 -2.25097107887268 20.491325378418 21.3900680541992 11.6134557723999 10.2716112136841 7.93951034545898 32.5336799621582 35.9195861816406 17.1155376434326 17.086498260498 18.5814056396484 14.947039604187 12.0452461242676 8.95278072357178 13.3464498519897 12.0139589309692 9.80134391784668 6.96905946731567 8.17064952850342 5.7230806350708 5.68405961990356 5.28644561767578 4.83691072463989 5.09088134765625 5.59892082214355 5.85856151580811 5.92668724060059 6.08193254470825 6.27092981338501 6.24591016769409 6.42095375061035 6.29505968093872 5.90314817428589 5.45853328704834 5.72537088394165 5.85756349563599 5.65411329269409 5.42770147323608 5.53061437606812 5.63746070861816 5.89590167999268 5.24666023254395 5.03698205947876 4.67485857009888 3.75302624702454 3.84995532035828 4.83072900772095 5.69972562789917 4.99762105941772 5.17139387130737 5.45576047897339 10.8063631057739 14.4558000564575 3.58339548110962 12.982590675354 12.4157800674438 12.3326644897461 6.40756702423096 7.17249345779419 7.21038770675659 7.63492059707642 8.90044975280762 8.68001747131348 8.30960464477539 7.44219636917114 7.10268974304199
6.84373998641968 6.51448917388916 7.3109188079834 5.86317110061646 4.24562168121338 4.90517807006836 4.4394063949585 1.3222930431366 1.28959918022156 0.836910307407379 2.5372896194458 2.39466500282288 0.555923402309418 0.415300846099854 0.247837021946907 0.0761799067258835 -0.115581631660461 -0.217700734734535 -0.331545531749725 1.60177886486053 2.59274911880493 2.67661023139954 2.94757699966431 2.83019733428955 20.7021884918213 18.7689552307129 14.447190284729 3.82967710494995 5.77686214447021 1.00372898578644 0.387499541044235 6.58443784713745 2.45067858695984 41.267822265625 35.3872718811035 21.9504089355469 18.9481792449951 14.5704536437988 11.099986076355 12.9794645309448 14.8470315933228 7.53194427490234 7.45615577697754 4.77644109725952 2.72823596000671 2.51946520805359 2.90900111198425 8.78983783721924 8.66800498962402 7.53504848480225 5.10673761367798 2.76037383079529 2.43634462356567 2.61018085479736 2.48557448387146 2.98075461387634 4.21625661849976 3.72746157646179 4.63341379165649 2.12922024726868 3.94980001449585 2.05099844932556 54.2528457641602 34.4488792419434 28.1031322479248 19.3979969024658 18.4282112121582 28.3629207611084 18.8646850585938 4.95998954772949 5.30108308792114 5.54056644439697 7.09808969497681 4.67687463760376 10.619312286377 5.58598518371582 5.50170755386353 5.13265705108643 4.8029990196228 4.82110691070557 6.50220346450806 4.27373790740967 2.91981363296509 2.42456889152527 1.84125375747681 5.30401515960693 2.09543943405151 2.33772873878479 1.90121245384216 1.06611466407776 0.242310762405396 0.125965863466263 0.243870064616203 0.270584374666214 0.00978410337120295 0.738785266876221 1.31812906265259 6.7197585105896 20.9257564544678 15.5316505432129 0.357030093669891 3.39888310432434 1.09431910514832 0.195135489106178 -0.340394973754883 -0.633809924125671 -1.57977068424225 -2.23577165603638 -1.82186543941498 -2.06142520904541 16.3351154327393 1.28343999385834 1.77238428592682 4.22860145568848 2.17663264274597 29.158390045166 29.4328651428223 25.4650573730469 20.287410736084 14.5439758300781 10.4775476455688 16.0830326080322 14.715931892395 10.1742916107178 11.024712562561 9.51340389251709 6.73971939086914 6.59675645828247 6.12837600708008 5.0644702911377 5.1426830291748 5.85139894485474 5.89744234085083 6.23837518692017 6.43751859664917 6.27883100509644 6.50451040267944 6.78460931777954 6.662193775177 6.27892017364502 5.80764961242676 6.11157274246216 6.29288768768311 6.02628564834595 5.77522230148315 5.76651573181152 5.76729249954224 5.99759197235107 5.35000801086426 5.18370676040649 4.83055114746094 4.77622222900391 4.15344858169556 5.53932428359985 6.58137464523315 5.81183004379272 6.22570657730103 7.08099174499512 23.788064956665 29.3020324707031 22.679256439209 26.4365844726562 21.3469867706299 21.1734142303467 11.3186006546021 7.80307292938232 8.19250202178955 7.75387907028198 8.14666366577148 9.40825366973877 9.17911720275879 9.96287536621094 10.4686832427979 10.1156187057495
7.06891012191772 3.55840110778809 7.87068462371826 4.94253492355347 5.87841796875 5.23912048339844 1.58375203609467 1.59410679340363 0.920523941516876 2.86938834190369 2.71430420875549 0.639230489730835 0.511621236801147 0.331780821084976 0.158377274870872 0.0250390432775021 -0.127409920096397 -0.288756042718887 1.7585244178772 2.39399528503418 2.82088494300842 3.1499445438385 3.0065279006958 29.5365047454834 26.9871406555176 27.2945785522461 18.9034614562988 7.30089330673218 12.436731338501 10.8816738128662 11.1064186096191 3.10593247413635 5.05846548080444 16.6054229736328 37.2605934143066 26.4197483062744 19.3074684143066 14.4915065765381 18.3094291687012 20.4556446075439 12.3860483169556 8.22174739837646 5.12611198425293 2.82824039459229 2.62960433959961 3.03652715682983 9.90629196166992 9.70902538299561 8.35609245300293 5.52509212493896 2.94270586967468 2.57841563224792 2.67599320411682 2.54802799224854 3.07395267486572 2.84510660171509 5.38060474395752 5.56178760528564 18.1766262054443 4.06964492797852 1.70477473735809 -0.336641073226929 51.5067977905273 44.3576240539551 24.3060550689697 26.2771167755127 14.0108394622803 1.82662987709045 3.18305492401123 5.74724102020264 5.60419464111328 5.49409484863281 5.06973171234131 23.1233882904053 5.98292207717896 5.8643593788147 5.36744594573975 4.89404630661011 4.84831571578979 8.57505702972412 6.30812358856201 7.5815749168396 2.82525610923767 2.73260259628296 2.111083984375 2.58289861679077 2.4530975818634 3.18550944328308 7.22898864746094 1.24833476543427 1.14309203624725 1.24205195903778 1.38687860965729 1.08817565441132 0.803031325340271 0.989113807678223 1.60973191261292 1.33095037937164 1.33762001991272 14.2411918640137 6.96764755249023 4.07913494110107 0.342432856559753 0.0660139918327332 -0.36552032828331 -0.939219892024994 -1.57101583480835 -1.71488606929779 -2.02468132972717 -1.88976180553436 3.68754243850708 -0.450001090764999 1.59456074237823 8.95288562774658 6.68156719207764 2.64574766159058 42.1736030578613 34.7698631286621 19.8711814880371 13.8316898345947 19.7635097503662 18.4366989135742 12.1065969467163 13.6968517303467 11.2351303100586 9.97418880462646 7.66858577728271 7.16296291351318 5.28446912765503 5.27136039733887 5.54143571853638 6.00687789916992 6.28840398788452 6.49045991897583 6.59607696533203 6.84212112426758 7.12628793716431 7.01465749740601 6.66023635864258 6.22400379180908 6.49030017852783 6.67488288879395 6.34360265731812 6.12615251541138 6.1018214225769 6.05986356735229 6.19781351089478 5.45638942718506 5.25539493560791 5.13981580734253 4.92720127105713 4.99626731872559 6.46635913848877 7.66281843185425 6.65963315963745 9.71595096588135 10.3506383895874 4.02102899551392 4.45454216003418 20.5884017944336 14.1249933242798 38.9373779296875 38.7811698913574 17.8774070739746 13.4277172088623 12.5608959197998 8.99824905395508 11.4960861206055 11.8837690353394 10.9344463348389 11.4358186721802 12.1012229919434 11.1433601379395 11.9359426498413
3.8431510925293 9.33162021636963 7.59201383590698 2.15175461769104 6.52772855758667 1.93286550045013 2.00163793563843 1.03032970428467 3.30702710151672 3.11233806610107 0.707352876663208 0.582021415233612 0.409746617078781 0.228817880153656 0.101034857332706 -0.0497460812330246 -0.167447105050087 1.0640527009964 1.7850888967514 3.01811122894287 3.37742257118225 3.1072564125061 47.7939643859863 45.1546745300293 45.751106262207 27.0070762634277 20.056697845459 3.02910089492798 1.96423125267029 27.0503273010254 6.22124719619751 4.38287115097046 1.88723123073578 18.7008457183838 43.3978309631348 33.3175010681152 20.4275989532471 32.9756355285645 36.1454086303711 14.9036722183228 9.25461006164551 5.50989055633545 2.91018128395081 2.74061250686646 3.21664500236511 11.3063135147095 10.8959360122681 9.2398042678833 6.00144815444946 3.21931886672974 2.75909948348999 2.74017786979675 2.60691428184509 3.15795111656189 2.92172718048096 5.74913883209229 6.00682783126831 3.45145797729492 4.50864744186401 4.82326030731201 0.091101162135601 -0.0913625136017799 16.825174331665 36.1518287658691 41.0615768432617 19.1881885528564 2.81327652931213 7.11013174057007 7.0004415512085 6.66695499420166 5.95827484130859 7.0955286026001 4.83980131149292 8.92307281494141 5.95922994613647 5.58829164505005 5.15016555786133 5.10844707489014 11.61403465271 7.22110509872437 10.6883487701416 7.48525762557983 2.8588171005249 2.88141751289368 3.11074805259705 2.61339116096497 7.71487522125244 2.34661054611206 15.4549722671509 2.60618472099304 2.02290892601013 2.30529618263245 2.00595927238464 1.88437104225159 1.63241028785706 1.77381086349487 1.67544627189636 1.36624336242676 0.526380002498627 4.08641338348389 0.279312074184418 0.709255218505859 6.40419912338257 7.7001838684082 7.91687870025635 -0.788633465766907 -0.776149034500122 -1.69930672645569 -1.72960126399994 -1.42297303676605 0.0152705712243915 -0.235615521669388 -0.135608360171318 0.490854412317276 9.98415184020996 0.837720096111298 4.32058715820312 34.3894920349121 24.4478816986084 27.2896099090576 25.1904144287109 14.8979978561401 17.6029453277588 11.1138229370117 12.4687366485596 9.07526874542236 8.48850727081299 5.52160739898682 5.50465297698975 5.82530450820923 6.28126192092896 6.58395147323608 6.70930051803589 6.89250183105469 7.16768741607666 7.1542797088623 7.29501914978027 7.19088983535767 6.82036685943604 6.84070634841919 7.0392632484436 6.64003944396973 6.43707132339478 6.41573858261108 6.38702821731567 6.52016830444336 5.73310470581055 5.5104341506958 5.25207281112671 5.26271295547485 4.72944974899292 7.61819076538086 9.06768226623535 7.41406440734863 15.3303556442261 6.42736148834229 4.03701639175415 4.95218420028687 3.35813546180725 4.4308180809021 5.41759634017944 5.62217283248901 33.4371109008789 26.4749794006348 25.8027667999268 10.206446647644 19.6791076660156 19.9773921966553 13.6941184997559 14.1879281997681 14.2167558670044 12.8964958190918 13.4122734069824 13.5394954681396
11.8479108810425 9.04050350189209 6.54250621795654 8.39176273345947 6.94869756698608 2.49336171150208 1.26355814933777 3.90387964248657 3.65186715126038 1.18864333629608 1.00721907615662 0.613997876644135 0.329024940729141 0.760381042957306 0.0343785546720028 -0.0856486558914185 -0.239671647548676 2.05596494674683 3.21291613578796 3.87014365196228 3.29993557929993 -1.43134868144989 -0.986406683921814 14.5416774749756 44.7432556152344 28.3390998840332 31.8672904968262 40.491756439209 -0.72548496723175 12.444263458252 11.1467275619507 4.3714656829834 -0.613819479942322 3.3127224445343 17.81764793396 34.9125900268555 4.23505973815918 4.87978029251099 19.1537094116211 10.8782711029053 10.0711879730225 3.04324722290039 1.93194282054901 3.50635051727295 3.71459698677063 12.4892272949219 10.3437280654907 6.46057748794556 3.45210194587708 2.98284554481506 2.84961867332458 2.66167807579041 3.24278831481934 2.9993908405304 6.16184616088867 6.42311143875122 5.3775782585144 4.43038129806519 4.60276651382446 1.63478660583496 -0.028759753331542 15.8564949035645 25.023775100708 7.25788545608521 1.69062614440918 3.18628740310669 7.89213514328003 8.92189979553223 7.43674945831299 6.84480237960815 7.27415704727173 6.74197196960449 15.3746290206909 6.37985706329346 5.87022256851196 5.4927282333374 5.21121788024902 9.02951240539551 7.36392402648926 20.8630619049072 10.5422992706299 6.19289636611938 4.21924161911011 3.8127121925354 3.74184060096741 3.3502242565155 2.83401775360107 3.08176827430725 4.49693441390991 3.10895156860352 2.78914523124695 2.73599243164062 8.94895648956299 2.58295559883118 2.14041519165039 2.04949688911438 1.85425460338593 0.628389239311218 0.254813224077225 0.281194627285004 11.7332324981689 0.449090480804443 0.436878591775894 -0.163795068860054 -0.278485208749771 0.114052131772041 -0.792209625244141 -0.731049358844757 -0.527128517627716 0.0678833723068237 0.524920523166656 0.885056674480438 0.798357427120209 1.06003308296204 1.31120467185974 1.55132055282593 5.02768135070801 8.0318078994751 45.0862045288086 42.1357536315918 20.7056427001953 24.2352352142334 14.1700258255005 16.3698635101318 11.1197004318237 10.0667791366577 9.42378425598145 5.65349578857422 6.13100814819336 6.58140516281128 6.91055345535278 7.06971073150635 7.21014499664307 7.5189323425293 7.50759172439575 7.62425184249878 7.51932144165039 7.13525295257568 6.63971996307373 7.06294345855713 7.22529363632202 6.7293872833252 6.70499324798584 6.68960428237915 6.82537603378296 6.02772092819214 5.78445053100586 5.50360584259033 5.4511547088623 5.0742130279541 6.36620378494263 8.24142646789551 9.96788120269775 5.00175142288208 6.50439834594727 7.4418888092041 6.06548309326172 5.35382795333862 5.85502052307129 6.81089448928833 13.5166797637939 7.40893173217773 7.80362701416016 8.06878185272217 18.4575862884521 36.7380104064941 38.1744232177734 16.8380947113037 15.8369274139404 17.4995174407959 15.6753015518188 15.249659538269 15.3438367843628 12.1560935974121
11.3497734069824 7.68955183029175 10.7573909759521 8.92737197875977 2.70580077171326 2.79568219184875 4.65048503875732 4.38996982574463 1.25795090198517 1.06469690799713 0.652975380420685 0.762555241584778 0.812229037284851 0.644168198108673 0.530005931854248 1.09424519538879 2.42103886604309 3.67150712013245 4.53998756408691 3.8965015411377 3.17286801338196 -0.757692635059357 -1.95591866970062 5.37356567382812 45.5553321838379 9.35279560089111 2.35405254364014 -0.291982620954514 0.0670404061675072 12.1792659759521 6.8927903175354 -0.177605450153351 -0.445129960775375 3.91207909584045 10.366886138916 35.1694068908691 31.5590000152588 27.2039432525635 13.9838008880615 12.2625885009766 6.82169914245605 1.97065186500549 3.12248349189758 3.72098588943481 14.9192056655884 13.6734771728516 9.64998149871826 3.49171090126038 3.0554358959198 3.07236313819885 2.73420858383179 2.81873607635498 3.30835747718811 6.61478662490845 6.92237091064453 5.74339389801025 4.72036457061768 5.72961711883545 5.47717380523682 1.04032754898071 -0.725101411342621 0.0249854251742363 12.1642379760742 5.14332580566406 11.7872905731201 5.69125318527222 8.65015888214111 8.01214981079102 7.15531444549561 7.63678884506226 8.65552139282227 6.18857669830322 7.70723104476929 6.40115737915039 6.13509082794189 5.47543954849243 3.58224439620972 4.22454643249512 3.4600932598114 14.0835037231445 11.9917783737183 4.82280111312866 5.14572477340698 4.49962186813354 4.10789585113525 3.74430513381958 3.14331817626953 3.43351054191589 3.46153855323792 3.54971170425415 2.93381094932556 2.2251091003418 2.81921482086182 2.83140015602112 2.4975311756134 2.24027276039124 1.80249559879303 0.929466605186462 0.621711730957031 0.756182909011841 0.713128387928009 1.00184941291809 0.667921423912048 0.248616486787796 0.336463212966919 -0.106229744851589 -0.207558840513229 0.324097365140915 1.32695686817169 0.716120600700378 0.965184688568115 14.9023218154907 4.53589677810669 1.3925062417984 3.44259190559387 1.90465652942657 8.33963394165039 1.55776011943817 1.80745434761047 35.9189720153809 40.9223556518555 19.7187080383301 23.1791248321533 14.6292409896851 12.5392436981201 11.7440662384033 6.34806203842163 6.47098731994629 6.90293312072754 7.27049255371094 7.47239637374878 7.56056690216064 7.89907264709473 7.88801956176758 7.98133993148804 7.87314653396606 7.45734643936157 6.96040916442871 7.33675718307495 7.55946063995361 7.02295160293579 6.99045467376709 6.97365236282349 7.09449148178101 6.28504657745361 6.11061143875122 5.75900077819824 5.71238231658936 5.31179571151733 8.84297466278076 10.0901975631714 11.9810342788696 9.74717807769775 11.1115016937256 9.23074817657471 12.974778175354 10.9039430618286 6.88403701782227 8.79374122619629 7.56759738922119 9.23743438720703 7.90511512756348 12.862024307251 10.4875955581665 8.46292304992676 10.0065488815308 32.1105155944824 20.1514453887939 20.7328720092773 19.6639499664307 17.9819393157959 17.7899589538574 14.0257034301758 13.2080392837524
9.51643562316895 14.9637689590454 11.204891204834 3.38618063926697 3.81787800788879 5.6300048828125 5.37628793716431 1.33598411083221 1.13582515716553 0.706015527248383 0.806584775447845 0.856608331203461 0.704586029052734 0.585053205490112 1.17636144161224 2.82207775115967 4.30012607574463 5.51757097244263 4.60155057907104 3.76068568229675 5.02428293228149 0.48215925693512 -0.74187707901001 1.81349861621857 17.1611785888672 33.3733215332031 4.62727355957031 0.747179865837097 -0.851652503013611 -0.255886048078537 -0.0177366156131029 0.0813835933804512 11.5599889755249 12.58385181427 4.94623756408691 18.5233402252197 45.3471183776855 20.4605274200439 16.0763931274414 8.38286113739014 3.58336162567139 3.50431704521179 4.36900472640991 19.1231060028076 16.4857788085938 12.8847742080688 3.75282025337219 3.06082797050476 3.1164276599884 2.91618871688843 2.76005458831787 3.40172433853149 7.1288857460022 7.47050428390503 6.17124938964844 5.05455255508423 5.35692691802979 6.02508163452148 4.09630012512207 2.31511163711548 0.789046704769135 0.744816482067108 16.5119781494141 26.3330059051514 10.7850437164307 15.8535556793213 12.3121376037598 7.81667852401733 8.04153633117676 10.8182201385498 6.33991813659668 14.6638402938843 6.92165613174438 8.22824287414551 6.18159294128418 3.78207087516785 4.48464298248291 6.63244819641113 3.37815880775452 4.0518651008606 5.49557161331177 5.4086766242981 5.31436443328857 5.43341016769409 4.89051580429077 4.22035837173462 3.99691462516785 8.40525913238525 3.55074167251587 4.19938898086548 4.22734785079956 3.86231684684753 3.40087246894836 3.15298008918762 2.42928433418274 2.33082985877991 1.68782770633698 1.25923609733582 3.0003125667572 0.984107792377472 3.44271421432495 0.817874670028687 15.3577928543091 0.409803688526154 0.928784549236298 0.243972033262253 5.22316074371338 1.67243468761444 0.942322254180908 5.57266902923584 1.41617345809937 1.44739735126495 1.43686306476593 1.71775496006012 2.54151201248169 12.6961231231689 6.88807582855225 8.81034183502197 2.03575253486633 2.19416761398315 34.6541137695312 39.5014419555664 20.8861217498779 16.5004749298096 15.5494251251221 7.93394947052002 7.0209002494812 7.39739894866943 7.66147184371948 7.92393684387207 7.97596836090088 8.32151794433594 8.31123161315918 8.36870670318604 8.24466800689697 7.81171274185181 7.29162883758545 7.65363359451294 7.91631364822388 7.31928968429565 7.27529335021973 7.27198934555054 7.38873195648193 6.53277492523193 6.31628561019897 5.97180128097534 5.91413974761963 5.4941291809082 13.3897285461426 13.3709850311279 15.4383039474487 11.5043821334839 14.5148210525513 12.8437833786011 16.8974590301514 17.0099849700928 15.7970952987671 7.73138523101807 9.89380264282227 10.0100755691528 10.5339164733887 9.96155166625977 10.5279741287231 10.7679281234741 11.3359794616699 15.2268600463867 20.3216667175293 26.9515628814697 25.0892429351807 24.6325798034668 21.1988468170166 16.7546539306641 15.2337856292725 10.9306917190552
26.7160739898682 15.4981937408447 3.86443614959717 4.66769027709961 2.61990737915039 6.27582693099976 5.98206853866577 1.21908283233643 0.775881111621857 0.877990543842316 0.914282917976379 1.0282027721405 0.657368063926697 1.26802229881287 3.24937438964844 4.91938447952271 6.73368167877197 5.53065967559814 4.6607608795166 6.46876764297485 7.20399713516235 1.16357672214508 -0.981612741947174 -0.238470166921616 14.7214508056641 7.95613050460815 3.45910429954529 3.18343830108643 1.760045170784 12.2549238204956 0.329059153795242 -0.557584881782532 -0.520183145999908 6.7429027557373 -0.360374748706818 -0.516003847122192 35.7923583984375 22.797534942627 10.8797721862793 4.29050350189209 4.98090982437134 5.50430870056152 27.0656986236572 20.9746856689453 15.4485034942627 4.03799962997437 4.03103542327881 3.19218349456787 2.9194164276123 2.9246609210968 3.46756458282471 7.68550252914429 8.08312034606934 6.61906909942627 5.38640451431274 5.75811862945557 7.34396314620972 6.54480743408203 6.31112957000732 3.21151947975159 2.49876523017883 3.16724896430969 8.55108833312988 17.1193561553955 20.1502990722656 11.8920707702637 13.254900932312 8.85580635070801 14.1444892883301 9.9939079284668 6.55408000946045 13.4930267333984 11.8632326126099 6.47761058807373 6.69291353225708 4.83848762512207 3.80791902542114 4.58008575439453 6.81722211837769 5.65210151672363 5.69473028182983 5.66363334655762 5.76490879058838 5.77048397064209 5.61922025680542 4.6423921585083 4.85330486297607 4.45828866958618 4.75899171829224 5.16894006729126 4.48087596893311 4.21276950836182 4.22999334335327 3.04709100723267 3.17076659202576 2.2849555015564 1.43299376964569 0.974829375743866 2.06917572021484 7.50319957733154 1.00271463394165 0.544573426246643 0.5720055103302 1.71300232410431 0.925198972225189 2.52798843383789 3.69618058204651 3.54173040390015 1.58979773521423 2.07776045799255 1.86392855644226 10.2127132415771 1.91087067127228 1.99927151203156 1.72809267044067 2.22411251068115 1.96569728851318 2.47102379798889 1.91758036613464 8.86655807495117 12.4751405715942 36.5195579528809 23.7239933013916 22.619592666626 10.6262502670288 8.29593467712402 7.8924036026001 8.21262836456299 8.43018817901611 8.45443344116211 8.78417682647705 8.78240394592285 8.78936767578125 8.64391708374023 8.20075511932373 7.64941358566284 8.00358772277832 8.27764511108398 7.46021509170532 7.56669569015503 7.56515979766846 7.6584529876709 6.7921290397644 6.52816867828369 6.19621658325195 6.13105440139771 5.69521951675415 26.0947742462158 19.9738540649414 22.9317321777344 16.0287456512451 21.2334327697754 22.6837177276611 7.33795356750488 13.6286792755127 19.8453750610352 9.96495246887207 12.5935344696045 11.56529712677 11.2233896255493 13.158257484436 21.984130859375 14.2077608108521 20.8526916503906 20.8820304870605 37.8265914916992 38.4263648986816 26.1243324279785 21.6161193847656 23.5455665588379 28.3348941802979 18.5320796966553 15.0214014053345 14.1310224533081
28.4173755645752 4.6770281791687 5.74405765533447 2.6345636844635 7.80272769927979 7.90752410888672 1.31601762771606 0.854741036891937 0.961232483386993 1.00195133686066 1.08899819850922 0.900524199008942 1.35424423217773 3.80880331993103 5.68822336196899 8.20366191864014 6.53105735778809 5.86206817626953 6.89840698242188 8.8064546585083 8.91512012481689 1.97615659236908 -0.238379001617432 -0.968861281871796 3.26954197883606 3.57023954391479 3.34329867362976 3.58431529998779 0.553062677383423 5.54861354827881 1.20313727855682 -0.265237390995026 -0.061619408428669 0.915720760822296 7.29312324523926 5.10242557525635 39.2970199584961 14.6533145904541 5.11063385009766 9.30394554138184 7.88058757781982 45.1768074035645 29.6484546661377 20.6759471893311 9.47999954223633 4.45308637619019 3.45045495033264 3.396644115448 3.0809326171875 3.70936846733093 8.32705307006836 8.75749492645264 7.08383846282959 5.75239276885986 6.13056135177612 9.31869602203369 7.22030067443848 7.1616644859314 6.42541933059692 5.17962551116943 6.67400407791138 3.14112782478333 6.67462158203125 34.6406097412109 13.6319169998169 14.7147779464722 13.3713455200195 7.64446496963501 10.8662691116333 8.4566068649292 7.05604124069214 24.1236019134521 9.4320011138916 10.3889932632446 7.31310081481934 5.06041622161865 4.61342811584473 8.88642978668213 11.3014497756958 6.26562881469727 6.22113132476807 6.08327531814575 6.17223310470581 5.92455244064331 5.66331577301025 5.74278116226196 5.66345310211182 5.61080598831177 5.79558086395264 4.96107196807861 5.18167686462402 13.0392532348633 12.0758152008057 3.97849655151367 2.74861621856689 2.42024350166321 1.96013903617859 3.49624419212341 2.45793461799622 2.2677891254425 1.54912686347961 0.651988208293915 18.720085144043 11.2057933807373 6.94462251663208 10.4535894393921 9.1532564163208 9.9309663772583 2.28008890151978 2.08427834510803 2.09579515457153 2.50378918647766 2.84153842926025 2.53757572174072 6.3821587562561 2.56528091430664 2.18520379066467 6.89388704299927 2.69928741455078 2.42424631118774 4.33537197113037 40.2657737731934 39.5700912475586 15.67396068573 12.4219427108765 9.73984622955322 10.2638072967529 10.1088905334473 8.99165821075439 9.31688499450684 9.30404663085938 9.24217700958252 9.0936975479126 8.62545394897461 8.03610420227051 8.39471435546875 8.67737865447998 7.935631275177 7.77386569976807 7.74962282180786 7.94292068481445 7.23398399353027 6.72299957275391 6.40085697174072 6.33477926254272 5.88907957077026 4.70379018783569 35.7980918884277 40.1454048156738 30.0072441101074 37.9606094360352 39.8954734802246 20.3047981262207 4.90094041824341 7.10304689407349 11.1307001113892 13.0196943283081 13.8775291442871 27.1198902130127 19.3150463104248 13.7348461151123 12.0794839859009 12.0913314819336 10.7384414672852 18.6520004272461 27.4425582885742 42.9104843139648 30.6752853393555 24.0605335235596 21.913330078125 28.1905136108398 20.5502471923828 26.3833255767822 12.5883598327637
10.1104173660278 10.3380899429321 2.9042055606842 9.54152297973633 9.72758960723877 2.05129957199097 1.02564334869385 1.04363489151001 1.09729743003845 1.17828118801117 1.08573949337006 1.4208527803421 4.35187530517578 6.72759437561035 6.02548789978027 8.96791648864746 7.19696044921875 8.58391666412354 11.0088176727295 11.2255563735962 8.85976505279541 6.97893714904785 5.53757905960083 4.0831937789917 3.60003566741943 3.42110705375671 3.8099958896637 1.24850511550903 18.8202362060547 3.48407793045044 2.27080845832825 0.584284543991089 0.180780723690987 -0.0914452001452446 1.11570274829865 -0.0290850102901459 27.9580898284912 6.07620716094971 1.76076555252075 8.17164134979248 -0.401623457670212 47.9769287109375 36.107349395752 11.3623580932617 5.15447568893433 3.7312924861908 3.60224175453186 3.24167132377625 4.58566570281982 9.07860279083252 9.54844760894775 7.57855939865112 6.1192626953125 6.55926942825317 12.8405570983887 7.82331418991089 7.88948965072632 7.18924379348755 5.79254961013794 7.33240985870361 15.7479162216187 11.1343574523926 3.13319063186646 17.5034141540527 18.4176387786865 15.4157466888428 16.4360980987549 9.91100788116455 10.4654140472412 9.4270715713501 6.16091299057007 19.0826015472412 20.1929130554199 7.77514743804932 9.17003345489502 8.43714141845703 4.82727098464966 6.16221857070923 7.84823131561279 6.89631271362305 6.68390560150146 6.69803142547607 6.31887769699097 6.20528697967529 6.12657260894775 6.04973793029785 5.95902395248413 5.98633050918579 5.76499557495117 5.9460277557373 4.57749557495117 4.56850957870483 4.43950700759888 10.6162586212158 3.09496593475342 3.45304489135742 5.92621612548828 4.62580251693726 3.25647950172424 1.87080574035645 1.78141176700592 0.594417750835419 0.488206684589386 0.647762477397919 1.09488475322723 1.18312871456146 1.72088825702667 2.44978880882263 2.30857396125793 2.25203537940979 3.03055882453918 3.11702036857605 2.87693428993225 2.5073504447937 2.60375809669495 2.50739216804504 3.1137261390686 3.45709753036499 4.14286375045776 5.35058164596558 4.92253160476685 4.72948122024536 28.5320701599121 23.6545314788818 13.6859121322632 13.6562213897705 13.4625682830811 10.7775201797485 9.89249706268311 9.87845134735107 9.75885200500488 9.59744739532471 9.08908271789551 8.46812915802002 8.82571983337402 9.11252498626709 8.27250862121582 8.11603832244873 8.02991485595703 8.24346160888672 7.83626127243042 7.09503889083862 6.57648849487305 6.4979681968689 6.03546476364136 5.7653923034668 4.18073749542236 4.11717653274536 14.2193994522095 4.41238927841187 4.16148376464844 35.768123626709 27.7426586151123 18.2706775665283 16.5730800628662 15.3469142913818 14.9116744995117 11.4653177261353 12.7010841369629 12.5458078384399 12.9215116500854 13.5741233825684 11.8905010223389 12.1359624862671 7.01632785797119 22.1691513061523 35.0775413513184 33.5864219665527 35.766975402832 20.7127914428711 19.4499683380127 10.741982460022 17.9141044616699 23.9915523529053
0.76106208562851 6.40409994125366 13.6834020614624 13.6207799911499 1.36011290550232 1.67445373535156 1.14736878871918 1.18112003803253 1.26793920993805 1.1714780330658 1.52015793323517 5.03094005584717 8.04160499572754 6.7989296913147 11.5043449401855 6.39947986602783 7.90830278396606 13.7454204559326 13.2173109054565 12.5244560241699 9.6591329574585 7.30525970458984 5.58276128768921 4.53077030181885 3.86014628410339 4.09767293930054 3.97891402244568 2.28219151496887 3.79819107055664 3.66503000259399 3.42530417442322 1.92571032047272 -0.0988673642277718 0.143005833029747 1.68082320690155 0.446881532669067 15.1066627502441 2.01540422439575 1.38361239433289 1.40591979026794 -0.511732518672943 18.1323871612549 14.4637012481689 6.58851528167725 4.38420391082764 3.92913055419922 2.77670669555664 3.56217479705811 9.87046241760254 10.4884576797485 8.18700408935547 6.55257034301758 7.02639484405518 22.3600997924805 8.57000637054443 8.90734004974365 7.9845609664917 6.48339033126831 7.174973487854 23.9892425537109 19.4282073974609 16.5690879821777 23.52805519104 25.702241897583 20.7582569122314 20.5877742767334 17.921480178833 13.9376697540283 11.1329174041748 11.0307540893555 6.44424772262573 6.16326236724854 10.3608083724976 12.3396167755127 12.2313861846924 8.15639019012451 10.5404872894287 9.45983219146729 7.81914758682251 7.63607501983643 7.81098318099976 7.17770671844482 7.29521036148071 6.48671007156372 6.40763998031616 6.25985240936279 6.30985069274902 6.0443172454834 6.30263566970825 6.05855941772461 5.482834815979 4.39737796783447 3.12271070480347 3.43565917015076 18.4242973327637 14.4835329055786 10.9501104354858 9.7273006439209 3.61032676696777 6.263099193573 1.7514853477478 1.16596961021423 1.32725012302399 1.52181243896484 1.47118782997131 1.85967290401459 2.49298548698425 2.54446387290955 2.90616583824158 3.28701686859131 3.57535219192505 5.10899782180786 6.28718042373657 4.39082765579224 3.57108926773071 3.08888053894043 4.71324014663696 4.90635395050049 4.99277400970459 6.55933141708374 5.69965505599976 5.78029680252075 6.86875629425049 25.2188568115234 20.3748626708984 19.7884292602539 16.0320796966553 12.7375574111938 11.2276048660278 10.329571723938 10.1622428894043 10.2003164291382 8.95163726806641 9.28599166870117 9.59395790100098 8.62932872772217 8.47752952575684 8.37337779998779 8.34427928924561 8.35443305969238 7.36673879623413 7.017418384552 6.66394424438477 6.14329385757446 5.8643856048584 6.13827466964722 5.02262449264526 4.82935094833374 4.63661766052246 5.0176305770874 7.31383180618286 26.3912906646729 29.3809757232666 14.2547454833984 17.9573822021484 16.2249164581299 12.7606582641602 12.8793106079102 12.8852767944336 13.1703338623047 15.1988229751587 14.250693321228 11.2689399719238 11.4942016601562 7.25152158737183 11.4722013473511 33.0744667053223 29.7103786468506 32.5156288146973 19.8214435577393 13.1966495513916 14.484935760498 13.608510017395 11.1396360397339
1.20067763328552 27.4695148468018 26.1758995056152 1.3747535943985 1.24949407577515 1.2259783744812 1.26704823970795 1.34913218021393 1.255774974823 1.63871455192566 6.07604265213013 9.33417510986328 8.69324779510498 15.5738878250122 10.2547569274902 10.0901641845703 20.7009544372559 20.1337146759033 16.1055202484131 13.0095653533936 9.97307109832764 7.75116968154907 5.85964012145996 4.63421964645386 8.56673908233643 8.96961498260498 4.32642459869385 4.10316562652588 3.98417329788208 3.74354386329651 3.84452247619629 1.80823409557343 3.57181167602539 2.02329325675964 1.30156147480011 1.45989978313446 2.50260400772095 1.90454959869385 1.5396956205368 31.2465915679932 0.00712087005376816 17.9550514221191 10.4793529510498 6.17100048065186 4.40926694869995 2.87316203117371 3.50650787353516 10.3178043365479 11.3548946380615 8.87983989715576 7.07230377197266 9.46188259124756 6.06962013244629 9.69733238220215 7.97297859191895 9.17786598205566 6.94104480743408 6.65519666671753 42.3648796081543 35.9428596496582 32.843921661377 20.4743728637695 26.9185352325439 34.6840171813965 27.9222946166992 22.6161041259766 21.4679660797119 15.7504911422729 11.4720001220703 9.55668163299561 12.9009408950806 10.2818250656128 17.8798427581787 19.7648391723633 9.66072750091553 14.2361268997192 13.1072978973389 9.57462215423584 8.99986934661865 9.95365715026855 9.13297176361084 7.36741352081299 8.04494476318359 7.00372362136841 6.70691680908203 6.70687627792358 6.37476110458374 6.51927042007446 6.44068241119385 5.99563646316528 5.43534374237061 4.29537057876587 3.89030957221985 2.48078870773315 2.12289309501648 2.4969527721405 2.2908992767334 2.16833925247192 15.2816467285156 2.10436916351318 2.23605036735535 4.7980580329895 2.02646398544312 1.90745639801025 2.75087571144104 2.82324719429016 3.07259678840637 3.26915884017944 4.13794183731079 4.31165504455566 7.43915176391602 9.55276870727539 9.38037776947021 7.66294765472412 7.50876712799072 6.76884460449219 6.10972833633423 7.16147804260254 7.79555988311768 7.30156278610229 7.05491590499878 9.84711933135986 11.3933391571045 19.6204643249512 35.0169372558594 29.8302268981934 18.7328243255615 16.7220191955566 12.5714721679688 10.7869367599487 12.7496767044067 9.8264799118042 9.89364719390869 10.0956354141235 9.05465316772461 9.04114532470703 8.92198848724365 9.08587741851807 8.67290210723877 7.6505012512207 7.25933170318604 6.86810255050659 6.45549631118774 5.95108270645142 6.23734569549561 6.70317888259888 14.0863561630249 7.63391971588135 5.26363658905029 19.986686706543 7.83352613449097 9.8588981628418 16.402322769165 20.2180557250977 18.9112014770508 15.2119750976562 13.4249296188354 13.3868761062622 19.1683883666992 18.0494384765625 14.9217338562012 12.5728168487549 13.254322052002 11.2009515762329 12.8045530319214 22.4335651397705 33.6834259033203 33.7562484741211 37.283519744873 18.752197265625 22.8068542480469 12.222526550293 15.3748407363892 12.1105508804321
0.739064574241638 0.523577690124512 1.57524120807648 1.3442976474762 1.23589658737183 1.34642505645752 1.41150903701782 1.30237007141113 1.71724951267242 7.37338590621948 9.14590358734131 11.3171987533569 23.5346126556396 13.1779155731201 14.0029497146606 37.9268989562988 37.1056671142578 21.4958343505859 17.7504081726074 14.2455072402954 10.5930080413818 8.85203838348389 6.14862775802612 4.3558235168457 3.87332797050476 5.20441913604736 4.58019256591797 4.34103775024414 4.06115961074829 4.18311882019043 3.82950472831726 4.00125932693481 2.31029748916626 1.94862520694733 2.66414642333984 2.81181120872498 2.43310189247131 2.34393167495728 -0.0893913954496384 -0.406580865383148 27.5405883789062 2.02692604064941 3.58522868156433 6.00203847885132 3.28299498558044 3.68322730064392 3.22646141052246 10.9147624969482 12.0509042739868 7.82661056518555 7.27593421936035 9.795241355896 9.00987911224365 10.0682277679443 11.1147756576538 7.74759006500244 6.89604616165161 3.08268857002258 12.0274610519409 9.39684581756592 1.66634702682495 5.58404922485352 16.7835254669189 44.5319900512695 30.1240673065186 29.4363098144531 14.6783246994019 23.2043132781982 10.7584075927734 9.24497890472412 30.3092975616455 34.0576095581055 16.4940986633301 17.0018177032471 20.7272205352783 19.3830299377441 13.1189308166504 14.5070743560791 13.255518913269 17.291955947876 9.44577312469482 9.98842811584473 7.90764713287354 7.23734331130981 7.16606044769287 6.77016353607178 6.90459442138672 6.58742094039917 6.34333419799805 5.85192966461182 4.80613088607788 4.17515850067139 3.45681285858154 3.31666159629822 3.28744959831238 3.17564272880554 2.64069747924805 2.17647790908813 2.14020299911499 4.55492162704468 21.9265995025635 20.9213218688965 6.37771320343018 2.97106194496155 3.67891526222229 3.5315055847168 3.78387355804443 4.21495819091797 4.46861934661865 13.245717048645 14.6563138961792 13.2207651138306 10.5736932754517 9.3179235458374 8.67266082763672 6.93266677856445 6.46387004852295 8.08267688751221 7.69992399215698 8.06095409393311 6.23589563369751 6.75531339645386 7.20819187164307 7.81993198394775 8.93462944030762 33.6204605102539 30.8414402008057 18.3683948516846 12.7833557128906 16.6987361907959 12.2033424377441 11.8478546142578 11.7320203781128 10.2372846603394 10.3508310317993 9.90452766418457 10.1362552642822 8.98923110961914 8.37320709228516 7.52499532699585 7.08647394180298 6.66345453262329 6.11840152740479 6.44186544418335 6.82718706130981 21.8613815307617 8.45276927947998 7.90199899673462 4.27540397644043 8.27102184295654 4.93794822692871 16.1406860351562 20.8621788024902 26.3469772338867 19.1872692108154 17.4975185394287 14.1827116012573 13.9133996963501 13.9271383285522 16.9482917785645 18.1712913513184 16.0011730194092 15.7301540374756 8.95932102203369 4.39902830123901 1.52741277217865 7.38714981079102 24.2424640655518 14.7941484451294 31.6896724700928 19.314754486084 21.0128421783447 15.6600437164307 11.314507484436
2.11514115333557 1.98658645153046 1.72850024700165 1.40973222255707 1.43727743625641 1.47258841991425 1.37184143066406 1.81048822402954 5.20337247848511 7.99297714233398 15.2134971618652 42.104907989502 17.9439277648926 21.3510513305664 2.82917332649231 10.7169332504272 33.4771041870117 26.2751560211182 21.5908966064453 13.7233848571777 11.9383573532104 8.3605785369873 8.48361492156982 6.91543436050415 6.21377515792847 5.40277290344238 4.96421766281128 4.49516487121582 4.53108692169189 4.12091398239136 4.35403347015381 4.13762998580933 3.70677137374878 2.96981191635132 3.02013921737671 2.9624764919281 2.77199029922485 2.31691551208496 1.89448189735413 0.0573430322110653 2.27003741264343 2.17936730384827 2.79068231582642 2.77954959869385 3.77311086654663 3.42138814926147 14.0118637084961 14.4028902053833 10.2430381774902 9.02241039276123 11.2270669937134 8.00921058654785 12.2999877929688 14.1897125244141 10.6536102294922 9.54613780975342 1.53055119514465 1.09178781509399 11.0537796020508 5.27835178375244 1.56171679496765 8.08374691009521 2.44561362266541 47.3784370422363 46.3429908752441 44.6436195373535 9.83416557312012 18.2922992706299 9.26611232757568 5.55640888214111 5.138840675354 4.62780332565308 10.7200870513916 25.9630336761475 26.5525493621826 13.8739433288574 8.52376365661621 7.49741840362549 8.35171413421631 14.8778858184814 13.2498264312744 9.07927417755127 8.55547714233398 7.39360809326172 7.66534233093262 7.50375413894653 6.97332715988159 6.47475147247314 6.06919813156128 5.06125545501709 4.52293300628662 3.916424036026 3.48964071273804 3.32069206237793 3.04947662353516 2.66234397888184 2.96533560752869 2.7342963218689 2.24616575241089 1.92278075218201 2.10511445999146 2.52522897720337 3.27926087379456 3.7549204826355 4.11906909942627 13.5203685760498 4.13805723190308 4.966872215271 28.6610374450684 26.1833248138428 25.1688480377197 16.7337036132812 13.4744138717651 10.3774337768555 8.26575469970703 7.51879978179932 7.89137125015259 8.46390151977539 7.25719451904297 6.66134357452393 7.55314207077026 7.54345512390137 8.07939052581787 9.10025310516357 9.18975734710693 9.97328281402588 31.9340667724609 17.9187984466553 23.9892425537109 15.8800277709961 15.3763866424561 13.1249322891235 12.5519247055054 11.5478353500366 11.4478616714478 11.582839012146 9.46597194671631 9.31427001953125 7.89271068572998 7.26037788391113 7.09352588653564 6.28753995895386 6.76433706283569 7.12815380096436 6.25747346878052 11.1590099334717 9.36075401306152 4.54659605026245 11.2516288757324 6.99535417556763 17.1704406738281 15.5136213302612 15.988920211792 21.3632659912109 18.0916023254395 15.4974584579468 15.8247213363647 13.8343629837036 14.9663724899292 13.7090044021606 24.2886238098145 17.5682983398438 5.15833044052124 10.8708362579346 10.0279817581177 13.548095703125 11.1946954727173 25.4658336639404 10.0315809249878 24.4419860839844 30.6379089355469 19.807373046875 13.2999649047852 13.0328760147095
2.5123975276947 1.94833385944366 1.63099384307861 1.42606985569 1.53967201709747 1.40079486370087 1.89743030071259 1.29217827320099 10.030966758728 22.7188129425049 1.62136161327362 33.0378761291504 38.9512100219727 43.5261154174805 10.472469329834 28.6572589874268 45.4200668334961 39.3369216918945 18.6215915679932 16.3244686126709 11.0779619216919 9.14298439025879 9.77328681945801 7.67325496673584 6.45032691955566 5.91212892532349 5.19028759002686 5.17357015609741 4.54296827316284 4.65036678314209 4.46208238601685 4.3268256187439 3.24181318283081 3.30787181854248 3.23494553565979 2.86232328414917 2.932368516922 2.49960875511169 2.64217925071716 2.84393906593323 2.6378185749054 3.12210392951965 2.88233304023743 3.87995767593384 3.50739169120789 18.2123184204102 19.2458667755127 12.7580480575562 9.46182632446289 9.61028671264648 12.05774974823 16.5373249053955 21.0726470947266 13.3417625427246 18.1845359802246 2.77665257453918 1.10772490501404 1.20981991291046 1.80900001525879 2.06222319602966 1.20828688144684 6.38606452941895 7.5467963218689 13.6702404022217 11.0842981338501 8.97395896911621 8.60094451904297 17.4026489257812 5.58767795562744 5.31270790100098 5.80672121047974 9.22611808776855 3.87981104850769 4.77577304840088 13.2471446990967 10.5185918807983 13.8060750961304 11.7609014511108 12.5845441818237 19.4103374481201 10.8213920593262 10.643274307251 7.9874153137207 8.07743740081787 7.90918254852295 7.87971115112305 7.26587104797363 6.72500705718994 5.48311185836792 4.72340488433838 4.14348697662354 3.82413721084595 3.60692811012268 3.26561832427979 2.85507035255432 3.13485527038574 2.77073001861572 2.70774435997009 2.72035908699036 2.32554078102112 2.43169569969177 3.50098466873169 4.34563398361206 4.18692493438721 3.77511882781982 9.59982299804688 11.3170623779297 3.61157703399658 3.28648710250854 3.36099815368652 17.7741069793701 30.082649230957 21.9063472747803 12.1196670532227 9.15243339538574 8.26273822784424 9.02055644989014 21.0438613891602 8.67130565643311 9.28042411804199 9.57497978210449 10.2020492553711 11.2949867248535 9.94318294525146 10.2758312225342 10.4415884017944 32.6741676330566 40.9837188720703 22.4781036376953 21.7359676361084 16.7349243164062 15.7806158065796 12.6489238739014 13.3345708847046 12.1576919555664 12.3033676147461 10.630126953125 8.79403972625732 7.51797103881836 7.32847738265991 6.67076587677002 7.09118843078613 7.49370002746582 7.63152694702148 12.2262182235718 5.98298263549805 8.8556079864502 3.32080054283142 3.75213599205017 5.91340351104736 18.2215023040771 17.4506607055664 12.5321826934814 8.83582401275635 8.75582599639893 7.63338613510132 9.21761989593506 16.6498870849609 12.3380346298218 36.3554267883301 2.95673727989197 14.8995313644409 12.3555374145508 5.3162407875061 4.7686128616333 0.900096476078033 11.5209007263184 10.559154510498 17.4680366516113 14.0276374816895 16.8799896240234 16.8372344970703 11.2476835250854 20.8328762054443
2.09274530410767 1.81603312492371 1.47940969467163 1.63928723335266 1.48634076118469 1.60857319831848 1.91630554199219 13.4921417236328 40.3679428100586 5.37800455093384 18.9151649475098 3.43392729759216 0.668506562709808 -0.997326374053955 -1.09915411472321 10.3838338851929 9.25425148010254 35.1029205322266 24.4427070617676 15.1597785949707 11.7989959716797 12.8181171417236 10.2544393539429 7.95658922195435 7.1641058921814 6.08506488800049 5.98658847808838 5.34163284301758 5.27661943435669 4.82617139816284 4.67558193206787 3.51697897911072 3.62583565711975 3.53014326095581 3.12864255905151 3.20039439201355 2.73272776603699 3.03871417045593 3.34052181243896 3.13796734809875 3.46632599830627 3.04808378219604 3.16493082046509 4.03007221221924 25.7055492401123 27.0724620819092 16.8140316009521 12.8296060562134 11.9869432449341 14.3424139022827 23.1405830383301 33.648494720459 17.6561870574951 7.36078119277954 3.81759190559387 2.05857443809509 1.5158234834671 3.58582377433777 6.81240606307983 4.55599737167358 2.63317227363586 3.62167859077454 3.90269207954407 6.76422262191772 21.0812549591064 10.7688770294189 6.63632345199585 6.87883567810059 5.92518472671509 5.80210590362549 5.18803024291992 8.07821369171143 5.83038425445557 7.1440863609314 8.40641117095947 9.18890190124512 20.3905906677246 9.04644298553467 19.7113151550293 20.7163524627686 14.0581884384155 8.8446569442749 8.86644554138184 8.39669799804688 8.49446964263916 8.00751209259033 7.47230768203735 6.57166910171509 5.03191137313843 4.29637479782104 4.01788568496704 3.76447248458862 3.64111924171448 3.06085443496704 3.32084202766418 2.96036958694458 2.85565900802612 2.81734085083008 2.84187769889832 3.1225790977478 3.95194411277771 4.45184564590454 4.26702070236206 4.53753900527954 4.40269994735718 6.12166833877563 3.76630783081055 3.22732830047607 3.39758491516113 7.37358379364014 4.11547040939331 23.1768417358398 21.0578174591064 20.1107959747314 9.86629867553711 9.51485347747803 7.82621812820435 9.38147640228271 10.7375898361206 11.5869979858398 11.9731931686401 12.8273572921753 12.960244178772 12.4368562698364 10.5189962387085 10.9233627319336 9.72462177276611 38.2019157409668 37.4426040649414 23.3692989349365 21.841272354126 15.5808191299438 16.8647403717041 14.6005668640137 14.8848171234131 11.2294092178345 11.2154693603516 8.2471866607666 7.6002025604248 6.9184308052063 6.97308349609375 7.84327030181885 7.97900247573853 5.55439567565918 6.04786682128906 21.6720905303955 6.45229196548462 4.24666833877563 2.91433882713318 2.26055026054382 3.9835512638092 19.9297008514404 11.3903131484985 11.432806968689 7.9632682800293 13.7734680175781 17.6103343963623 23.6810054779053 -0.150102570652962 6.17518043518066 29.8502178192139 14.256365776062 12.9509429931641 12.4047985076904 6.19852113723755 6.64403820037842 25.2233486175537 7.88422346115112 26.5354232788086 21.8954524993896 16.2044811248779 12.3927984237671 13.1078472137451 17.7879295349121
1.83503639698029 1.67703974246979 1.76041233539581 1.56944310665131 1.4632933139801 2.02892684936523 19.9616394042969 6.25689697265625 8.21220684051514 0.436178177595139 7.86477327346802 3.34364604949951 2.38565158843994 -0.972778260707855 -0.97336345911026 8.15968418121338 18.355188369751 43.1649436950684 22.9388160705566 17.3079376220703 17.2815895080566 13.1442794799805 10.8860769271851 8.93984317779541 7.4022912979126 7.07823181152344 6.28579759597778 6.09960460662842 5.5274395942688 5.23015642166138 3.80796694755554 3.95072269439697 3.8532383441925 3.4365394115448 3.49153327941895 2.93680095672607 3.03463649749756 3.67776799201965 3.14490485191345 3.78768873214722 3.78390955924988 3.26387715339661 4.37425088882446 43.9703712463379 45.5268096923828 23.9143161773682 18.5910663604736 15.990535736084 18.9949111938477 40.2139739990234 4.65438318252563 25.4203338623047 7.98665046691895 4.61468315124512 4.30228042602539 3.28166913986206 3.70922517776489 8.7814826965332 10.5586595535278 6.69983673095703 4.50762414932251 7.27448511123657 8.05531787872314 7.01407194137573 7.03862905502319 8.30325794219971 8.59115123748779 19.2662296295166 5.94895839691162 6.02771854400635 20.0178489685059 14.2286443710327 11.9603786468506 11.2122840881348 11.4474697113037 6.7050724029541 10.6827774047852 5.8932580947876 11.8764963150024 21.3772144317627 10.9121980667114 9.29200172424316 8.81178379058838 8.97163963317871 8.58257293701172 8.00759887695312 7.25469732284546 5.93369960784912 5.10137319564819 4.19024705886841 3.89944839477539 3.75249600410461 3.17882418632507 3.53482270240784 3.39656162261963 3.32211542129517 2.99784183502197 3.08875966072083 3.47833275794983 3.71703004837036 4.04725933074951 4.55212497711182 4.73065137863159 14.7590932846069 4.33049821853638 4.84643077850342 3.55231547355652 3.70368480682373 3.04621124267578 6.3176908493042 4.90336561203003 22.0093555450439 34.9887657165527 16.9156322479248 12.752103805542 11.1208372116089 10.3579406738281 11.8267049789429 13.4959945678711 17.1448841094971 14.619044303894 14.958423614502 14.7481288909912 11.5463228225708 12.3171739578247 10.5141954421997 9.92807292938232 9.04283905029297 39.6915512084961 37.5349349975586 21.5916614532471 23.4116802215576 18.4139213562012 18.7126502990723 12.9689874649048 13.5738725662231 10.5980091094971 7.88379812240601 7.16272068023682 6.96776580810547 7.54948472976685 8.32749366760254 7.70496845245361 24.0622158050537 8.8618049621582 13.8689336776733 13.6201953887939 4.13127899169922 2.82888627052307 1.96500337123871 1.9820591211319 3.39198184013367 4.43986415863037 7.98899793624878 1.97441506385803 0.553833425045013 0.135980620980263 0.289313137531281 9.5577449798584 8.92810249328613 26.0640621185303 13.8516321182251 7.96715068817139 8.73992824554443 11.5374202728271 5.12009477615356 7.99503898620605 1.76198637485504 23.8693428039551 24.7072296142578 23.8285598754883 19.117582321167 29.6446990966797 28.32470703125
1.75748908519745 1.76143205165863 1.75925946235657 1.54716372489929 2.15055322647095 36.3045387268066 -0.570445656776428 5.91502618789673 3.78423953056335 9.44019985198975 4.39514064788818 9.93634605407715 1.93351566791534 7.59870004653931 -1.43779933452606 -0.713710248470306 4.25466346740723 41.0841598510742 33.1507606506348 25.7654571533203 17.6914577484131 14.193042755127 10.8739023208618 9.98430156707764 8.46940422058105 7.57312250137329 7.1858286857605 6.37790441513062 6.05786752700806 4.38523244857788 4.43169403076172 4.21899366378784 3.76582789421082 3.81558728218079 3.15788674354553 3.21387314796448 3.45021772384644 3.81228709220886 3.78654789924622 4.34973001480103 3.80046939849854 4.95930624008179 -0.111241720616817 -0.261520236730576 41.968822479248 33.8321151733398 23.1229915618896 27.3276062011719 0.800371944904327 10.5012817382812 26.752628326416 14.0613031387329 6.09037256240845 4.9354362487793 4.71710538864136 4.27433156967163 2.97862768173218 18.4686889648438 10.9849290847778 6.45398664474487 7.43430185317993 8.41781234741211 9.2299633026123 17.5088806152344 9.79227066040039 9.03451251983643 5.85504293441772 9.92486095428467 10.69358253479 3.82117390632629 16.9427719116211 15.7616529464722 14.9513263702393 6.4220175743103 7.31344747543335 6.47603464126587 8.83200073242188 7.76200103759766 21.2561321258545 17.5141258239746 16.6321659088135 10.6260261535645 9.56396007537842 9.19575691223145 8.58870029449463 7.77509737014771 6.36396646499634 5.6409215927124 4.45647239685059 4.00306272506714 3.82526159286499 3.25272250175476 3.83855605125427 3.50131511688232 3.49105286598206 3.43212413787842 3.20062637329102 3.64169812202454 4.04126167297363 4.40727233886719 4.74758291244507 5.04619312286377 4.37612962722778 4.75572109222412 6.59069728851318 4.18967914581299 4.54321479797363 3.37242579460144 3.59736657142639 6.33618354797363 6.12339878082275 7.31896257400513 33.1003952026367 22.3808498382568 12.3142604827881 15.2321720123291 13.3962526321411 12.4297485351562 13.7958698272705 14.8963165283203 15.2049465179443 15.0412435531616 12.7688446044922 12.9087610244751 11.8553552627563 10.8863019943237 10.0148315429688 9.75140953063965 13.6128797531128 36.919921875 39.6218528747559 25.6361083984375 26.0517139434814 15.4764595031738 17.1368370056152 12.7639112472534 9.8622407913208 7.62377738952637 7.41626310348511 8.07981586456299 8.87606143951416 8.22114372253418 6.03678178787231 12.5051240921021 6.28369283676147 5.42007827758789 4.3525242805481 3.91236257553101 2.50612568855286 2.31005048751831 7.03682136535645 21.3617935180664 2.02934861183167 2.36822438240051 2.77407217025757 1.69605326652527 3.82101058959961 19.7620010375977 -0.0222470462322235 0.116811215877533 0.701388776302338 21.9201030731201 1.3880398273468 12.5740051269531 6.29171133041382 11.6283521652222 3.42591047286987 0.582016289234161 1.57759761810303 17.3003826141357 21.9520092010498 14.9911165237427 13.8089332580566 20.6547584533691
