NCOLS 173
NROWS 32
XLLCORNER 353872
YLLCORNER 6699664
CELLSIZE 16 
NODATA_value -3.4e+38 
1.08533585071564 1.16497230529785 1.20143175125122 1.23544883728027 1.28014850616455 1.33077466487885 1.43189406394958 1.56807768344879 1.69810080528259 1.77972555160522 1.87229764461517 2.1010377407074 1.93166637420654 1.96591281890869 1.9864696264267 1.98080992698669 2.07480883598328 2.20839428901672 2.03454756736755 2.06117057800293 2.07886433601379 2.02530169487 1.85117697715759 1.74347913265228 2.18076086044312 2.34209060668945 3.53121948242188 2.4970588684082 0.730702042579651 0.694759786128998 0.675932645797729 0.82887989282608 1.04199838638306 1.15063214302063 1.22054040431976 1.27279055118561 1.32769310474396 1.63382542133331 1.695676445961 1.61392545700073 1.59161293506622 4.58037757873535 7.5357027053833 2.10457801818848 1.15940761566162 1.32942426204681 1.48564171791077 1.76405119895935 1.91572618484497 2.33541440963745 3.80243110656738 5.96433639526367 3.73908019065857 3.50606465339661 3.01308441162109 3.13011336326599 4.09952545166016 5.53632640838623 6.64024591445923 4.17629241943359 3.3964536190033 3.86384963989258 3.48200654983521 2.00891304016113 1.95301556587219 1.8034108877182 1.6032567024231 1.52730488777161 1.5328596830368 1.51695024967194 1.33012366294861 1.66914248466492 2.74084377288818 3.37995219230652 3.78374886512756 3.90628266334534 4.00451278686523 4.12253046035767 4.20262050628662 4.33759927749634 4.53434038162231 4.63359498977661 4.70501613616943 4.77414035797119 4.90922689437866 5.06910371780396 5.26682901382446 5.45053958892822 5.58617973327637 5.79068660736084 5.88253593444824 6.08086013793945 6.39874744415283 6.62033891677856 6.79406356811523 6.84825372695923 6.81587743759155 6.91148281097412 6.97017049789429 7.41986894607544 7.85001707077026 7.94259452819824 8.03369808197021 8.20101261138916 8.24336910247803 8.31874370574951 7.5857367515564 6.43318605422974 4.74892377853394 4.80805015563965 4.8031530380249 4.83066844940186 4.86921644210815 4.80602931976318 4.75409650802612 4.68764066696167 4.54568433761597 4.4526219367981 4.50403356552124 4.64228105545044 4.85864400863647 5.17319631576538 5.41516351699829 5.48641586303711 5.622239112854 5.8434591293335 5.83384037017822 6.13224792480469 6.04326915740967 6.50492286682129 6.57254695892334 6.73118448257446 6.64083099365234 6.65488481521606 6.79878091812134 6.74404382705688 6.84329795837402 7.0880389213562 7.32525110244751 7.76953840255737 8.28278160095215 8.71005058288574 9.22465515136719 9.62826538085938 9.94913387298584 10.1166830062866 10.4319410324097 11.0816745758057 11.9001302719116 13.5815191268921 14.6536493301392 14.5917901992798 14.6015701293945 14.7381887435913 15.0422210693359 15.5465822219849 17.2155208587646 17.4074153900146 17.6625747680664 19.0657520294189 19.8135814666748 20.1967029571533 20.5452041625977 21.6814861297607 22.9789218902588 23.9764156341553 26.3642444610596 21.0334663391113 17.1954536437988 13.6757965087891 4.17055606842041 0.434463500976562 4.14592695236206
1.07391214370728 1.19382190704346 1.23513507843018 1.29252588748932 1.34171545505524 1.41591131687164 1.53760039806366 1.64447724819183 1.74443161487579 1.80943202972412 2.68638038635254 1.89488053321838 1.90921568870544 1.97204422950745 2.01547980308533 2.04602456092834 2.01321220397949 1.98999500274658 2.00978589057922 2.04574346542358 2.06984257698059 2.10680770874023 2.04403805732727 1.86183285713196 1.77734339237213 2.11734962463379 2.20700526237488 1.95054030418396 0.768912553787231 0.747906148433685 0.77049458026886 0.782574832439423 0.984063863754272 1.14740192890167 1.23629069328308 1.31184232234955 1.36508142948151 1.74628019332886 1.80034577846527 1.82112646102905 1.65187036991119 2.01801681518555 3.09589505195618 0.733713686466217 0.574790894985199 0.436014384031296 1.3538476228714 1.58319354057312 1.83024394512177 2.04284286499023 2.9766092300415 4.72046709060669 3.16094303131104 3.5107626914978 3.57745814323425 3.08131766319275 4.31489372253418 5.38267850875854 3.22342491149902 2.86105990409851 2.84144949913025 2.86207675933838 2.52303600311279 2.01124310493469 2.05742645263672 2.0212025642395 1.83665728569031 1.8012136220932 1.77031171321869 1.80544173717499 1.83918452262878 1.73133742809296 2.55632328987122 3.16413235664368 3.64291572570801 3.89745569229126 4.02720594406128 4.1287670135498 4.25540733337402 4.33971118927002 4.48780059814453 4.69939613342285 4.80056858062744 4.88509178161621 4.95993423461914 5.10474014282227 5.26880788803101 5.54861879348755 5.68906259536743 5.91522121429443 6.00291919708252 6.13767671585083 6.36580991744995 6.74330377578735 6.94009637832642 6.99330949783325 7.06414079666138 7.10008478164673 7.21025848388672 7.34204244613647 7.83748292922974 8.32142066955566 8.41912651062012 8.52185153961182 8.73043632507324 8.78232574462891 8.33474445343018 7.82145977020264 6.80842256546021 4.93686723709106 4.94096183776855 5.01172018051147 5.04271745681763 5.1288537979126 5.04041576385498 4.98298788070679 4.91167974472046 4.76683473587036 4.67871284484863 4.69636344909668 4.84503793716431 5.08302307128906 5.41431856155396 5.6891770362854 5.82926416397095 5.99763202667236 6.23448181152344 6.233314037323 6.50956106185913 6.40486574172974 6.87944412231445 6.96224546432495 7.14768266677856 7.02835464477539 7.06315135955811 7.20560312271118 7.13377475738525 7.14938640594482 7.50412797927856 7.77867603302002 8.24426364898682 8.83991527557373 9.32505226135254 9.89412307739258 10.2933921813965 10.6690664291382 10.8191242218018 11.2234497070312 11.9171657562256 14.1403932571411 15.5458126068115 16.1045989990234 15.8748769760132 15.9633150100708 16.8603782653809 17.2550220489502 18.7304077148438 20.4136085510254 20.7979946136475 20.9935970306396 23.0838527679443 25.1559772491455 26.4044055938721 26.534366607666 23.154447555542 24.6932754516602 24.0330181121826 17.7852191925049 17.3589344024658 13.1574735641479 -0.56988263130188 -1.78188133239746 1.78472089767456
1.05568253993988 1.1945549249649 1.26722061634064 1.35913515090942 1.40375316143036 1.47968006134033 1.63890612125397 1.74249339103699 1.80652272701263 1.88380479812622 1.90426635742188 1.89553010463715 1.90221416950226 1.93209230899811 2.16718006134033 2.04767084121704 2.05299234390259 2.06229329109192 2.02717924118042 2.04888486862183 2.06387805938721 2.1029577255249 2.13854742050171 2.00754594802856 1.77130126953125 1.78667986392975 1.61798357963562 1.03718745708466 0.88455057144165 0.90549647808075 0.88836395740509 0.902934372425079 0.927759408950806 1.08163058757782 1.23459076881409 1.33852124214172 1.41152513027191 1.51958501338959 1.93169450759888 2.02108025550842 2.04223847389221 1.78112196922302 1.61802804470062 1.21727299690247 0.905906498432159 0.697079658508301 0.659295976161957 1.54334509372711 1.7271990776062 1.96065938472748 2.29759550094604 3.08440494537354 2.63189220428467 3.47177863121033 3.96789002418518 3.90232610702515 3.96331000328064 3.12767696380615 2.8977267742157 2.95205116271973 2.93027400970459 2.88530683517456 2.65954685211182 2.37015581130981 3.26810073852539 2.07239174842834 2.07174444198608 2.02913522720337 2.07856321334839 2.05718207359314 2.13284301757812 2.07023048400879 2.43490529060364 3.0110809803009 3.62178492546082 3.84691762924194 4.02057218551636 4.15751075744629 4.26285648345947 4.39672756195068 4.49103546142578 4.64697790145874 4.87258672714233 4.9800877571106 5.07512187957764 5.15075397491455 5.3108549118042 5.59597444534302 5.79165267944336 5.93574523925781 6.16864681243896 6.26129055023193 6.46440076828003 6.80706548690796 7.03774642944336 7.23411798477173 7.29810285568237 7.37872314453125 7.41753530502319 7.53884506225586 7.75154066085815 8.29878711700439 8.85949039459229 8.95549774169922 9.06988620758057 9.17063045501709 9.23843765258789 8.66375255584717 7.8358736038208 6.55809879302979 5.12766551971436 5.16399574279785 5.24004888534546 5.30909872055054 5.41135358810425 5.28896188735962 5.22989177703857 5.15302753448486 5.00399971008301 4.92056322097778 4.8948769569397 5.0598840713501 5.31116580963135 5.66153335571289 5.97001028060913 6.13437843322754 6.32487630844116 6.60537004470825 6.62086391448975 6.88860559463501 6.80418539047241 7.29620456695557 7.37726449966431 7.55432176589966 7.43249845504761 7.41789197921753 7.33140516281128 7.43350124359131 7.50993633270264 7.8977198600769 8.18810653686523 8.69364738464355 9.36777973175049 9.90751361846924 10.5589046478271 10.9566602706909 11.4603824615479 11.6114892959595 12.1097402572632 13.3374404907227 16.3371295928955 18.9208145141602 19.4377994537354 18.7540054321289 19.8355560302734 22.8676433563232 24.3231925964355 23.393726348877 24.6017360687256 26.3610420227051 26.3082675933838 24.3215408325195 22.187744140625 21.0923328399658 19.5625419616699 24.6409873962402 20.5283679962158 15.7910442352295 13.7709827423096 6.42451286315918 -2.03416752815247 -1.91677236557007 -0.157231971621513
1.09856355190277 1.2074590921402 1.30524301528931 1.39749729633331 1.43834924697876 1.52651810646057 1.69088459014893 1.86799335479736 2.30174231529236 3.10801076889038 1.89737594127655 1.91131091117859 1.92491590976715 1.93714940547943 1.96864581108093 2.01293802261353 2.08196377754211 2.10984182357788 2.10491752624512 2.06398558616638 2.08386635780334 2.11376714706421 2.19595551490784 2.12977075576782 1.93198812007904 1.69928872585297 1.47476482391357 1.29860496520996 1.04445719718933 1.00604045391083 1.02599930763245 1.08050501346588 1.15080606937408 1.04872155189514 1.15356254577637 1.32817268371582 1.42410147190094 1.49835693836212 1.69114637374878 2.17901229858398 2.24306082725525 2.21320414543152 1.83433473110199 1.62186169624329 1.32379126548767 1.06504368782043 1.21788418292999 1.26209127902985 2.17491602897644 2.01862502098083 2.09977984428406 2.17450428009033 2.39750695228577 2.94279098510742 3.80991077423096 4.38136529922485 4.08998584747314 3.10476279258728 2.89344120025635 2.90403437614441 2.98935532569885 2.99684286117554 3.01605105400085 2.91361093521118 2.51128625869751 2.0246307849884 2.0883264541626 2.26085138320923 2.34368538856506 2.47308158874512 2.37374687194824 2.46866226196289 2.52485680580139 3.10973310470581 3.61453771591187 3.83911681175232 3.96236634254456 4.1499342918396 4.29758644104004 4.40562534332275 4.5465669631958 4.64405584335327 4.81290578842163 5.05243921279907 5.16979122161865 5.27746152877808 5.42283964157104 5.59273481369019 5.83311557769775 6.04925680160522 6.1951060295105 6.43916463851929 6.53983163833618 6.74703454971313 7.09939479827881 7.34839820861816 7.55937719345093 7.62832069396973 7.71710872650146 7.76900863647461 7.91183948516846 8.36581611633301 9.16650009155273 9.26409339904785 9.37617778778076 9.68446445465088 9.82861518859863 9.9553279876709 9.36265182495117 8.10156440734863 5.61952352523804 5.35890960693359 5.40796661376953 5.48748731613159 5.59981966018677 5.72795963287354 5.56543159484863 5.50174379348755 5.42355012893677 5.2646541595459 5.18675565719604 5.13045454025269 5.29631662368774 5.57964754104614 5.94053792953491 6.27402639389038 6.47023773193359 6.67675256729126 6.97779512405396 6.98790693283081 7.26922082901001 7.20536279678345 7.59937381744385 7.75884342193604 7.63275766372681 7.66308498382568 7.77513027191162 7.63775634765625 7.77714252471924 7.8993182182312 8.29374504089355 8.63549041748047 9.15994739532471 9.87467861175537 10.4921503067017 11.2639303207397 11.8180694580078 12.4407987594604 12.5480718612671 13.3608026504517 15.1536159515381 19.6480674743652 23.9218940734863 29.2317905426025 28.1801204681396 25.2597122192383 21.5041408538818 21.4286231994629 26.9209785461426 29.1616344451904 24.9690971374512 21.3472213745117 21.3314151763916 21.058422088623 16.0655555725098 17.1988563537598 16.3283348083496 10.954140663147 5.24826335906982 -1.47473978996277 -1.99632906913757 -1.18513834476471 0.251340746879578
1.19959306716919 1.28371822834015 1.35230672359467 1.43009567260742 1.53663158416748 1.60413110256195 1.70204877853394 2.21178936958313 3.34179711341858 1.85679888725281 1.89297223091125 1.9286208152771 1.93192887306213 1.94794774055481 1.97410023212433 2.00606918334961 2.06876158714294 2.11897730827332 2.14479613304138 2.13541436195374 2.12829899787903 2.15967154502869 2.2003538608551 2.23284506797791 2.1610050201416 1.95569860935211 1.72460091114044 1.50177562236786 1.33400225639343 1.31318962574005 1.32910573482513 1.38107264041901 1.54146063327789 1.37793874740601 1.2438657283783 1.2460480928421 1.40262067317963 1.49417567253113 1.55463266372681 1.82724952697754 2.38071846961975 2.44545960426331 2.40499091148376 1.93654596805573 1.75167202949524 1.62881743907928 1.65616762638092 2.06395697593689 2.07505679130554 2.68807792663574 2.2555980682373 2.12649512290955 2.25360822677612 2.65325045585632 3.23075842857361 4.43395376205444 4.86194372177124 4.43592309951782 3.46644830703735 3.01316237449646 2.99277400970459 3.0264048576355 3.20614314079285 3.27525401115417 3.13159370422363 2.51334714889526 2.06129288673401 2.31627607345581 2.54432463645935 2.66063261032104 3.06109094619751 3.18863701820374 2.94340252876282 3.34981751441956 3.61296391487122 3.79928755760193 3.95595026016235 4.08603239059448 4.28987789154053 4.44559288024902 4.55325651168823 4.69553184509277 4.80028676986694 4.98820638656616 5.2545018196106 5.39053916931152 5.47292232513428 5.65306949615479 5.83387231826782 6.09638595581055 6.33207607269287 6.48187875747681 6.74168729782104 6.85406494140625 7.04962968826294 7.4129376411438 7.69363737106323 7.90732669830322 7.99542617797852 8.09524250030518 8.17296600341797 8.31870651245117 9.15319347381592 9.82444190979004 9.93135929107666 10.0901327133179 10.4349451065063 10.6585330963135 10.7943820953369 10.2340202331543 8.92608261108398 6.25808191299438 5.60372972488403 5.67204475402832 5.754554271698 5.92014837265015 6.07506084442139 5.87380075454712 5.79315090179443 5.7122950553894 5.53540277481079 5.48568868637085 5.43274307250977 5.55823469161987 5.86830282211304 6.24923896789551 6.61756944656372 6.84007453918457 7.01944255828857 7.31603384017944 7.32510185241699 7.618577003479 7.8548583984375 7.9722752571106 8.10793495178223 7.94986248016357 7.97876882553101 8.08836364746094 7.9578275680542 8.15130424499512 8.30787754058838 8.72790241241455 9.13837051391602 9.66928100585938 10.4561233520508 11.1785497665405 12.2322731018066 13.0533418655396 13.7163486480713 13.8357877731323 14.8371133804321 16.9865608215332 25.5245780944824 27.132230758667 21.6854476928711 18.0118713378906 19.4774188995361 18.8685684204102 18.1123275756836 20.9422092437744 22.7354927062988 17.9699287414551 18.0071544647217 13.0069932937622 7.5333104133606 9.37513160705566 9.07486152648926 1.78771233558655 -1.99479365348816 -1.60516500473022 -1.29676628112793 -0.258031785488129 1.31491780281067
1.29933965206146 1.33938729763031 1.40023159980774 1.45556044578552 1.52393758296967 1.62400412559509 1.82218134403229 2.38207983970642 1.89861238002777 1.89105772972107 1.8681321144104 1.94167649745941 1.96443152427673 1.98058605194092 1.99173772335052 2.01701760292053 2.04271554946899 2.11059165000916 2.19303965568542 2.19478511810303 2.17087078094482 2.16447734832764 2.19892859458923 2.23903393745422 2.27220058441162 2.20379376411438 2.00692296028137 1.76712107658386 1.58538639545441 1.60124742984772 1.65358734130859 1.6755827665329 1.76840770244598 1.7253623008728 1.60129725933075 1.49836242198944 1.32174825668335 1.47041308879852 1.59863936901093 1.65254580974579 1.99103987216949 2.60555839538574 2.6524031162262 2.59423422813416 2.05136752128601 1.80942761898041 1.79012489318848 2.03989434242249 2.52542114257812 2.80390191078186 2.5300121307373 2.30821990966797 2.32650828361511 2.49219059944153 3.03769707679749 3.78705215454102 5.01569318771362 5.47505187988281 5.09174060821533 3.90664911270142 3.2113254070282 3.31945157051086 3.43811273574829 3.50443506240845 3.55072450637817 3.34562253952026 2.75313973426819 2.5602171421051 2.79789233207703 3.5233256816864 3.92819404602051 3.97535395622253 3.47051501274109 3.3698890209198 3.62303972244263 3.77781534194946 3.91313695907593 4.0772590637207 4.2168140411377 4.43405246734619 4.60267162322998 4.70698833465576 4.8631272315979 4.98521566390991 5.36486387252808 5.49521350860596 5.62476015090942 5.70754909515381 5.90649461746216 6.09672689437866 6.38236856460571 6.63953018188477 6.80416870117188 7.08083486557007 7.19882917404175 7.37934398651123 7.76083898544312 8.06781578063965 8.29402732849121 8.41567230224609 8.5255708694458 8.61512088775635 9.06412029266357 9.80021190643311 10.5784482955933 10.6982746124268 10.9400854110718 11.3078241348267 11.6343002319336 11.7838478088379 11.2719078063965 9.94544696807861 7.06941652297974 5.85667419433594 5.90626382827759 6.03871250152588 6.26816749572754 6.45864534378052 6.22064113616943 6.1204252243042 6.03069734573364 5.8545937538147 5.81287002563477 5.75758409500122 5.83254384994507 6.17438745498657 6.58434200286865 6.98261642456055 7.17660284042358 7.32323694229126 7.64262962341309 7.74843740463257 7.67215633392334 8.16768074035645 8.26244354248047 8.37523460388184 8.24755859375 8.28036499023438 8.42368030548096 8.31926441192627 8.57021999359131 8.7671537399292 9.21677494049072 9.7098331451416 10.2522392272949 11.1631689071655 12.1802806854248 13.698881149292 14.3934488296509 14.8362445831299 14.9445142745972 16.0734062194824 18.0492877960205 19.0875873565674 14.4068803787231 12.3355417251587 17.0836982727051 13.6135311126709 11.3356733322144 13.6545095443726 15.0059423446655 8.6998233795166 10.4582624435425 8.35289287567139 4.89218425750732 4.00941228866577 1.80263102054596 -2.57840418815613 -2.89597225189209 -1.6480393409729 -0.076240636408329 6.44135713577271 1.19324934482574
1.40505731105804 1.41877686977386 1.47281348705292 1.49722254276276 1.55514311790466 1.63848447799683 1.76875698566437 2.63728165626526 1.75743138790131 1.83422684669495 1.93060922622681 1.92125487327576 1.99346041679382 2.00490570068359 2.01856303215027 2.03448867797852 2.06730270385742 2.09674692153931 2.20413899421692 2.23190784454346 2.22303414344788 2.21111607551575 2.20305109024048 2.24878716468811 2.28231287002563 2.32097268104553 2.26854586601257 2.06398320198059 1.89597058296204 1.98406028747559 2.0539665222168 2.05751919746399 2.06809830665588 2.02367734909058 1.92293310165405 1.81993043422699 1.69908916950226 1.4507155418396 1.59979057312012 1.66991376876831 1.80109679698944 2.17381882667542 2.84416222572327 2.87170147895813 2.81718754768372 2.20208668708801 2.10704898834229 2.2680037021637 2.41986918449402 2.86551928520203 3.36913824081421 2.85224890708923 2.21512937545776 2.61729145050049 2.91665840148926 3.58724665641785 4.4210000038147 5.97989368438721 5.85349941253662 4.36046504974365 3.33703207969666 3.60106754302979 3.6441638469696 3.73462224006653 3.87592172622681 3.95605087280273 3.88430786132812 3.69197940826416 3.83178043365479 4.22105360031128 4.33328056335449 4.5270037651062 4.71968698501587 4.65039110183716 4.02755975723267 3.76047682762146 3.89147162437439 4.03414964675903 4.20260858535767 4.35464859008789 4.59178256988525 4.76905155181885 4.88193702697754 5.06578683853149 5.30988550186157 5.59937429428101 5.72732925415039 5.87499141693115 5.97109127044678 6.18548727035522 6.38163471221924 6.69535827636719 6.98065233230591 7.15562438964844 7.44706106185913 7.57217502593994 7.74127292633057 8.13784599304199 8.48176574707031 8.72296047210693 8.87423229217529 9.01844692230225 9.11335563659668 9.72241115570068 10.5697841644287 11.4736261367798 11.5982275009155 11.9461069107056 12.3536214828491 12.8099060058594 12.9710674285889 12.6637115478516 11.2242050170898 7.43334674835205 5.91909694671631 6.26597356796265 6.36098861694336 6.68265628814697 6.71806144714355 6.62178802490234 6.50170087814331 6.39697551727295 6.22980642318726 6.18963861465454 6.11569309234619 6.14270353317261 6.53124332427979 6.92065620422363 7.27931451797485 7.48669004440308 7.81470918655396 7.82272958755493 8.07777404785156 7.96717071533203 8.43202877044678 8.55178260803223 8.72372913360596 8.62526702880859 8.66145420074463 8.86396026611328 8.77700424194336 9.02447986602783 9.27428913116455 9.76646518707275 10.3873071670532 10.9552993774414 12.7117462158203 13.8940553665161 15.1511135101318 16.1052722930908 16.1661148071289 16.7641925811768 17.2857818603516 18.6014232635498 11.2072620391846 9.07310962677002 11.9693193435669 11.032886505127 10.4868059158325 11.6366891860962 11.6908121109009 7.6604266166687 7.34877729415894 3.99314832687378 -0.30320405960083 -2.50700831413269 -3.0671501159668 -2.76398015022278 -2.29841136932373 -1.19647896289825 0.140276908874512 0.284101366996765 0.378746449947357
1.4954913854599 1.50709748268127 1.54837322235107 1.57391548156738 1.60645735263824 1.7125118970871 2.20005130767822 1.79249787330627 1.79107666015625 1.78933441638947 1.88187527656555 1.96064651012421 1.95802628993988 2.02487015724182 2.04605841636658 2.05479836463928 2.08279418945312 2.10767483711243 2.19822907447815 2.24103403091431 2.26426458358765 2.25122022628784 2.25350189208984 2.24951767921448 2.2921028137207 2.32836127281189 2.39099502563477 2.34515309333801 2.26221609115601 2.32306885719299 2.38960480690002 2.45709252357483 2.51666855812073 2.52343845367432 2.22289633750916 2.06947255134583 1.90818858146667 1.79878306388855 1.57084012031555 1.6647937297821 1.73916435241699 1.94512140750885 2.3469705581665 3.11629915237427 3.15074276924133 3.06710290908813 2.54800963401794 2.46309494972229 2.63337182998657 3.31002855300903 3.38077592849731 4.78504753112793 4.52942895889282 2.47641921043396 3.01417851448059 3.51232218742371 4.57954835891724 6.31144428253174 7.31655597686768 6.79488134384155 5.33454418182373 3.62494111061096 3.90969753265381 3.9905800819397 4.14422369003296 4.41301155090332 4.5782265663147 4.78754281997681 4.84264707565308 4.85311841964722 5.1392674446106 5.54956722259521 6.06244945526123 6.58078002929688 6.54246616363525 4.60818099975586 4.29526090621948 3.96930932998657 4.13185739517212 4.33143520355225 4.49822568893433 4.75519180297852 4.94626760482788 5.10657501220703 5.30754709243774 5.53826951980591 5.85429000854492 5.98525953292847 6.14037656784058 6.26543951034546 6.48814916610718 6.69692993164062 7.0427451133728 7.35459136962891 7.54882431030273 7.85936403274536 7.97836923599243 8.15334892272949 8.558518409729 8.94240283966064 9.19863319396973 9.39188194274902 9.56931781768799 9.66675090789795 10.5518283843994 11.4601764678955 12.5207748413086 12.7648448944092 13.1586332321167 13.5987043380737 14.2524185180664 14.4314336776733 14.4277753829956 11.8871278762817 8.18943977355957 6.47139978408813 6.63373756408691 6.91104602813721 7.16456174850464 6.95544719696045 6.99134159088135 6.90939044952393 6.81388854980469 6.61312484741211 6.43419122695923 6.35351943969727 6.49980211257935 6.82385396957397 7.13237762451172 7.60625028610229 7.77367734909058 8.11616706848145 8.1151008605957 8.32359313964844 8.20248413085938 8.76235103607178 8.98975944519043 9.17252826690674 9.12754058837891 9.20324897766113 9.38643360137939 9.29635715484619 9.55146408081055 9.93037033081055 10.4916477203369 11.253698348999 12.4166612625122 14.1757946014404 15.0575342178345 16.4495086669922 17.6312599182129 17.0152740478516 15.9285717010498 16.5356540679932 13.8338747024536 8.96034622192383 6.70701503753662 5.36862277984619 6.32985544204712 7.42053842544556 7.13345050811768 4.78490352630615 2.54175305366516 -0.622462391853333 -3.16584205627441 -3.13482475280762 -2.82735729217529 -2.76166963577271 -1.1470023393631 0.111128702759743 1.12609124183655 0.56855970621109 0.299106180667877
1.62108361721039 1.5965291261673 1.62350380420685 1.67230808734894 1.7098708152771 1.79828691482544 1.8607519865036 1.836834192276 1.82281839847565 1.83097457885742 1.80245792865753 1.9078277349472 1.998370885849 1.98860418796539 2.06156921386719 2.07813549041748 2.09604144096375 2.12820792198181 2.17563033103943 2.23143911361694 2.27450799942017 2.29066181182861 2.28424310684204 2.30997896194458 2.42058753967285 2.52578592300415 2.57803058624268 2.72451972961426 2.63718414306641 2.63331294059753 2.6632969379425 2.6962354183197 2.81703758239746 2.95424318313599 2.8235068321228 2.47639012336731 2.25963401794434 2.07081842422485 1.86166942119598 1.64047825336456 1.72260618209839 1.79923069477081 2.09135818481445 2.57041358947754 3.44554257392883 3.47156357765198 3.4163339138031 2.77363300323486 2.76368451118469 3.23834943771362 4.11846876144409 4.59579420089722 6.98090076446533 7.21606159210205 3.17494177818298 3.74641108512878 4.60755157470703 5.50519752502441 7.56681203842163 9.30026435852051 8.58074569702148 7.41272640228271 4.82008600234985 4.25716400146484 4.38383865356445 4.63827800750732 5.00134420394897 5.61395025253296 5.96725940704346 5.9629693031311 6.48136520385742 6.55121803283691 6.90208005905151 7.00599479675293 5.43759202957153 4.08717679977417 4.12745141983032 3.79402494430542 3.9774432182312 4.16704368591309 4.3759765625 4.63121128082275 4.93634653091431 5.18125200271606 5.37644243240356 5.54059553146362 5.78873920440674 6.12328481674194 6.2668833732605 6.44731903076172 6.58397388458252 6.82767343521118 7.04209232330322 7.42631053924561 7.79223585128784 7.98622179031372 8.30575561523438 8.43631744384766 8.63862133026123 9.02891635894775 9.45717525482178 9.72656059265137 9.99899387359619 10.1846160888672 10.5259952545166 11.6339750289917 12.6082029342651 13.7978105545044 14.2106819152832 14.6338529586792 15.1259346008301 16.0446109771729 15.8812952041626 15.5662298202515 13.969931602478 10.1354713439941 6.87717723846436 7.03952360153198 7.40856885910034 7.72319984436035 7.3447003364563 7.22147178649902 7.11329650878906 6.91251420974731 6.8637318611145 6.78773736953735 6.74838447570801 6.70509147644043 7.19530868530273 7.63318538665771 7.86969184875488 8.05300807952881 8.39848041534424 8.40150451660156 8.69866180419922 8.61460971832275 9.2415132522583 9.55237293243408 9.80124759674072 9.79401683807373 9.84230518341064 10.0133533477783 9.99618530273438 10.2835502624512 10.7840919494629 11.338526725769 12.503457069397 13.5927991867065 15.4223470687866 16.4654006958008 18.0511207580566 18.9270496368408 18.697452545166 16.0177707672119 13.3132581710815 7.15326929092407 1.77898871898651 1.07026624679565 1.30409562587738 2.01862454414368 0.800012350082397 -1.69501042366028 -2.80102157592773 -3.08296895027161 -3.32087230682373 -3.04544186592102 -2.7959189414978 -1.31637334823608 0.375677496194839 2.53230547904968 2.89046812057495 2.73505091667175 1.20517122745514
1.75773620605469 1.71228921413422 1.71366798877716 1.7609030008316 1.8539936542511 1.95451307296753 1.98743391036987 1.9904887676239 1.9414826631546 1.93531394004822 1.94512116909027 1.95399689674377 1.98228549957275 2.03692007064819 2.03833055496216 2.10107684135437 2.15229392051697 2.24308395385742 2.27519774436951 2.32255005836487 2.32625460624695 2.393479347229 2.47754597663879 2.5913553237915 2.72694325447083 2.83895063400269 2.98220419883728 3.01912212371826 2.90763449668884 2.90913772583008 2.95101046562195 2.93496084213257 2.98469114303589 3.1151967048645 3.16465377807617 2.91603493690491 2.55103874206543 2.43559861183167 2.16449451446533 1.92179083824158 1.69312715530396 1.78912723064423 1.86496090888977 2.29237103462219 2.86424732208252 3.82957291603088 3.82938742637634 3.79020094871521 3.07172465324402 3.37207174301147 3.88150572776794 5.35197496414185 6.25187635421753 8.66169834136963 2.58931684494019 2.98373007774353 4.18730306625366 5.3212456703186 6.72404003143311 9.59665966033936 12.7934427261353 11.5540227890015 10.1934900283813 4.96740245819092 4.45251131057739 4.65666055679321 5.07379198074341 6.07870960235596 6.94328308105469 7.46153545379639 7.62916231155396 8.67887878417969 8.57822799682617 6.68618679046631 3.85794568061829 3.43382000923157 3.56458520889282 3.63294243812561 3.80326771736145 4.01008749008179 4.21395826339722 4.56078672409058 4.87230157852173 5.25145959854126 5.39644622802734 5.60553979873657 5.7847204208374 6.05529832839966 6.42883920669556 6.57122850418091 6.78101539611816 6.94882440567017 7.18708419799805 7.42806482315063 7.86417245864868 8.27637386322021 8.47646141052246 8.81290245056152 8.94500255584717 9.19715690612793 10.0612306594849 10.4324388504028 10.3492450714111 10.5980882644653 10.7235527038574 11.7205648422241 13.0149641036987 14.0310678482056 15.3516607284546 16.0020618438721 16.4753856658936 16.9370765686035 17.4891624450684 17.2531337738037 18.1360969543457 15.2685384750366 9.7316780090332 7.30772876739502 7.48368501663208 7.98112154006958 8.37306308746338 7.91800546646118 7.77126264572144 7.55763912200928 7.43916130065918 7.34835720062256 7.18649673461914 6.96533393859863 7.12699460983276 7.46462678909302 7.88570833206177 8.1232795715332 8.33158779144287 8.72856140136719 8.82380867004395 9.16196346282959 9.18907070159912 9.92928981781006 10.3586101531982 10.5639762878418 10.6351442337036 10.6971569061279 10.8471298217773 10.8830804824829 11.1595773696899 11.7783002853394 12.678277015686 13.3545751571655 14.6665048599243 18.2431945800781 18.1166286468506 20.0214653015137 14.4723205566406 12.55455493927 9.7297477722168 2.26141095161438 -0.894170343875885 -2.32912993431091 -2.64527750015259 -2.46122407913208 -2.50546789169312 -2.61416673660278 -2.68069243431091 -2.7038094997406 -2.78622174263 -2.80126762390137 -1.52192008495331 0.437594652175903 1.91525626182556 2.96497845649719 4.79259014129639 5.36552095413208 6.88393449783325
1.85617673397064 1.86161828041077 1.83695673942566 1.8944638967514 2.00614714622498 2.11489534378052 2.12668204307556 2.14045214653015 2.11596941947937 2.09578084945679 2.10509920120239 2.12341022491455 2.16527915000916 2.22123074531555 2.27609419822693 2.36127924919128 2.5120050907135 2.62673091888428 2.64961552619934 2.70694184303284 2.72217679023743 2.75843596458435 2.80737471580505 2.87939119338989 2.98299932479858 3.08183336257935 3.20780277252197 3.17252326011658 3.14644742012024 3.10272169113159 3.13399052619934 3.15235114097595 3.14455389976501 3.20083856582642 3.2087082862854 3.2573823928833 2.99802088737488 2.62394547462463 2.48918747901917 2.20878958702087 1.96013724803925 1.84958064556122 1.84523892402649 2.00112104415894 2.63791012763977 3.63565063476562 4.25228691101074 4.09349822998047 3.4566330909729 3.35589981079102 3.95115399360657 4.84064531326294 7.14923238754272 7.10817050933838 1.83863663673401 2.27628636360168 3.4065625667572 5.0445294380188 6.67131567001343 9.38108348846436 12.6156568527222 18.6706676483154 12.3571758270264 5.9835319519043 3.68723940849304 4.64332103729248 5.1089015007019 6.24894762039185 7.76727867126465 9.18382549285889 10.3669176101685 11.1960525512695 9.94234371185303 6.29572153091431 3.97244262695312 3.36064553260803 3.44543600082397 3.59137630462646 3.67679572105408 3.86472296714783 4.16351985931396 4.55632591247559 4.81280279159546 5.23902082443237 5.46815967559814 5.64726686477661 5.86211729049683 6.0593900680542 6.35911846160889 6.76181507110596 6.92446613311768 7.15166425704956 7.34725332260132 7.61235618591309 7.87038135528564 8.34261703491211 8.81534481048584 9.02660655975342 9.38266944885254 9.52473545074463 10.1269950866699 11.3625907897949 11.9746866226196 11.7045955657959 11.3779668807983 11.5922870635986 13.2158145904541 14.9165115356445 15.9694414138794 17.5196952819824 18.2868194580078 18.2535171508789 18.2907371520996 19.5213489532471 21.3253917694092 19.7538318634033 16.7017517089844 11.2949075698853 7.7279314994812 8.00672626495361 8.68514347076416 9.12776851654053 8.63837337493896 8.40798091888428 8.06709098815918 7.93562269210815 7.79070234298706 7.46959733963013 7.21084976196289 7.33079147338867 7.68646478652954 8.13187980651855 8.4083366394043 8.71650886535645 9.20021533966064 9.39683437347412 9.82238292694092 9.93145751953125 10.7215442657471 11.2631216049194 11.5865774154663 11.7422571182251 11.7564496994019 11.8227806091309 11.9838733673096 12.3742389678955 12.7296543121338 13.6108303070068 14.6141624450684 17.0675106048584 22.4637928009033 18.3846168518066 11.1001501083374 8.08256340026855 4.0508770942688 -0.987055420875549 -1.26666784286499 -1.99692821502686 -2.82561445236206 -2.56988525390625 -2.30042386054993 -2.16238808631897 -2.0504937171936 -2.02660012245178 -1.92690682411194 -1.94721496105194 0.450811713933945 3.79271793365479 2.81226682662964 3.81116318702698 5.49351930618286 7.72469615936279 10.8894920349121
1.94217240810394 1.96418726444244 1.96439206600189 2.03231382369995 2.15655541419983 2.25229001045227 2.265061378479 2.29263281822205 2.26157569885254 2.26690578460693 2.2914867401123 2.37573575973511 2.45652341842651 2.49933171272278 2.5546886920929 2.68282103538513 2.82929491996765 2.93193650245667 2.96463513374329 3.0072762966156 3.04994130134583 3.11879348754883 3.15997743606567 3.26315188407898 3.21003746986389 3.26938319206238 3.28663945198059 3.27131509780884 3.23678994178772 3.21860146522522 3.19437670707703 3.23042011260986 3.23953032493591 3.21538400650024 3.27052664756775 3.27898097038269 3.33096694946289 3.06760025024414 2.67962145805359 2.54462957382202 2.26833558082581 2.37031435966492 2.3545253276825 2.05096840858459 2.58096098899841 3.39822268486023 4.51229047775269 4.6347827911377 4.57222890853882 3.71279740333557 3.79356670379639 4.67813634872437 6.48755407333374 7.75674295425415 1.93261075019836 2.28612303733826 2.44245362281799 3.79359316825867 6.75856304168701 8.56482982635498 12.6828441619873 12.5192747116089 2.57992768287659 2.62887382507324 2.82668590545654 3.90664410591125 5.31984949111938 6.330885887146 8.20377922058105 11.3294229507446 13.6970148086548 12.733325958252 6.88205909729004 3.1658992767334 2.96956944465637 3.0155029296875 3.25088000297546 3.50943183898926 3.68456673622131 3.80970120429993 4.16422557830811 4.55954647064209 4.76624822616577 5.04771089553833 5.4723014831543 5.73023176193237 5.92042016983032 6.14069843292236 6.36027812957764 6.68775749206543 7.13141632080078 7.31690263748169 7.5648250579834 7.79807472229004 8.06828117370605 8.53280162811279 9.11617374420166 9.35312366485596 9.72512817382812 9.91278076171875 10.2124643325806 11.4362230300903 13.0341539382935 14.0231533050537 13.5244293212891 13.3498935699463 13.9068727493286 15.174388885498 16.8737449645996 17.7477359771729 19.1833953857422 19.500129699707 19.3275623321533 20.3759307861328 23.9348373413086 27.1442832946777 25.486047744751 23.2673187255859 14.6654396057129 8.21873569488525 8.6733512878418 9.55420398712158 10.0088748931885 9.43737030029297 8.9718189239502 8.56125736236572 8.44688987731934 8.1682186126709 7.74248456954956 7.45572328567505 7.54412937164307 7.93692016601562 8.48703670501709 8.85976982116699 9.27289772033691 9.80405521392822 10.1259117126465 10.5112619400024 10.766622543335 11.6296701431274 12.3513565063477 13.0225067138672 13.1470603942871 13.0034208297729 13.0167684555054 12.6763877868652 13.6114912033081 14.0932331085205 14.973801612854 17.7880573272705 19.1793556213379 11.7745037078857 8.9766321182251 4.11403656005859 -0.891810953617096 -0.832546412944794 -0.885333895683289 -1.11260712146759 -1.57477080821991 -2.22358655929565 -1.68335199356079 -1.16195273399353 -0.725127041339874 -0.267673015594482 -0.675876557826996 -0.570268988609314 0.849969744682312 7.45381784439087 5.75041198730469 2.94869136810303 6.10952520370483 10.7937068939209 10.0520181655884
1.99330759048462 2.05849742889404 2.08653521537781 2.18474841117859 2.29787874221802 2.39844417572021 2.42680931091309 2.48835420608521 2.48261117935181 2.54610300064087 2.61463689804077 2.74517822265625 2.82817053794861 2.83376550674438 2.89054822921753 2.9797055721283 3.07902407646179 3.16109395027161 3.22251605987549 3.24801754951477 3.25351524353027 3.28902101516724 3.35866045951843 3.35268974304199 3.36858606338501 3.39278793334961 3.36273765563965 3.35404562950134 3.34070563316345 3.30358576774597 3.3360652923584 3.39562487602234 3.33773016929626 3.30700516700745 3.27848815917969 3.34171581268311 3.35745978355408 3.41253805160522 3.14508986473083 2.9344801902771 2.61194062232971 2.46682786941528 2.42828607559204 2.39930558204651 2.31268215179443 3.2003345489502 3.47131681442261 4.8274564743042 5.30832147598267 5.19153738021851 4.13366842269897 4.83842372894287 5.02043771743774 4.99861574172974 1.86842238903046 2.33120036125183 2.45321846008301 2.57484078407288 4.83469295501709 8.61491584777832 9.12724304199219 5.61648845672607 2.50357794761658 2.56183123588562 2.86298441886902 3.09251236915588 5.10607004165649 6.77283430099487 9.07061100006104 12.5849113464355 16.076997756958 10.4898319244385 4.82035446166992 3.97073793411255 2.9033043384552 3.03121757507324 3.04224872589111 3.33540654182434 3.62980222702026 3.89869451522827 4.19399118423462 4.53430080413818 4.74506092071533 5.0153694152832 5.33331346511841 5.71974802017212 6.00139808654785 6.21055221557617 6.44262313842773 6.68956422805786 7.0553183555603 7.53489398956299 7.76282501220703 8.01780319213867 8.31562805175781 8.6619987487793 9.18599414825439 9.77430057525635 10.0224590301514 10.4252882003784 10.687403678894 11.0520086288452 14.3135213851929 15.5866289138794 15.871021270752 17.7993659973145 18.6830787658691 17.1280632019043 16.7238578796387 17.4257354736328 19.2921047210693 20.370512008667 20.8658084869385 20.9759197235107 25.0414276123047 31.4246063232422 33.7963714599609 36.8728637695312 34.2231178283691 20.4544353485107 10.9927177429199 9.16160488128662 10.3529415130615 10.8450136184692 10.2939081192017 9.65811061859131 9.10418033599854 8.92174816131592 8.5078821182251 8.04269409179688 7.79036092758179 7.82888507843018 8.31632709503174 8.93129539489746 9.41167831420898 9.9447135925293 10.4435520172119 10.6959342956543 11.1361484527588 11.6168298721313 12.6711759567261 13.7995357513428 14.1797428131104 13.7773151397705 13.77024269104 13.9738121032715 14.3758497238159 15.1639528274536 15.972186088562 17.1157474517822 16.1814422607422 13.591703414917 6.64580202102661 -2.00673913955688 -1.52012360095978 -0.741780936717987 -0.439600437879562 -0.28514775633812 -0.0249278228729963 -0.151784971356392 -0.165031403303146 1.22764539718628 1.71242690086365 1.65800166130066 1.75836956501007 1.078000664711 1.30450105667114 1.78418052196503 -1.63006734848022 0.00453023333102465 6.15869331359863 9.73768615722656 2.30976581573486
2.06552577018738 2.11913108825684 2.19737434387207 2.31573748588562 2.45229530334473 2.60351467132568 2.71095156669617 2.78684854507446 2.79812717437744 2.84501624107361 2.99333834648132 3.17563581466675 3.29372143745422 3.24394369125366 3.23176884651184 3.26099300384521 3.29408407211304 3.33977293968201 3.38924503326416 3.41361784934998 3.41834831237793 3.44069862365723 3.48420763015747 3.51101732254028 3.52898693084717 3.47961044311523 3.45734834671021 3.43162775039673 3.42675232887268 3.4830117225647 3.58412718772888 3.63708591461182 3.65040946006775 3.40934157371521 3.37538599967957 3.34962868690491 3.41489243507385 3.43570351600647 3.49467921257019 3.21667385101318 2.99061822891235 2.66026854515076 2.52366614341736 2.46831583976746 2.43313384056091 2.34890842437744 2.75498795509338 3.69734454154968 5.5897479057312 6.38246393203735 7.65810203552246 4.80965995788574 3.93160939216614 5.31025886535645 1.71515357494354 2.28111386299133 2.4486608505249 2.56275129318237 2.60525417327881 5.11724996566772 2.64247226715088 2.73598384857178 2.64422988891602 2.64912605285645 2.94877409934998 3.14941143989563 5.33409833908081 6.95576095581055 9.42492294311523 13.6692571640015 16.6878070831299 8.80773830413818 5.27615165710449 5.10617208480835 4.80972719192505 3.1784565448761 3.10275816917419 3.10780620574951 3.43215680122375 3.85349988937378 4.28585529327393 4.57515478134155 4.72734832763672 5.00219869613647 5.31934070587158 5.56345272064209 5.98544120788574 6.29595327377319 6.5350661277771 6.79073619842529 7.05742979049683 7.45245695114136 7.98317289352417 8.25406455993652 8.5853271484375 8.91503524780273 9.29181671142578 9.85748195648193 10.5203399658203 10.7898225784302 11.2198619842529 11.5702533721924 14.7146377563477 17.6361122131348 20.4098644256592 22.392276763916 22.9567337036133 21.8008460998535 17.527853012085 16.9958362579346 19.369701385498 21.2731876373291 22.3061466217041 22.6506366729736 23.3583278656006 31.4687080383301 36.6251068115234 32.9515380859375 22.2965145111084 5.03984498977661 6.68229103088379 8.32136344909668 9.44240760803223 11.1404695510864 11.8666696548462 11.4506940841675 10.4648780822754 9.69522953033447 9.3728551864624 8.92146873474121 8.42559432983398 8.28719234466553 8.21179580688477 8.78551292419434 9.48452663421631 10.060622215271 10.627329826355 10.9759817123413 11.3979139328003 12.1294116973877 12.8434534072876 14.4582052230835 15.6655378341675 15.6726522445679 15.9074907302856 15.9101324081421 15.8556232452393 16.3137798309326 17.5294513702393 17.51806640625 15.7104444503784 11.211407661438 1.16765332221985 -2.30433416366577 -1.98061275482178 -0.995372176170349 0.181205779314041 0.986509144306183 1.38195025920868 1.38513672351837 0.889940798282623 1.83959543704987 2.89168834686279 3.26263189315796 2.66234230995178 2.70044231414795 2.10288023948669 1.01122856140137 -0.746876299381256 -1.38443636894226 3.63841366767883 2.02074694633484 -2.53627133369446
2.10445666313171 2.2036075592041 2.33344721794128 2.50980043411255 2.74744081497192 2.93888068199158 3.03281044960022 3.08294725418091 3.08296918869019 3.15003561973572 3.32761788368225 3.5037670135498 3.57692313194275 3.52425193786621 3.47972011566162 3.47254371643066 3.46041393280029 3.47353434562683 3.50666284561157 3.51930475234985 3.54960417747498 3.60293221473694 3.61060333251953 3.62858510017395 3.62995767593384 3.59677481651306 3.54385638237 3.53035664558411 3.5531804561615 3.61833333969116 3.6648736000061 3.69893431663513 3.74650073051453 3.72137951850891 3.46980214118958 3.43875789642334 3.41577076911926 3.48601007461548 3.5085461139679 3.571444272995 3.28236508369446 3.04316639900208 2.69941329956055 2.56074786186218 2.50042843818665 2.44634461402893 2.44741868972778 3.22824907302856 4.84283542633057 6.42086458206177 6.62553071975708 5.22530269622803 4.09445142745972 4.10018873214722 1.74535417556763 2.21873044967651 2.44327163696289 2.53104162216187 2.59565353393555 2.61394810676575 2.5716757774353 2.65801429748535 2.86918067932129 2.90116715431213 3.018798828125 3.23173856735229 4.7270622253418 7.45679998397827 10.0145597457886 13.5077342987061 16.2525119781494 7.65493297576904 4.97075748443604 5.95695066452026 5.9897518157959 6.22924470901489 3.42180633544922 3.00185823440552 3.23179578781128 3.68942475318909 4.22339487075806 4.67206525802612 4.78640270233154 5.00294542312622 5.26301383972168 5.55319929122925 5.80962038040161 6.28402376174927 6.6230411529541 6.89327669143677 7.18595504760742 7.45349168777466 7.88945055007935 8.54625129699707 8.83285617828369 9.20547771453857 9.61656188964844 10.0157899856567 10.6855840682983 11.4006624221802 11.691201210022 12.1499576568604 13.9488077163696 18.1419773101807 22.8195934295654 27.0246200561523 28.8137531280518 22.5084800720215 14.2653331756592 14.3640661239624 19.5403213500977 21.7501697540283 22.7290172576904 24.7433853149414 25.3578281402588 24.9529972076416 24.7735252380371 17.7218055725098 11.5923519134521 5.68135690689087 5.12505626678467 7.0163140296936 8.363694190979 9.88419342041016 12.2021465301514 13.1392335891724 12.9536218643188 11.3801774978638 10.287486076355 9.91335964202881 9.40298461914062 8.93923568725586 8.90969562530518 8.64758491516113 9.29510879516602 10.0394124984741 10.7059354782104 11.3485145568848 11.856297492981 12.7551746368408 13.4646053314209 14.5536651611328 16.3620281219482 18.2195301055908 17.962366104126 19.0721530914307 18.3098487854004 18.9771995544434 19.8089408874512 17.1243762969971 12.6069269180298 4.82683801651001 -2.46016120910645 -2.25988221168518 -2.1048789024353 -1.43939054012299 0.163603559136391 1.72755539417267 2.50516963005066 2.41494679450989 2.11263990402222 1.37895953655243 2.78542327880859 4.79008340835571 4.78814554214478 3.73354959487915 3.53657937049866 0.534011125564575 -1.68035972118378 -2.14414072036743 -2.47820854187012 -2.58821153640747 -2.56301093101501
2.17273426055908 2.34493613243103 2.55763339996338 2.84456586837769 3.05335640907288 3.21856999397278 3.33602142333984 3.38035464286804 3.39357805252075 3.50191974639893 3.74102067947388 3.80602264404297 3.80803394317627 3.75924563407898 3.71111249923706 3.69087648391724 3.66770529747009 3.62879180908203 3.6281726360321 3.64236664772034 3.66162419319153 3.69726157188416 3.70665192604065 3.73497176170349 3.71277737617493 3.69417405128479 3.66810488700867 3.61607909202576 3.59797525405884 3.6193733215332 3.68006229400635 3.73513531684875 3.76943254470825 3.81857323646545 3.79244613647461 3.53728938102722 3.5125617980957 3.49237155914307 3.56223344802856 3.58464431762695 3.64422011375427 3.34412884712219 3.09353375434875 2.74119162559509 2.59671115875244 2.53104829788208 2.47991013526917 3.06212210655212 4.97044134140015 5.26742935180664 6.57853031158447 3.24196004867554 1.29303288459778 1.4433788061142 1.6540265083313 2.09366345405579 2.38190865516663 2.52607870101929 2.5981593132019 2.65484428405762 2.66467714309692 2.73445439338684 2.87925338745117 3.11771416664124 3.19110512733459 3.31926608085632 4.64156484603882 7.29049491882324 10.5732793807983 13.078444480896 13.1855239868164 6.15962886810303 5.00343751907349 5.17764282226562 5.62370157241821 5.20245552062988 2.3920567035675 2.85806274414062 3.08291983604431 3.50738000869751 4.06627130508423 4.61494398117065 4.88963174819946 5.01478385925293 5.23667240142822 5.49170780181885 5.80058479309082 6.08743667602539 6.6110143661499 6.98656558990479 7.29491090774536 7.61654710769653 7.89048147201538 8.79790019989014 9.16346740722656 9.49027061462402 9.92284774780273 10.440113067627 10.8690567016602 11.6771087646484 12.458610534668 12.7661323547363 13.9102001190186 17.239236831665 22.5946559906006 27.059139251709 33.2628746032715 16.9793548583984 11.1750535964966 11.770770072937 17.6658096313477 21.6535129547119 24.3992958068848 25.258092880249 20.1868877410889 17.7899055480957 20.9251880645752 21.162727355957 17.4103622436523 5.79074335098267 9.48189830780029 9.36176013946533 7.93943548202515 9.21812725067139 10.8455200195312 13.6381454467773 14.6289558410645 13.6639823913574 12.3079252243042 11.0085697174072 10.5557165145874 10.0349988937378 9.70034790039062 9.56554126739502 9.13756465911865 9.78758239746094 10.6836032867432 11.4250345230103 12.3628940582275 13.5141048431396 14.2315282821655 15.0905570983887 16.1753597259521 18.4566402435303 22.0151042938232 23.6239681243896 24.4085865020752 19.3202743530273 17.0455284118652 13.2488813400269 7.32983112335205 -0.45963978767395 -2.44493174552917 -2.33549952507019 -1.87700831890106 -1.39042770862579 -0.158095732331276 1.37382185459137 2.75885939598083 3.27684235572815 2.9251651763916 2.48899435997009 1.8764488697052 3.80591249465942 3.05615520477295 0.904001116752625 -0.509130716323853 -1.64591872692108 -1.52901232242584 -1.63073563575745 -2.12610960006714 -2.36560726165771 -2.36879754066467
2.29384255409241 2.60292339324951 2.87448501586914 3.23754906654358 3.42156600952148 3.54421043395996 3.64914631843567 3.80089116096497 3.87901210784912 3.8779444694519 3.90784502029419 3.94883966445923 3.93264627456665 3.89454579353333 3.85537338256836 3.83326506614685 3.82490181922913 3.79482507705688 3.76949834823608 3.75739455223083 3.76590204238892 3.77767825126648 3.81402230262756 3.8495237827301 3.80981040000916 3.77851104736328 3.77070355415344 3.73935103416443 3.68389940261841 3.66273546218872 3.6885027885437 3.75704598426819 3.81548380851746 3.8510377407074 3.9004430770874 3.86802077293396 3.61215949058533 3.58909201622009 3.56904625892639 3.63997793197632 3.66421341896057 3.71879625320435 3.41678404808044 3.15250825881958 2.78684043884277 2.63533902168274 2.56410336494446 2.62718987464905 3.99590706825256 3.20873117446899 2.5309751033783 1.05434250831604 1.27161920070648 1.40569114685059 1.45388698577881 1.86285364627838 2.26430916786194 2.46637392044067 2.59843873977661 2.66553902626038 2.76804971694946 2.83613228797913 2.92061257362366 3.06465864181519 3.30332493782043 3.41776776313782 5.36783456802368 7.87369108200073 10.7017507553101 12.7789373397827 11.8626403808594 6.17064714431763 4.1614089012146 3.7543249130249 3.89278173446655 1.48669373989105 1.72289967536926 2.50039458274841 3.12262153625488 3.80021047592163 4.37986946105957 4.60075855255127 4.90535640716553 5.09073066711426 5.23147392272949 5.46486711502075 5.74392461776733 6.07299041748047 6.38957071304321 6.97355270385742 7.39242506027222 7.73485040664673 8.1801872253418 8.70538330078125 9.4420166015625 9.88339519500732 10.2939414978027 10.7771682739258 11.4059734344482 11.8708372116089 12.8601636886597 13.7221851348877 14.0564241409302 16.8543167114258 19.3855209350586 27.7899398803711 30.3304233551025 14.6761837005615 10.6125898361206 11.8649911880493 14.1241903305054 21.735523223877 21.8707847595215 18.0182132720947 19.3871021270752 17.2958564758301 18.207160949707 17.0602188110352 8.67107200622559 2.67118072509766 3.68104934692383 5.72248840332031 5.46194410324097 8.56994152069092 10.087607383728 13.8709564208984 15.9406719207764 15.4408979415894 13.5020627975464 12.9415626525879 11.5644874572754 11.0540657043457 10.5136260986328 9.81322479248047 9.21322345733643 9.57177448272705 10.4384727478027 11.3612203598022 13.0453290939331 14.1828994750977 15.1799573898315 15.9053678512573 17.1007061004639 19.3126182556152 22.792049407959 28.6815738677979 19.2576789855957 13.5633001327515 12.8100309371948 8.42869186401367 1.76594185829163 -1.57959353923798 -1.95390784740448 -2.18942904472351 -1.65434956550598 -0.957559287548065 -0.220104277133942 0.826553821563721 2.12837553024292 3.37279772758484 3.88669848442078 3.37290930747986 2.83385109901428 1.63961267471313 0.551415741443634 -1.62689173221588 -1.5309591293335 -1.56577515602112 -1.49190199375153 -1.17652654647827 -1.35703670978546 -1.74591422080994 -1.96232557296753
2.53158283233643 2.87429738044739 3.20535469055176 3.50522327423096 3.66549062728882 3.82985091209412 3.92272567749023 3.9769127368927 3.99675297737122 4.01347351074219 3.99687314033508 3.98707103729248 4.0107307434082 3.99473214149475 3.96367907524109 3.92131042480469 3.90114760398865 3.89222502708435 3.86371350288391 3.84926009178162 3.84992003440857 3.86775612831116 3.8734495639801 3.88601636886597 3.92237544059753 3.88136553764343 3.85253572463989 3.853755235672 3.81657600402832 3.75608706474304 3.74319219589233 3.76782751083374 3.84076905250549 3.8925769329071 3.9249005317688 3.968017578125 3.94171285629272 3.6795666217804 3.6539044380188 3.63968348503113 3.7127525806427 3.73406147956848 3.80327606201172 3.5019850730896 3.21382665634155 2.83752632141113 2.66993093490601 2.59153175354004 2.82643485069275 2.0940055847168 2.09456491470337 1.44499742984772 1.3758317232132 1.75324368476868 1.84594464302063 1.82101356983185 2.02303647994995 2.35179567337036 2.54794049263 2.69855165481567 2.84391283988953 2.94728589057922 2.98423480987549 3.05043458938599 3.17539763450623 3.48902201652527 5.35044622421265 8.9119987487793 11.5190124511719 12.6308794021606 11.2233591079712 6.73410987854004 4.32364320755005 3.92758584022522 2.78786134719849 1.18348276615143 1.52208542823792 2.14796137809753 3.1437509059906 4.37080001831055 5.09406328201294 5.51735925674438 5.45356321334839 5.20043230056763 5.29711771011353 5.4709005355835 5.72383737564087 6.01403760910034 6.37495756149292 6.72211837768555 7.37993001937866 7.84347295761108 8.39071083068848 8.7746753692627 9.33688259124756 10.1711101531982 10.7220067977905 11.2537250518799 11.7671957015991 12.5610046386719 13.0704669952393 14.31715965271 15.2559328079224 17.7333831787109 17.3058624267578 22.3610076904297 21.2074375152588 13.1072368621826 9.67585849761963 11.0911769866943 12.5583391189575 15.2304058074951 14.2098217010498 12.4608163833618 14.624303817749 15.233696937561 11.7459516525269 9.6052770614624 6.7745943069458 1.57531273365021 5.04630279541016 0.516591429710388 1.99209606647491 6.00434017181396 9.82127380371094 12.2016105651855 16.2788715362549 18.7323570251465 16.680643081665 14.7092266082764 13.7478723526001 11.8294334411621 10.1991348266602 9.53321361541748 9.62660121917725 9.48094463348389 10.1305665969849 11.1678705215454 12.7151889801025 14.407374382019 16.1100540161133 17.1797790527344 18.8577117919922 19.928918838501 24.6304359436035 22.6517963409424 10.8325319290161 7.55119514465332 4.80989980697632 -0.142687559127808 -1.23148727416992 -1.33516192436218 -1.44303035736084 -1.57292222976685 -1.20923686027527 -0.754674851894379 -0.143494665622711 0.474014133214951 1.33854258060455 2.57477784156799 3.97115278244019 4.60377216339111 3.91902351379395 2.89890241622925 0.746192872524261 -1.93573355674744 -1.41923749446869 -0.910573661327362 -0.766508758068085 -0.661996841430664 -0.37659877538681 -0.512646019458771 -1.04559540748596
3.01189494132996 3.27136206626892 3.46771645545959 3.68213224411011 3.85408234596252 3.98068451881409 4.0391697883606 4.02816295623779 4.03420639038086 4.07423114776611 4.05948734283447 4.05911111831665 4.04683017730713 4.06951189041138 4.05913352966309 4.0337061882019 3.99859142303467 3.97875285148621 3.97588467597961 3.94184732437134 3.93128728866577 3.92635488510132 3.92624831199646 3.93952798843384 3.962895154953 3.99789476394653 3.96556496620178 3.94533610343933 3.93074584007263 3.89689159393311 3.83628487586975 3.83766150474548 3.84708213806152 3.90713834762573 3.96446251869202 3.99119305610657 4.03239393234253 4.00777435302734 3.73366498947144 3.71755790710449 3.70459985733032 3.77361869812012 3.81076431274414 3.89151453971863 3.41521048545837 3.27313637733459 2.88845324516296 2.69475746154785 2.72703266143799 2.50304412841797 2.03374314308167 1.64534544944763 1.55463838577271 1.69594264030457 2.115403175354 2.29906129837036 2.23613977432251 2.18619465827942 2.46244835853577 2.69986176490784 2.89489936828613 2.96785092353821 3.05068874359131 3.09091901779175 3.14059734344482 3.35104298591614 3.89574313163757 8.06168460845947 13.1995792388916 9.07278919219971 5.75764131546021 2.85610842704773 2.68493485450745 3.4700825214386 2.94986653327942 1.69773197174072 1.85107171535492 1.63676881790161 2.47725510597229 4.46840715408325 5.98893594741821 6.57804346084595 6.47230005264282 6.03729057312012 5.42670106887817 5.5505223274231 5.73588943481445 6.00304317474365 6.31529712677002 6.70928525924683 7.10298728942871 7.85120010375977 8.52401542663574 9.00214004516602 9.4661750793457 10.0746459960938 11.0399122238159 11.7246255874634 12.4095869064331 12.9902811050415 13.9691228866577 14.5288801193237 16.1188449859619 17.5760650634766 16.3163585662842 17.5491924285889 18.5804405212402 11.3860511779785 9.01588439941406 10.0776338577271 11.7297925949097 12.7822170257568 11.8168916702271 9.95024967193604 10.0616636276245 11.6429529190063 4.59847211837769 3.58856439590454 1.77246534824371 -1.00115215778351 -0.699765503406525 -0.604453384876251 0.553299427032471 2.67816543579102 8.14485168457031 10.6592636108398 13.9437475204468 18.7138710021973 20.6412658691406 18.2688598632812 15.4648351669312 11.4440011978149 10.4772281646729 10.0233249664307 10.0779876708984 10.2714595794678 9.96131324768066 10.5649900436401 11.8238315582275 13.8395118713379 16.4908866882324 19.4976272583008 18.7578125 22.3367729187012 20.9597816467285 16.0409336090088 3.79544925689697 -1.3197226524353 -0.709452390670776 -1.64279210567474 -1.32064855098724 -1.12502038478851 -1.10008192062378 -1.01395428180695 -1.15532696247101 -0.2742580473423 0.281290978193283 0.497483938932419 0.891296446323395 2.21458435058594 4.07460069656372 5.16915798187256 4.45140743255615 3.89164233207703 2.15344953536987 -0.208833515644073 -1.42268490791321 -0.516836702823639 -0.000946322921663523 0.164606928825378 0.258610427379608 0.487387180328369 0.209753766655922
3.19837498664856 3.4413366317749 3.67236495018005 3.82607269287109 3.90698456764221 4.01102781295776 4.12197732925415 4.12103796005249 4.08991956710815 4.10899257659912 4.13319492340088 4.12045526504517 4.12220287322998 4.11012601852417 4.14908981323242 4.13966178894043 4.12068462371826 4.09517288208008 4.07024478912354 4.06927442550659 4.0416841506958 4.02116584777832 3.99332189559937 3.99919438362122 4.02450323104858 4.04576778411865 4.09078741073608 4.05732917785645 4.02204847335815 4.00692081451416 3.98096394538879 3.93154549598694 3.92390513420105 3.90710997581482 3.98266243934631 4.03549098968506 4.05890941619873 4.10582828521729 4.13388156890869 3.7960205078125 3.77101683616638 3.74138355255127 3.81653881072998 3.92569971084595 3.62007451057434 3.48030209541321 3.33976173400879 2.9198899269104 2.71784472465515 2.60246610641479 2.50314688682556 2.04114770889282 1.72120916843414 1.77376222610474 1.970370054245 2.47086095809937 2.73719906806946 2.59430718421936 2.63506174087524 2.59129238128662 2.84009218215942 3.00451946258545 3.07898712158203 3.17043590545654 3.20565509796143 3.34540820121765 3.87436103820801 5.5471830368042 10.4860677719116 3.7849280834198 3.2639946937561 3.11693525314331 2.89446830749512 2.70965790748596 2.36739349365234 1.51741349697113 1.1400111913681 1.23550808429718 1.76590394973755 4.50638580322266 6.421311378479 7.88193321228027 7.90670156478882 7.16499423980713 6.74460315704346 5.67620372772217 5.81126117706299 6.01730394363403 6.31192827224731 6.65995693206787 7.07789278030396 8.02952671051025 8.63991546630859 9.14294242858887 9.71210098266602 10.2730340957642 10.9239196777344 12.06467628479 12.9117345809937 13.7900314331055 14.6330099105835 15.7582130432129 16.452953338623 18.8188953399658 18.0815906524658 17.5957698822021 16.9381198883057 12.2138013839722 9.39206600189209 9.57632923126221 10.9277629852295 11.9486265182495 12.4324016571045 11.6169872283936 12.6792125701904 17.8733520507812 5.0987491607666 3.76076412200928 2.35664701461792 0.0931804105639458 -0.855651378631592 -0.535402119159698 -0.259646087884903 1.57600998878479 6.46945285797119 9.36085796356201 11.7292051315308 15.3966455459595 20.6364402770996 24.6825981140137 16.8861637115479 11.3475589752197 10.6496725082397 11.0895900726318 11.2865037918091 11.2080430984497 11.413182258606 10.085485458374 11.1525630950928 12.7567586898804 15.6322526931763 18.3561248779297 22.7625865936279 19.5480289459229 14.7517805099487 5.64319801330566 -2.31291317939758 -2.34742641448975 -0.186617910861969 1.48477268218994 -1.63154542446136 -1.25885665416718 -0.921440064907074 -0.70390510559082 -0.551343619823456 -0.176567807793617 0.705663859844208 0.852324485778809 0.851536154747009 1.78541564941406 3.38529562950134 5.27322006225586 6.33852863311768 5.74505090713501 5.43141412734985 3.72412347793579 0.701787233352661 -0.797823309898376 0.172871127724648 0.780931413173676 0.840368270874023 1.02078151702881 1.22829580307007
3.2581512928009 3.45424723625183 3.61580371856689 3.83582925796509 3.97474217414856 4.0628833770752 4.16730690002441 4.21660089492798 4.19005346298218 4.15734434127808 4.18331909179688 4.17548274993896 4.18936347961426 4.19378328323364 4.19111156463623 4.23805284500122 4.24144315719604 4.22079181671143 4.19849920272827 4.18170356750488 4.18052911758423 4.1389799118042 4.09522294998169 4.07393169403076 4.0834059715271 4.10415410995483 4.13953495025635 4.1791353225708 4.14315223693848 4.0940990447998 4.09630918502808 4.08079957962036 4.01676368713379 3.99476647377014 4.03032875061035 4.22429084777832 4.64223909378052 4.16992521286011 4.1190128326416 4.30728673934937 3.81186175346375 3.80030822753906 3.81030774116516 3.9000551700592 4.03522300720215 3.71349740028381 3.55311036109924 3.39504170417786 2.95595645904541 2.73215889930725 2.63579106330872 2.56213307380676 2.06959557533264 1.90583288669586 2.09147381782532 2.38485407829285 2.95436429977417 3.175448179245 3.10209393501282 3.23367118835449 2.69768118858337 2.9531421661377 3.13291144371033 3.20401263237 3.30662894248962 3.43010425567627 3.67786860466003 3.99471855163574 5.93929147720337 3.54486489295959 3.45385408401489 3.33323550224304 3.21970987319946 3.03084135055542 2.84344625473022 2.46162176132202 1.60715758800507 1.48337686061859 2.11477613449097 4.44336462020874 6.66338491439819 8.52532768249512 9.38980579376221 8.96511363983154 8.00383853912354 7.63111400604248 5.94467926025391 6.09698963165283 6.32267379760742 6.65723896026611 7.04680013656616 7.72806978225708 8.62706184387207 9.26461696624756 9.8546667098999 10.5272302627563 11.2099905014038 11.9330892562866 13.2814903259277 14.3516359329224 15.5580139160156 16.7768020629883 17.8480262756348 20.2058048248291 20.5999279022217 20.2334728240967 19.7994842529297 13.4372844696045 10.9137115478516 10.2576103210449 11.6841802597046 12.5673923492432 12.9714593887329 14.1206474304199 14.1546087265015 18.7673816680908 6.84697771072388 5.20120525360107 5.76196956634521 5.1999454498291 2.34902405738831 -0.580612182617188 0.165216043591499 1.65976870059967 5.22081518173218 8.1239709854126 10.3684234619141 12.7183237075806 16.8750190734863 23.1297283172607 12.4517908096313 8.79105091094971 11.299991607666 11.1477279663086 12.045994758606 13.0203990936279 12.937611579895 12.6278448104858 10.0419597625732 11.4939880371094 12.7791423797607 15.4319725036621 19.5438098907471 12.4944820404053 5.23753547668457 -2.13269305229187 -2.07680130004883 -2.02337598800659 -1.33836805820465 -0.841326534748077 -2.11152696609497 -1.59048104286194 -0.992175757884979 -0.51679801940918 -0.185180738568306 -0.150769159197807 0.925223112106323 0.989472568035126 0.933269143104553 1.21768248081207 2.31518077850342 4.20908832550049 6.60746955871582 8.27332401275635 8.6060209274292 8.23148441314697 5.89983224868774 2.1123046875 0.955075979232788 0.841224849224091 1.36473035812378 1.71424984931946 2.12668180465698
3.17810344696045 3.43352079391479 3.64027619361877 3.79644465446472 3.99680137634277 4.13760757446289 4.22487735748291 4.25201368331909 4.27531766891479 4.25458383560181 4.23691654205322 4.22772598266602 4.25132179260254 4.26307725906372 4.27892351150513 4.28773641586304 4.34610748291016 4.34418153762817 4.33245658874512 4.30350065231323 4.29052686691284 4.2867546081543 4.2287015914917 4.17878007888794 4.1507568359375 4.17945098876953 4.20342063903809 4.22908353805542 4.2714786529541 4.21818399429321 4.19127225875854 4.18978977203369 4.16833829879761 4.08820724487305 4.22727298736572 4.45211553573608 4.85096788406372 4.29483509063721 4.4354510307312 4.40046119689941 4.18417501449585 3.8419291973114 3.76854968070984 3.88710522651672 4.00661325454712 4.12432289123535 3.79919147491455 3.62247395515442 3.46254324913025 3.00366020202637 2.78385782241821 2.67815184593201 2.36281681060791 2.05791711807251 2.15300250053406 2.45499324798584 2.85443353652954 3.45022392272949 3.77613544464111 3.57303261756897 3.46568918228149 3.32508206367493 3.06551742553711 3.3687698841095 3.26014804840088 3.4055118560791 3.58306980133057 3.77636480331421 4.01059293746948 3.79524636268616 3.68448328971863 3.70745849609375 3.6688129901886 3.56199645996094 3.25662183761597 3.0539345741272 2.9756863117218 2.60368871688843 3.38154649734497 5.22082757949829 6.74882888793945 8.56997776031494 9.88521289825439 10.8478422164917 10.3130149841309 9.20511627197266 8.78614616394043 6.23492479324341 6.41298770904541 6.67274284362793 7.04387903213501 7.47643232345581 8.30470752716064 9.27624130249023 9.97818088531494 10.6783647537231 11.4878568649292 12.3365964889526 13.1360025405884 14.7520179748535 16.2141647338867 17.7177886962891 18.6274757385254 18.7573490142822 22.9121589660645 22.5773220062256 20.4282207489014 13.7931261062622 12.3492813110352 11.9613285064697 12.8139343261719 14.8253087997437 15.0925531387329 16.7796363830566 18.2980327606201 19.4644203186035 9.201979637146 7.61340045928955 9.25619888305664 8.95267391204834 8.43676376342773 3.77200222015381 -0.4918053150177 1.80945956707001 4.17119359970093 6.5625581741333 9.50625801086426 11.5487794876099 14.1764030456543 17.770959854126 8.07883262634277 4.17466592788696 8.01748657226562 10.8208465576172 10.6960515975952 12.3903617858887 10.7816276550293 8.81265258789062 6.42288637161255 8.60060596466064 10.7372884750366 13.5980186462402 15.7969465255737 7.41880989074707 -2.13576865196228 -2.06098127365112 -1.73419427871704 -0.749783277511597 -0.431687325239182 -1.91271507740021 -2.05466771125793 -1.89441740512848 -1.12076163291931 -0.411428958177567 0.0959048494696617 1.38242840766907 0.470121413469315 1.40914964675903 1.373122215271 1.28904914855957 1.68455517292023 2.99144434928894 5.02669191360474 8.19546127319336 10.598744392395 11.2139730453491 9.18685722351074 6.85860824584961 3.40398049354553 2.99861121177673 1.0021538734436 2.14308309555054 3.3348343372345
3.21840190887451 3.35970568656921 3.61905026435852 3.82184648513794 3.9716522693634 4.18512630462646 4.30099010467529 4.30543851852417 4.31309747695923 4.3468770980835 4.3233437538147 4.30567741394043 4.29760646820068 4.33025074005127 4.35707235336304 4.38269710540771 4.38523387908936 4.4339747428894 4.44161605834961 4.43734693527222 4.41438245773315 4.3941216468811 4.37665605545044 4.3077244758606 4.26012754440308 4.25900888442993 4.28037929534912 4.30003595352173 4.3266921043396 4.36611413955688 4.32992792129517 4.29362869262695 4.2965030670166 4.26373052597046 4.28221797943115 4.63062953948975 5.01966381072998 6.16091775894165 4.74963617324829 4.77508115768433 4.20324230194092 4.12026357650757 3.84209132194519 3.8250527381897 3.96735548973083 4.42422676086426 4.15698575973511 3.86247038841248 3.55423355102539 3.28715300559998 3.02804374694824 2.80976939201355 2.66993689537048 2.21438980102539 2.26375818252563 2.43308186531067 2.79846930503845 3.6717586517334 4.04918146133423 4.02136468887329 3.86761260032654 3.99415135383606 3.84635877609253 3.41161346435547 3.19840741157532 3.32507109642029 3.51508903503418 3.61388349533081 3.7966685295105 4.08942937850952 4.04513311386108 4.03467273712158 4.06749248504639 3.87000203132629 3.69215869903564 3.53738689422607 3.67750191688538 4.08372497558594 4.17959928512573 5.98285055160522 7.64236545562744 8.76086902618408 9.90493488311768 11.3809633255005 12.7420425415039 12.1214122772217 10.8261528015137 10.3222198486328 6.76043796539307 6.76183938980103 7.05726909637451 7.47295236587524 8.25116539001465 8.91544723510742 10.0377998352051 10.8120946884155 11.6493473052979 12.6925497055054 13.7102556228638 14.8326511383057 16.7596187591553 18.7878017425537 19.5333423614502 19.3865737915039 19.8542518615723 17.7857456207275 16.8650188446045 14.736029624939 13.9422988891602 14.4332942962646 15.2258434295654 16.9484252929688 18.8047485351562 19.5347576141357 25.480655670166 21.7805671691895 11.0775651931763 10.1949405670166 11.205738067627 9.62328624725342 9.7305736541748 3.29219889640808 -1.49299204349518 0.682779312133789 3.41223096847534 6.09373235702515 8.72945404052734 10.7834501266479 12.8195543289185 15.810754776001 10.231146812439 5.03490304946899 4.11684226989746 5.68603086471558 6.32386302947998 9.24688339233398 5.8959903717041 4.22003078460693 5.02343797683716 6.58771944046021 8.74079036712646 13.1531324386597 12.7795896530151 2.95000147819519 -2.16777873039246 -1.94295227527618 -1.48764991760254 0.049127422273159 -0.103161707520485 -1.62697577476501 -1.79243052005768 -1.70900046825409 -1.3650541305542 -0.523365259170532 1.96685516834259 1.82532703876495 0.117766611278057 0.871630787849426 2.13851928710938 2.00725984573364 1.77002704143524 2.18535208702087 3.41136312484741 5.26589679718018 9.53930568695068 9.73464584350586 4.51671934127808 1.55311286449432 -1.43581235408783 -2.03137063980103 -1.10062253475189 1.75572347640991 3.90631484985352
3.31905198097229 3.41036438941956 3.5489456653595 3.81039309501648 4.01107358932495 4.19340133666992 4.32635736465454 4.39224243164062 4.37674379348755 4.38830041885376 4.42304182052612 4.42398405075073 4.35852670669556 4.38322401046753 4.43493032455444 4.45768594741821 4.47679328918457 4.46786737442017 4.53749322891235 4.547523021698 4.53988027572632 4.51268339157104 4.48735427856445 4.46024751663208 4.40605735778809 4.36637735366821 4.36032867431641 4.3888201713562 4.40592813491821 4.43761539459229 4.47705698013306 4.44417715072632 4.40381479263306 4.39209747314453 4.33461141586304 4.70834970474243 5.06752252578735 5.97676753997803 5.15600872039795 4.80291700363159 4.072434425354 4.12664604187012 3.981769323349 3.89897131919861 5.06158018112183 4.00107002258301 4.05566596984863 4.30150842666626 4.00507926940918 3.58247923851013 3.2213397026062 2.94635963439941 2.77617263793945 2.74074029922485 2.24264049530029 2.52411818504333 2.8314745426178 3.6033034324646 4.22303533554077 4.22563171386719 4.21422672271729 4.50724458694458 4.27521944046021 4.58055973052979 3.07630944252014 3.26396703720093 3.476806640625 3.62364864349365 3.81555008888245 4.08679866790771 4.3965425491333 4.31461715698242 4.3304181098938 4.40960502624512 4.22428846359253 4.279212474823 4.47000026702881 5.15898895263672 5.53494834899902 6.81041955947876 8.26805782318115 10.019606590271 10.4015007019043 11.8016757965088 14.0249843597412 13.7505836486816 12.7232980728149 12.2313013076782 10.7485103607178 7.96030139923096 7.15258073806763 7.49175405502319 8.24671745300293 8.85209655761719 9.67609882354736 10.9738473892212 11.8222827911377 12.9339466094971 14.340895652771 15.5354852676392 17.8677196502686 20.3479423522949 21.0709075927734 21.6369571685791 20.3482551574707 17.5351982116699 19.0049171447754 18.0756301879883 17.0012378692627 16.8677215576172 18.9518699645996 19.2163467407227 21.0368671417236 23.6099720001221 21.8929920196533 14.4052858352661 10.2043714523315 11.1092100143433 11.7402667999268 7.43862247467041 5.45842123031616 1.93609690666199 -1.90661752223969 -0.531390845775604 2.21976089477539 5.70301485061646 7.68399667739868 9.89431762695312 11.9598073959351 14.1222820281982 11.8082876205444 6.80464363098145 5.4381947517395 4.53584098815918 3.65465259552002 3.19656944274902 2.33885955810547 3.13885307312012 4.3188796043396 5.4867844581604 6.98382234573364 10.6496353149414 8.08154106140137 -1.40810704231262 -2.15585207939148 -1.85248696804047 -1.47451782226562 -1.10149335861206 -1.13496696949005 -1.3367645740509 -1.56431758403778 -1.49162459373474 -1.34228003025055 -0.518817365169525 2.0319185256958 -0.00687250262126327 0.113699413836002 0.158635154366493 1.36400258541107 3.4127299785614 2.95007848739624 2.184734582901 2.76710391044617 3.65217065811157 5.48079967498779 5.85013008117676 -0.375550001859665 -1.95839178562164 -2.2677149772644 -2.22464799880981 -1.91787469387054 1.29637205600739 4.22472953796387
3.39583277702332 3.57297325134277 3.65723180770874 3.77600336074829 4.03574657440186 4.24136161804199 4.30914211273193 4.43497610092163 4.47761154174805 4.45637035369873 4.47755575180054 4.51566171646118 4.48619937896729 4.4355034828186 4.48557615280151 4.52905511856079 4.55038404464722 4.56590175628662 4.57758712768555 4.65895175933838 4.66918897628784 4.64881277084351 4.60289192199707 4.58741235733032 4.57957220077515 4.52190351486206 4.48554754257202 4.46946620941162 4.49478054046631 4.51894426345825 4.56757640838623 4.60342454910278 4.55414390563965 4.49415636062622 4.43359375 4.69897794723511 5.17125225067139 5.14956998825073 5.17877292633057 4.18916845321655 4.09960460662842 4.11577033996582 4.34860134124756 3.96490740776062 4.26178550720215 3.89446640014648 4.01601982116699 4.2901873588562 4.46096324920654 4.13208532333374 3.6803252696991 3.22971439361572 2.92722606658936 2.84614539146423 2.7902569770813 2.33887982368469 2.84109091758728 3.31997346878052 3.9287588596344 4.54250288009644 5.05615568161011 5.02436304092407 4.93314647674561 4.54101514816284 2.88374161720276 3.18301320075989 3.45237898826599 3.74042725563049 3.9512619972229 4.19508457183838 4.4162015914917 4.7119836807251 4.75025272369385 4.91627597808838 5.05971145629883 5.23448133468628 5.55289649963379 6.09116983413696 6.75828742980957 8.06476974487305 9.35533237457275 10.7397651672363 12.0818223953247 12.5046195983887 14.7103614807129 17.3356990814209 18.0395393371582 16.4124660491943 14.0094337463379 10.0861616134644 8.23528099060059 7.64476919174194 8.2463207244873 8.84007549285889 9.54468059539795 10.5802545547485 12.1055364608765 13.1780462265015 14.601975440979 16.4344310760498 18.8937225341797 21.5584907531738 23.2644062042236 24.6062297821045 24.6564331054688 22.3680973052979 20.7384433746338 22.1348857879639 22.2831840515137 20.9503479003906 21.485818862915 20.4589042663574 17.8689250946045 13.2645492553711 11.2370290756226 11.4336080551147 9.25540924072266 8.31342124938965 7.54166460037231 3.51348447799683 1.06312084197998 -1.95303916931152 -2.13659286499023 -1.65457487106323 0.888129413127899 4.52246761322021 7.32357835769653 9.03248405456543 10.7713918685913 12.5430326461792 12.6729421615601 8.55073261260986 7.37764024734497 7.12772512435913 3.81503868103027 2.62511730194092 1.66569530963898 2.52674293518066 3.72523927688599 4.96011590957642 5.87207651138306 7.20898818969727 3.99603223800659 -0.869065940380096 -2.1641948223114 -1.87852847576141 -1.45726466178894 -1.24928081035614 -1.21149969100952 -1.09463894367218 -1.17464089393616 -1.30194413661957 0.130555495619774 1.30228054523468 -0.350058138370514 -0.0667110681533813 0.155487954616547 -0.0756873562932014 -0.112331867218018 2.50035619735718 5.39204216003418 2.84533047676086 1.97445774078369 1.30160474777222 2.20958065986633 3.14790081977844 -1.16077172756195 -1.46319627761841 -1.73357200622559 -2.1723358631134 -1.96644830703735 -0.470415055751801 4.3935284614563
3.39883518218994 3.49919724464417 3.72321176528931 3.86818170547485 4.01327466964722 4.24334383010864 4.35383176803589 4.42364549636841 4.54289484024048 4.56862020492554 4.54724550247192 4.56814002990723 4.61302518844604 4.55529165267944 4.53937292098999 4.58993434906006 4.62997674942017 4.65593290328979 4.68840169906616 4.70409107208252 4.78892374038696 4.79191112518311 4.75778675079346 4.73476648330688 4.72119140625 4.69932556152344 4.64899730682373 4.59030818939209 4.58411026000977 4.62623262405396 4.66048622131348 4.6999945640564 4.7170238494873 4.59882164001465 4.57072448730469 4.5334300994873 5.20130586624146 5.28465509414673 5.44066953659058 7.17991352081299 4.20487308502197 4.13419628143311 4.21059513092041 4.92348146438599 4.11676549911499 3.92800951004028 4.00833749771118 4.24382352828979 4.41855716705322 4.59905862808228 4.26435375213623 3.76539611816406 3.32481861114502 2.98471331596375 2.89204835891724 2.83630084991455 2.85115623474121 3.11323308944702 3.97421622276306 5.31254768371582 5.17985582351685 5.9713306427002 5.00215291976929 3.41966962814331 2.52186131477356 3.03136801719666 3.47623252868652 3.76383471488953 4.0889573097229 4.38940763473511 4.65826511383057 4.95036506652832 5.42226696014404 5.49641180038452 5.79109859466553 6.25476694107056 6.64920616149902 6.99765825271606 8.21799850463867 9.80495738983154 11.1942052841187 12.0308990478516 13.3174142837524 14.2542057037354 15.5016899108887 18.9962177276611 21.075891494751 21.7367534637451 20.8346252441406 15.6516246795654 11.568922996521 8.86450481414795 8.37799072265625 8.84185695648193 9.53479480743408 10.3585205078125 11.6588592529297 13.477668762207 14.8547840118408 17.5608921051025 19.8348083496094 23.1525001525879 25.6092910766602 26.752836227417 29.4482746124268 27.7352256774902 25.4339828491211 23.8025093078613 26.8600120544434 19.9418678283691 15.506459236145 14.0321664810181 9.28884696960449 8.32904434204102 9.97538375854492 13.2194089889526 9.98815441131592 7.37114238739014 4.52009868621826 1.33800113201141 -0.347403794527054 -1.2316859960556 -2.33222150802612 -1.84164428710938 -0.240419715642929 3.54093360900879 6.91614532470703 8.8990478515625 10.0028533935547 11.1705913543701 11.7442111968994 6.93157052993774 4.17047929763794 2.86660552024841 2.80763506889343 3.91352987289429 1.56483054161072 2.01629948616028 3.11062407493591 4.35025644302368 5.95986461639404 5.74981927871704 3.25168466567993 -0.287428826093674 -2.01738977432251 -1.89520108699799 -1.5169757604599 -1.32947146892548 -1.14839780330658 -1.05252158641815 -0.824943542480469 -0.858644902706146 -1.11895382404327 -1.17147350311279 -1.0171160697937 -0.17332099378109 0.283068597316742 0.353418350219727 0.365956962108612 0.164338201284409 2.23743486404419 -0.0731790810823441 0.0630587488412857 0.102026075124741 0.507488787174225 0.461899936199188 -0.530157148838043 -0.873581826686859 -0.978179454803467 -1.43134737014771 -1.77215504646301 -1.15548264980316 2.92594218254089
3.30858445167542 3.51030898094177 3.62735104560852 3.85663843154907 3.99746251106262 4.16084051132202 4.36244487762451 4.48527002334595 4.56143474578857 4.64400577545166 4.66321325302124 4.64121866226196 4.67113256454468 4.68702936172485 4.67297029495239 4.64597606658936 4.7003812789917 4.75556755065918 4.79038190841675 4.82059764862061 4.87146997451782 4.87805795669556 4.84234762191772 4.8062162399292 4.78790855407715 4.76840734481812 4.73811626434326 4.71367454528809 4.71669149398804 4.72446155548096 4.76900672912598 4.79662227630615 4.80605936050415 4.743577003479 4.69617223739624 4.65484476089478 4.58622741699219 5.83967256546021 8.26269435882568 6.35946226119995 4.24584054946899 4.22656488418579 4.1820502281189 5.26878976821899 6.58772897720337 3.9698634147644 3.99234533309937 4.12212514877319 4.35827922821045 4.60402631759644 4.77744579315186 4.42976760864258 3.87490773200989 3.39514112472534 3.04622220993042 2.94939875602722 2.90024042129517 3.29097366333008 4.32473802566528 5.42822980880737 3.93574810028076 5.99162435531616 5.04379177093506 2.49239253997803 2.02257418632507 2.76162600517273 3.35879230499268 3.84032702445984 4.22911977767944 4.59316921234131 4.88889741897583 5.22643518447876 5.56175184249878 6.13966512680054 6.39826536178589 6.827232837677 7.39647054672241 7.8321418762207 9.68991184234619 11.4170484542847 12.610387802124 13.2571201324463 14.6698760986328 16.2287425994873 17.5789756774902 18.9256591796875 21.2176151275635 24.9617385864258 24.839729309082 13.5426692962646 17.7528209686279 13.6599826812744 9.83047676086426 9.62543964385986 9.49156093597412 10.2619495391846 11.298433303833 12.9553318023682 15.1718578338623 18.3146286010742 21.1461524963379 23.9620475769043 29.1937847137451 30.1801471710205 31.2608737945557 34.5641746520996 32.129035949707 26.1112213134766 17.6889686584473 9.62899494171143 5.91175985336304 6.02183294296265 3.48737645149231 5.45916795730591 7.90965414047241 10.5356435775757 7.06311988830566 3.05692577362061 -0.795550584793091 -2.51142716407776 -2.51614499092102 -1.97025120258331 -2.50821995735168 -2.2202889919281 -1.75380897521973 0.197257563471794 6.28880262374878 9.11874008178711 10.2908926010132 10.9775447845459 11.3059358596802 4.63158750534058 2.76228547096252 2.97493314743042 2.42231750488281 1.7157210111618 1.16977739334106 1.71666669845581 3.39450931549072 3.51275324821472 4.68553400039673 3.80839347839355 1.69105350971222 1.46306800842285 -0.0434718802571297 -0.622088968753815 -1.59697210788727 -1.38474714756012 -1.12513172626495 -0.905251502990723 -0.748009979724884 -0.537913203239441 -0.662104487419128 -0.845643281936646 -0.523372411727905 -0.21735118329525 0.232502579689026 0.874431371688843 1.10471367835999 1.03806817531586 0.377534300088882 0.348962604999542 0.504560232162476 0.617685616016388 0.492234379053116 0.224119678139687 0.021990317851305 -0.30459913611412 -0.430496573448181 -0.412029534578323 -0.72171825170517 -1.26983392238617 1.22352755069733
3.16452050209045 3.41463661193848 3.63062453269958 3.76247811317444 3.99329590797424 4.14845943450928 4.30391311645508 4.55169200897217 4.64802360534668 4.67058038711548 4.74473762512207 4.76202964782715 4.72573852539062 4.77241373062134 4.80585527420044 4.78776264190674 4.78953695297241 4.83529472351074 4.86682558059692 4.90225076675415 4.9348349571228 5.01545429229736 5.01033926010132 4.97438669204712 4.93355226516724 4.897545337677 4.89125728607178 4.8594913482666 4.81794834136963 4.81450700759888 4.85564661026001 4.8872652053833 4.90893793106079 4.90994882583618 4.84928178787231 4.7925181388855 4.74186611175537 4.91936206817627 6.29664707183838 5.14116668701172 4.33674669265747 4.33067560195923 4.30788707733154 4.3848762512207 4.4473090171814 4.06879472732544 3.97452664375305 4.09162378311157 4.34274768829346 4.64561891555786 4.83630847930908 5.02094411849976 4.66657686233521 3.95092940330505 3.49519228935242 3.1128294467926 3.03013229370117 3.01457405090332 3.83601832389832 3.43670558929443 3.27293872833252 5.64853572845459 3.80125784873962 1.50976145267487 1.77474915981293 2.35997748374939 3.11612224578857 3.76425361633301 4.33468532562256 4.750901222229 5.08479881286621 5.36170721054077 5.77926015853882 6.20330667495728 6.91596555709839 7.29459524154663 7.90198040008545 9.41736888885498 11.4707822799683 13.4000768661499 14.7506418228149 16.2315883636475 16.4621601104736 17.3485717773438 18.0737247467041 18.5010643005371 18.0739440917969 24.3641014099121 21.250509262085 11.7214498519897 12.3105201721191 24.8485736846924 13.4813203811646 9.26542186737061 9.2517728805542 9.55498600006104 10.7454500198364 12.3273410797119 14.4384546279907 18.2550525665283 21.7020378112793 25.8169860839844 29.5059757232666 38.5936737060547 34.0196533203125 28.3298397064209 19.2401847839355 12.7098436355591 8.47811889648438 7.56383895874023 3.64414739608765 2.17001581192017 1.44859313964844 3.60000705718994 4.4853663444519 5.17524719238281 2.61690473556519 -1.2519611120224 -2.71695852279663 -2.58880376815796 -2.50074219703674 -2.51180553436279 -2.54090094566345 -2.33217430114746 -1.99420166015625 -1.53923487663269 4.40542602539062 10.1805582046509 12.3364086151123 10.1619634628296 7.68465662002563 1.96172249317169 1.46542823314667 0.905681431293488 -0.388512253761292 0.00566037697717547 0.0833600983023643 -0.489446491003036 2.25386905670166 1.8402065038681 3.68889880180359 2.78412222862244 1.26115715503693 1.6691906452179 2.67221856117249 2.64546513557434 2.23954701423645 -0.499356240034103 -1.22899973392487 -0.946477770805359 -0.673436284065247 -0.491943657398224 -0.303534537553787 -0.211011856794357 0.203217908740044 0.365573227405548 0.507217586040497 1.00696575641632 1.64060139656067 1.76674973964691 1.41862404346466 1.05198407173157 1.07061231136322 1.07419550418854 0.975638449192047 1.06988966464996 0.715276062488556 0.268154799938202 0.146511748433113 0.178770214319229 0.0706424713134766 -0.372305035591125 -0.502137899398804
3.04981327056885 3.25637698173523 3.52643775939941 3.7679615020752 3.90035057067871 4.18971014022827 4.34614706039429 4.50860786437988 4.73122549057007 4.77122116088867 4.78371286392212 4.85236310958862 4.86320638656616 4.88194751739502 4.91055297851562 4.88355255126953 4.83759164810181 4.90145063400269 4.96396541595459 5.01327562332153 5.05650520324707 5.07794332504272 5.149573802948 5.13428258895874 5.10566139221191 5.06859445571899 5.05668354034424 5.06415700912476 5.02390956878662 4.98822641372681 4.97171783447266 5.00470733642578 5.02512788772583 5.01562261581421 5.01026391983032 4.964026927948 4.88389778137207 4.92433834075928 5.38301849365234 4.90017175674438 4.41747951507568 4.44534778594971 4.44292974472046 4.34275674819946 4.21950721740723 4.14792156219482 4.26338720321655 4.16992902755737 4.46121549606323 4.70051002502441 4.91464805603027 5.1586389541626 5.26616239547729 4.34337711334229 4.0869255065918 3.65536308288574 3.21186017990112 3.14841175079346 3.44477415084839 4.00350570678711 3.31337881088257 4.87709093093872 1.25454914569855 1.31033110618591 1.61813855171204 2.16062879562378 2.85286235809326 3.57937145233154 4.28710508346558 4.80097675323486 5.21537017822266 5.54286527633667 5.88515758514404 6.53157186508179 6.99655389785767 7.80646085739136 8.73954486846924 10.8719167709351 13.0729751586914 14.2551584243774 16.0581340789795 17.1086006164551 18.9362506866455 20.5956363677979 17.8441600799561 18.2729434967041 18.844934463501 16.8282337188721 14.9265193939209 3.61466979980469 3.53405833244324 8.02621841430664 4.68190002441406 7.77069234848022 8.34925174713135 8.86414623260498 10.1130590438843 11.8379793167114 13.4853448867798 18.1883010864258 21.4226036071777 26.0783843994141 29.8063163757324 33.2994995117188 20.7169151306152 19.312463760376 15.9811401367188 9.26071548461914 5.72677278518677 1.17230713367462 0.584616482257843 0.57644647359848 0.760802686214447 1.18778455257416 1.23321783542633 1.877037525177 1.7291738986969 -1.49892365932465 -2.83612656593323 -2.66386032104492 -2.50011706352234 -2.44152212142944 -2.41658353805542 -2.28724408149719 -2.01557326316833 -1.08215856552124 3.03116965293884 10.1500215530396 15.4085445404053 7.51711416244507 2.70806574821472 -0.863209784030914 -1.51166522502899 -1.31049156188965 -1.38230931758881 -1.28276932239532 -1.24378633499146 -1.15038883686066 -0.90391743183136 -0.135124340653419 1.68330371379852 2.2853090763092 2.71446514129639 1.27775180339813 2.55616521835327 4.6806116104126 6.60045433044434 7.06996917724609 3.57143115997314 -1.04558491706848 -0.659584879875183 -0.396360903978348 -0.0703005641698837 0.200019434094429 0.589974820613861 0.804790675640106 0.965747356414795 1.17652380466461 1.60728693008423 2.15635991096497 2.21063160896301 1.88060820102692 1.481485247612 1.43871974945068 1.32052934169769 1.62355256080627 1.49259150028229 0.590584278106689 0.604466795921326 0.597338318824768 0.60310423374176 0.337887793779373 -0.296583741903305
2.90821981430054 3.14056611061096 3.36194777488708 3.67057037353516 3.93147134780884 4.10205078125 4.36340093612671 4.52409791946411 4.73244094848633 4.90862464904785 4.95480346679688 5.00586557388306 5.00273084640503 4.95694303512573 5.00304126739502 5.02510499954224 4.98175716400146 4.96458148956299 5.04584121704102 5.12941408157349 5.18268537521362 5.19663667678833 5.20904874801636 5.28597640991211 5.27373695373535 5.26616907119751 5.25002098083496 5.23757219314575 5.23651742935181 5.19570827484131 5.14604330062866 5.12471342086792 5.15437889099121 5.13398933410645 5.12796974182129 5.116868019104 5.05232238769531 4.9870171546936 5.53356122970581 5.46323585510254 4.40430498123169 4.51569366455078 4.58005857467651 4.46289110183716 4.38648891448975 4.26198387145996 4.38263177871704 4.66080570220947 4.57657384872437 4.8950457572937 5.00932788848877 5.29612064361572 5.37442684173584 4.87995386123657 4.47325754165649 4.29818296432495 3.70480608940125 3.35063028335571 3.27208662033081 4.36328840255737 4.9889817237854 2.67462182044983 1.21219480037689 1.27696168422699 1.66614544391632 2.10847187042236 2.66947960853577 3.5676543712616 4.22144651412964 4.75677108764648 5.28819942474365 5.86634540557861 6.29051542282104 6.7955060005188 7.95976638793945 9.12748050689697 10.4287786483765 11.0792427062988 12.6352605819702 14.8441066741943 16.8735961914062 19.5769748687744 20.7269611358643 19.4700012207031 15.2554388046265 18.1847476959229 17.9468879699707 10.2166271209717 11.7367849349976 2.17493486404419 2.2374324798584 3.2272207736969 3.82037281990051 4.84629106521606 6.44845104217529 7.81841707229614 9.57697677612305 11.18785572052 13.1922636032104 17.4460144042969 20.965482711792 25.9176387786865 29.4872493743896 31.6437034606934 20.8832759857178 15.6491641998291 15.8827505111694 6.75914430618286 0.436458766460419 -0.0882734730839729 0.689632415771484 0.679541766643524 0.721785426139832 1.00946462154388 1.24941217899323 1.98414421081543 3.01072931289673 -1.45515727996826 -2.45479559898376 -2.73065781593323 -2.54787278175354 -2.39810729026794 -2.34344100952148 -2.126549243927 -1.9356597661972 -1.04259204864502 3.81151580810547 8.74431037902832 11.4254236221313 0.681202948093414 -1.68646562099457 -1.57541382312775 -1.55967271327972 -1.48661959171295 -1.04727840423584 -0.73274701833725 -0.702247619628906 -1.15771210193634 -1.09889185428619 -0.736146569252014 0.219517230987549 1.78778958320618 1.88578903675079 -0.807332694530487 1.35162305831909 5.03880739212036 6.94419193267822 0.667160212993622 -1.76386106014252 -1.42936968803406 -0.950215995311737 -0.332035064697266 0.350150793790817 0.581561505794525 0.747248232364655 1.02976775169373 1.30367279052734 1.47066974639893 1.6013298034668 1.990846991539 2.60900354385376 2.63024115562439 2.16824913024902 1.59192764759064 1.56276798248291 1.37879490852356 1.02848207950592 0.783431231975555 0.796229183673859 0.970357120037079 0.963124990463257 0.781640827655792 0.430668383836746
2.81685900688171 3.0039336681366 3.26622939109802 3.51769137382507 3.83021998405457 4.10392093658447 4.2746787071228 4.56241512298584 4.84109592437744 5.05967950820923 5.08868551254272 5.08261299133301 5.13176774978638 5.14615297317505 5.09364795684814 5.11046695709229 5.13869667053223 5.11110639572144 5.12966251373291 5.25469541549683 5.32861423492432 5.34913110733032 5.33651351928711 5.35324192047119 5.42279100418091 5.42647409439087 5.46000671386719 5.44998407363892 5.41246366500854 5.41543769836426 5.36398458480835 5.30210971832275 5.26692533493042 5.2801513671875 5.26766633987427 5.25078535079956 5.24418306350708 5.16740894317627 5.60125780105591 6.91440773010254 4.57372188568115 4.4671950340271 4.66393947601318 4.63529968261719 4.58264446258545 4.46306467056274 4.44849920272827 4.80464029312134 5.15355682373047 5.0245509147644 5.20894145965576 5.42007446289062 5.55717945098877 5.65230798721313 5.26916456222534 4.74479007720947 4.51680421829224 3.86284160614014 3.47788238525391 4.45084238052368 4.05818128585815 2.15394592285156 1.1381983757019 1.38146567344666 1.70519089698792 2.33706736564636 3.90245890617371 5.33708190917969 5.57740545272827 5.30050992965698 6.50218200683594 6.70407724380493 6.63270568847656 7.83967781066895 9.06793212890625 11.6373376846313 10.2519435882568 10.815055847168 12.0462627410889 15.3613977432251 19.2779407501221 22.2766742706299 21.7365398406982 17.5807285308838 12.9048528671265 12.7899332046509 10.573431968689 3.73166441917419 4.2139253616333 1.72288274765015 1.79158759117126 2.62557053565979 3.45247435569763 4.33362722396851 5.52905082702637 6.87336206436157 11.2321186065674 18.0616245269775 12.3247308731079 15.919903755188 19.7661533355713 23.5690727233887 28.2073192596436 25.9893493652344 18.8352966308594 15.2264490127563 12.9254264831543 3.46962070465088 -0.812395513057709 0.507865488529205 1.91411769390106 1.84707689285278 1.21594846248627 1.0102242231369 1.0559173822403 1.08791732788086 1.39746880531311 -1.88883781433105 -2.26425051689148 -2.36782097816467 -1.82834732532501 -0.661365389823914 -2.28100776672363 -2.20891118049622 -1.78664088249207 -1.34127581119537 3.84385228157043 8.63344097137451 8.15742588043213 -1.68491840362549 -1.73931443691254 -1.61097621917725 -1.45505440235138 -1.53098750114441 -0.770054638385773 0.0487990044057369 0.739459156990051 0.181923508644104 -1.11533188819885 -1.06694209575653 -0.28796198964119 -0.627446055412292 -1.09073686599731 -1.45809710025787 -1.09929192066193 2.64925312995911 -1.22102689743042 -2.18356966972351 -1.95591568946838 -1.58472442626953 -1.15070152282715 -0.344912171363831 0.309505611658096 1.46257567405701 1.6023815870285 1.31453192234039 1.45259892940521 1.65306735038757 1.65926384925842 1.68962490558624 2.38508892059326 3.07007718086243 2.99837183952332 2.53450465202332 1.68124294281006 1.62795448303223 1.42338383197784 1.15090763568878 1.01575887203217 1.19118678569794 1.30239164829254 1.15020644664764 0.95134711265564
2.74364066123962 2.92078566551208 3.13425755500793 3.41113877296448 3.65868782997131 3.99583888053894 4.37126016616821 4.65810394287109 4.82501888275146 5.01826667785645 5.18121528625488 5.18938159942627 5.198082447052 5.26620101928711 5.27914905548096 5.19742250442505 5.22723388671875 5.27301931381226 5.30473804473877 5.3381495475769 5.42134761810303 5.47071123123169 5.47735548019409 5.47224187850952 5.46381235122681 5.5761661529541 5.61860132217407 5.66803312301636 5.64650917053223 5.60100889205933 5.58534145355225 5.53410053253174 5.45983409881592 5.43515968322754 5.43470430374146 5.41456651687622 5.38711738586426 5.34309339523315 5.27499675750732 6.73313808441162 4.79444551467896 4.62537479400635 4.65492868423462 4.78630542755127 4.81850481033325 4.74930047988892 4.67988443374634 4.95733451843262 5.37025308609009 5.63491296768188 5.5039176940918 5.53072023391724 5.74190473556519 5.94577169418335 6.07271671295166 5.67784023284912 4.99675559997559 4.73314332962036 3.98302578926086 3.66668725013733 3.24989223480225 2.55901622772217 1.67064702510834 1.43681073188782 1.96239614486694 3.05325031280518 4.27390098571777 7.02606582641602 10.4993667602539 12.3945913314819 12.2210903167725 6.27557516098022 7.0197491645813 6.77985906600952 12.4668664932251 14.9278450012207 14.700496673584 10.2908687591553 12.0424976348877 14.9805088043213 18.464771270752 17.4203796386719 15.3850564956665 10.5501136779785 8.36497592926025 5.74422550201416 3.47783398628235 2.00262403488159 1.49964225292206 1.79257559776306 1.83151304721832 2.39529371261597 3.3300473690033 4.39432954788208 5.2631402015686 7.16295909881592 13.6398143768311 13.9978141784668 9.38142871856689 12.3943738937378 17.4434471130371 22.0519790649414 27.852746963501 22.6073265075684 16.5559272766113 12.1369361877441 7.91513109207153 4.30846786499023 -0.992008447647095 -0.570504605770111 2.46713256835938 0.87205570936203 0.821451783180237 0.878622531890869 0.839337110519409 1.29953873157501 0.172689273953438 -1.18322730064392 -1.87549734115601 -2.2003436088562 -1.53131783008575 0.257014155387878 -1.34408318996429 -2.35524439811707 -1.86292135715485 -1.37441992759705 2.24033451080322 7.65524625778198 12.1429195404053 -0.0453023239970207 -1.41125404834747 -1.63592505455017 -1.44747340679169 -1.11192154884338 -0.380205601453781 0.659936010837555 -0.0742223709821701 -1.33667528629303 -1.24630177021027 -1.09919607639313 -1.0361168384552 -1.17423224449158 -1.28793954849243 -1.34113526344299 -1.42444562911987 -1.58339560031891 -1.86072289943695 -2.02996158599854 -1.90172696113586 -1.46336495876312 -0.982715547084808 -0.337019324302673 0.319618791341782 1.60940968990326 2.81725192070007 2.94068551063538 2.14866042137146 1.57857978343964 1.71976482868195 1.73077201843262 1.7660014629364 2.86251950263977 3.54334330558777 3.46157360076904 2.97015357017517 1.8303849697113 1.66689538955688 1.62851858139038 1.44926226139069 1.37922012805939 1.50099432468414 1.49160635471344 1.31727540493011
