NCOLS 174
NROWS 32
XLLCORNER 353760
YLLCORNER 6700016
CELLSIZE 16 
NODATA_value -3.4e+38 
2.77054190635681 2.68572354316711 2.31043839454651 2.18422269821167 1.97492027282715 1.59501731395721 2.37033367156982 2.24637651443481 1.72166788578033 1.62391471862793 1.61938893795013 2.338054895401 2.64393210411072 2.30075335502625 1.83334994316101 1.8332771062851 1.95152819156647 5.68832159042358 5.17232894897461 1.6659471988678 1.70321810245514 1.19356834888458 1.10880935192108 1.0086190700531 1.37500023841858 1.27597367763519 1.00588142871857 0.90664529800415 0.522106111049652 0.50032776594162 0.45170658826828 0.590676665306091 0.586568236351013 0.732208371162415 1.78988325595856 2.27630090713501 2.90377044677734 9.31076717376709 8.80593585968018 7.84134197235107 6.62714815139771 6.1257495880127 5.76101160049438 3.81361889839172 3.60592699050903 2.8602921962738 2.85917067527771 2.77941560745239 2.14518666267395 1.91098296642303 1.48787200450897 1.26475465297699 2.00692319869995 1.94593489170074 1.8819260597229 1.48688590526581 1.12850165367126 0.883128225803375 0.8153977394104 1.12589645385742 1.22576594352722 1.27257168292999 1.512127161026 1.46494936943054 1.44436550140381 1.61986136436462 1.56164717674255 0.464450061321259 0.38522732257843 0.207504436373711 0.0485731475055218 0.0269289407879114 1.83373022079468 4.58534574508667 3.30703711509705 4.01437377929688 3.85893893241882 3.46454215049744 3.03278684616089 2.88633108139038 3.16775155067444 3.94479417800903 8.29271602630615 1.16213762760162 14.4328870773315 6.30924844741821 3.59351181983948 1.13540768623352 0.885464787483215 0.42763364315033 4.49328660964966 0.362864166498184 0.313917428255081 4.05484628677368 0.0680271163582802 28.8137645721436 2.26105666160583 30.4707183837891 3.26252675056458 0.541542828083038 -0.107044763863087 18.5304088592529 13.3695363998413 1.27723181247711 8.37380981445312 4.39837408065796 14.8549499511719 16.744592666626 14.0873680114746 8.4656400680542 2.87044286727905 -1.35133671760559 0.340113401412964 0.605822503566742 -1.57665657997131 -1.41501951217651 -1.47361350059509 25.8416213989258 16.4708423614502 34.195613861084 10.1371822357178 2.26689696311951 1.23310208320618 19.81325340271 0.558808624744415 3.56752395629883 6.90621280670166 2.91449046134949 7.08828163146973 13.7149953842163 10.8374519348145 50.3704872131348 24.3736343383789 22.0240383148193 18.9125556945801 15.772439956665 6.81134366989136 5.86289262771606 9.68284702301025 5.0061182975769 11.4529848098755 13.0010719299316 6.25427961349487 7.31861352920532 5.58916187286377 5.03141736984253 4.43857622146606 4.87829446792603 6.70924854278564 6.31743288040161 39.6200370788574 31.8983535766602 33.571418762207 28.9630832672119 25.8935012817383 23.85595703125 17.7195777893066 29.2768211364746 18.4604206085205 16.7078323364258 15.5409116744995 14.4747800827026 14.2500295639038 12.9135360717773 11.6927661895752 11.3973598480225 10.9997224807739 10.4870100021362 9.94118595123291 9.50047779083252 9.11599731445312 8.31240749359131 8.27634048461914 7.93819570541382
3.07065320014954 1.74992668628693 1.7251957654953 1.89212453365326 1.76282441616058 1.69935643672943 1.62012147903442 2.43195724487305 2.21378183364868 2.00676441192627 1.6638115644455 2.15479564666748 2.75490808486938 2.46235346794128 1.99302232265472 1.78419005870819 1.65848624706268 1.69594550132751 1.78270947933197 4.58490991592407 4.36012554168701 3.65056252479553 1.08475613594055 1.00687026977539 0.82817667722702 0.699123978614807 1.16344499588013 1.05460321903229 0.8082275390625 0.727870523929596 0.338214576244354 0.399025559425354 0.394998759031296 0.406667619943619 1.26342117786407 1.55433356761932 2.55838990211487 2.57907104492188 3.29991769790649 7.23072910308838 7.12557315826416 6.6533317565918 5.79388809204102 5.10872554779053 4.87984561920166 3.32998299598694 3.19570422172546 3.08894777297974 2.62068390846252 2.53491187095642 1.93549644947052 1.73837316036224 1.69386410713196 1.31644177436829 1.11439728736877 1.79941928386688 1.74626338481903 1.37957143783569 1.04664373397827 0.764776051044464 0.637346506118774 1.02245080471039 0.976367712020874 1.16008162498474 1.13451409339905 0.722738325595856 -0.249131709337234 34.8635520935059 0.315442949533463 0.210620865225792 0.0666161477565765 -0.0317767262458801 1.41073632240295 2.98183822631836 3.02280211448669 2.46959733963013 1.87105858325958 1.40346002578735 2.76686930656433 2.29039549827576 2.00579380989075 1.98191595077515 1.74917161464691 10.6228523254395 1.953782081604 6.40864515304565 2.24359631538391 0.532136499881744 1.24202013015747 0.598845660686493 1.99419152736664 1.45249176025391 7.95145082473755 3.54631447792053 7.18726921081543 5.94185781478882 9.36970329284668 6.45442485809326 1.37266218662262 1.79463791847229 15.2848863601685 6.2057056427002 5.70624971389771 11.1657276153564 16.2894115447998 15.6190853118896 10.326226234436 9.99306392669678 12.1307287216187 11.1146697998047 4.39743757247925 -0.0456776134669781 1.7910487651825 -1.54091227054596 -0.0723040252923965 -1.73330307006836 28.9429531097412 16.5057201385498 28.5182971954346 20.4980087280273 22.4264945983887 7.41566276550293 2.07764530181885 1.82154393196106 39.7852439880371 12.3043508529663 29.9576511383057 10.4796056747437 8.01746368408203 5.75784063339233 49.2893257141113 29.4981327056885 4.97163486480713 36.7517127990723 40.5864105224609 15.7544565200806 8.99113178253174 5.53117942810059 5.39728403091431 5.18701410293579 5.92586374282837 6.4976053237915 6.65716886520386 7.37028121948242 5.36232328414917 4.68524360656738 4.33056354522705 13.5018587112427 16.2525177001953 17.5028953552246 29.5029411315918 33.8742485046387 29.1748523712158 21.1112174987793 22.9870300292969 21.1828060150146 19.8235683441162 18.2252712249756 17.6922206878662 16.6426982879639 15.4006586074829 14.2346115112305 13.2612552642822 12.5318574905396 11.5179319381714 10.8286619186401 10.4738092422485 10.4331769943237 10.0197563171387 9.64591789245605 9.04798221588135 8.69458484649658 8.39582824707031 7.72750568389893
2.2847158908844 2.66905879974365 2.50487017631531 1.63183927536011 1.55396580696106 1.67086505889893 1.6732804775238 2.86033129692078 2.46732258796692 1.49091565608978 2.02329540252686 1.93668985366821 1.9040619134903 4.14045095443726 2.2501277923584 1.97449898719788 1.73365867137909 1.57213985919952 1.53384411334991 1.50297117233276 2.30828332901001 1.3628123998642 3.0940728187561 2.70823693275452 0.926362633705139 0.853710889816284 0.55329555273056 0.425875425338745 0.941029965877533 0.853075683116913 0.789513111114502 0.646500587463379 0.287776291370392 0.282821327447891 0.572542011737823 1.07237839698792 1.81892383098602 3.08354091644287 3.1982569694519 1.55475163459778 3.5183367729187 3.71963667869568 5.90602827072144 5.5735068321228 4.93090963363647 4.42779111862183 4.10671234130859 2.5786554813385 2.85574841499329 2.76840376853943 2.42097735404968 2.3442747592926 2.27629995346069 1.73596262931824 1.56850528717041 1.21983921527863 1.04053020477295 1.69801950454712 1.66012895107269 1.29755342006683 0.938736498355865 0.492767184972763 0.409869700670242 0.327652722597122 0.247062459588051 22.798755645752 -0.0931535437703133 9.49249458312988 7.29264640808105 23.6825542449951 0.0792354643344879 -0.00793285015970469 -0.0714778453111649 1.00612008571625 2.52967762947083 2.1182918548584 1.57157921791077 1.26293063163757 0.865817427635193 0.780217945575714 1.75797486305237 1.48721742630005 1.44566416740417 1.68384456634521 0.32931524515152 18.8551940917969 0.654987096786499 0.0386402122676373 8.19600868225098 5.24683284759521 6.49625825881958 0.521136879920959 7.39525270462036 2.21572351455688 7.24898290634155 4.92549896240234 0.304341584444046 3.36089873313904 26.0472145080566 -0.448411464691162 18.9115905761719 11.7910652160645 0.18428273499012 20.922945022583 0.0295625757426023 30.6909580230713 2.45615744590759 6.1225266456604 4.69970369338989 3.70854949951172 6.58384323120117 5.12911128997803 1.67812049388885 4.25733423233032 -0.146990194916725 -0.408421099185944 3.63274073600769 17.0576019287109 8.92197799682617 34.5831756591797 16.117073059082 19.6275291442871 7.38521146774292 29.9280281066895 26.6647319793701 26.3822975158691 19.3627262115479 11.1080141067505 1.28013479709625 2.58603262901306 48.3491859436035 2.31109213829041 4.60854244232178 5.76573038101196 52.4575805664062 27.8236293792725 16.7638053894043 7.6496901512146 5.06956958770752 6.10140752792358 5.84829139709473 7.86064291000366 5.26486396789551 4.62455368041992 6.37818765640259 3.80212330818176 17.1988430023193 11.9751901626587 23.3897838592529 13.4696741104126 37.2968406677246 25.8272342681885 21.896671295166 22.853271484375 19.7854900360107 19.0711288452148 17.3921546936035 17.9361152648926 16.784309387207 15.7687110900879 14.3701581954956 14.207426071167 13.3264131546021 12.4235143661499 11.7844390869141 11.2840824127197 10.0483303070068 9.70163631439209 9.67345237731934 9.33187675476074 9.1837272644043 8.82898902893066 8.2913236618042 8.02469730377197
3.38470530509949 1.6395720243454 1.2566032409668 2.28635144233704 2.12825918197632 1.51898574829102 2.74798464775085 2.44176125526428 2.03962850570679 1.59788024425507 1.42131280899048 1.37066435813904 1.7882319688797 2.55755829811096 2.56250834465027 2.26747035980225 1.81496429443359 1.63513338565826 1.53980255126953 1.48480069637299 1.75939524173737 1.28756904602051 1.05439937114716 0.955227732658386 2.35878324508667 2.08826637268066 0.777861356735229 0.697596371173859 0.607574939727783 0.1894720941782 0.170502424240112 0.742387235164642 0.71299821138382 0.603617310523987 0.265776842832565 0.800691902637482 1.38116550445557 2.6175684928894 2.62731528282166 1.98107147216797 3.28924322128296 3.52032351493835 2.21867108345032 3.19368982315063 5.01691961288452 4.78717708587646 4.29637575149536 3.81795883178711 3.62213063240051 2.36332106590271 2.63105583190918 2.55125761032104 1.84938454627991 2.19775462150574 2.13201403617859 1.62138700485229 1.4915497303009 1.16713118553162 0.966384708881378 1.51196932792664 1.43899297714233 1.09366726875305 0.7219358086586 0.216124966740608 -0.156562343239784 -0.530301928520203 -0.655685067176819 19.2116584777832 17.8547916412354 11.0481548309326 3.73379421234131 18.2931976318359 -0.0768381804227829 -0.178592279553413 1.08948874473572 3.7911274433136 2.06691527366638 0.956269502639771 0.559843003749847 0.65779721736908 0.553936719894409 0.511454582214355 1.17953145503998 3.09336161613464 0.0462141260504723 20.6568584442139 5.92055082321167 0.0637138783931732 12.1718006134033 2.51069116592407 15.7231645584106 0.839206039905548 0.461131423711777 3.92084169387817 14.1567411422729 1.21198451519012 0.106208167970181 11.2077693939209 1.48742640018463 -0.454827874898911 -0.517601609230042 0.50530344247818 13.139274597168 -0.434836477041245 -0.392896234989166 38.2284545898438 -0.73665052652359 35.9310493469238 1.55327463150024 2.25770854949951 2.04590249061584 1.3105890750885 1.56049394607544 0.927334606647491 12.9775695800781 2.887939453125 4.55067205429077 9.71681118011475 16.9796981811523 18.658670425415 22.107141494751 21.1667976379395 12.4856586456299 22.1677322387695 21.8205471038818 16.1204376220703 14.5549201965332 13.9393758773804 4.74291229248047 1.54866182804108 13.1464204788208 1.36625528335571 9.23167514801025 19.5841541290283 14.9687042236328 40.7108154296875 24.7398376464844 17.3116779327393 8.95191669464111 7.56188344955444 11.0678367614746 7.45700979232788 7.2917857170105 6.21228742599487 11.716477394104 7.42558813095093 47.1945114135742 36.1049308776855 30.9482707977295 17.4678840637207 22.2330894470215 21.1703853607178 15.5848159790039 12.3710842132568 26.8512325286865 17.4777355194092 16.0499000549316 15.9693422317505 14.8715238571167 13.9680089950562 14.7506275177002 13.8996505737305 12.680492401123 12.631272315979 12.0253562927246 11.248929977417 10.7911329269409 10.3422632217407 9.28853321075439 8.89049911499023 8.90908050537109 8.5785026550293 8.4126033782959 8.12679672241211
1.92201542854309 34.3298759460449 1.41558337211609 1.16297113895416 1.05438113212585 2.10200238227844 2.07582879066467 2.42380142211914 2.16888523101807 1.49406385421753 1.54327416419983 1.79273557662964 2.72242784500122 2.26240038871765 2.02419805526733 1.88779127597809 1.87614119052887 1.63002419471741 1.59674644470215 1.45258975028992 1.42825567722321 1.34972667694092 1.08773171901703 1.00436890125275 0.699300050735474 0.831569910049438 1.82662427425385 1.60312056541443 0.353692620992661 0.533028721809387 0.444586604833603 0.0922664254903793 0.0767591968178749 0.679158449172974 0.668003141880035 0.523929178714752 1.04975092411041 1.94294917583466 2.43424797058105 3.03330492973328 2.64160108566284 1.45918464660645 3.12678551673889 2.26469421386719 1.41580700874329 1.29988348484039 4.32903051376343 4.13849496841431 3.61212372779846 3.26498818397522 3.1578164100647 3.06184148788452 2.40896439552307 2.34399938583374 1.97631084918976 2.060715675354 1.99648153781891 1.49119138717651 1.299525141716 0.968282341957092 0.794291973114014 1.33985888957977 1.16049432754517 1.00331950187683 0.222922474145889 6.72515726089478 -0.289048701524734 16.1880779266357 10.7970752716064 6.08857822418213 9.96881294250488 3.06254148483276 21.0446033477783 4.35839462280273 -0.244972467422485 3.5173704624176 3.11685657501221 1.16821193695068 0.185616925358772 -0.248562723398209 -0.352191209793091 0.358350574970245 1.09586584568024 -0.628713965415955 22.2070636749268 1.24230134487152 12.5460033416748 0.236799225211143 0.102269142866135 0.0548157282173634 1.75474965572357 8.83528327941895 0.41499325633049 0.366230219602585 5.31923151016235 0.279508143663406 7.73545932769775 0.493514657020569 -0.298604637384415 -0.956157267093658 -1.04817485809326 -1.23225712776184 15.7987298965454 19.2546901702881 3.63900232315063 -0.773336410522461 29.3330974578857 14.2905359268188 5.34121704101562 -0.45171982049942 27.0293998718262 -0.28800630569458 -0.653945088386536 -1.2020435333252 8.54066467285156 3.87293601036072 0.855498135089874 0.385870426893234 -1.19830060005188 21.0996913909912 6.88641452789307 23.5499172210693 11.4238195419312 8.92074394226074 28.7412376403809 11.5961313247681 11.8499412536621 9.94753837585449 10.1613817214966 3.78371500968933 21.4339809417725 13.7074422836304 10.6149263381958 9.87464237213135 12.7258205413818 11.7830505371094 15.1881866455078 30.1512336730957 17.3944396972656 10.9390325546265 8.41364669799805 7.16244459152222 8.82090854644775 16.3579235076904 14.6431369781494 10.4581718444824 40.0398979187012 28.9832229614258 21.2660999298096 21.3220653533936 17.8680896759033 15.0070571899414 14.0188913345337 12.0397987365723 12.7724847793579 16.8696441650391 13.8784008026123 14.7139883041382 13.7440433502197 13.0632314682007 13.1934032440186 12.533618927002 13.1927947998047 12.536449432373 11.604040145874 11.5151481628418 10.9820795059204 10.2253036499023 9.73464965820312 9.295166015625 8.88051986694336 8.10958671569824 8.17925453186035 7.91958999633789
3.87909388542175 3.2955858707428 16.8164367675781 12.288670539856 1.09986782073975 1.90152287483215 2.06590580940247 2.72289323806763 2.47036552429199 2.08163833618164 2.03986716270447 2.94127607345581 2.91819524765015 2.07924389839172 1.93312537670135 1.41828882694244 2.66555094718933 1.84804952144623 1.75821661949158 1.56105637550354 1.54921495914459 1.32238817214966 1.0385650396347 0.904815852642059 0.929857552051544 0.844528794288635 0.762474656105042 0.34390988945961 1.40365791320801 1.16864919662476 0.943509459495544 0.41019469499588 0.38401535153389 0.0617041997611523 0.0597013272345066 0.645104706287384 0.749748051166534 1.62150466442108 1.93307030200958 2.27162265777588 2.47793555259705 1.72054004669189 2.46855473518372 2.74895238876343 1.87032914161682 1.31104743480682 1.13885974884033 1.07698905467987 3.78605771064758 3.61542367935181 3.47469401359558 3.02494692802429 2.76371908187866 2.69820976257324 2.15670466423035 2.09513449668884 2.00930643081665 1.80398190021515 1.76461732387543 1.29758453369141 1.14499616622925 1.07744896411896 0.748768270015717 0.48139163851738 1.03726875782013 -0.128333210945129 40.2254829406738 -0.614261627197266 23.5145740509033 20.7349433898926 8.02739238739014 4.84522867202759 8.51230907440186 1.42196428775787 -0.36869204044342 26.4127063751221 2.56257009506226 3.05301570892334 1.52162957191467 -0.455725491046906 -0.538739383220673 -0.563085794448853 1.76598703861237 -0.0883385092020035 7.10336065292358 13.4423551559448 6.79336833953857 -0.175213262438774 -0.141502141952515 -0.188447490334511 -0.129997402429581 -0.159731015563011 7.25638151168823 2.04688239097595 2.24098801612854 0.166651293635368 7.01300811767578 0.0608130507171154 -0.750179350376129 -1.13463127613068 -1.46509480476379 -1.63039863109589 1.91475057601929 19.1274814605713 3.33989429473877 11.4884510040283 5.73803424835205 16.182731628418 13.6628503799438 3.36640024185181 17.4936809539795 0.385019451379776 -1.83437347412109 16.6574115753174 30.1137313842773 0.972811102867126 0.663848698139191 15.0187959671021 0.752058267593384 0.340295553207397 6.00894832611084 15.4051113128662 8.96323585510254 9.97982215881348 9.04554080963135 21.417947769165 11.8961715698242 9.93496608734131 9.32733726501465 6.73322582244873 14.9890794754028 21.7056560516357 7.2259316444397 12.8863172531128 8.51833248138428 22.0622062683105 25.1590595245361 23.0023765563965 18.9675521850586 15.6933279037476 12.1727752685547 9.86816501617432 9.19444179534912 8.91231346130371 22.2923488616943 11.7631168365479 26.2315769195557 23.3356437683105 16.4060726165771 17.0664482116699 14.0807828903198 14.8952121734619 3.86134815216064 21.1876411437988 48.3509178161621 11.2243871688843 10.6961326599121 11.3150091171265 11.3627576828003 11.5671234130859 12.1464071273804 11.8525629043579 11.9324645996094 11.3782987594604 11.9506616592407 11.3277711868286 10.4935817718506 10.3192768096924 9.81986904144287 9.36904144287109 8.67810916900635 8.36138916015625 8.00086688995361 7.41902017593384
14.1995859146118 3.90842819213867 3.58769774436951 3.05885577201843 8.67318630218506 7.63153409957886 3.11620283126831 3.43809151649475 3.12869572639465 3.07750535011292 2.90003085136414 2.65084004402161 1.75606799125671 1.58329427242279 1.88518846035004 1.7033097743988 1.78742516040802 1.99718022346497 1.39053332805634 1.69143438339233 1.69176936149597 1.64751732349396 1.40059077739716 1.32703149318695 0.689487636089325 0.757503688335419 0.682635426521301 0.700721263885498 0.635290384292603 0.219482809305191 -0.027007732540369 0.837572455406189 0.763098657131195 0.359684646129608 0.341160297393799 0.0267470180988312 0.526565432548523 1.24741888046265 1.52173614501953 1.70515859127045 1.74683952331543 1.8964741230011 2.17280220985413 1.45166456699371 4.08391618728638 1.31965363025665 1.13298845291138 1.04650223255157 0.967386186122894 0.893483757972717 2.21912002563477 3.18383836746216 3.07626676559448 2.65827822685242 2.44575834274292 2.37183451652527 1.61123967170715 1.84065961837769 1.7566956281662 1.61622929573059 1.54751086235046 1.46809196472168 1.00650084018707 0.875561118125916 0.600435853004456 0.466247648000717 0.984729409217834 20.7571601867676 2.10198330879211 25.6193771362305 14.2874689102173 -0.879598200321198 23.3930988311768 0.795810461044312 9.57341289520264 4.93739414215088 11.299280166626 4.31257104873657 -0.0285947415977716 23.8173809051514 -0.594686388969421 -0.421797543764114 1.57323908805847 -0.663982331752777 -0.881760478019714 4.66318416595459 -0.103751093149185 3.70338797569275 -0.806349217891693 5.35996866226196 16.0509586334229 7.45350217819214 0.587014555931091 5.96235370635986 3.08509111404419 0.673092424869537 0.595252990722656 0.05267383903265 -0.586532831192017 -1.50655102729797 -1.68569362163544 -1.8379784822464 -1.54733908176422 5.53719234466553 -1.90860056877136 30.5182323455811 22.8586711883545 2.36833643913269 35.8280372619629 11.3707666397095 6.5382924079895 1.18398010730743 1.6934210062027 -1.53431344032288 13.0616245269775 5.89103031158447 28.6556453704834 8.65222930908203 2.89703774452209 -0.981081187725067 10.2736215591431 -1.03600513935089 32.3575248718262 5.32314968109131 2.03683710098267 41.4553070068359 13.2789516448975 10.1885242462158 8.78421211242676 9.06297779083252 8.58237457275391 10.329158782959 7.58162021636963 3.50741267204285 3.18659353256226 40.2243728637695 18.4521484375 17.7960109710693 16.6332912445068 15.5516366958618 13.657603263855 13.3697099685669 13.5828428268433 18.3692626953125 9.38883972167969 5.95814752578735 20.5555438995361 17.4510974884033 12.3216962814331 13.4263896942139 10.6778736114502 5.46874904632568 31.375675201416 7.06661987304688 24.6413898468018 31.5231266021729 23.1082572937012 10.1648387908936 9.763840675354 9.90462303161621 10.2680339813232 10.4555425643921 10.985782623291 10.7391014099121 10.6151714324951 10.1956729888916 10.5860614776611 10.0314836502075 9.54350757598877 8.92541885375977 8.81582832336426 8.44176483154297 7.77882671356201 7.46904993057251
4.84415197372437 6.65525960922241 4.81379508972168 3.63167762756348 3.50963687896729 3.26102185249329 6.5737476348877 6.35116052627563 3.12327361106873 2.92309594154358 2.71507668495178 2.33379316329956 1.98697221279144 1.89489805698395 1.61205637454987 1.89595317840576 1.66120934486389 1.52512860298157 1.47413492202759 1.35764014720917 1.30725765228271 1.17273128032684 1.50484144687653 1.41547870635986 1.24868381023407 1.16652858257294 0.387373149394989 0.621770143508911 0.562994539737701 0.575636029243469 0.496166557073593 0.106026902794838 -0.0805475488305092 0.692734479904175 0.626669704914093 0.0874149948358536 0.0532754585146904 0.958732485771179 0.978507041931152 1.14150142669678 1.55706357955933 1.59162557125092 1.01811015605927 0.842115342617035 2.06085801124573 4.80762958526611 1.14808833599091 0.985100984573364 0.826962649822235 0.756316006183624 0.690800666809082 0.672557353973389 1.95470118522644 2.78515720367432 2.70929050445557 2.33122158050537 2.1166570186615 2.02666401863098 1.3355747461319 1.55047416687012 1.49261033535004 1.02520382404327 1.31894648075104 1.26748669147491 0.966598629951477 0.820855438709259 0.572755098342896 0.442468732595444 0.94240939617157 5.95861721038818 10.1942510604858 2.12081098556519 27.6194095611572 9.73973560333252 4.59962558746338 2.52979516983032 4.27747344970703 5.65740203857422 2.13754224777222 17.1589260101318 8.82715320587158 6.11799144744873 1.93399822711945 5.46666812896729 -0.475384682416916 -0.874491453170776 -0.340005695819855 11.544846534729 -0.846917390823364 3.83871912956238 10.3440074920654 5.14295387268066 -0.387211918830872 1.27008140087128 12.9783401489258 4.3084282875061 -0.064939372241497 11.4833269119263 -0.726472914218903 -1.30739951133728 -1.76931428909302 -1.96715700626373 -1.1040426492691 7.78285503387451 4.71068954467773 -1.93431413173676 6.09257984161377 25.2562026977539 30.1901016235352 17.9196224212646 14.1685590744019 6.3408317565918 1.69483947753906 -1.75132417678833 6.0143575668335 17.9072971343994 13.2957277297974 12.317928314209 6.16385316848755 -1.592156291008 -1.93879365921021 -2.17330026626587 17.0056838989258 -0.867056369781494 15.6944131851196 2.59074330329895 38.3080444335938 20.1458339691162 9.03201484680176 8.62042140960693 8.21700859069824 8.443434715271 8.08761882781982 7.57151460647583 6.65866756439209 22.8784942626953 24.2386379241943 18.7356910705566 12.9747867584229 14.6685647964478 13.6771860122681 12.4032173156738 11.2428779602051 10.9259176254272 10.5720682144165 8.4570426940918 7.18885803222656 21.9767246246338 14.2831449508667 9.9712438583374 5.79347515106201 4.19741201400757 42.574520111084 17.666805267334 14.5952091217041 22.6424579620361 21.6232414245605 19.055492401123 16.0160751342773 9.32319355010986 8.95073413848877 9.14480686187744 9.43746566772461 9.43235874176025 9.68129253387451 9.51666069030762 9.30535697937012 8.77537441253662 8.57055473327637 8.95542430877686 8.59194278717041 8.07608509063721 7.93725204467773 5.27559614181519
10.7162094116211 4.31762075424194 4.23484802246094 4.11976957321167 3.77264666557312 3.38953828811646 3.75924634933472 4.99300384521484 5.76821804046631 5.45943021774292 5.17788600921631 2.35446763038635 1.82948195934296 1.54683649539948 1.86453139781952 1.85727059841156 1.48619341850281 1.47308218479156 1.43735706806183 1.47851872444153 1.40118598937988 1.21047532558441 1.10067558288574 1.03289365768433 1.31217062473297 1.2118616104126 1.07831358909607 1.00322341918945 0.157474085688591 0.511175930500031 0.455836623907089 0.459169119596481 0.402717530727386 0.050181221216917 -0.206796288490295 0.583544671535492 0.560239613056183 0.407331973314285 0.258862406015396 0.858053505420685 1.58192050457001 1.39290654659271 2.33062219619751 0.965697288513184 1.44154870510101 4.05900287628174 1.49906587600708 0.818881571292877 0.801333844661713 0.715503811836243 0.6333367228508 0.582830429077148 0.534483551979065 0.469089329242706 0.434689670801163 2.42764711380005 2.34186458587646 1.96197986602783 1.75179779529572 1.67144870758057 1.60275793075562 1.32144463062286 1.26958322525024 1.05248999595642 1.5444643497467 1.22339391708374 0.85686206817627 0.793848037719727 0.547898054122925 -0.286210536956787 11.3435335159302 19.9966735839844 1.91748225688934 17.8826160430908 4.92563486099243 3.16411924362183 2.67910146713257 0.838805377483368 0.103390879929066 20.9316005706787 6.65148019790649 4.59297657012939 5.09751987457275 5.03104448318481 4.90492677688599 -1.16589081287384 19.0168209075928 2.10061550140381 -1.01836216449738 -1.20154869556427 11.0242509841919 6.34010982513428 3.58492255210876 0.951061367988586 1.10037755966187 9.59757423400879 0.850251972675323 4.11020278930664 -0.841609597206116 -1.32351875305176 -1.99178767204285 -2.23177742958069 -2.33020806312561 -2.28839421272278 7.26097345352173 8.89250564575195 10.7244777679443 24.3220405578613 32.1062698364258 24.4562225341797 18.6268787384033 9.57582569122314 4.09527397155762 1.8345662355423 0.349020421504974 15.7204704284668 14.6802453994751 13.2458448410034 6.63193893432617 -0.424940198659897 -2.49312996864319 1.35153663158417 18.224142074585 43.0397872924805 16.4113483428955 23.8844604492188 22.1983032226562 23.3320083618164 17.9011001586914 14.0073118209839 8.45330333709717 8.15606021881104 7.86706399917603 8.06822299957275 7.73154067993164 7.39487457275391 6.44504547119141 14.4931573867798 15.7179107666016 14.2271509170532 11.1930541992188 12.4877605438232 11.4468898773193 10.4717311859131 9.65052223205566 9.2988805770874 8.71795845031738 8.43473148345947 6.88782358169556 15.104564666748 7.61798429489136 6.74095916748047 5.08569765090942 25.3681812286377 18.9252700805664 12.3742380142212 11.4323444366455 14.3961696624756 16.3791046142578 15.0679502487183 12.7567157745361 8.58579063415527 8.19297790527344 8.27968883514404 8.40099716186523 8.33453845977783 8.41578483581543 7.84256267547607 7.89187335968018 7.82300567626953 7.75489187240601 8.11051273345947 7.76813507080078 5.71952152252197
4.63655757904053 8.02686595916748 6.90153884887695 4.07927513122559 3.97376298904419 3.8707971572876 3.60847616195679 4.88630771636963 3.94098043441772 3.40470361709595 2.99356579780579 4.74502229690552 4.40693092346191 1.65138339996338 1.59829151630402 1.5008190870285 1.77496135234833 1.71100735664368 1.7029275894165 1.3935067653656 1.33004868030548 1.28971290588379 1.23825478553772 1.03722381591797 0.940812528133392 0.871909856796265 1.10068392753601 1.01105344295502 0.932465851306915 0.874618470668793 0.493726849555969 -0.0443012937903404 -0.127635478973389 -0.177586570382118 -0.225978329777718 -0.227391123771667 0.0559938736259937 0.531738519668579 0.509972035884857 0.502189993858337 1.59971988201141 -0.999165117740631 36.4870185852051 3.09069180488586 1.88624000549316 1.02692461013794 0.893644750118256 0.631183743476868 0.599504828453064 0.952532351016998 0.525411128997803 0.470515042543411 0.42547008395195 0.36228334903717 0.325884073972702 0.287420392036438 0.26288378238678 2.08172798156738 1.99834477901459 1.91354858875275 1.57850229740143 1.44798731803894 1.40667366981506 1.17768561840057 1.15388143062592 3.20025873184204 1.18494963645935 1.16844093799591 0.816992044448853 -0.419122606515884 11.1559734344482 19.7865505218506 9.42774391174316 2.25356101989746 11.3583688735962 5.03445863723755 2.07129192352295 11.042519569397 1.54210233688354 12.6668500900269 9.9028902053833 7.45513963699341 4.62657070159912 4.31747579574585 4.97702360153198 1.53359246253967 0.246945321559906 6.92852830886841 6.15093660354614 -1.12491738796234 -0.15480449795723 4.21798849105835 6.59914493560791 0.400824129581451 -0.376675993204117 25.5827960968018 0.752623736858368 0.132957443594933 -0.782774806022644 -1.54528224468231 -1.91234028339386 -2.27010130882263 -2.51269292831421 -2.62924480438232 13.9863843917847 8.17749404907227 3.6432626247406 42.3413467407227 26.3227272033691 22.3036041259766 17.8241672515869 12.3272657394409 15.1466083526611 2.82269668579102 2.52598023414612 15.3458156585693 11.9662466049194 10.6073341369629 1.79913318157196 1.1369172334671 -2.35343360900879 -2.47993493080139 18.2864418029785 10.3876161575317 46.8243064880371 12.4679498672485 32.497615814209 16.6535511016846 14.894889831543 14.774600982666 12.8629426956177 11.5893545150757 8.13871383666992 7.87313747406006 7.56234264373779 7.27893829345703 7.41737699508667 7.16318368911743 6.33455991744995 11.7613563537598 12.8345556259155 11.7663021087646 9.22704792022705 8.43778419494629 9.58627700805664 8.7999439239502 8.09913349151611 7.88696384429932 7.58211469650269 7.03316640853882 8.95649433135986 5.60341787338257 5.63913917541504 7.55599164962769 13.1639575958252 14.9534130096436 13.3661041259766 10.1275806427002 9.70862197875977 11.4690761566162 13.4831972122192 12.3873720169067 11.408878326416 9.42509365081787 7.31571245193481 6.98012351989746 7.00390625 6.89367818832397 6.76458978652954 7.00601243972778 7.18544960021973 7.09163856506348 7.04780340194702 5.67257261276245
26.1762218475342 19.5934467315674 4.61588716506958 5.59788990020752 5.04637145996094 3.86902713775635 3.81128978729248 3.8134171962738 4.02519798278809 3.60416483879089 3.34716415405273 3.14107894897461 2.77058792114258 4.02841377258301 3.87885022163391 2.05756020545959 1.49991464614868 1.28955733776093 1.15705609321594 1.54305517673492 1.48577082157135 1.27275192737579 1.2350127696991 1.16527414321899 1.08140218257904 0.975999116897583 0.784786105155945 0.711498081684113 0.917387127876282 0.844873189926147 0.783204615116119 0.434139430522919 0.380338788032532 -0.178447142243385 -0.239388093352318 -0.261503934860229 -0.172352477908134 -0.183272585272789 -0.155741587281227 -0.106824032962322 0.788304328918457 -0.47514745593071 -1.0098067522049 36.7047348022461 13.6461133956909 1.40077018737793 0.596216082572937 0.439218789339066 0.369808614253998 0.734778761863708 1.00035715103149 0.369262248277664 0.32094070315361 0.26667046546936 0.232197999954224 0.190799295902252 0.162152603268623 0.128748640418053 0.100610077381134 1.20292091369629 1.71710765361786 1.705601811409 1.43647468090057 1.31610369682312 1.29301059246063 1.61280989646912 2.90398859977722 0.0686489939689636 38.6225166320801 0.345586270093918 1.12063920497894 19.4037609100342 9.84434986114502 1.85069954395294 1.20683991909027 12.6985149383545 1.26163625717163 0.0094286035746336 5.79026126861572 27.072790145874 6.80453252792358 5.74745082855225 6.61106967926025 5.88833379745483 -0.606850862503052 27.0133152008057 1.32271075248718 16.8233222961426 7.16970682144165 6.91614675521851 5.7509651184082 12.6149950027466 2.42797017097473 1.14613485336304 -0.323611438274384 14.3500308990479 0.174465775489807 1.87919068336487 -1.07627820968628 -1.82505095005035 -1.99198520183563 -2.53895497322083 -2.7231822013855 -2.82602524757385 13.7108211517334 0.980518579483032 20.2926387786865 42.4768104553223 28.5926036834717 25.2740707397461 13.8333196640015 12.8608522415161 10.5772476196289 9.23586750030518 7.60774040222168 13.6601181030273 11.3712902069092 5.68536043167114 -1.2255631685257 -2.29580760002136 5.56852293014526 -2.55325126647949 17.2105655670166 21.1947269439697 13.794641494751 41.9427680969238 21.7543258666992 17.3586921691895 13.8216123580933 12.4179935455322 11.6914119720459 11.3749856948853 10.8847694396973 10.1614236831665 9.4596529006958 7.52167749404907 7.26718616485596 7.03225374221802 7.13860177993774 6.93380737304688 6.25257158279419 10.0830030441284 10.3815507888794 9.42265605926514 8.58634757995605 7.30587196350098 8.07334327697754 7.59413528442383 7.24124336242676 7.13851737976074 6.81589889526367 6.38864469528198 6.43012285232544 9.58389949798584 5.56366920471191 6.01580286026001 8.48198413848877 11.7947158813477 11.3096952438354 9.06860733032227 8.4399356842041 9.14172267913818 8.34481143951416 10.2573642730713 9.54780197143555 7.8840389251709 6.55879592895508 6.14553833007812 6.14039707183838 6.20856618881226 6.30919694900513 6.41473722457886 6.55781078338623 5.5885796546936
9.72428512573242 4.90663385391235 14.3209457397461 12.3973398208618 4.41668272018433 4.56522607803345 4.31362342834473 4.1480016708374 3.77713680267334 3.76509022712708 3.53789973258972 3.26906633377075 3.20517086982727 3.14159965515137 3.44654417037964 3.6651439666748 3.24278450012207 2.10845613479614 1.13809096813202 1.01580834388733 0.982666015625 1.41815876960754 1.36101090908051 0.992100834846497 0.59795743227005 0.517022132873535 0.893208026885986 0.81702446937561 0.62675267457962 0.562512338161469 0.494176119565964 0.711073100566864 0.661998689174652 0.325487196445465 0.277233570814133 -0.273712635040283 -0.276101678609848 -0.0746266022324562 -1.47255671024323 16.5102138519287 -1.58845782279968 5.79191637039185 -1.39746165275574 48.2593231201172 17.9600830078125 13.3052196502686 7.8781909942627 0.251212745904922 0.169627770781517 0.227102607488632 1.25723600387573 0.923416256904602 0.363292902708054 0.190788447856903 0.147239953279495 0.111597292125225 0.078749306499958 0.0478252694010735 0.032488189637661 0.00340214604511857 -0.0124033838510513 1.16018128395081 1.96658134460449 1.62286937236786 1.37278938293457 1.59551584720612 0.744250595569611 -0.0555314645171165 34.778434753418 19.4396533966064 13.9991588592529 9.30274391174316 3.09886646270752 9.134446144104 4.40670680999756 6.06961679458618 6.8319878578186 -0.880197703838348 0.399299442768097 28.2891941070557 14.598105430603 11.5948619842529 5.48779392242432 -0.0649920627474785 9.57936096191406 7.99398279190063 19.091682434082 7.5038537979126 17.0607585906982 6.37097787857056 4.43119096755981 4.62125730514526 3.42571520805359 0.569918096065521 -1.57723653316498 -1.68271350860596 21.187572479248 2.32314252853394 0.876588463783264 -1.17496228218079 -2.62700319290161 -3.09796857833862 -2.73933959007263 -2.88667917251587 -0.416509121656418 14.471643447876 4.33370113372803 41.8901329040527 15.6283769607544 38.9246559143066 19.3659057617188 16.3562660217285 11.0415773391724 10.6392602920532 9.93079376220703 9.89698886871338 5.26988410949707 21.2331104278564 0.179327175021172 -1.91087186336517 -2.27411198616028 16.0171089172363 14.36634349823 18.1864604949951 15.0212593078613 10.3228845596313 26.5421257019043 25.9795036315918 14.2302017211914 11.3488349914551 10.4674282073975 10.4936952590942 10.2947187423706 9.90322399139404 9.24664688110352 9.07037448883057 8.55247974395752 7.19468355178833 6.94136619567871 6.73141527175903 6.85581588745117 6.65958452224731 5.93810987472534 5.73785161972046 7.72331428527832 7.89294958114624 7.05973148345947 6.45184564590454 7.28236627578735 6.94261312484741 6.58551120758057 6.28160381317139 6.08482265472412 5.75771999359131 5.81335020065308 5.45244169235229 5.30365419387817 5.48559617996216 7.37862873077393 10.2877111434937 9.5927267074585 8.8679313659668 7.06402826309204 6.57777118682861 6.90588665008545 8.73841094970703 8.21108531951904 6.68885564804077 5.8595552444458 5.57992029190063 5.76428031921387 5.8300666809082 5.77470111846924 4.65948677062988
11.7246265411377 8.2082052230835 7.56925487518311 4.74134254455566 10.4460306167603 9.38122081756592 4.26374912261963 3.96696472167969 3.97716927528381 3.88729524612427 3.68991851806641 3.64476203918457 3.56486201286316 3.34245705604553 3.15477323532104 3.01430535316467 2.77331829071045 3.10358548164368 2.90971684455872 2.73050999641418 0.985057592391968 0.940736055374146 0.905207276344299 1.27224600315094 1.1850026845932 0.834554672241211 0.622119665145874 0.372498214244843 0.733860194683075 0.671746432781219 0.491352379322052 0.446711272001266 0.392803162336349 0.598887860774994 0.553513705730438 0.246519863605499 0.224477991461754 -0.299775213003159 -1.35488426685333 -1.93533146381378 4.96453619003296 -1.92316854000092 -2.09831357002258 19.386999130249 49.3836326599121 19.4880523681641 8.93770408630371 7.37529897689819 5.12319898605347 -0.00916488748043776 0.83241856098175 1.09986686706543 0.722213268280029 0.0942014306783676 0.0564464144408703 0.0345525518059731 0.010564498603344 0.0063117309473455 0.189427778124809 0.000630035588983446 -0.0207103211432695 1.0205682516098 2.12560367584229 2.08282256126404 1.74808716773987 1.76443016529083 1.84768784046173 0.865878462791443 15.4784784317017 17.1971492767334 12.7879590988159 5.31830835342407 3.14584517478943 22.4761390686035 2.70826196670532 3.22959399223328 2.94623947143555 3.09225082397461 4.13878965377808 11.9297657012939 15.9002199172974 12.4305562973022 2.30880641937256 15.357460975647 0.793295383453369 19.5953235626221 9.51199245452881 5.85038900375366 9.95674610137939 10.3428010940552 7.37535572052002 3.76023960113525 2.09908938407898 1.59929573535919 -0.35614350438118 -1.24561393260956 1.79534542560577 7.42771768569946 2.95806813240051 -0.768987119197845 -2.46570253372192 -3.25215816497803 -3.23192143440247 -3.57171583175659 3.92284035682678 1.07095277309418 17.1270866394043 6.20348405838013 28.7795944213867 24.8198204040527 18.0349407196045 12.723931312561 12.799976348877 9.90033435821533 6.88604402542114 15.8345022201538 10.4966859817505 4.49731349945068 1.96020209789276 -0.576605081558228 -1.4340763092041 29.0356597900391 11.7587261199951 12.7335977554321 8.457839012146 13.6552066802979 37.8993797302246 23.7301445007324 18.5905647277832 12.2633209228516 11.5628042221069 10.9537439346313 9.92677021026611 9.59733867645264 9.26545429229736 8.87023258209229 8.16842651367188 8.10728168487549 7.65239191055298 6.76361179351807 6.52336025238037 6.34105443954468 6.41409158706665 6.20785617828369 6.05306816101074 5.44177961349487 6.58541965484619 6.6112699508667 6.15460729598999 5.95618200302124 6.25474071502686 6.31608629226685 5.97305011749268 5.69476842880249 5.52205181121826 5.19840478897095 5.365065574646 5.19533252716064 5.2206859588623 5.45980787277222 6.49980735778809 6.05365943908691 8.01681613922119 7.46665000915527 6.01863670349121 5.67277050018311 5.91808748245239 7.6475191116333 7.20493412017822 5.87410259246826 5.44059324264526 5.21910810470581 5.39821624755859 3.8810396194458
12.2129497528076 10.4914999008179 8.77800941467285 6.71653604507446 6.37104940414429 5.83382129669189 8.19561958312988 7.59400177001953 7.07244539260864 3.83631491661072 3.81165838241577 3.78017520904541 3.55261254310608 3.54684019088745 3.5059654712677 3.20399522781372 2.89765620231628 2.82491016387939 2.61414361000061 2.27663826942444 2.53254556655884 2.39336395263672 0.847579956054688 0.844279229640961 0.787443697452545 1.07355642318726 0.992100894451141 0.909778654575348 0.472245156764984 0.233363226056099 0.597382485866547 0.548785388469696 0.386922091245651 0.360493987798691 0.318206578493118 0.507559418678284 0.456812292337418 -0.336247891187668 -0.843134462833405 -1.76431131362915 14.4732065200806 -1.3339866399765 2.92766332626343 8.75547504425049 11.9997148513794 45.2115669250488 20.0204277038574 11.3590688705444 5.61625242233276 4.89934539794922 3.7144091129303 3.44761776924133 0.723251283168793 -0.0545322149991989 0.398589760065079 0.476722538471222 0.18560291826725 0.322531789541245 0.625115096569061 0.329443722963333 0.35225573182106 1.24341833591461 1.96940577030182 2.3056206703186 2.16264343261719 1.86177909374237 1.61116206645966 1.58155620098114 1.00742697715759 0.371540129184723 32.5726547241211 0.13375261425972 33.0044326782227 -1.16843438148499 47.6388397216797 5.42468023300171 2.05666971206665 3.1466019153595 2.83578491210938 3.34664797782898 -1.31802725791931 -0.524702310562134 23.5420970916748 5.11352443695068 8.25651931762695 2.90404748916626 15.7051563262939 6.37042379379272 5.84191465377808 3.88198351860046 6.73732852935791 6.19003105163574 4.44860363006592 2.14867353439331 -0.0345142856240273 -1.2782860994339 -1.41130816936493 6.76549196243286 -1.58732497692108 4.01304054260254 -1.95352971553802 -2.50265979766846 -3.29640436172485 -3.47470235824585 2.13465881347656 8.51814746856689 5.28676986694336 17.6418952941895 11.8962564468384 32.0513648986816 22.9446449279785 16.6575965881348 7.69461917877197 17.7261238098145 7.85061550140381 6.94175910949707 5.41853380203247 3.56315922737122 2.03382325172424 0.552151620388031 0.247687995433807 -1.10160350799561 31.5132293701172 9.32114410400391 16.8040828704834 9.24533748626709 5.39113283157349 45.6565551757812 16.2686405181885 14.7629890441895 13.4433116912842 11.4451637268066 10.4187517166138 10.223217010498 9.17812538146973 8.76912021636963 8.30106449127197 7.85511493682861 7.08317184448242 7.12108945846558 6.74317789077759 6.27519416809082 6.08110427856445 5.89516019821167 5.76887035369873 5.85539484024048 5.68156671524048 5.09127807617188 5.74388933181763 5.81555557250977 5.46298027038574 5.4511513710022 5.19739627838135 5.72300004959106 5.45543718338013 5.26356267929077 5.13876676559448 4.91769647598267 5.14682626724243 5.03658866882324 5.06299734115601 5.06885433197021 5.23652791976929 5.0656270980835 6.82899332046509 6.46374940872192 5.33172178268433 5.21768379211426 5.23598003387451 6.80679082870483 6.44589567184448 6.10454797744751 5.07381153106689 4.89134120941162
53.1982765197754 16.1507225036621 8.8486852645874 8.10381507873535 7.29790544509888 6.85430574417114 5.43051338195801 5.15722179412842 4.19066095352173 6.49913263320923 6.19709825515747 3.92028474807739 3.69010806083679 3.63857340812683 3.45239520072937 3.32581949234009 3.23631548881531 2.98900008201599 2.73617482185364 2.65453934669495 2.44446921348572 2.09132766723633 2.20555257797241 2.0800986289978 0.683735728263855 0.595438361167908 0.480357646942139 0.379082560539246 0.807433187961578 0.730097472667694 0.324814558029175 0.101039119064808 0.0740766823291779 0.0701903253793716 0.255731612443924 0.222305119037628 -0.239277973771095 -0.257406979799271 -0.34689325094223 -1.40652167797089 3.39569067955017 4.12959766387939 1.43605649471283 8.0795431137085 1.73374319076538 14.4622526168823 43.3308715820312 17.2533740997314 11.7999782562256 7.89135265350342 3.91807246208191 3.47174787521362 3.21834635734558 2.67951226234436 0.849408388137817 0.549772381782532 0.431973963975906 0.413738340139389 1.15478765964508 1.30414962768555 1.59372770786285 1.63120937347412 1.77126586437225 2.01921916007996 1.86478686332703 1.76005113124847 1.57024598121643 1.3014110326767 1.09227466583252 1.44084274768829 5.83605337142944 12.19065284729 -0.624300241470337 -1.66881239414215 60.917896270752 24.09739112854 19.2928943634033 5.59786081314087 -1.06065058708191 -1.80355381965637 19.3578662872314 28.0623607635498 10.0256042480469 11.0446357727051 7.84304618835449 20.1869583129883 5.57085084915161 9.59051704406738 5.58806133270264 4.11497688293457 3.64762878417969 6.32081413269043 5.31249237060547 4.37504005432129 1.22997379302979 0.113020360469818 -0.712049543857574 1.66265141963959 -1.59436559677124 17.3696460723877 3.31049561500549 -2.66553115844727 -2.90201020240784 2.60051488876343 13.1158266067505 16.2610454559326 7.73377990722656 9.79414558410645 26.1986122131348 15.501636505127 14.3719806671143 14.4307489395142 10.8455209732056 10.3685340881348 12.1655540466309 9.22703742980957 5.28508329391479 5.41512489318848 3.53327441215515 0.933916807174683 0.302974194288254 6.8460578918457 22.7161464691162 20.7625579833984 15.2224102020264 10.3792457580566 9.48649215698242 8.40397834777832 39.4985275268555 21.802152633667 12.6187191009521 12.0957088470459 11.3428812026978 10.5922203063965 9.76299571990967 9.35758018493652 8.24471569061279 7.83595848083496 7.28518486022949 6.9159107208252 6.16302967071533 6.30395698547363 6.01286745071411 5.75167560577393 5.6841082572937 5.53014087677002 5.41056060791016 5.47489738464355 5.32209205627441 4.78890228271484 5.08925628662109 5.15906047821045 4.86455965042114 4.99082469940186 4.78781795501709 5.30763912200928 5.07566976547241 4.89446449279785 4.75586271286011 4.58793544769287 4.71102714538574 4.81353902816772 4.87400054931641 4.82730960845947 4.94662094116211 4.86195182800293 6.08074617385864 5.77731657028198 4.55116319656372 3.76173901557922 3.35934257507324 10.6149463653564 3.84094214439392 36.2546463012695
1.47953772544861 57.3707542419434 24.0566596984863 10.680326461792 7.2503809928894 6.82600021362305 6.37481832504272 6.03046369552612 4.82059669494629 4.59714937210083 4.13086891174316 5.70723438262939 5.47364902496338 3.76973152160645 3.56606459617615 3.46696805953979 3.2295036315918 3.15834617614746 3.06290912628174 2.80903100967407 2.53708672523499 1.90101850032806 1.712681889534 1.34574556350708 1.89363789558411 1.74811434745789 0.496950536966324 0.410017520189285 0.301470696926117 0.200838506221771 0.629752039909363 0.554392576217651 0.180708274245262 -0.12453580647707 -0.123419277369976 0.305552452802658 0.124492183327675 0.107545956969261 -0.341366529464722 -1.67614996433258 -1.82034385204315 19.6260089874268 -1.14788269996643 -1.9586638212204 -2.00487589836121 16.1354465484619 45.6298561096191 22.2761287689209 16.5236129760742 10.7307577133179 8.01688289642334 5.69459676742554 5.19062852859497 2.67565035820007 2.5723249912262 2.22129607200623 0.631521046161652 0.993515372276306 1.56371128559113 1.8575564622879 2.53518581390381 2.24334859848022 1.75736260414124 1.62952566146851 1.52410089969635 1.37719476222992 1.3163480758667 1.17182803153992 0.989851057529449 -0.602256834506989 26.9094982147217 1.11045968532562 -0.980320274829865 -1.58560252189636 24.970630645752 51.7157974243164 31.1127128601074 3.41074538230896 1.11505687236786 32.0390281677246 11.2958583831787 23.3629665374756 15.824257850647 20.2644290924072 2.43551588058472 29.8412437438965 7.65657138824463 5.21810674667358 3.64929127693176 3.4961621761322 2.79375267028809 3.11549162864685 2.83900165557861 2.70445013046265 -0.118148677051067 0.758954226970673 0.335388720035553 -0.801157355308533 22.0921993255615 -1.53071117401123 31.6288890838623 -1.80001127719879 -2.33632469177246 11.057222366333 15.7277126312256 8.71073246002197 7.5295786857605 12.6086263656616 18.0384750366211 14.8287143707275 11.0211763381958 9.8809061050415 10.605297088623 21.063196182251 14.9607391357422 15.9098176956177 16.1718101501465 7.0936484336853 4.35020112991333 2.21484065055847 1.7846987247467 9.31395435333252 21.1201419830322 15.5566835403442 10.3515796661377 12.0203628540039 20.7887382507324 5.14946460723877 22.3006801605225 45.6550712585449 18.8653049468994 15.6044464111328 11.4614143371582 11.1166143417358 10.217432975769 9.69004154205322 8.72336673736572 8.28224849700928 7.32759952545166 7.00047302246094 6.6807336807251 6.15042781829834 5.87591552734375 5.20412969589233 5.43374538421631 5.2133903503418 5.32318830490112 5.17756032943726 5.07622718811035 5.14277935028076 5.01660346984863 4.52541780471802 4.3852972984314 4.3167200088501 4.37783575057983 4.63336849212646 4.44737863540649 4.88301610946655 4.67125511169434 4.47091245651245 4.37142610549927 4.34890556335449 4.5388708114624 4.60140180587769 4.60685348510742 4.58694219589233 4.62240743637085 4.18381643295288 3.60368585586548 3.3888247013092 2.7640163898468 2.81982684135437 2.36440968513489 2.55544781684875
1.39042150974274 1.48913633823395 31.8523998260498 47.3945236206055 15.9329051971436 8.18389225006104 6.36119604110718 5.96075057983398 5.53021144866943 5.2133321762085 4.28357696533203 4.16958999633789 3.9650776386261 5.08526420593262 4.91652870178223 3.61816191673279 3.36536431312561 3.28979969024658 2.97112417221069 2.8875515460968 2.32045817375183 2.24551200866699 1.65236115455627 1.61245715618134 1.54238176345825 1.18935859203339 1.59183955192566 1.45555603504181 1.3106552362442 0.222787857055664 0.137247323989868 0.0466962493956089 0.399086833000183 -1.51102149486542 8.12650775909424 -1.95733618736267 54.4597320556641 0.39598074555397 -0.323639094829559 -0.40903577208519 -2.24800753593445 34.3666648864746 3.11505675315857 -1.31635427474976 -2.21844983100891 9.29606151580811 23.4543323516846 41.5190277099609 3.63393759727478 1.59545147418976 44.5335464477539 7.9954719543457 7.33758020401001 5.46768140792847 4.2831597328186 2.27157807350159 2.19852757453918 1.97322416305542 1.75646102428436 2.29153537750244 3.08651041984558 2.27545523643494 1.92261743545532 1.38704574108124 1.27514517307281 1.11608934402466 1.0936803817749 0.88203752040863 0.794287264347076 0.59264725446701 0.100243963301182 -1.6074310541153 -2.38239169120789 -0.476804494857788 33.4794082641602 16.3717632293701 11.1415863037109 18.7604084014893 33.0804443359375 14.3603515625 18.7473773956299 13.7301149368286 9.54788494110107 13.2430858612061 12.4798498153687 9.26178550720215 12.7646856307983 9.59424304962158 4.79659700393677 1.19489014148712 7.40532541275024 10.3334045410156 2.28089570999146 1.47901284694672 1.96013903617859 0.27000966668129 0.982934594154358 0.0548089519143105 -0.621899843215942 3.05730128288269 13.1158018112183 2.14793276786804 -1.35278403759003 -1.38634145259857 8.19652557373047 6.64111661911011 7.18386268615723 7.68169116973877 12.5274686813354 7.86294937133789 6.79014825820923 15.7864866256714 34.2687149047852 15.2973861694336 13.746452331543 10.3561897277832 9.55481052398682 8.55392742156982 5.57368278503418 5.3347225189209 3.38183617591858 14.7400226593018 20.9619731903076 17.9597339630127 12.9528894424438 11.1849927902222 9.67253494262695 8.97996044158936 9.20346832275391 23.2259006500244 34.8304595947266 21.904317855835 13.8228597640991 12.8396530151367 10.5383586883545 10.0919036865234 9.0033597946167 8.5407247543335 7.7388482093811 7.39101028442383 7.05458307266235 6.30203247070312 6.04576110839844 5.54169321060181 5.31446123123169 4.69403457641602 4.93810987472534 4.75228452682495 5.00238800048828 4.88136672973633 4.7858829498291 4.84087896347046 4.71938180923462 4.59453535079956 4.14662456512451 4.04058933258057 3.96381664276123 3.77205514907837 4.12116384506226 4.09176540374756 4.33804225921631 4.19286966323853 4.16077375411987 4.18061017990112 4.22814702987671 3.677898645401 6.22156810760498 3.93470025062561 3.45227932929993 3.37108612060547 2.97240781784058 2.80466866493225 15.8677310943604 3.83856344223022
0.895042896270752 10.8997144699097 9.66485214233398 50.7481918334961 29.3588581085205 21.0059299468994 11.9280843734741 6.70191955566406 6.14312648773193 5.1392183303833 4.82639026641846 4.6010422706604 4.05235910415649 4.0088357925415 3.81793665885925 4.62351846694946 4.36512422561646 4.13194179534912 3.0871729850769 2.99510335922241 2.09767079353333 1.94869840145111 1.27373552322388 1.15189409255981 0.940920650959015 1.44779908657074 1.38393795490265 0.909304440021515 0.826227486133575 1.17249274253845 1.02241134643555 0.0160354673862457 -0.07437564432621 -1.76306080818176 -2.37103247642517 20.0575790405273 52.9567337036133 13.0924777984619 2.89771175384521 -1.91017198562622 7.34590911865234 -1.96037268638611 6.31917858123779 4.46718692779541 -2.12353849411011 3.50146126747131 19.4339256286621 43.9436302185059 22.651252746582 15.3764934539795 20.2987384796143 23.4294929504395 17.1972351074219 6.48680591583252 6.06061315536499 4.60190439224243 3.73504734039307 2.06800007820129 2.03569316864014 1.88303530216217 3.341632604599 2.87636923789978 1.91909646987915 1.53108823299408 1.2762303352356 1.09495365619659 0.894800186157227 0.625431656837463 0.487947016954422 0.281347274780273 -0.0411386899650097 -1.64284908771515 -2.8796660900116 21.9437313079834 29.3495388031006 22.2790489196777 26.6891345977783 18.7928161621094 20.6478862762451 17.5406799316406 12.1687917709351 9.07471084594727 12.4767446517944 6.52554559707642 23.3315658569336 10.5338287353516 9.11345672607422 5.53872346878052 1.1960541009903 9.75599670410156 1.12814509868622 19.368350982666 8.79189491271973 3.28438758850098 1.979048371315 0.730038166046143 0.141532078385353 -0.195103764533997 -0.73150098323822 9.5824556350708 0.715659320354462 5.17580509185791 -0.980805337429047 -1.45114707946777 15.8904228210449 -0.641112148761749 3.3237292766571 4.86914873123169 7.66396427154541 5.20459032058716 7.06497192382812 14.5395984649658 21.5060291290283 22.7977638244629 19.787618637085 14.0366458892822 9.48019886016846 7.77466917037964 6.87759017944336 6.8454909324646 18.0334377288818 6.40114736557007 12.4255084991455 13.6101312637329 12.0473318099976 8.29720211029053 9.44214630126953 7.63342046737671 20.2796192169189 5.92702007293701 12.9752397537231 53.0747871398926 18.6309833526611 15.3545827865601 11.5721836090088 10.7757053375244 9.92259502410889 8.88820838928223 7.97601699829102 7.61599969863892 7.27080345153809 6.65391445159912 6.38035106658936 5.72367715835571 5.51749992370605 5.03561067581177 4.85380744934082 4.2741904258728 4.52367496490479 4.37564039230347 4.71246147155762 4.59363222122192 4.48182582855225 4.40930461883545 4.449303150177 4.33307933807373 3.91606402397156 3.81907749176025 3.59783411026001 3.44720840454102 3.84460520744324 3.75120878219604 4.10332489013672 4.01387166976929 4.00046348571777 3.88852834701538 3.61219620704651 4.8599534034729 3.61477255821228 3.11587476730347 2.95514321327209 2.60024428367615 18.1790428161621 2.42378854751587
1.04016137123108 3.90354061126709 9.32447624206543 7.89793920516968 51.088191986084 24.0193367004395 19.2107486724854 14.2196025848389 9.44446277618408 8.67851066589355 5.13000869750977 4.48657274246216 4.30020761489868 4.19466590881348 4.11033916473389 3.87842297554016 3.68189072608948 3.38089680671692 3.84223556518555 3.62613105773926 2.30864429473877 1.90550482273102 1.76042878627777 1.45537197589874 1.09039008617401 1.03162586688995 0.823296785354614 0.713599920272827 0.652601897716522 0.734332203865051 0.624619424343109 0.87319427728653 0.73183411359787 -1.6549369096756 -2.07099342346191 0.921774685382843 31.3655395507812 38.585620880127 22.0146217346191 6.09260129928589 -2.20615983009338 8.34782886505127 13.8152494430542 3.0262622833252 3.40287065505981 3.41302490234375 9.67742252349854 11.9115333557129 39.6955795288086 17.0074501037598 13.5873994827271 9.54150199890137 10.2635803222656 11.8695669174194 10.3044376373291 5.51895904541016 5.25374841690063 4.01822185516357 3.36494374275208 1.95986843109131 3.20906949043274 3.1250011920929 2.17779278755188 1.558469414711 1.24589288234711 1.02272295951843 0.768783926963806 0.656046390533447 0.422176450490952 0.100857622921467 -0.71117228269577 -1.38249635696411 -1.86180222034454 -2.06148624420166 39.4236450195312 34.3353576660156 27.1135330200195 21.6109294891357 20.2924556732178 13.1745977401733 13.0522842407227 12.7103157043457 8.47728824615479 28.3476696014404 8.91058349609375 10.7402114868164 7.49980401992798 4.19514131546021 10.4856128692627 4.35797739028931 1.66686511039734 11.8086309432983 18.7302551269531 9.24386215209961 3.01237916946411 1.95478582382202 1.35891687870026 0.24976372718811 -0.0687700808048248 20.4834842681885 0.642379879951477 19.6917171478271 9.74270725250244 3.73203015327454 4.63839673995972 11.9209508895874 3.78800272941589 7.83568048477173 7.10124206542969 5.44207191467285 6.79517650604248 15.1471338272095 32.9722557067871 20.1169376373291 19.6317386627197 10.532995223999 8.18422889709473 8.64678287506104 8.57750797271729 7.51878976821899 6.01265716552734 6.31466388702393 4.25409698486328 7.51869297027588 4.42128229141235 6.32135248184204 6.59671831130981 13.1308155059814 9.68396186828613 8.00949859619141 7.33617830276489 10.5825309753418 51.6318321228027 25.5402126312256 14.5261201858521 11.8614826202393 9.0092887878418 8.90268325805664 8.30631446838379 7.92639541625977 7.57237577438354 6.85257434844971 6.5735878944397 6.04312229156494 5.82015562057495 5.25353956222534 5.07238292694092 4.60648536682129 4.45534133911133 3.90162897109985 4.17297506332397 4.030930519104 3.8964467048645 4.33621740341187 4.23464488983154 4.15418386459351 4.19305753707886 4.08776521682739 3.68950152397156 3.59627985954285 3.24042129516602 3.1331570148468 3.54264259338379 3.48704504966736 3.8236939907074 3.40103816986084 3.0476279258728 3.07070136070251 2.95473384857178 2.49436545372009 21.6987781524658 2.70975732803345 8.35901546478271 6.47877883911133
0.755978226661682 0.892162024974823 0.799165368080139 5.91218090057373 53.291934967041 30.6532421112061 23.6271514892578 15.7101783752441 13.9993991851807 6.35054588317871 40.5141181945801 7.18515968322754 4.38295745849609 4.0723090171814 4.00466728210449 3.94444131851196 3.84299874305725 3.31268930435181 3.00984406471252 2.67210078239441 3.34660363197327 3.13739562034607 1.47111654281616 1.63124287128448 1.57220447063446 1.46593463420868 0.693690836429596 0.536463975906372 0.540418326854706 0.558886826038361 0.463011264801025 0.533417940139771 0.434197008609772 -1.2377153635025 -1.82441127300262 12.2779369354248 16.8590984344482 41.6160926818848 23.1069526672363 16.5360412597656 7.87882089614868 6.01626062393188 12.7025213241577 0.846517205238342 1.65076041221619 22.1537017822266 1.43398928642273 0.303853839635849 54.7344360351562 20.0636749267578 14.8195848464966 10.678653717041 9.43847751617432 7.34431600570679 7.06935977935791 8.15582942962646 7.30384969711304 4.83499765396118 4.70738792419434 3.68279075622559 3.20091843605042 3.16899394989014 1.92337727546692 1.87201881408691 1.69861304759979 0.844674348831177 0.732151746749878 0.587851047515869 0.282917410135269 -0.0154561921954155 -0.17390838265419 -1.15167605876923 -1.40269374847412 -1.57535433769226 9.77932262420654 34.549919128418 24.1627349853516 21.7580852508545 19.9154205322266 12.8959474563599 11.9749069213867 17.7527275085449 9.32806873321533 21.2691860198975 13.2298574447632 9.23466205596924 6.28671741485596 3.92421698570251 2.49514722824097 15.8835029602051 8.91728591918945 7.18320178985596 12.5723533630371 9.211989402771 6.86760330200195 5.73792552947998 2.34784150123596 0.936437427997589 0.783097982406616 0.245237350463867 9.13115406036377 11.2130374908447 11.2656116485596 5.06723880767822 5.40640592575073 -0.283414125442505 14.9265804290771 8.72764301300049 6.55959987640381 3.52145648002625 36.6560440063477 22.2714500427246 15.5948886871338 9.78250312805176 7.46750116348267 7.4075288772583 9.54318618774414 7.44047927856445 7.4224967956543 7.1591591835022 5.9139723777771 5.92217683792114 5.28083419799805 14.8657464981079 4.06256675720215 3.62361764907837 3.42239618301392 17.6620597839355 5.30804967880249 19.0589160919189 5.05788516998291 18.7645835876465 6.2581787109375 50.0481643676758 23.9764270782471 16.685619354248 11.6316537857056 10.6651554107666 8.54732513427734 7.5780143737793 7.11821889877319 7.12923717498779 6.83325672149658 6.22809553146362 5.99629497528076 5.51827716827393 5.33258104324341 4.82663726806641 4.66828680038452 4.52520084381104 4.09427499771118 3.96279692649841 3.44933390617371 3.71002316474915 3.59117960929871 4.07566499710083 3.97463893890381 3.914475440979 3.9494252204895 3.85326838493347 3.24697041511536 2.90401029586792 3.00220918655396 2.94948983192444 3.33923721313477 2.00907039642334 2.47893095016479 6.37868165969849 2.29666209220886 23.7330532073975 2.57513236999512 9.39575958251953 14.4268989562988 11.3295078277588
1.20321846008301 0.922299444675446 0.315822809934616 0.663749754428864 9.97019672393799 55.0827484130859 26.1498794555664 17.4140205383301 14.8781795501709 6.85011863708496 40.9054107666016 6.25244617462158 35.6611633300781 6.19324064254761 3.94927453994751 3.77779150009155 3.71801066398621 3.6317355632782 3.42514252662659 2.80025887489319 2.63213801383972 1.62105929851532 2.90237498283386 2.77662014961243 1.37615072727203 1.14045321941376 1.35329818725586 1.22444498538971 0.281972825527191 0.349079608917236 0.328710913658142 0.191603153944016 -0.0889162421226501 -1.4219936132431 -1.82011198997498 -1.53998458385468 46.7295455932617 26.6047859191895 20.6284465789795 16.5714721679688 6.51970672607422 33.1952514648438 4.49368286132812 0.663752019405365 5.04020023345947 9.73433589935303 10.1142196655273 7.73268556594849 44.7742156982422 31.3485107421875 23.4289264678955 10.7359552383423 9.67564392089844 8.35747909545898 7.65692472457886 6.79194688796997 5.56408452987671 6.3084454536438 5.95951175689697 5.66591215133667 4.36084413528442 4.25002288818359 3.30598115921021 2.80031180381775 1.65241134166718 1.59587705135345 1.43645000457764 0.346140712499619 0.10704680532217 -0.157236665487289 -0.282343715429306 -0.466748505830765 -0.736521661281586 -1.638143658638 24.9675121307373 24.8115425109863 19.7276039123535 18.6975841522217 19.3542156219482 12.300609588623 24.2087707519531 10.9417362213135 9.395432472229 19.0585289001465 9.24553298950195 8.57075881958008 7.83770561218262 6.24108839035034 2.61726427078247 8.07737064361572 12.8614253997803 9.0161600112915 5.51405382156372 4.63758945465088 6.72041416168213 5.55588006973267 4.50163221359253 3.68658018112183 1.83165597915649 7.38621520996094 10.0584545135498 5.11078643798828 5.16610527038574 3.33482241630554 10.6304473876953 6.199547290802 2.48008108139038 10.0007543563843 7.1190128326416 17.0531311035156 17.0590419769287 19.1425170898438 8.21433067321777 4.69339942932129 12.9181041717529 7.863600730896 4.85936069488525 6.58044958114624 6.46934032440186 6.05647945404053 6.09225606918335 5.80662679672241 5.34085273742676 5.2824068069458 5.21981906890869 4.87713575363159 11.739595413208 13.1438646316528 10.761775970459 18.5599880218506 5.57191753387451 3.92568707466125 24.6768836975098 46.5825233459473 29.3842067718506 21.9991359710693 15.0016450881958 12.0941228866577 9.56261825561523 8.90155601501465 7.11831378936768 6.74038791656494 6.21702146530151 6.46110200881958 6.20728158950806 5.67264366149902 5.46963691711426 5.07024478912354 4.90702056884766 4.74402475357056 4.30958604812622 4.18097591400146 3.76207304000854 3.62621712684631 3.11891627311707 3.38624167442322 3.28276181221008 3.82686853408813 2.88935232162476 33.801513671875 2.95633482933044 2.41438126564026 2.65899348258972 2.73414444923401 2.84458112716675 1.37558591365814 1.26894867420197 19.7151393890381 14.0567350387573 7.09412431716919 11.6574726104736 6.23268604278564 2.16711068153381 1.66541159152985
10.3697919845581 -0.705799102783203 18.5176658630371 8.36307811737061 9.70742321014404 49.1429061889648 34.1878776550293 26.5548572540283 16.7428359985352 6.56249713897705 37.6377716064453 4.67076587677002 38.3357810974121 17.9288883209229 13.0104389190674 5.51891088485718 3.60907125473022 3.56336784362793 3.39610266685486 3.17054390907288 2.99194979667664 2.44155597686768 2.30656599998474 2.19551348686218 2.63712453842163 2.50670886039734 2.31059002876282 0.301036924123764 1.10935044288635 1.01740145683289 0.121551617980003 0.133933886885643 0.0689184218645096 -0.0384678207337856 -0.33762338757515 18.0641174316406 24.7950458526611 27.2379722595215 20.640832901001 6.96057176589966 37.4982833862305 11.717737197876 13.0175457000732 4.22044038772583 3.01405739784241 1.69413077831268 4.87175846099854 3.74803042411804 48.8419723510742 21.8693523406982 13.7774658203125 15.4938669204712 0.224659115076065 54.1400604248047 7.3336181640625 6.7188868522644 6.29490423202515 5.73880624771118 4.94804000854492 4.27993249893188 5.06304836273193 4.78110694885254 3.8499481678009 3.69734048843384 2.83539986610413 2.43065786361694 1.34743189811707 1.18888795375824 1.0118168592453 0.927502274513245 -0.406746983528137 -0.47893038392067 -0.575176596641541 -0.727867782115936 -1.68908929824829 45.8396339416504 18.9118347167969 14.6860980987549 14.5313091278076 9.96296405792236 15.9312582015991 13.8333921432495 9.19533538818359 31.2324714660645 9.04191589355469 8.41288375854492 7.76448059082031 7.02604627609253 5.33409214019775 7.10241889953613 15.6724901199341 5.90237140655518 6.77673292160034 5.66155624389648 4.11766815185547 3.90869069099426 4.47127914428711 3.9890513420105 3.53042817115784 3.07095193862915 2.84887504577637 4.37846326828003 0.28103432059288 11.1983680725098 6.159339427948 1.95976936817169 5.22198724746704 4.39510297775269 8.72670459747314 9.24276447296143 7.50151968002319 6.89017343521118 4.75592041015625 2.71624040603638 11.5371885299683 2.40805697441101 2.95904397964478 3.4814612865448 3.06113171577454 14.2947626113892 5.47324419021606 4.8677806854248 16.2690563201904 5.53174638748169 6.72961330413818 4.4594841003418 5.36955833435059 5.5326886177063 6.13537406921387 7.26755332946777 11.9093656539917 8.22547245025635 4.56712627410889 10.2247972488403 49.2941856384277 19.7461223602295 16.0833377838135 13.5179882049561 10.8062324523926 9.81947231292725 8.61882781982422 7.59872341156006 6.36179113388062 6.10615587234497 5.44628477096558 5.87158203125 5.67632579803467 5.1943941116333 5.02729082107544 4.86647081375122 4.51954221725464 4.36984395980835 3.94976329803467 3.80310440063477 3.37661623954773 3.26916122436523 2.80472159385681 3.08070516586304 1.55865204334259 1.43295800685883 20.2491817474365 1.72603750228882 0.793739914894104 49.0660552978516 2.49840402603149 2.02641606330872 1.89807951450348 14.1725196838379 15.7353687286377 2.69986748695374 6.42804574966431 1.68114852905273 1.60937142372131 1.17743706703186
1.16015458106995 0.770103752613068 0.0722399726510048 4.31523370742798 19.1026382446289 6.9916672706604 48.7361488342285 11.2989807128906 37.8691902160645 16.9160633087158 6.50467252731323 25.2210254669189 8.14626693725586 19.5399742126465 13.8568572998047 9.45509624481201 8.21506881713867 5.09182596206665 4.85653114318848 3.11028909683228 2.94890213012695 2.80415606498718 2.6610369682312 2.53476691246033 2.07096886634827 1.93439435958862 0.982310891151428 2.13194608688354 2.02176213264465 0.167286083102226 0.909749746322632 0.79735267162323 0.497592031955719 -0.0918373912572861 -0.224249318242073 -0.342595010995865 -0.398823261260986 9.31947994232178 13.9294090270996 10.0631370544434 26.4267463684082 19.6493225097656 14.2003984451294 5.72402381896973 1.70531952381134 2.41927242279053 31.9619750976562 11.1226568222046 36.8725776672363 24.188835144043 14.3231134414673 8.0244083404541 -1.75427055358887 28.4130306243896 44.724235534668 23.1808128356934 5.98743677139282 5.75643301010132 5.48059844970703 4.86524772644043 4.27856683731079 3.5115065574646 4.04352283477783 3.83864808082581 3.37947821617126 3.21110773086548 2.26689577102661 1.88271248340607 0.942341804504395 0.857631266117096 0.673699915409088 0.559785723686218 -0.505291759967804 -0.575290858745575 -0.670149385929108 13.7991380691528 28.3314819335938 23.0547351837158 14.8129711151123 9.79986190795898 8.30414009094238 10.8332710266113 6.94859552383423 8.49333667755127 27.438850402832 10.5219421386719 7.63710689544678 7.1530499458313 6.68320608139038 6.20551633834839 10.3773565292358 7.53771066665649 5.45024633407593 3.72984766960144 4.5542516708374 4.015709400177 3.62403964996338 3.46682286262512 3.33466076850891 3.07574272155762 3.74149584770203 2.84046411514282 2.32997512817383 0.660381853580475 0.273695796728134 20.6293525695801 9.27429294586182 2.32729697227478 4.2630500793457 3.86332511901855 5.21485185623169 6.31966018676758 3.74291920661926 3.33035969734192 4.47993946075439 6.02929782867432 2.15435552597046 1.73426723480225 9.4850902557373 8.17903900146484 12.0203847885132 8.57806587219238 6.48372554779053 15.8130254745483 11.9843692779541 5.85439348220825 6.44585466384888 8.73346042633057 12.2473297119141 10.120569229126 4.57642316818237 21.0329666137695 7.10762977600098 7.00339078903198 16.3676300048828 31.1504764556885 20.8243255615234 12.0668697357178 10.9153423309326 9.62403774261475 8.76203441619873 8.13746738433838 7.0961971282959 6.5588207244873 5.76164627075195 5.5553503036499 4.94566488265991 5.37601470947266 5.19536924362183 5.02553701400757 4.60128211975098 4.42620086669922 4.08499956130981 3.93239092826843 3.52845430374146 3.39979481697083 3.02393412590027 2.95266962051392 1.51231789588928 1.1369035243988 4.39891195297241 13.9055776596069 2.26310729980469 15.7847003936768 16.8020534515381 7.69648790359497 13.5307006835938 0.606655180454254 0.567916989326477 0.782411873340607 0.758355677127838 0.984907507896423 0.738390862941742 0.885940372943878
13.5399074554443 0.756868004798889 0.988399684429169 17.1464672088623 9.26778697967529 44.1576385498047 15.5145378112793 39.0339279174805 16.6670074462891 22.2858467102051 15.9648694992065 9.69568920135498 14.235297203064 13.4981479644775 7.84232330322266 10.1570339202881 8.77157211303711 7.1900315284729 5.96703815460205 5.50966835021973 4.2084436416626 2.78593444824219 2.65708255767822 2.48473715782166 2.33761286735535 2.21580266952515 1.78737890720367 1.67010259628296 0.808843493461609 1.87854552268982 1.76987874507904 0.143283307552338 0.689801216125488 0.542333543300629 0.373534649610519 -0.39910700917244 -0.399581342935562 -0.0258590951561928 1.25227749347687 7.24113082885742 10.4141273498535 13.3097620010376 9.97004985809326 5.66258335113525 26.5347919464111 4.4965238571167 11.0177745819092 18.5474662780762 21.1137866973877 15.8956136703491 9.87312412261963 9.58801746368408 0.0574145503342152 51.9086990356445 33.4084320068359 25.500280380249 17.4005222320557 14.3256778717041 4.90659523010254 4.53760051727295 4.47813987731934 4.13501119613647 3.65562582015991 3.54691028594971 1.5516220331192 24.9219913482666 2.69435882568359 2.60242319107056 1.86050665378571 1.54960036277771 1.46682345867157 0.616005480289459 0.56376451253891 -0.751456081867218 12.2996692657471 33.994010925293 10.5300807952881 10.3182048797607 18.749382019043 12.6475343704224 7.45048046112061 6.368492603302 6.20291709899902 5.76624155044556 14.0447416305542 13.1969652175903 9.28409290313721 7.20006513595581 6.56912803649902 6.19327163696289 5.91111707687378 5.62494468688965 5.46216821670532 5.14557361602783 4.94330501556396 3.0780074596405 3.40990829467773 3.0954749584198 2.85368084907532 3.120436668396 5.37513446807861 2.97115659713745 2.61087346076965 2.09261918067932 2.05562663078308 0.276820212602615 0.237597644329071 3.22924470901489 1.69316160678864 10.3880233764648 6.11438369750977 2.39381623268127 9.9686279296875 4.33777189254761 3.06193661689758 2.15110874176025 5.72310352325439 2.93849110603333 12.989785194397 14.4242258071899 17.5872650146484 13.4610652923584 9.805495262146 9.55526256561279 10.160231590271 9.58225536346436 8.63232517242432 9.23013973236084 9.08486843109131 14.4836759567261 10.850170135498 9.28700351715088 17.1300449371338 7.88299417495728 6.7098217010498 9.49996089935303 26.7036819458008 15.0366811752319 12.5731744766235 8.69576454162598 8.16048049926758 7.38065099716187 7.33808040618896 6.84595155715942 6.22657489776611 5.68483543395996 5.40096759796143 5.04277896881104 4.88201379776001 4.31331205368042 4.69694328308105 4.5151047706604 4.1020941734314 3.93514251708984 3.62012553215027 3.46385502815247 3.1237781047821 3.05450534820557 3.00944232940674 2.10949492454529 1.52099478244781 6.77798748016357 0.631820797920227 9.29874897003174 19.0909519195557 6.2544059753418 2.8135769367218 -0.170080617070198 -0.480366677045822 -0.451940268278122 2.81010508537292 0.192334994673729 -0.0738062039017677 -0.533573925495148
19.230504989624 15.9287271499634 11.213231086731 17.7243919372559 6.30357980728149 4.74876594543457 7.65603446960449 42.8174514770508 20.9473342895508 16.2789611816406 11.4209594726562 13.3198356628418 6.12995147705078 5.69151020050049 36.2774620056152 8.05197906494141 6.34749460220337 7.32685995101929 6.20174932479858 5.60994386672974 5.3175687789917 4.88854837417603 3.71961951255798 2.33820104598999 2.32711505889893 2.19666886329651 2.08812975883484 1.95597863197327 1.56171810626984 1.47458565235138 0.669089078903198 1.65173995494843 1.52619230747223 -0.0301392637193203 -0.222057983279228 -0.126076892018318 -0.13768444955349 17.2820320129395 1.97563493251801 2.35398578643799 2.60735535621643 5.85040616989136 8.18971252441406 8.71942329406738 5.08112382888794 4.52938461303711 28.3013801574707 13.0399923324585 17.427453994751 13.656005859375 1.30047166347504 -0.260811984539032 47.6439819335938 6.87466526031494 29.7413215637207 23.6483707427979 18.5453262329102 15.7835426330566 11.0034599304199 9.18508625030518 4.02891826629639 4.19359874725342 3.57762861251831 9.46292781829834 3.32263231277466 2.83887267112732 9.76935195922852 6.7453145980835 2.37741541862488 -0.163814663887024 14.029709815979 5.28049039840698 -0.975398063659668 1.60468292236328 22.4767780303955 45.2844085693359 20.749828338623 17.6771049499512 -0.332925468683243 14.9912567138672 7.77687358856201 6.30342483520508 29.6366100311279 7.57100677490234 3.58645582199097 26.5895690917969 6.61587047576904 7.96187448501587 7.60378074645996 6.05718469619751 5.28744316101074 9.21624374389648 5.302170753479 5.08956289291382 4.90501976013184 4.67259836196899 4.51798582077026 2.39955115318298 2.61554789543152 2.54216980934143 5.63417434692383 3.10372424125671 3.00042605400085 2.38123679161072 1.92746031284332 3.89029741287231 1.90688169002533 12.8233060836792 14.0796127319336 0.199819341301918 8.82860565185547 11.8096656799316 12.0463218688965 10.727952003479 3.82119107246399 1.60348045825958 10.618824005127 9.5307788848877 5.86407279968262 12.1618633270264 8.99190235137939 10.4630374908447 8.66102695465088 6.84932518005371 7.4504246711731 6.43863534927368 5.4043436050415 6.76972913742065 6.11266231536865 5.31247711181641 5.40148735046387 7.05662965774536 4.12963342666626 3.87271070480347 3.74945592880249 3.67827725410461 11.3515481948853 38.371395111084 10.8313179016113 10.0707540512085 9.13444232940674 8.31373119354248 6.42406702041626 6.04898071289062 6.12875747680664 5.78964805603027 5.5525050163269 4.95384073257446 4.78687572479248 4.53863048553467 4.3611421585083 3.8024697303772 4.15283250808716 3.97765398025513 3.6081268787384 3.4416184425354 3.15526366233826 3.06028413772583 2.47633004188538 2.19519972801208 1.13374161720276 0.444083541631699 5.17095994949341 9.95908164978027 2.98829650878906 6.79931735992432 0.0209135003387928 -0.1944669932127 -0.971690356731415 -1.21398377418518 -1.37193429470062 -1.22324562072754 -1.2849303483963 -1.27463972568512
7.31288814544678 6.24870347976685 10.5659561157227 8.55305480957031 6.88555192947388 9.75189208984375 13.9001884460449 19.967191696167 23.9189186096191 18.5036430358887 13.3510637283325 11.3652276992798 10.2750272750854 8.80452632904053 20.0041942596436 19.4981918334961 13.8104362487793 6.12714147567749 5.49106216430664 5.19821405410767 4.60647583007812 4.94342470169067 4.65726041793823 4.31257343292236 3.28637623786926 2.04455184936523 0.114387311041355 0.108181655406952 47.0798645019531 1.74687933921814 1.38033628463745 1.29265761375427 1.20114755630493 1.40815246105194 1.26602303981781 1.13091993331909 -0.301499843597412 8.92741394042969 9.02655124664307 6.26024007797241 1.50403118133545 1.70342564582825 1.98103809356689 1.93705606460571 4.16666030883789 6.18081426620483 12.5721817016602 13.9934873580933 9.65270614624023 5.96874046325684 7.88737535476685 1.62069177627563 39.8483963012695 28.003942489624 21.3520431518555 6.4719500541687 17.2560596466064 14.6743860244751 12.3229198455811 10.518536567688 7.89107751846313 7.35155439376831 7.05495548248291 3.50701308250427 3.39288306236267 3.21475052833557 2.77400016784668 2.45110011100769 -0.594532549381256 1.41677868366241 11.4158163070679 0.897885799407959 -0.423508405685425 7.15173244476318 2.58876371383667 55.0048408508301 28.1835556030273 22.8397655487061 2.67158961296082 20.563081741333 -0.944806456565857 -1.01209723949432 2.77957487106323 2.51921272277832 25.9599781036377 4.05539751052856 5.26842927932739 4.07743120193481 4.24895620346069 5.49461936950684 5.40140008926392 23.6547698974609 5.31205272674561 5.00188684463501 4.80031681060791 4.61832189559937 5.62715244293213 4.39630651473999 4.12645578384399 2.20984387397766 4.04853677749634 2.84386348724365 2.4743824005127 2.83800482749939 2.61886429786682 1.82379364967346 1.70736765861511 1.58464157581329 1.51643979549408 6.09870290756226 3.09441494941711 0.218697637319565 3.02701425552368 9.65583992004395 1.76619172096252 2.09861874580383 19.0765399932861 10.8951950073242 3.26657509803772 5.10858058929443 4.78052043914795 5.5837082862854 5.1216287612915 7.44674682617188 5.8640604019165 4.64429426193237 5.72487306594849 5.14467096328735 4.63538074493408 5.0027813911438 4.22235488891602 3.77877569198608 3.98211336135864 3.55727100372314 3.4470043182373 7.69450044631958 3.62680840492249 6.40135478973389 37.7168655395508 13.201473236084 7.90157747268677 7.29358148574829 7.19315338134766 6.58970594406128 5.58095550537109 5.33590698242188 5.09358978271484 5.13638067245483 4.92649364471436 4.74654388427734 4.2508749961853 3.99189114570618 3.82080960273743 3.29196095466614 3.6425142288208 3.47448086738586 2.39788007736206 7.51974582672119 2.50523471832275 1.36979520320892 0.825213849544525 8.50106716156006 0.637033402919769 0.0953070893883705 0.0393715314567089 3.97173857688904 -0.137819558382034 -0.303979188203812 -1.53227078914642 -1.89236342906952 -2.12919855117798 -2.28099656105042 14.7365388870239 -2.49778389930725
2.29448938369751 2.01449966430664 5.25403022766113 4.4574122428894 7.05786561965942 6.23476696014404 5.54079914093018 7.71267175674438 9.18348217010498 12.1574687957764 13.7331552505493 12.1426591873169 10.8032026290894 9.85616016387939 8.11226177215576 7.46613931655884 9.52734470367432 8.90291976928711 7.44813680648804 5.20281267166138 4.80828905105591 4.58414077758789 0.979819178581238 51.8779907226562 4.14302825927734 3.82271099090576 0.122324727475643 22.1849632263184 43.3216972351074 25.1221733093262 17.7340488433838 1.54440522193909 1.45597398281097 1.12441062927246 1.02809858322144 0.29292631149292 1.13139271736145 1.09246838092804 0.731458604335785 4.7356653213501 4.52752208709717 3.78879475593567 1.82013833522797 1.53420627117157 1.4934116601944 1.47972583770752 3.83315420150757 5.20229959487915 6.27658748626709 6.7977991104126 4.99420309066772 4.01835632324219 6.05004358291626 22.7911472320557 16.8352508544922 16.6338844299316 14.153733253479 4.79906988143921 11.4991312026978 10.0578870773315 8.950927734375 8.16841602325439 7.8188157081604 6.15330266952515 5.60782241821289 3.00731110572815 2.96539855003357 0.400809198617935 -0.483405411243439 -0.60436475276947 1.72815835475922 1.00500297546387 -0.773916184902191 16.5662269592285 1.59611535072327 11.6250972747803 12.3595924377441 8.93723583221436 8.68704795837402 12.1451377868652 1.74646389484406 -0.705028474330902 11.041316986084 6.45915794372559 -1.43785858154297 3.96625971794128 19.5718250274658 3.04886937141418 8.42795276641846 2.99684429168701 5.5000467300415 21.4320011138916 11.5330123901367 8.22653579711914 4.79424953460693 4.64263343811035 4.57801485061646 4.43887281417847 4.29472684860229 4.03532886505127 3.8992600440979 3.88464784622192 2.44352841377258 2.3772144317627 2.12769722938538 2.51440000534058 2.42914199829102 2.32354283332825 1.58207809925079 1.51985013484955 1.46814715862274 0.797279417514801 1.53166663646698 7.97460222244263 13.4811658859253 9.08384799957275 0.574833512306213 16.3204917907715 2.47482228279114 -0.0504719503223896 -0.0654782354831696 3.93906879425049 18.2804527282715 23.9373340606689 10.254469871521 5.91777038574219 4.4402928352356 3.90668940544128 3.68239331245422 6.52205610275269 3.51727437973022 3.55032634735107 3.84680771827698 3.69869256019592 5.87679624557495 3.50378251075745 3.41755747795105 3.41284537315369 41.3043937683105 19.0547580718994 13.4114904403687 7.32326507568359 5.22549915313721 5.27577114105225 5.61408138275146 5.17026233673096 4.92280578613281 4.71473026275635 4.51336336135864 4.2401237487793 4.362708568573 4.16510200500488 3.70592069625854 3.49561667442322 3.35390472412109 2.84061741828918 2.37302350997925 2.3741672039032 3.68661308288574 0.556264281272888 14.428638458252 0.27347868680954 0.221812024712563 -0.0551992915570736 -0.197774991393089 -0.667132198810577 -0.737837791442871 -1.24281823635101 -1.44462716579437 -2.52063179016113 -2.81258177757263 20.4330558776855 -3.1775164604187 31.5418701171875
2.03897571563721 1.86120235919952 1.72895407676697 1.58227789402008 3.9704601764679 3.63281035423279 5.9225001335144 5.61488962173462 5.38311290740967 6.61151599884033 6.9430890083313 8.68986988067627 9.77681255340576 8.76975250244141 8.74771595001221 7.96182918548584 6.30455446243286 6.09496212005615 6.08298015594482 5.8100962638855 5.13005447387695 1.91829037666321 2.05866026878357 1.40160655975342 0.611556708812714 0.110993973910809 -0.0264072772115469 15.6875228881836 13.5696315765381 49.3045845031738 15.485164642334 12.3310499191284 9.92401123046875 1.38014960289001 1.30208218097687 0.977941036224365 0.9073406457901 0.268705397844315 1.07497560977936 1.03420829772949 0.233042821288109 3.0941481590271 3.30217695236206 3.04741430282593 1.20039057731628 1.18377947807312 1.09416842460632 1.01796197891235 3.2975914478302 4.44456148147583 4.58132600784302 4.28277921676636 3.83069777488708 3.55221557617188 3.35819363594055 12.3651285171509 10.2962865829468 11.2083873748779 10.0680074691772 4.03319358825684 8.51795959472656 7.7307825088501 7.19553422927856 6.20555019378662 7.92054224014282 3.05199337005615 1.0412962436676 0.0445784777402878 -0.139289155602455 18.0213890075684 8.39766311645508 8.02756977081299 0.586666703224182 -0.84094774723053 2.81193661689758 15.9626388549805 28.0497550964355 10.3244342803955 5.43950080871582 16.3029460906982 4.49745750427246 4.38063049316406 1.5647896528244 2.06570053100586 -0.579026639461517 3.5470507144928 7.04648065567017 5.35085248947144 13.2698802947998 1.93959498405457 12.3150587081909 27.1421127319336 9.99752521514893 8.00943374633789 7.0132794380188 5.76275825500488 4.61355686187744 4.38880395889282 4.25812530517578 4.13631343841553 3.86738562583923 3.78666615486145 3.77863478660583 3.68486881256104 2.26287198066711 2.17709493637085 2.06526064872742 1.660285115242 2.25786876678467 2.161212682724 1.45320534706116 1.29694187641144 1.20572900772095 8.58679580688477 8.22248649597168 6.69685173034668 2.85535883903503 0.767019391059875 -0.624387979507446 -0.792234718799591 4.01511478424072 -0.351342737674713 4.46284961700439 25.0890254974365 28.0294170379639 11.3914756774902 3.06833839416504 2.43976545333862 1.73344850540161 17.3511867523193 2.82388925552368 3.3795051574707 2.81703996658325 3.34155201911926 7.48973035812378 3.58673572540283 3.04877972602844 11.9270076751709 2.73987793922424 49.0647659301758 14.0573539733887 8.23886966705322 6.47711753845215 4.52275991439819 4.24562120437622 4.2524356842041 4.44059801101685 4.13435459136963 3.95405888557434 4.14915800094604 3.97324895858765 3.72278356552124 3.7953405380249 3.62485027313232 3.24760270118713 1.84458470344543 12.5726337432861 17.1209850311279 2.40039134025574 1.26221239566803 0.295147478580475 -0.286686182022095 -0.36723530292511 11.901065826416 -0.331010490655899 -0.809658288955688 -1.92893874645233 -1.9643189907074 -2.85011148452759 13.4142732620239 -3.73932576179504 30.878101348877 26.8376331329346 2.90501761436462
2.24061632156372 1.93391704559326 1.53803598880768 1.54542469978333 1.42938411235809 1.43834972381592 2.28449869155884 3.49129557609558 3.35870170593262 5.04764842987061 4.85365533828735 4.39800405502319 5.51882314682007 6.86748266220093 7.32670783996582 6.77268743515015 7.05247592926025 6.61279630661011 5.26650285720825 1.63903284072876 9.28074836730957 0.808178126811981 24.7557582855225 1.14436590671539 1.0942702293396 0.00791764724999666 -0.383005440235138 15.113941192627 21.7613334655762 44.9667129516602 26.9258308410645 19.1008701324463 8.52046012878418 7.80816555023193 6.68634271621704 1.23985242843628 1.17358827590942 0.894903421401978 0.844769835472107 -0.0759318023920059 1.01573359966278 0.974956214427948 0.194091692566872 2.53250861167908 2.6440954208374 2.40412330627441 2.17550873756409 0.857129156589508 0.820800244808197 0.798269927501678 2.81318140029907 3.7606053352356 3.77312421798706 3.45095157623291 3.45579791069031 3.27957892417908 2.99464440345764 8.18601417541504 7.33509969711304 8.61141967773438 7.81209850311279 7.12784576416016 0.729377388954163 47.0512886047363 3.23997044563293 1.99034285545349 4.41664743423462 0.701832413673401 0.563521981239319 1.57325303554535 17.904634475708 2.44432544708252 0.237975835800171 10.3392953872681 4.0450382232666 8.21481609344482 11.2637596130371 14.9459133148193 11.2065601348877 9.23687171936035 4.49025392532349 4.38491153717041 11.4399538040161 5.12920093536377 1.63810515403748 1.11865830421448 1.98894417285919 -0.743193030357361 10.531081199646 1.2189736366272 25.8493747711182 29.0345439910889 12.5078115463257 8.78717994689941 5.19384908676147 4.76492357254028 5.24795532226562 5.08769416809082 4.26370573043823 4.05830001831055 3.8132598400116 3.78426051139832 3.74213075637817 3.64827036857605 3.53808736801147 3.445072889328 1.93054902553558 1.97943377494812 1.93537223339081 1.59150278568268 2.17216825485229 2.03029799461365 1.36255931854248 1.19479858875275 1.12271511554718 4.3241229057312 0.0082631716504693 8.12935161590576 -0.356654018163681 3.62220191955566 -1.18676698207855 12.0857572555542 -0.46224969625473 31.818151473999 25.7989482879639 15.6263332366943 9.11889934539795 4.41072702407837 2.16622591018677 3.58896160125732 8.68013763427734 7.21624374389648 2.37376570701599 12.493218421936 5.32142972946167 2.22374320030212 18.2009315490723 2.36581301689148 2.90316557884216 2.7309262752533 44.9515075683594 17.8868236541748 6.71916151046753 4.63026762008667 3.77469301223755 3.55372858047485 3.52315807342529 3.3329758644104 3.57234334945679 3.50901365280151 3.45054292678833 3.63198018074036 3.45933151245117 3.19724035263062 3.24177265167236 3.06101560592651 1.78319549560547 24.7209281921387 4.93722248077393 0.94541996717453 -0.185345500707626 -0.369283646345139 -0.622161626815796 6.00811862945557 -0.668323636054993 -1.15379595756531 -1.59409034252167 -2.98981499671936 3.84195017814636 7.28516292572021 23.6343765258789 -2.51900148391724 27.0018939971924 14.5973386764526
2.93499875068665 3.90220332145691 1.69896221160889 1.34307527542114 1.40009200572968 1.44083905220032 1.84887182712555 2.23331689834595 2.09661626815796 3.23501968383789 3.15670776367188 4.52938175201416 4.39848804473877 3.99713945388794 4.47632503509521 4.24203395843506 4.70190715789795 5.73348665237427 1.64657592773438 6.52435922622681 1.4397360086441 12.352237701416 1.10735166072845 7.06944417953491 0.756059050559998 10.134729385376 -0.0467413365840912 7.56160020828247 8.68836498260498 53.0710144042969 23.4217853546143 16.7909107208252 13.6128492355347 10.8779859542847 5.73331594467163 5.59772491455078 4.95825099945068 4.4040699005127 1.0908100605011 0.355636358261108 -0.130228400230408 0.0639012306928635 0.0568391121923923 0.270197689533234 0.512741982936859 0.539726674556732 1.89780795574188 1.92271411418915 1.75106966495514 0.639306843280792 0.587148368358612 0.571413099765778 0.444768100976944 2.15445947647095 -0.727812707424164 -0.774928510189056 55.5637092590332 2.9787323474884 2.79008817672729 6.33527660369873 0.646987915039062 17.6611766815186 15.0135145187378 6.36322498321533 5.47337436676025 3.3149995803833 1.7374609708786 1.2375590801239 0.348626345396042 25.9503650665283 0.0703041329979897 -0.323117643594742 4.62845945358276 6.25649547576904 3.74183130264282 19.3907604217529 11.8813152313232 10.7133722305298 6.62841176986694 24.4746685028076 5.62546253204346 2.85269284248352 15.9836006164551 2.84436297416687 2.6378755569458 1.69039106369019 3.57154726982117 1.39813804626465 12.6936445236206 7.05655813217163 16.643383026123 22.4369239807129 17.1639213562012 8.99538326263428 7.48059368133545 6.12879037857056 4.31706190109253 4.01926279067993 4.85366487503052 4.69460678100586 4.51306819915771 3.76795816421509 3.62053060531616 3.52136421203613 3.48525905609131 3.39299964904785 3.28904485702515 3.18076777458191 1.790367603302 1.84946691989899 1.79790472984314 1.4423760175705 1.87571918964386 1.87545764446259 0.712913870811462 0.401965618133545 7.14778661727905 0.0535120889544487 -0.144058093428612 -0.576787769794464 -0.62060672044754 12.0566120147705 4.41441631317139 4.30114603042603 44.1115417480469 17.364200592041 9.067307472229 14.381649017334 4.16704130172729 1.53866302967072 1.41792106628418 1.36986434459686 12.0655784606934 1.72277617454529 1.23444783687592 10.5290956497192 1.56360006332397 2.02482390403748 2.43599224090576 2.07486057281494 2.99716687202454 44.7653312683105 15.0449409484863 9.34895706176758 3.87041831016541 3.47811603546143 3.39230012893677 3.25569820404053 3.15443682670593 2.70955848693848 3.09578657150269 3.04166555404663 3.00181102752686 3.12480783462524 1.96838593482971 1.59641551971436 13.4173936843872 1.82952320575714 1.12699043750763 0.662654638290405 -0.0333386845886707 -0.420266270637512 0.590058326721191 8.92746353149414 -0.867775797843933 4.11606597900391 2.27590537071228 -1.89549505710602 16.3188209533691 16.5491542816162 1.58689093589783 2.29182434082031 20.0335426330566 30.2315940856934
2.57088470458984 4.61398363113403 4.69544696807861 2.46422338485718 1.59560716152191 1.77170526981354 2.00196027755737 1.97085106372833 1.80657267570496 1.8554413318634 1.91424000263214 3.02712512016296 3.02015781402588 4.13869667053223 3.7724916934967 3.23514246940613 0.114511407911777 0.108916655182838 0.0712338536977768 0.475133210420609 4.42533779144287 14.5715999603271 1.14771616458893 7.4842700958252 0.682237327098846 0.599618494510651 12.5852165222168 -0.0469413138926029 11.4571628570557 15.3787508010864 42.8478469848633 21.8089809417725 13.5641965866089 11.592077255249 9.37945556640625 7.46244812011719 6.01593017578125 3.97766995429993 3.89712023735046 3.54258370399475 -0.00136049825232476 -0.170395374298096 -0.0548047795891762 -0.0626580268144608 0.0395411886274815 0.229255229234695 0.279348909854889 0.240410268306732 1.53350937366486 1.53564953804016 1.39815413951874 0.452459841966629 0.351960480213165 0.296018987894058 -1.97155106067657 -1.26620280742645 17.6511707305908 43.5953712463379 24.7743606567383 0.367630630731583 0.295198619365692 -0.0679143965244293 32.88427734375 8.17516231536865 36.2181587219238 2.17480278015137 0.593784987926483 1.11337196826935 0.140171468257904 -0.30334660410881 0.522727191448212 14.1500053405762 -0.0508822910487652 3.44255065917969 2.08406543731689 19.9804821014404 10.2610034942627 9.42460155487061 6.64440965652466 4.95057010650635 3.61051607131958 2.80656909942627 1.78819596767426 1.62611269950867 13.1324138641357 5.851881980896 1.51997876167297 21.2186012268066 14.3738460540771 2.50528883934021 27.3287010192871 9.32519817352295 22.8817558288574 12.4023466110229 10.3921823501587 6.48966884613037 5.65713453292847 4.06478452682495 3.17191290855408 3.48692107200623 3.40645885467529 4.36923313140869 4.20354843139648 3.51129508018494 3.39327955245972 3.25849914550781 3.23856449127197 3.15888285636902 3.02447128295898 2.96158218383789 2.94634628295898 1.74251592159271 1.53425681591034 2.09015393257141 1.04310309886932 1.04008197784424 0.713668644428253 -0.129335671663284 7.06355428695679 -0.55165559053421 9.52133750915527 7.34832239151001 12.4049139022827 4.12059831619263 13.7621393203735 12.2480297088623 11.7907762527466 11.8970193862915 5.09210014343262 1.53361749649048 0.712112247943878 0.495014756917953 8.80124664306641 0.784318327903748 6.98824071884155 1.01232242584229 2.04122829437256 1.315713763237 1.27241551876068 0.741647601127625 15.2014961242676 1.76367950439453 47.6026763916016 15.5972890853882 7.84123373031616 5.90112686157227 3.19719004631042 3.10732007026672 3.02008128166199 2.92378997802734 2.3629322052002 2.19753575325012 2.65935516357422 2.55664896965027 0.942703664302826 25.0019035339355 8.076904296875 1.37484741210938 0.555419087409973 0.481452226638794 0.0825433284044266 -0.210951298475266 -0.887621283531189 10.5124311447144 -1.09913265705109 19.0822620391846 3.10600543022156 6.41481018066406 -2.35469675064087 30.2266006469727 -0.934120655059814 11.0374507904053 10.59632396698 27.2135467529297
2.19264006614685 7.37775278091431 7.70582008361816 4.35708332061768 2.63478541374207 2.13835835456848 2.41151690483093 1.88415765762329 1.71225690841675 1.65215921401978 1.64735734462738 2.08149909973145 3.41322326660156 2.83630037307739 2.62059903144836 1.06084632873535 0.908269107341766 -1.25984740257263 4.20745325088501 -0.25493448972702 2.42524290084839 0.628434181213379 9.8983793258667 1.06567656993866 0.881679832935333 1.34402203559875 0.526789903640747 0.0149260181933641 9.52639389038086 0.0392827726900578 54.6437187194824 21.8526592254639 15.4413862228394 12.6660280227661 9.84811592102051 8.81509017944336 7.95922422409058 6.38750743865967 5.01809167861938 3.2638463973999 3.19634795188904 2.95820713043213 -0.157089188694954 -0.231802687048912 -0.106921464204788 0.0249679181724787 0.0131915975362062 0.014380837790668 0.0228618048131466 0.0566207133233547 1.24303603172302 1.23144233226776 1.08745777606964 0.197346717119217 -1.97629010677338 -2.40598964691162 -2.58643984794617 -1.54800164699554 23.7395324707031 0.842645347118378 11.3722810745239 0.212659046053886 35.6803550720215 14.3651571273804 13.6656675338745 2.46611523628235 0.252689629793167 -0.369264662265778 14.5741128921509 -0.149535313248634 -0.359077662229538 11.5658130645752 4.34353256225586 20.2061977386475 9.46886730194092 6.50473880767822 16.0054035186768 4.54155540466309 13.9764671325684 2.39183831214905 1.1754184961319 2.67157292366028 3.31904935836792 1.7475870847702 14.1650218963623 6.29399251937866 1.90630340576172 15.7217140197754 21.5541458129883 12.8501167297363 8.35617351531982 14.8583574295044 24.4561347961426 10.9222192764282 9.15623569488525 8.90786361694336 7.84007692337036 4.73667240142822 4.27463674545288 3.96213126182556 3.2333517074585 2.83050274848938 3.15419292449951 4.05155754089355 3.87274503707886 3.22569465637207 3.19588422775269 3.09876990318298 2.99292016029358 2.84048628807068 2.75023126602173 2.74184846878052 2.723792552948 0.832423031330109 0.74261337518692 0.347454100847244 -0.521902084350586 8.52337741851807 0.410901516675949 -0.379365473985672 -0.631555199623108 13.830304145813 4.35801219940186 1.51465857028961 14.4730396270752 4.49128150939941 1.71431744098663 13.027458190918 9.55200290679932 -0.1829764097929 -0.460815221071243 17.8238620758057 0.174349814653397 0.0609513781964779 6.98380517959595 0.723417580127716 0.0836857408285141 0.0952246636152267 0.208806157112122 0.307364016771317 1.25832831859589 0.618774652481079 1.03389692306519 51.8909111022949 17.8251285552979 8.46811771392822 4.89007568359375 3.96616911888123 3.513827085495 2.60378885269165 2.50117444992065 1.91398358345032 1.84129965305328 0.648444831371307 5.75246381759644 1.28231084346771 12.6837320327759 0.293072938919067 -0.165491089224815 -0.48027840256691 -0.882770001888275 24.954719543457 3.39909648895264 -0.767672955989838 7.14612150192261 0.75475686788559 10.7668352127075 13.6492643356323 8.55636978149414 5.60274505615234 14.3028087615967 7.94369888305664 25.4545383453369 9.63860607147217
