NCOLS 173
NROWS 31
XLLCORNER 353920
YLLCORNER 6701328
CELLSIZE 16 
NODATA_value -3.4e+38 
0.998117506504059 3.00792646408081 0.00822354760020971 -0.242271319031715 -0.737922191619873 1.95794451236725 3.7616810798645 4.76736783981323 3.74448823928833 2.300856590271 4.17581558227539 4.97898197174072 4.48363256454468 2.50272798538208 0.978275060653687 0.777285099029541 0.846058487892151 0.709238052368164 0.260796576738358 -0.240326389670372 -0.361298620700836 -0.304286390542984 -0.292889416217804 -0.376872092485428 -0.0826697051525116 0.555876672267914 1.31272077560425 2.04936575889587 2.81207776069641 2.94733333587646 3.13879728317261 3.67863488197327 3.9110689163208 4.39411926269531 4.56161451339722 4.07679605484009 9.21630573272705 12.9250240325928 5.91839265823364 2.20653486251831 1.43600606918335 -0.542218863964081 2.21578288078308 3.57358574867249 3.78548312187195 1.88749754428864 1.21507000923157 -0.633886158466339 -0.974871933460236 -0.359978824853897 0.0405534654855728 1.15270268917084 2.41887092590332 4.85586643218994 5.82589912414551 7.04948806762695 8.55808162689209 8.54899501800537 6.98413705825806 3.68419504165649 1.2786021232605 0.352936446666718 0.818566143512726 1.09667706489563 1.6136885881424 2.14036011695862 1.69239616394043 -0.0638946145772934 -0.792196810245514 -2.15068387985229 -2.14212417602539 -2.17244362831116 -2.37394785881042 -2.42776083946228 -2.2373628616333 -1.91127300262451 -1.82511496543884 -2.03787589073181 -2.12870025634766 -2.10116004943848 -1.99476802349091 -1.45564818382263 -0.739002883434296 -0.374636828899384 0.126389339566231 0.676338851451874 0.969161331653595 1.23648238182068 1.33281803131104 1.41447937488556 1.48951530456543 1.49743866920471 1.48396718502045 1.46115100383759 1.47512340545654 1.45632886886597 1.4470489025116 1.43571388721466 1.42509436607361 1.4196103811264 1.42768216133118 1.43801963329315 1.44363701343536 1.44699788093567 1.4586695432663 1.46275186538696 1.45295560359955 1.44483125209808 1.43649542331696 1.39687597751617 1.40156900882721 1.38736379146576 1.37972855567932 1.36002039909363 1.36648881435394 1.38710582256317 1.36725091934204 1.35201859474182 1.34327757358551 7.36803245544434 9.992356300354 10.761833190918 10.2998514175415 7.78245830535889 3.47905969619751 1.18632256984711 1.05848026275635 0.838820278644562 0.789340913295746 0.765027165412903 0.769840776920319 1.50149178504944 1.58739411830902 0.991980612277985 1.05462884902954 1.08614957332611 1.10625159740448 1.14530515670776 1.16620993614197 1.2027667760849 1.27819740772247 1.38645374774933 1.43507289886475 1.43810784816742 1.43360197544098 1.43686771392822 1.44120275974274 1.44210577011108 1.45965087413788 1.5346565246582 1.61895334720612 1.59191036224365 1.52246570587158 1.5089727640152 1.48734831809998 1.59609711170197 1.59653723239899 1.11724054813385 0.877849519252777 0.637234389781952 0.325816065073013 0.0590567924082279 -0.252922087907791 -0.38702455163002 -0.287503480911255 -0.190867722034454 -0.153849199414253 -0.116677910089493 -0.0461446456611156 0.0349741950631142 0.603657126426697 0.0676109790802002 0.0715304017066956
-1.69379651546478 -1.11298954486847 -0.16490763425827 -0.0744374543428421 -0.701682865619659 1.0063658952713 2.05306792259216 7.31689691543579 6.52361726760864 2.52589797973633 2.75833439826965 3.89952540397644 3.95421528816223 2.45413517951965 1.06558883190155 1.00605916976929 0.921747624874115 0.927052319049835 0.477772235870361 -0.100760519504547 -0.360678434371948 -0.125694409012794 0.0422849170863628 0.271993458271027 0.652120888233185 1.59822165966034 2.47508001327515 3.0651957988739 3.36088252067566 3.15466117858887 3.34950137138367 3.92610096931458 4.17966270446777 4.69058227539062 4.87230157852173 4.76328659057617 2.29230952262878 2.35942459106445 3.01776194572449 1.49429774284363 -0.480332225561142 -1.6456036567688 -1.42858552932739 0.488182783126831 0.192583292722702 1.69085502624512 -0.178838759660721 -1.746417760849 -0.903402268886566 -0.211087360978127 0.641766607761383 1.43187010288239 3.49396085739136 5.66080236434937 6.51986742019653 8.20003318786621 10.2376375198364 10.6144962310791 8.75129890441895 3.83249354362488 1.55839514732361 0.859177887439728 1.57853960990906 2.02601861953735 2.29238200187683 2.64940810203552 1.93507063388824 0.0241063199937344 -2.04196810722351 -2.03014516830444 -1.97317814826965 -0.744148254394531 -2.26874351501465 -2.32005500793457 -2.1067066192627 -1.78352749347687 -1.59473514556885 -1.5608925819397 -1.68567478656769 -1.75775241851807 -1.38009452819824 -0.852336823940277 -0.274273723363876 0.231576651334763 0.503369092941284 0.880961000919342 1.17368626594543 1.47150099277496 1.4146910905838 1.4882572889328 1.5413613319397 1.53602039813995 1.51897585391998 1.51204884052277 1.49158573150635 1.48991668224335 1.48353111743927 1.47101008892059 1.46804285049438 1.47324967384338 1.47363185882568 1.46862411499023 1.49421119689941 1.49706733226776 1.49448871612549 1.49764263629913 1.49754786491394 1.49458765983582 1.47999703884125 1.43829202651978 1.45039749145508 1.43994843959808 1.43144524097443 1.40207862854004 1.40029966831207 1.41980218887329 1.40563881397247 1.3833441734314 2.51174235343933 12.0554065704346 10.6852674484253 10.2234668731689 8.45954990386963 5.60424709320068 1.31604957580566 1.22098898887634 1.15297174453735 0.924626648426056 0.865475594997406 0.831657350063324 0.817108988761902 0.836410820484161 0.915359139442444 1.02985155582428 1.11609017848969 1.15991830825806 1.18353521823883 1.21494174003601 1.25946283340454 1.32685899734497 1.39614403247833 1.50668585300446 1.63665676116943 1.766566157341 1.79423594474792 1.80323076248169 1.7729629278183 1.78626477718353 1.91035902500153 2.10325598716736 2.28869223594666 2.40747809410095 2.3257110118866 2.19108605384827 2.22325420379639 2.26895022392273 1.86324548721313 1.51127815246582 1.22165966033936 0.858462810516357 0.561395645141602 0.297434002161026 0.0217561833560467 -0.180117562413216 -0.175565451383591 -0.109772071242332 -0.0675006434321404 -0.00607941625639796 0.148821458220482 0.361246883869171 0.319681704044342 0.208583697676659 0.268574744462967
-1.56834244728088 -0.882498204708099 0.545905470848083 0.36108985543251 -0.484938949346542 -1.8277599811554 4.83958578109741 7.35231876373291 7.68668985366821 2.21016311645508 2.47209811210632 3.59124779701233 4.21703767776489 3.21446990966797 1.58488976955414 1.3449774980545 1.24283230304718 1.30943834781647 0.942617058753967 0.425104111433029 0.113133184611797 0.57426518201828 1.06148219108582 1.08367574214935 1.82218647003174 2.78980398178101 3.64533472061157 3.89564943313599 3.68411159515381 3.39720249176025 3.58824133872986 4.21087455749512 4.48141813278198 5.03204488754272 5.78562879562378 6.89145660400391 5.37096405029297 1.9825177192688 0.430088937282562 -0.236022680997849 -0.783751249313354 -1.84148848056793 -1.80472493171692 -1.89465832710266 -1.60972166061401 -1.59171271324158 -1.65920829772949 -1.00873911380768 -0.0979958847165108 0.272728532552719 1.54716813564301 2.1230788230896 4.44301652908325 6.46392297744751 7.32035493850708 14.0191555023193 14.5039205551147 12.1226854324341 9.31516075134277 4.80812549591064 1.84246456623077 1.53652560710907 2.3206479549408 3.02839732170105 3.14559984207153 3.30872321128845 2.45527338981628 0.428048759698868 -1.87323176860809 -1.83144772052765 -1.85341382026672 -2.04749131202698 -2.09032964706421 -2.07110333442688 -1.8806004524231 -1.64004158973694 -1.39238309860229 -1.21228885650635 -1.16175472736359 -1.12435495853424 -0.795248329639435 -0.386545032262802 0.149539142847061 0.386108756065369 0.707170307636261 1.10156667232513 1.45892333984375 1.6403740644455 1.57187867164612 1.54372692108154 1.59281694889069 1.57855784893036 1.56317377090454 1.55095231533051 1.5278947353363 1.5173020362854 1.51550602912903 1.50436282157898 1.50157523155212 1.50650179386139 1.50759625434875 1.51846098899841 1.53680980205536 1.52871608734131 1.53333032131195 1.53017139434814 1.53228008747101 1.52809166908264 1.52244889736176 1.47595882415771 1.48240303993225 1.46616220474243 1.46274888515472 1.45008897781372 1.43856918811798 1.45540118217468 1.43804025650024 1.41244280338287 3.06951141357422 5.18766307830811 2.77784514427185 1.02627646923065 0.973962724208832 1.12262213230133 1.38020503520966 1.37514781951904 1.27365016937256 1.13470649719238 1.04624843597412 0.977374017238617 0.933565080165863 0.948489129543304 1.0312614440918 1.10530591011047 1.17292261123657 1.22643685340881 1.26556980609894 1.30073094367981 1.35531365871429 1.43487596511841 1.5122162103653 1.62117767333984 1.79724860191345 1.99229681491852 2.0561854839325 2.07694005966187 2.08085751533508 2.16918063163757 2.39333748817444 2.96902418136597 3.45834875106812 3.48670959472656 3.26690006256104 2.96188497543335 3.05238604545593 3.17290115356445 2.76784372329712 2.13613653182983 1.6180739402771 1.16888570785522 0.771094143390656 0.473322123289108 0.23815330862999 0.0746755003929138 -0.00312879541888833 0.0104908375069499 0.115932419896126 0.23777374625206 0.410292059183121 0.587810158729553 0.668198227882385 0.455728083848953 0.326452195644379
-0.850159049034119 0.425471931695938 1.31910920143127 0.869183480739594 0.42216831445694 -1.10313904285431 2.30209136009216 5.01805639266968 3.52282762527466 0.110975287854671 2.58647036552429 4.3996787071228 4.82929754257202 3.65973520278931 2.05278444290161 1.72706365585327 1.61777222156525 1.31964159011841 0.980469703674316 1.14115476608276 1.62878656387329 1.874147772789 1.83067321777344 1.69924032688141 2.69605398178101 3.62042546272278 4.26220798492432 4.26202821731567 3.97243356704712 3.64144158363342 4.30139446258545 4.7693977355957 5.21376657485962 8.57729721069336 10.4488906860352 9.3748083114624 9.70170497894287 4.11718559265137 1.32129800319672 -0.948729455471039 -0.662116706371307 -1.55931901931763 -1.55114603042603 -1.73869860172272 -1.51397061347961 -1.59000301361084 -1.81905472278595 -0.544040083885193 0.559102773666382 1.04108142852783 2.712562084198 2.97673010826111 5.83069467544556 7.61677217483521 12.9808120727539 20.4569129943848 17.6757068634033 13.4193086624146 8.51297473907471 4.62222242355347 2.90996742248535 2.44199275970459 3.07923531532288 3.76238512992859 4.08173704147339 4.44494724273682 3.9675772190094 1.25167620182037 -0.617344439029694 -1.65111124515533 -1.73825061321259 -1.90087831020355 -1.89047753810883 -1.84273624420166 -1.69835937023163 -1.41817915439606 -1.16339099407196 -0.938589513301849 -0.78759753704071 -0.569235384464264 -0.309918880462646 0.0146291861310601 0.421826362609863 0.732916355133057 1.08646845817566 1.33437073230743 1.63536655902863 1.72671365737915 1.69491386413574 1.59936273097992 1.62782597541809 1.61689627170563 1.60663151741028 1.58959352970123 1.56294476985931 1.55446839332581 1.54238641262054 1.53907978534698 1.54358875751495 1.54446196556091 1.5436886548996 1.56595396995544 1.56929624080658 1.56628465652466 1.56948578357697 1.56965506076813 1.56909489631653 1.56746006011963 1.56172716617584 1.54509794712067 1.49817550182343 1.50206935405731 1.48642063140869 1.47986567020416 1.47697520256042 1.48505091667175 1.47877609729767 1.45519304275513 1.32270157337189 0.975829362869263 0.852103292942047 0.897779703140259 1.03570103645325 1.25219488143921 1.53769254684448 1.53509557247162 1.40030670166016 1.36768710613251 1.29938662052155 1.22892582416534 1.15905427932739 1.14871573448181 1.183424949646 1.21866095066071 1.24702227115631 1.30340361595154 1.35874259471893 1.4036386013031 1.45857584476471 1.5245668888092 1.60208129882812 1.73059093952179 1.85352110862732 2.06951141357422 2.16201305389404 2.24214482307434 2.30045700073242 2.50208616256714 2.88896107673645 3.77076029777527 3.91790461540222 3.83109092712402 3.64475011825562 3.48106026649475 3.43599057197571 3.44045472145081 3.32693815231323 2.78821349143982 2.06823492050171 1.34747970104218 0.950899064540863 0.657127320766449 0.422322869300842 0.305157124996185 0.207441836595535 0.208802789449692 0.414878219366074 0.570204615592957 0.668142557144165 0.816612839698792 0.779816448688507 0.604669392108917 1.01270234584808
2.25137114524841 3.25826263427734 2.41635298728943 1.62113678455353 1.11523187160492 -0.820407390594482 -2.81260967254639 -3.07884192466736 -1.62604987621307 0.677495896816254 1.6829389333725 3.38207411766052 4.35207653045654 3.29955339431763 2.13980650901794 1.98548829555511 1.76643908023834 1.57645213603973 1.23369383811951 1.42701232433319 2.30448770523071 2.92474246025085 2.45750021934509 2.75380754470825 3.97432470321655 4.60943269729614 4.85672569274902 4.47066116333008 4.1136474609375 4.28069114685059 5.03055810928345 5.34849166870117 7.03089952468872 13.2224349975586 12.6314287185669 9.8227596282959 6.46214962005615 1.94064319133759 -0.260763496160507 -1.06986808776855 -1.33992719650269 -0.956033706665039 -1.04111111164093 -1.29066920280457 -1.62726986408234 -1.76114213466644 -1.61169862747192 0.0577364452183247 1.38856649398804 2.26334738731384 3.93405652046204 4.76657247543335 8.49147605895996 11.0261907577515 15.7908878326416 9.3342981338501 6.25989437103271 4.52426147460938 5.12011337280273 3.87159514427185 4.02400207519531 4.59747982025146 5.50122451782227 5.8447117805481 6.20148181915283 6.17411422729492 4.49920034408569 2.61262893676758 1.51902675628662 -1.48008108139038 -1.48686397075653 -1.53954899311066 -1.66301119327545 -1.61046552658081 -1.45213782787323 -1.15855419635773 -0.891635596752167 -0.676243126392365 -0.377375662326813 -0.115976706147194 0.152499705553055 0.546184122562408 1.09039115905762 1.46437871456146 1.5721777677536 1.72839224338531 1.73601508140564 1.73133897781372 1.71777403354645 1.65827882289886 1.66025173664093 1.65748858451843 1.64983081817627 1.62773323059082 1.59996402263641 1.59001219272614 1.57666826248169 1.57333660125732 1.57864546775818 1.57888793945312 1.59108233451843 1.6105170249939 1.60355389118195 1.60048425197601 1.6039252281189 1.60642647743225 1.60465347766876 1.62357640266418 1.63174116611481 1.61392295360565 1.54108440876007 1.54029250144958 1.52709114551544 1.51845729351044 1.52111494541168 1.51831984519958 1.50886261463165 1.48092007637024 1.42117714881897 1.15461575984955 1.09331154823303 1.25475370883942 1.40096080303192 1.62105512619019 1.70397615432739 1.65633904933929 1.50704181194305 1.49541783332825 1.47168004512787 1.4234504699707 1.363436460495 1.34392750263214 1.35460543632507 1.35660326480865 1.35028100013733 1.3977472782135 1.45705008506775 1.51198995113373 1.61115229129791 1.65550696849823 1.7375590801239 1.89821910858154 2.0882682800293 2.15933227539062 2.22462725639343 2.28588795661926 2.45286774635315 2.69874286651611 3.24851250648499 3.85643124580383 4.08267116546631 4.0832314491272 3.97944736480713 3.79458069801331 3.73111343383789 3.6742525100708 3.52676343917847 3.1182804107666 2.32833766937256 1.5073778629303 1.07813680171967 0.820669114589691 0.592344462871552 0.484762251377106 0.380640149116516 0.454182356595993 0.64131885766983 0.839289724826813 0.961968958377838 1.005206823349 0.855629146099091 0.671635329723358 0.339191764593124
4.16681671142578 7.73303318023682 4.79157590866089 2.23552298545837 1.51284265518188 -0.13740149140358 -2.24736475944519 -3.51456809043884 -2.84241223335266 -0.527111828327179 1.49222278594971 2.82559657096863 2.6633837223053 2.26808714866638 2.11919522285461 2.0825183391571 2.08535861968994 1.65588080883026 1.47362983226776 1.5521057844162 3.05210566520691 4.15185642242432 3.66125297546387 4.16380977630615 5.22521162033081 5.69265604019165 5.43710994720459 4.94676780700684 4.55485248565674 4.69629287719727 5.51306915283203 5.83458662033081 5.87489461898804 5.14335584640503 3.92236876487732 5.05985975265503 1.08342599868774 -0.0372631028294563 -0.856583058834076 -1.44233512878418 -1.34606409072876 -0.369040966033936 -0.685874283313751 -1.51967644691467 -1.5886424779892 -1.52976393699646 -1.01001083850861 0.740925669670105 3.12630152702332 4.8703088760376 4.25182580947876 8.91552639007568 12.128978729248 13.0764760971069 7.5381498336792 2.4128532409668 2.44983172416687 3.51416873931885 4.47410106658936 2.296226978302 4.36403703689575 6.33690214157104 7.69388055801392 7.48693990707397 6.93251752853394 2.52665114402771 -0.319557547569275 1.92775654792786 2.54206109046936 -0.18149109184742 -1.28659760951996 -1.2917412519455 -1.34047496318817 -1.24341332912445 -1.1136839389801 -0.913001716136932 -0.464492619037628 -0.380591690540314 -0.0537244454026222 0.491434216499329 1.07012701034546 1.41818475723267 1.75925815105438 1.83238482475281 2.0624041557312 2.18348836898804 2.15253615379333 1.97773623466492 1.84411108493805 1.67497599124908 1.68187093734741 1.68635606765747 1.66481518745422 1.66650080680847 1.63772940635681 1.62666571140289 1.61211967468262 1.60952055454254 1.61481380462646 1.61849296092987 1.62687647342682 1.64710688591003 1.64007341861725 1.63651120662689 1.66941976547241 1.66819989681244 1.67941856384277 1.70456743240356 1.71291041374207 1.67627334594727 1.63637495040894 1.58177030086517 1.56318044662476 1.56532645225525 1.55703616142273 1.54836916923523 1.53297114372253 1.51200115680695 1.50116443634033 1.45549368858337 1.49807405471802 1.54248666763306 1.65111863613129 1.8121931552887 1.75628364086151 1.72444474697113 1.58148884773254 1.57346379756927 1.56029498577118 1.53396677970886 1.49946141242981 1.48425376415253 1.4883861541748 1.48742198944092 1.46644723415375 1.48820829391479 1.55690515041351 1.64708280563354 1.67649948596954 1.7154506444931 1.79456758499146 1.96367561817169 2.18967819213867 2.28829741477966 2.35701656341553 2.42111372947693 2.64309692382812 3.0570216178894 3.98746061325073 4.149817943573 4.17704677581787 4.1826696395874 4.13688564300537 4.03571271896362 3.90941715240479 3.75941300392151 3.62008500099182 3.24707436561584 2.6730055809021 1.7638658285141 1.20730018615723 0.965277910232544 0.785404145717621 0.676338016986847 0.56161093711853 0.710236191749573 0.874546468257904 1.0072900056839 1.11413729190826 1.14641070365906 0.97061026096344 0.771240949630737 0.424041837453842
5.54947090148926 9.50943183898926 7.86466646194458 3.97165822982788 2.1167848110199 0.541090667247772 -1.64633226394653 -3.02297329902649 -3.93716526031494 -3.44032144546509 -2.71916127204895 -1.4624902009964 -0.581420361995697 1.32933259010315 2.39872288703918 2.73293304443359 2.54804944992065 1.99476051330566 1.27709889411926 1.969606757164 3.79240369796753 5.1625018119812 4.5965051651001 6.05972909927368 6.48436117172241 6.89468812942505 5.77780294418335 5.52739524841309 5.09986543655396 5.1972918510437 6.09619522094727 6.7047905921936 5.93128395080566 5.16208648681641 3.94382500648499 2.39062666893005 1.24423086643219 0.232366263866425 -1.13436877727509 -1.69803655147552 -1.42688953876495 -0.927800357341766 -1.16403186321259 -1.50902235507965 -1.50827467441559 -1.45681130886078 -0.341583013534546 1.64909374713898 4.06642770767212 5.87798452377319 7.63414621353149 13.1280508041382 11.3030920028687 7.97394371032715 3.83515048027039 1.72508490085602 1.20647752285004 2.57112288475037 3.75441646575928 1.90728640556335 0.799517393112183 4.08182287216187 4.48331594467163 1.99044489860535 -0.920548319816589 -2.20281434059143 -1.46216261386871 2.85001611709595 0.699185431003571 -1.2063125371933 -1.12908780574799 -1.05258226394653 -0.987472474575043 -0.932250916957855 -0.859415531158447 0.113080464303493 -0.535331845283508 0.243829131126404 1.11253035068512 1.42053997516632 1.85793507099152 2.05992460250854 2.03376340866089 2.19676804542542 2.39248466491699 2.57905459403992 2.57975220680237 2.41716694831848 2.14653062820435 1.91621398925781 1.72881233692169 1.73601424694061 1.71066582202911 1.68472695350647 1.6770087480545 1.66420447826385 1.64982461929321 1.64621984958649 1.65213751792908 1.65427160263062 1.66366124153137 1.68303775787354 1.67898046970367 1.71166229248047 1.74521422386169 1.74195575714111 1.73284792900085 1.75677371025085 1.80437612533569 1.75583732128143 1.6947318315506 1.66412365436554 1.62699854373932 1.59327518939972 1.59481370449066 1.57347869873047 1.56074643135071 1.54317152500153 1.54029655456543 1.54854142665863 1.60621047019958 1.72930145263672 1.7472071647644 1.88635432720184 1.81714713573456 1.76993846893311 1.63631820678711 1.63139760494232 1.6167471408844 1.59718406200409 1.57310402393341 1.56404101848602 1.57893085479736 1.59374594688416 1.60071384906769 1.66137361526489 1.68546903133392 1.72223377227783 1.75959479808807 1.7960878610611 1.87210404872894 2.03742933273315 2.26346111297607 2.36421656608582 2.41925191879272 2.58540058135986 2.83009791374207 3.41962075233459 4.07677125930786 4.30979919433594 4.32146024703979 4.26716613769531 4.23679637908936 4.14650392532349 4.01913261413574 3.85418748855591 3.64987087249756 3.34589385986328 2.86544823646545 2.19861197471619 1.46345794200897 1.13249266147614 0.979107975959778 0.823383271694183 0.785933017730713 0.965677917003632 1.06238293647766 1.19426190853119 1.33777630329132 1.36193430423737 1.30838584899902 1.15497183799744 0.707200706005096
6.50050735473633 10.9295806884766 9.76779079437256 6.21648788452148 3.90543460845947 1.58828496932983 -0.968660533428192 -1.91574680805206 -3.23187518119812 -3.32154703140259 -2.70598125457764 -2.67102193832397 -0.778963088989258 1.65255415439606 3.06513524055481 3.49955415725708 2.67249965667725 1.78696739673615 1.78193724155426 3.03059363365173 4.75857400894165 5.51071691513062 5.83456373214722 7.42029905319214 7.53185129165649 5.69020509719849 5.45908403396606 5.86324501037598 5.77885293960571 6.80826807022095 7.35169982910156 8.61988639831543 6.0637788772583 5.50558614730835 4.17425060272217 2.6698522567749 1.74576592445374 0.763542473316193 -0.714723467826843 -1.19544422626495 -0.81459778547287 -0.498965680599213 -1.26957666873932 -1.23813557624817 -1.11422312259674 -1.36567330360413 0.896057188510895 2.67754244804382 5.04682159423828 6.79650783538818 8.15012454986572 7.03722333908081 5.82885408401489 2.58205652236938 0.792029082775116 0.716640710830688 1.38057839870453 1.83753752708435 2.51278257369995 2.48497295379639 0.19030337035656 -1.37981390953064 -2.33210110664368 -2.30604863166809 -2.25700664520264 -2.13916158676147 -1.92852544784546 -1.73695755004883 -1.40700936317444 -1.18827867507935 -1.03553104400635 -0.899036586284637 -0.849712729454041 -0.82018780708313 -0.823305785655975 -0.74451220035553 -0.482190698385239 0.615179359912872 1.42357051372528 1.79673326015472 2.79868125915527 2.864018201828 2.92823123931885 2.88373303413391 2.8758533000946 2.75493574142456 2.77655696868896 2.70839667320251 2.45984220504761 2.20591521263123 1.92631685733795 1.77287650108337 1.75279200077057 1.72502660751343 1.71744775772095 1.7033816576004 1.68904185295105 1.71288347244263 1.69096696376801 1.69875800609589 1.70468401908875 1.7246857881546 1.72637760639191 1.77934587001801 1.7861955165863 1.78839707374573 1.78749287128448 1.81987512111664 1.87192642688751 1.79711174964905 1.73831236362457 1.70903182029724 1.67761027812958 1.63713133335114 1.62703216075897 1.60181820392609 1.5840038061142 1.57895648479462 1.57680892944336 1.64533734321594 1.70726525783539 1.80232608318329 1.84212052822113 1.94047093391418 1.8619270324707 1.72794795036316 1.6768786907196 1.66714465618134 1.65786778926849 1.63254928588867 1.64719176292419 1.6342521905899 1.65190601348877 1.68292784690857 1.7213214635849 1.74367940425873 1.7725738286972 1.80767297744751 1.84112918376923 1.87242138385773 1.94637906551361 2.11309719085693 2.33963108062744 2.43725323677063 2.48950862884521 2.65877628326416 2.93694639205933 3.52770066261292 4.15853452682495 4.4093074798584 4.42181015014648 4.38725757598877 4.29751110076904 4.17988348007202 4.01301050186157 3.84925413131714 3.56527876853943 3.33027195930481 2.97550773620605 2.34403824806213 1.73115074634552 1.35971653461456 1.17925119400024 0.963598728179932 1.00306618213654 1.17932522296906 1.28950643539429 1.45307981967926 1.60082495212555 1.79565560817719 2.00396752357483 1.81374788284302 1.41264605522156
13.5250759124756 16.3321495056152 11.282585144043 8.04998302459717 5.22686290740967 3.17768883705139 1.4579952955246 -0.53776890039444 -1.34745955467224 -2.32476091384888 -2.12760043144226 -2.32103586196899 -0.0415563806891441 2.48380875587463 3.91928672790527 4.64892387390137 3.63431119918823 2.44646310806274 3.34877991676331 4.87885475158691 5.91956520080566 6.55992412567139 7.06813859939575 8.93392944335938 9.04833602905273 8.03501129150391 6.84517526626587 6.68280649185181 6.75073099136353 7.92294311523438 8.10838317871094 7.1857590675354 6.70556306838989 5.57919073104858 4.18747901916504 3.1785740852356 2.60705590248108 1.74232399463654 0.51542603969574 1.87475919723511 1.98830103874207 0.936246514320374 -0.418387681245804 -1.21061384677887 -1.15081298351288 -0.628875553607941 1.49272787570953 3.05070424079895 6.28787994384766 7.6508355140686 6.41283512115479 2.98928999900818 1.78948020935059 1.72747945785522 0.111649684607983 -0.514852941036224 -0.8777214884758 -0.0632935538887978 1.55311870574951 1.49237477779388 -1.04177558422089 -2.24126863479614 -2.26033401489258 -2.21526598930359 -2.09564781188965 -1.99077200889587 -1.82399916648865 -1.67709350585938 -1.38251388072968 -1.13194108009338 -0.910830140113831 -0.81745719909668 -0.790121972560883 -0.739354372024536 -0.699222087860107 -0.653277933597565 -0.393251270055771 0.620561242103577 1.0999082326889 2.43114376068115 3.34236526489258 3.94431829452515 4.04442501068115 3.77807688713074 3.50062608718872 3.3017053604126 2.99761414527893 2.71502614021301 2.56975340843201 2.36692810058594 2.07046294212341 1.81539154052734 1.78050065040588 1.83019506931305 1.89740085601807 1.83757245540619 1.8295476436615 2.87669634819031 1.73080909252167 1.7415474653244 1.76908564567566 1.77251291275024 1.79634022712708 1.83050060272217 1.83309423923492 1.83223414421082 1.84117984771729 1.88982331752777 1.91219246387482 1.84337222576141 1.79094851016998 1.74732387065887 1.71358096599579 1.73598599433899 1.63068199157715 1.6455864906311 1.62045729160309 1.62469494342804 1.64370715618134 1.72001945972443 1.78506445884705 1.86294305324554 2.00186204910278 1.9846647977829 1.91625213623047 1.72752523422241 1.72586822509766 1.70212006568909 1.69241261482239 1.68133330345154 1.68926084041595 1.70565390586853 1.74387383460999 1.76853203773499 1.7949104309082 1.8276355266571 1.8518739938736 1.87787973880768 1.89973211288452 1.95303022861481 2.05488586425781 2.18256831169128 2.39987373352051 2.50130939483643 2.55252051353455 2.72626185417175 3.01243185997009 3.62144303321838 4.25210285186768 4.50449228286743 4.54522657394409 4.50977420806885 4.41505098342896 4.30781173706055 4.1525993347168 3.98316955566406 3.5760064125061 3.12079763412476 2.85933208465576 2.46169209480286 1.92211091518402 1.59353649616241 1.36422574520111 1.1063483953476 1.20608508586884 1.40859079360962 1.52894449234009 1.70560276508331 1.91090452671051 2.24785184860229 2.46355128288269 2.23921227455139 1.91086220741272
18.8168125152588 21.7519836425781 16.072322845459 10.3963460922241 6.78621625900269 4.27247381210327 2.62937045097351 1.13129079341888 -0.163760170340538 -0.748936474323273 -1.56090557575226 1.26623380184174 2.41589403152466 3.73517203330994 5.80819797515869 6.3108057975769 5.2956714630127 4.1362247467041 5.73125314712524 8.66579437255859 9.3108024597168 8.77191543579102 8.79550170898438 10.9920339584351 11.1673984527588 10.2523012161255 9.26805114746094 8.0135498046875 7.90627908706665 9.26631164550781 9.50155544281006 8.71018886566162 8.03069305419922 6.80754232406616 5.16331672668457 3.90604710578918 2.79104137420654 1.45733952522278 3.82303357124329 3.29588747024536 3.91046404838562 2.89855813980103 0.87328177690506 -0.422165513038635 -0.191720247268677 0.295718371868134 2.00273585319519 6.00732135772705 11.4666547775269 8.17154598236084 3.07330870628357 1.48415076732635 2.04547905921936 2.00045800209045 0.629800021648407 -1.14436888694763 -1.59178757667542 -0.784278154373169 1.68184697628021 0.876436173915863 -2.15157461166382 -2.13762736320496 -2.08471274375916 -1.96831250190735 -1.87376606464386 -1.71337807178497 -1.54559814929962 -1.38028192520142 -1.15933585166931 -0.972017049789429 -0.807730913162231 -0.743916213512421 -0.706325054168701 -0.668315172195435 -0.589720249176025 -0.380696028470993 -0.173235550522804 0.0789743661880493 1.16523253917694 2.68020391464233 3.64188933372498 3.84121584892273 4.49672698974609 4.66584539413452 4.35653924942017 3.97828078269958 3.56723093986511 3.03678607940674 2.75298643112183 2.4848952293396 2.11354231834412 1.81766378879547 1.84922504425049 2.08422207832336 2.19113206863403 2.36678862571716 2.13262915611267 1.74265503883362 1.7452939748764 1.79638576507568 1.81791579723358 1.81569361686707 1.86544716358185 1.87091207504272 1.87532842159271 1.87323582172394 1.90564048290253 1.96088087558746 1.96367824077606 1.92060947418213 1.84821736812592 1.81287360191345 1.74921727180481 1.77748310565948 1.72185564041138 1.67548036575317 1.66412401199341 1.65758526325226 1.68315541744232 1.75739252567291 1.83422529697418 1.91511058807373 2.05708789825439 1.98093163967133 1.94484114646912 1.78098225593567 1.7624534368515 1.75359058380127 1.73339736461639 1.71528387069702 1.72844576835632 1.75717079639435 1.7900562286377 1.82214426994324 1.85834670066833 1.88341009616852 1.90804290771484 1.94442784786224 1.9799782037735 2.05945920944214 2.23849105834961 2.44402980804443 2.51353573799133 2.55450510978699 2.61152362823486 2.78437852859497 3.0726158618927 3.71563148498535 4.37899351119995 4.61678171157837 4.66960859298706 4.64813375473022 4.56673336029053 4.4553108215332 4.29801797866821 4.11713838577271 3.69056963920593 3.18559432029724 2.74554347991943 2.41747999191284 2.00314784049988 1.6972553730011 1.45498490333557 1.26379120349884 1.48901832103729 1.59457457065582 1.71589493751526 1.90319561958313 2.22151231765747 2.61250472068787 2.78998231887817 2.55075621604919 2.16136646270752
17.9905853271484 19.8927192687988 22.0060958862305 13.8148031234741 9.54960823059082 6.21513557434082 3.59073567390442 1.40965270996094 -0.335995823144913 -0.464803427457809 0.369289547204971 4.81975603103638 6.49939870834351 7.3823881149292 9.52952671051025 10.0011529922485 9.60874557495117 13.6066980361938 14.6302328109741 12.5734300613403 11.5870056152344 10.7001981735229 13.5665845870972 14.3066740036011 14.3999767303467 13.281795501709 12.0621166229248 9.87091827392578 9.49220275878906 10.9038772583008 11.5862531661987 11.7140483856201 10.7839612960815 8.92656421661377 7.18828105926514 5.50192642211914 3.87885999679565 3.08102107048035 4.1071834564209 4.36221694946289 3.96739673614502 3.3695125579834 2.23592853546143 0.970538258552551 1.0147078037262 1.31677734851837 4.63375759124756 11.905722618103 17.9735794067383 8.85702800750732 3.17131996154785 1.74785506725311 2.61534810066223 2.29064869880676 0.27730667591095 -1.68684899806976 -0.629221379756927 -0.466077893972397 -2.35862565040588 -2.20382690429688 -2.07581686973572 -1.90875029563904 -1.80168175697327 -1.68249881267548 -1.57847917079926 -1.42542326450348 -1.24843609333038 -1.08088684082031 -0.936630666255951 -0.791057229042053 -0.430344104766846 -0.517788112163544 -0.625830352306366 -0.576245367527008 -0.519859492778778 -0.220805659890175 -0.00719611486420035 0.150488212704659 1.48867344856262 2.05360007286072 2.12077450752258 3.49596309661865 4.33305692672729 4.52185869216919 4.77224254608154 4.6516580581665 4.15492343902588 3.45350623130798 2.981614112854 2.72204542160034 2.33946371078491 1.85089433193207 2.04676389694214 2.33461213111877 2.45552587509155 2.31120443344116 2.11818027496338 1.87632191181183 1.77058625221252 2.54217290878296 2.00697016716003 1.86400008201599 1.90802991390228 1.92023813724518 1.92006516456604 1.93019735813141 1.97116017341614 2.02497935295105 2.06154370307922 2.08114123344421 2.02092552185059 1.92921328544617 1.86268973350525 1.83304738998413 1.78502917289734 1.73452425003052 1.70152604579926 1.70015227794647 1.73100912570953 1.79927730560303 1.86923837661743 1.96464049816132 2.11657905578613 2.03775596618652 1.97146832942963 1.82600581645966 1.80347728729248 1.79513609409332 1.773841381073 1.75496804714203 1.78721523284912 1.80028021335602 1.83386743068695 1.86874902248383 1.9051194190979 1.93177568912506 1.96283555030823 1.99232244491577 2.03029298782349 2.11039328575134 2.29496359825134 2.53283286094666 2.63507843017578 2.69059991836548 2.77456665039062 3.01431083679199 3.47682619094849 4.54385471343994 4.73341083526611 4.75541114807129 4.79142093658447 4.76991510391235 4.68667459487915 4.57842588424683 4.42338752746582 4.24408531188965 3.80501675605774 3.27737593650818 2.6495418548584 2.30836939811707 2.01923537254333 1.74556064605713 1.54516172409058 1.44140255451202 1.65746533870697 1.73642766475677 1.82984721660614 2.0286169052124 2.40697169303894 2.71368741989136 2.86241483688354 2.70459914207458 2.29105401039124
16.7037658691406 12.0392971038818 13.6591558456421 15.1292304992676 13.5245208740234 9.11935138702393 6.60826826095581 3.17448949813843 0.735588312149048 -0.130647629499435 0.457189500331879 -0.749720752239227 0.37043696641922 3.56991171836853 5.59119033813477 5.52547788619995 4.33085060119629 3.17325401306152 9.21494770050049 12.497124671936 14.1666660308838 14.0642938613892 22.2112445831299 25.308012008667 19.9260482788086 17.9734554290771 14.413722038269 12.0973749160767 11.943058013916 14.0019617080688 14.7129154205322 15.2506761550903 14.662034034729 12.3517742156982 9.53645610809326 7.5486421585083 4.68370532989502 1.45606100559235 -0.98277735710144 0.269298702478409 2.59129953384399 0.430623203516006 0.291142761707306 0.182294562458992 1.31859064102173 2.46483016014099 6.5360221862793 13.6663274765015 10.7887659072876 7.40256595611572 3.42729783058167 3.35999751091003 3.59252667427063 3.8451292514801 1.69992625713348 -0.946846544742584 -2.03217053413391 -2.35700821876526 -2.29461789131165 -2.13859915733337 -2.03480291366577 -1.71005177497864 -1.56378388404846 -1.49567019939423 -1.33065986633301 -1.13942396640778 -0.991390585899353 -0.86051481962204 -0.76343834400177 0.0150631107389927 0.29999378323555 0.159170925617218 -0.0547533333301544 -0.189280152320862 -0.141973927617073 -0.211201041936874 0.0289600528776646 0.282792806625366 0.602946817874908 0.69030749797821 1.49754667282104 2.23429203033447 3.38725090026855 4.2334303855896 4.23260164260864 4.38566589355469 4.2224555015564 3.70821404457092 3.34239983558655 3.05167627334595 2.61603903770447 2.08942198753357 2.16031336784363 2.434903383255 2.59260010719299 2.48105382919312 2.35991525650024 2.09894323348999 1.87682020664215 4.18836355209351 2.35152864456177 1.9248411655426 1.94993495941162 1.96208298206329 1.96302151679993 1.99279844760895 2.04772663116455 2.13579726219177 2.21929359436035 2.26458215713501 2.27433919906616 2.23308682441711 2.15198493003845 2.03426194190979 1.91499423980713 1.81990039348602 1.75170457363129 1.73656249046326 1.8091915845871 1.87852919101715 2.01774954795837 2.02007007598877 2.17080402374268 2.09571981430054 1.92691564559937 1.87009453773499 1.85262334346771 1.84130036830902 1.82070159912109 1.80690598487854 1.8331344127655 1.86144483089447 1.88687515258789 1.91440188884735 1.97001147270203 1.98910272121429 2.01225519180298 2.0434103012085 2.0823450088501 2.16675066947937 2.3518853187561 2.60177755355835 2.69960594177246 2.76015090942383 2.94271779060364 3.22525238990784 3.90170812606812 4.65737724304199 4.93224287033081 4.937584400177 4.89020538330078 4.88362455368042 4.80238676071167 4.68778610229492 4.50161361694336 4.25038766860962 3.9038393497467 3.36760878562927 2.69429755210876 2.25776934623718 2.00341582298279 1.79729557037354 1.60886895656586 1.56877338886261 1.73960423469543 1.85432636737823 1.99790954589844 2.33948850631714 2.74697613716125 2.90216684341431 2.92754197120667 2.76795887947083 2.42486310005188
9.70491695404053 7.25754308700562 10.2820386886597 14.2435894012451 16.5132923126221 13.779670715332 9.80656242370605 6.88834953308105 1.89229226112366 -0.475863635540009 1.13456463813782 -0.215341195464134 -0.489289194345474 -0.385066598653793 2.45362424850464 3.00656414031982 2.46185994148254 3.17973637580872 4.56080484390259 6.06350660324097 6.36221694946289 10.2111883163452 16.721134185791 16.7170238494873 19.7845878601074 20.2970428466797 18.6190509796143 14.6353483200073 18.0803394317627 21.9094371795654 22.5764617919922 22.4095458984375 18.1880912780762 12.7399244308472 11.4005327224731 9.53063201904297 5.7829966545105 1.49118721485138 -0.918724656105042 -1.54947400093079 -0.783837258815765 0.0161387380212545 -0.353924602270126 0.39363044500351 1.49946308135986 2.57003235816956 3.45266079902649 1.72292852401733 -0.889328479766846 3.89770269393921 4.1475715637207 6.4339861869812 7.73680591583252 4.77339124679565 2.61552572250366 -0.0672936737537384 -2.45970511436462 -2.26109433174133 -2.13715839385986 -1.92591035366058 -1.79350864887238 -1.55574524402618 -1.3742219209671 -1.23154354095459 -1.08498549461365 -0.892865419387817 -0.797283530235291 -0.754133999347687 -0.227676331996918 0.415923893451691 0.211099699139595 0.205716192722321 0.172894790768623 0.20123527944088 0.242251679301262 -0.0155181484296918 0.0175695195794106 0.0958669409155846 0.192847013473511 0.365281105041504 0.552373886108398 1.22004246711731 2.30690574645996 3.31614661216736 3.89782500267029 3.574551820755 3.7523946762085 3.72696471214294 3.6242880821228 3.3961935043335 3.02796483039856 2.41530990600586 2.4048900604248 2.53359699249268 2.63401556015015 2.57182383537292 2.50009870529175 2.26564598083496 2.00133275985718 1.84134936332703 3.0173397064209 1.97725749015808 1.99776065349579 2.00683879852295 2.01387286186218 2.05233478546143 2.12128663063049 2.25048875808716 2.36963725090027 2.45620441436768 2.55773234367371 2.59400296211243 2.35996699333191 2.22379016876221 2.1047191619873 2.00202679634094 1.88132333755493 1.82513320446014 1.89873337745667 1.97106873989105 2.09427881240845 2.13653993606567 2.23223471641541 2.15848684310913 1.94183468818665 1.91240835189819 1.89819884300232 1.88725435733795 1.86071228981018 1.85959815979004 1.8965255022049 1.94074285030365 1.96797716617584 1.99728834629059 2.03930139541626 2.0678231716156 2.09446549415588 2.11572051048279 2.17776679992676 2.29059910774231 2.42937541007996 2.6604630947113 2.77301645278931 2.82940769195557 3.00590372085571 3.32456827163696 4.01663732528687 4.77793216705322 5.05439281463623 5.07992458343506 5.0339150428772 4.94653415679932 4.82641553878784 4.66669654846191 4.48040294647217 4.11493301391602 3.84327864646912 3.44554781913757 2.75874280929565 2.19875621795654 1.99327337741852 1.85140669345856 1.76730918884277 1.74644184112549 1.82112443447113 1.9231481552124 2.13309669494629 2.52842926979065 2.86231923103333 2.98276138305664 2.83964800834656 2.68443846702576 2.48095011711121
6.12736463546753 4.74100828170776 6.67696475982666 9.95795726776123 9.9385290145874 16.2375068664551 13.2944822311401 10.1216917037964 5.17883491516113 -0.481939494609833 -2.20472574234009 -3.57266092300415 -0.188293978571892 0.0470736548304558 2.0917854309082 2.31859374046326 2.44337034225464 0.671677350997925 2.7678689956665 5.58840274810791 5.21206331253052 7.43520736694336 4.29745578765869 5.04110050201416 6.27714395523071 5.82404088973999 9.36611175537109 14.1102752685547 19.5267848968506 19.4615249633789 22.6998443603516 25.7699432373047 22.0050163269043 13.0902404785156 10.0826101303101 8.47895908355713 6.05593252182007 1.87424147129059 0.0168385449796915 -1.64419662952423 -0.348620116710663 0.155563935637474 -0.3004991710186 -0.110050857067108 0.952750861644745 2.49834871292114 3.59007382392883 1.05342221260071 -0.974423348903656 -1.56803286075592 2.73123455047607 3.40335440635681 2.66512846946716 1.48935604095459 1.34313118457794 -1.38989651203156 -2.34309697151184 -2.06709456443787 -1.82869839668274 -1.6525661945343 -1.48086321353912 -1.30185198783875 -1.15067756175995 -0.981604039669037 -0.844972968101501 -0.770985662937164 -0.729038774967194 -0.508808374404907 -0.159675747156143 0.0217336602509022 0.272659093141556 -0.0392872430384159 0.286598443984985 0.617818474769592 0.562042951583862 0.406205922365189 0.0675943344831467 0.0615911856293678 0.228656798601151 0.399842321872711 0.560702204704285 0.791568636894226 0.922747075557709 1.69710600376129 2.49480152130127 3.00190496444702 3.11424160003662 3.12378907203674 3.19864439964294 3.04719424247742 2.80004739761353 2.44216513633728 2.50814056396484 2.69996380805969 2.60324025154114 2.6353600025177 2.55313754081726 2.3856372833252 2.14748787879944 1.90801310539246 1.89445626735687 1.99985563755035 2.0556423664093 2.05659437179565 2.07793569564819 2.1459903717041 2.23919200897217 2.38690233230591 2.52809929847717 2.75140070915222 2.91099119186401 2.91865253448486 2.79322695732117 2.51426458358765 2.30583000183105 2.18204689025879 2.0600860118866 1.94231832027435 1.98708760738373 2.06812810897827 2.15331721305847 2.32194519042969 2.30644774436951 2.21695899963379 1.99526309967041 1.96653938293457 1.94368016719818 1.93725538253784 1.91365969181061 1.91462516784668 1.95418214797974 1.99597597122192 2.02772426605225 2.06706142425537 2.10061454772949 2.13000655174255 2.16758799552917 2.20985531806946 2.29780530929565 2.49405264854431 2.72751498222351 2.79954028129578 2.84749341011047 2.90606999397278 3.05975484848022 3.41220617294312 4.11559391021729 4.90315771102905 5.18388700485229 5.21170234680176 5.16059350967407 5.06887531280518 4.94956350326538 4.7896842956543 4.60225963592529 4.12194633483887 3.56867933273315 3.26741790771484 2.82398962974548 2.29145503044128 2.10661196708679 1.92632114887238 1.86548805236816 1.85229051113129 1.94383823871613 2.02826452255249 2.2179012298584 2.5899863243103 2.93246603012085 3.05910301208496 2.90343308448792 2.54042339324951 2.34138631820679
5.71624135971069 4.82778549194336 -0.347802609205246 -1.10403168201447 1.50568270683289 7.24073934555054 14.7200756072998 11.8671865463257 8.88772487640381 2.51214551925659 -2.18433356285095 -3.42837071418762 -3.5077702999115 -1.48269426822662 -3.11057782173157 -3.3079776763916 0.105758525431156 -0.0342818573117256 -1.64993607997894 0.479194909334183 3.14427280426025 1.1273717880249 -0.493182122707367 1.66838943958282 2.72567367553711 3.56640100479126 3.07668972015381 7.12356376647949 8.07986354827881 6.42184638977051 8.7689323425293 9.39666938781738 8.45938968658447 11.0108976364136 11.4645681381226 9.50755023956299 3.08614253997803 0.660915970802307 0.790488839149475 -0.217458516359329 -0.658756375312805 -1.06612181663513 -0.695688307285309 -0.736200928688049 -0.0340021252632141 3.19287252426147 5.09806394577026 2.77601647377014 -0.0616440437734127 -1.52443158626556 -2.89307045936584 -2.96488213539124 -2.59511637687683 -0.88807201385498 -1.8926066160202 -2.3346152305603 -2.08944058418274 -1.72057437896729 -1.5710232257843 -1.3301008939743 -1.16825544834137 -1.0593318939209 -0.922874450683594 -0.813004791736603 -0.404014706611633 -0.687155067920685 -0.712898373603821 -0.622888684272766 -0.718657553195953 -0.692476511001587 -0.635060012340546 -0.425530463457108 0.205259963870049 0.633238315582275 1.12645196914673 0.751604855060577 0.306140094995499 0.173876702785492 0.309818178415298 0.431884109973907 0.588752448558807 0.813207626342773 0.958034038543701 1.01231479644775 1.25796556472778 1.64809346199036 2.42291665077209 2.929194688797 2.95712471008301 2.63636660575867 2.39336681365967 2.13140726089478 2.54217886924744 2.7509126663208 2.70293974876404 2.62046504020691 2.54363870620728 2.43612360954285 2.25000071525574 2.06011271476746 1.97337603569031 2.03741264343262 2.08452701568604 2.09475660324097 2.11340403556824 2.20977091789246 2.3564567565918 2.48325729370117 2.59708189964294 2.95922613143921 3.16320729255676 3.18904662132263 3.05669450759888 2.87486982345581 2.53386545181274 2.31525897979736 2.21709942817688 2.05621910095215 2.05542826652527 2.13565015792847 2.23413276672363 2.39507484436035 2.29622793197632 2.23605561256409 2.04435133934021 2.01259088516235 2.01051449775696 1.98302114009857 1.97322833538055 1.97120130062103 2.00348114967346 2.05169367790222 2.08527159690857 2.13013768196106 2.16284418106079 2.18682718276978 2.22562265396118 2.26808261871338 2.35853672027588 2.55776262283325 2.82040929794312 2.9408323764801 3.00572395324707 3.07414793968201 3.33428335189819 3.88313460350037 5.06835174560547 5.29979038238525 5.3224024772644 5.35022401809692 5.29636716842651 5.20413637161255 5.07668972015381 4.92063236236572 4.72540092468262 4.22713088989258 3.64256596565247 3.11761689186096 2.78594756126404 2.50321292877197 2.26428151130676 2.02000737190247 1.93947947025299 1.9300948381424 2.01178503036499 2.10724520683289 2.27086019515991 2.65576386451721 3.00056433677673 3.13154244422913 2.97991275787354 2.59893536567688 2.05930829048157
-2.70437908172607 -1.07904231548309 -0.1821468770504 -0.915249466896057 -1.09734058380127 -0.570520520210266 5.55346441268921 11.2632064819336 9.72670841217041 6.64385318756104 -0.373516798019409 -3.07586908340454 -3.23791241645813 -3.36026835441589 -3.36774444580078 -2.12512612342834 -0.845461428165436 -0.773267090320587 -2.03747725486755 -2.55197095870972 1.13237988948822 2.36580681800842 -1.19438743591309 -1.98943531513214 -0.250475108623505 1.04889059066772 0.852454006671906 2.5398485660553 1.3409583568573 0.794409394264221 -2.41729855537415 -0.221297025680542 -0.0890382751822472 1.31523609161377 3.21669507026672 4.54679584503174 3.24289441108704 1.59817755222321 -0.0851314142346382 1.18994832038879 -0.291018187999725 -0.798274338245392 -0.532697558403015 -0.703681945800781 1.96652686595917 8.35783100128174 9.62101650238037 4.98447799682617 1.39875543117523 -0.979424357414246 -2.6988513469696 -2.86544060707092 -2.88427257537842 -2.74663496017456 -2.5035297870636 -2.10178160667419 -1.80430507659912 -1.52496790885925 -1.38422238826752 -1.14985752105713 -0.953447639942169 -0.852461338043213 -0.803538203239441 -0.507210254669189 -0.520166277885437 -0.705757141113281 -0.705581188201904 -0.728881895542145 -0.706500291824341 -0.654728710651398 -0.606102466583252 -0.545833826065063 0.399600565433502 0.973372220993042 0.886877298355103 1.10114324092865 0.741459369659424 0.232092574238777 0.414050489664078 0.524403810501099 0.618067800998688 0.846491456031799 0.991909086704254 1.14915156364441 1.27554523944855 1.41522336006165 1.55210900306702 1.6819509267807 1.74295628070831 1.80252313613892 1.85540080070496 2.16199851036072 2.56041646003723 2.79587721824646 2.74154353141785 2.67187881469727 2.50031185150146 2.45808362960815 2.30303120613098 2.13175702095032 2.05967617034912 2.08151698112488 2.11937761306763 2.12989020347595 2.14585661888123 2.31499218940735 2.49150800704956 2.64306092262268 2.88326573371887 3.05101275444031 3.28826260566711 3.34728312492371 3.20555925369263 3.00361061096191 2.69639778137207 2.4391758441925 2.32690620422363 2.19694948196411 2.12054705619812 2.20451807975769 2.31030488014221 2.48207807540894 2.36951565742493 2.27798891067505 2.09779262542725 2.08021450042725 2.06835579872131 2.03390598297119 2.04306387901306 2.03189754486084 2.06376719474792 2.10376715660095 2.13515067100525 2.1833963394165 2.22176170349121 2.24834990501404 2.29258942604065 2.336590051651 2.42224764823914 2.63390278816223 2.90188956260681 3.0204803943634 3.08455371856689 3.24042820930481 3.59825348854065 4.34646940231323 5.20930480957031 5.49918794631958 5.52758884429932 5.44290828704834 5.43447780609131 5.3412504196167 5.21438932418823 5.00990009307861 4.72757768630981 4.34250974655151 3.73823595046997 3.15020108222961 2.90687012672424 2.55635261535645 2.31235074996948 2.13903069496155 2.07234311103821 2.05141258239746 2.05734419822693 2.14993286132812 2.31512403488159 2.70753741264343 3.06189560890198 3.19191241264343 3.04175329208374 2.6577672958374 2.06390357017517
-2.58614611625671 -2.91169452667236 -2.54731965065002 -1.8632196187973 -0.587047874927521 -0.230859145522118 -0.650492906570435 4.31090354919434 5.99706649780273 5.77949857711792 4.02391767501831 -2.0796012878418 -2.79621434211731 -3.1435661315918 -3.29556608200073 -3.29907917976379 -0.107151880860329 -0.962692856788635 -2.44143414497375 -2.26870822906494 0.323501646518707 3.86468720436096 0.608205497264862 -2.20382881164551 -1.06992042064667 -1.53975486755371 -0.146985352039337 -1.10452330112457 -2.48555731773376 -2.27999687194824 -4.16360521316528 -4.29579734802246 -2.47988533973694 -3.17695808410645 -4.00559759140015 -3.8412036895752 -3.47505450248718 -2.79580688476562 -2.99797439575195 -2.79804158210754 -1.9227100610733 -0.667699873447418 -0.208202704787254 -0.695115447044373 6.64158821105957 12.3113946914673 10.3482294082642 6.2498517036438 1.48735857009888 -0.125368773937225 -2.2943799495697 -2.74415516853333 -2.75026082992554 -2.67661285400391 -2.38103294372559 -1.91295790672302 -1.61463916301727 -1.38509213924408 -1.23102235794067 -1.0069522857666 -0.862104415893555 -0.79321300983429 -0.756748139858246 -0.728974103927612 -0.714921534061432 -0.701203644275665 -0.70513778924942 -0.69833916425705 -0.67885959148407 -0.624401271343231 -0.575081586837769 -0.540162324905396 -0.503970921039581 0.411293268203735 0.680896818637848 1.05707108974457 1.0462406873703 0.55222499370575 0.466781556606293 0.629254579544067 0.730012178421021 0.898869633674622 1.05149960517883 1.26804983615875 1.38567769527435 1.39411008358002 1.58010017871857 1.70060479640961 1.76045882701874 1.82107532024384 1.89491069316864 2.22698140144348 2.57449698448181 2.82679963111877 2.7816162109375 2.70232224464417 2.52547121047974 2.38056325912476 2.30389285087585 2.16256618499756 2.12252616882324 2.12807750701904 2.1456093788147 2.17014598846436 2.20570063591003 2.35869431495667 2.54077816009521 2.70704650878906 3.09094214439392 3.31144404411316 3.35696220397949 3.41975522041321 3.27463245391846 3.06480407714844 2.77306771278381 2.54706859588623 2.40429425239563 2.27352333068848 2.26299142837524 2.40864157676697 2.39734148979187 2.56702613830566 2.45420145988464 2.21760153770447 2.17506527900696 2.14576506614685 2.11639428138733 2.1127598285675 2.1016674041748 2.10763454437256 2.15562701225281 2.19078183174133 2.22024703025818 2.2813937664032 2.30422830581665 2.30993700027466 2.34860324859619 2.39188098907471 2.48963642120361 2.70523357391357 2.97708892822266 3.10161113739014 3.1411714553833 3.33047461509705 3.71081709861755 4.47685956954956 5.35836839675903 5.65364170074463 5.68359041213989 5.61675357818604 5.51901388168335 5.38801622390747 5.22772932052612 5.01721096038818 4.57249641418457 4.27797842025757 3.83464121818542 3.23823547363281 2.96708393096924 2.57210326194763 2.36818933486938 2.31150126457214 2.34794902801514 2.45898580551147 2.25689721107483 2.24666166305542 2.68390202522278 3.16477870941162 3.31349110603333 3.276034116745 3.11965489387512 2.72471594810486 2.1138653755188
-2.43926024436951 -2.76523399353027 -2.97602224349976 -2.40833973884583 1.01699030399323 1.42945313453674 0.335044294595718 2.56965065002441 2.73763847351074 3.98473024368286 2.77461647987366 -0.390546262264252 -2.45397806167603 -2.72017025947571 -2.99874091148376 -3.17769694328308 -3.20676326751709 -2.4481155872345 -2.45144248008728 -2.78146648406982 -2.83708930015564 -0.702326834201813 1.11946213245392 -2.03197598457336 -2.9627513885498 -3.00770831108093 -2.58786392211914 -3.51012873649597 -3.8668839931488 -3.99149417877197 -4.07954263687134 -4.17807483673096 -4.15935659408569 -4.0457820892334 -3.84759998321533 -3.66660046577454 -3.30375504493713 -3.13157534599304 -2.94382309913635 -2.12610960006714 -1.06573784351349 0.240368261933327 0.152964562177658 1.53796672821045 8.60802841186523 8.40105724334717 4.52168226242065 2.85781049728394 0.756959497928619 -0.478906780481339 -0.997960865497589 -2.59907937049866 -2.59658265113831 -2.43735766410828 -1.9980320930481 -1.729567527771 -1.43075478076935 -1.20994257926941 -1.04958152770996 -0.879976093769073 -0.75805926322937 -0.735087037086487 -0.721991240978241 -0.710749745368958 -0.694198489189148 -0.686355888843536 -0.68451601266861 -0.658304154872894 -0.618343591690063 -0.594778001308441 -0.552740156650543 -0.515845954418182 -0.49990501999855 -0.476467579603195 0.0833282470703125 0.631329834461212 0.84511011838913 0.732968032360077 0.554471373558044 0.695493340492249 0.924832940101624 0.994518101215363 1.11254048347473 1.33124005794525 1.44500339031219 1.49771618843079 1.66474497318268 1.80184400081635 1.86505806446075 1.93291687965393 2.14335989952087 2.49879050254822 2.68521475791931 2.85545659065247 2.81998753547668 2.74862885475159 2.58109498023987 2.38581824302673 2.2579345703125 2.15076112747192 2.17049980163574 2.19230031967163 2.1992073059082 2.20823574066162 2.26157641410828 2.40089845657349 2.59115624427795 2.76220989227295 3.15086722373962 3.43362617492676 3.50544261932373 3.47597503662109 3.31728219985962 3.1094183921814 2.8201322555542 2.62232971191406 2.48656606674194 2.3654842376709 2.38902854919434 2.5179808139801 2.56908750534058 2.65465521812439 2.53716206550598 2.27390170097351 2.23022174835205 2.21354794502258 2.18034958839417 2.18382573127747 2.1718122959137 2.18700933456421 2.2417585849762 2.27721118927002 2.31652498245239 2.36078810691833 2.38937282562256 2.42174243927002 2.44220995903015 2.51407480239868 2.65200257301331 2.82045412063599 3.05894184112549 3.18368887901306 3.20150542259216 3.44121527671814 3.81608080863953 4.60286092758179 5.51736307144165 5.81335592269897 5.84627866744995 5.77282905578613 5.6748046875 5.53920650482178 5.37548017501831 5.15772199630737 4.6089506149292 3.97311925888062 3.63291430473328 3.30587434768677 2.93706488609314 2.59507656097412 2.54572796821594 2.66085195541382 2.68704581260681 2.79609060287476 2.56941938400269 2.4339120388031 2.85936522483826 3.22489953041077 3.40357661247253 3.21892786026001 2.99638652801514 2.79217576980591 2.16796636581421
-2.3581006526947 -2.54538416862488 -2.81212282180786 0.140237167477608 1.77211463451385 -0.0973437651991844 0.659767091274261 0.0828364789485931 0.7735675573349 2.17406582832336 1.13764882087708 -1.51893186569214 -2.39753365516663 -2.4140613079071 -2.76877427101135 -2.9809410572052 -3.02523112297058 -2.96984910964966 -1.64382123947144 -2.79108262062073 -2.83526062965393 -2.69001793861389 -1.30384922027588 -2.68085813522339 -3.54479217529297 -3.50592756271362 -2.73678517341614 -3.29709935188293 -3.7833833694458 -3.8936755657196 -3.86899924278259 -3.85371351242065 -3.87451839447021 -3.74599528312683 -3.5983304977417 -3.39181709289551 -3.02446031570435 -2.85705161094666 -2.00915861129761 -0.703917741775513 0.323013812303543 0.529359400272369 -0.0672443583607674 2.80927109718323 1.91032409667969 -1.16348576545715 -2.47797656059265 -0.911616742610931 0.903122067451477 0.248562678694725 -2.32104849815369 -2.46446704864502 -2.33477926254272 -2.0101363658905 -1.77360224723816 -1.53731667995453 -1.25569689273834 -1.05570065975189 -0.913251757621765 -0.742109537124634 -0.646903336048126 -0.643781065940857 -0.664507865905762 -0.668950617313385 -0.643528044223785 -0.628730058670044 -0.634227335453033 -0.625988960266113 -0.583398520946503 -0.537919521331787 -0.50352156162262 -0.48111018538475 -0.470934420824051 -0.464510887861252 -0.376329183578491 -0.064736507833004 0.260119140148163 0.649068355560303 0.629480302333832 0.785108804702759 1.01472866535187 1.16074621677399 1.18938529491425 1.41981220245361 1.53488647937775 1.65491664409637 1.8213939666748 1.923455119133 2.00665926933289 2.01398849487305 2.21032333374023 2.63754940032959 2.88513159751892 2.81331920623779 2.86455750465393 2.79618310928345 2.62504005432129 2.42532086372375 2.23416543006897 2.21501564979553 2.24982953071594 2.25408315658569 2.27485251426697 2.3110237121582 2.35685896873474 2.47958159446716 2.63865661621094 2.81471395492554 3.22197103500366 3.50556659698486 3.5781192779541 3.43348503112793 3.24451112747192 3.06662750244141 2.88320827484131 2.69090867042542 2.53922629356384 2.42582726478577 2.49526309967041 2.63263750076294 2.77270889282227 2.72435569763184 2.62422847747803 2.36096525192261 2.30555725097656 2.27805876731873 2.25563073158264 2.2580029964447 2.24518966674805 2.25560212135315 2.30355954170227 2.34112596511841 2.38639760017395 2.42079496383667 2.45685124397278 2.49962520599365 2.54148936271667 2.64229321479797 2.87881970405579 3.15254521369934 3.2366304397583 3.253582239151 3.30765414237976 3.54312014579773 3.9257926940918 4.7332615852356 5.68274307250977 5.98206043243408 6.01594734191895 5.93704128265381 5.83422994613647 5.69805669784546 5.5366005897522 5.31401014328003 4.74453544616699 4.07445573806763 3.46699857711792 3.25255107879639 2.90234971046448 2.78150391578674 2.83672904968262 2.96069264411926 2.81219673156738 2.85022377967834 2.73715114593506 2.65972304344177 2.93431615829468 3.30850553512573 3.47884726524353 3.29624700546265 2.87262082099915 2.60949277877808 2.14972233772278
-2.18946146965027 -2.44374537467957 -2.64265155792236 1.99644815921783 -3.13364601135254 -3.24351525306702 -2.86320638656616 -1.24115169048309 -0.720574259757996 -0.0282687097787857 -0.529884994029999 -2.29298138618469 -2.33771467208862 -2.31622719764709 -2.55854320526123 -2.74517035484314 -2.84451174736023 -2.91988945007324 -2.81647801399231 -2.83092594146729 -2.78331899642944 -2.98759245872498 -3.213454246521 -3.44535160064697 -3.49751353263855 -2.48896598815918 -1.77623617649078 -2.8156213760376 -3.62558484077454 -3.36637854576111 -3.23662066459656 -3.55650520324707 -3.5502598285675 -3.47492408752441 -3.33308696746826 -3.08018970489502 -2.67503356933594 -1.12657117843628 0.0827843993902206 1.0016256570816 1.68366456031799 1.04917907714844 0.061488326638937 -1.69401562213898 -2.75212621688843 -2.90961003303528 -2.85178518295288 -2.78452801704407 -2.71339416503906 -1.31766629219055 -2.48997807502747 -2.32843947410583 -1.94699454307556 -1.7703161239624 -1.54342794418335 -1.33186495304108 -1.13108146190643 -0.926698446273804 -0.799751400947571 -0.629005372524261 -0.535454750061035 -0.513297379016876 -0.540339589118958 -0.555429100990295 -0.102944500744343 -0.591714203357697 -0.59822154045105 -0.589178442955017 -0.542899966239929 -0.510046660900116 -0.485659837722778 -0.459584176540375 -0.443658530712128 -0.431397438049316 -0.321571618318558 -0.0650282502174377 0.234280243515968 0.492336690425873 0.691416203975677 0.872867822647095 1.12128281593323 1.26106917858124 1.39644062519073 1.5371652841568 1.6725070476532 1.78405129909515 1.9443496465683 2.00355553627014 2.04938173294067 2.0746738910675 2.27024626731873 2.71112632751465 2.96304869651794 2.90474987030029 2.82815432548523 2.76266670227051 2.66536617279053 2.47072625160217 2.31957721710205 2.31934905052185 2.3807578086853 2.39473724365234 2.40232396125793 2.42784261703491 2.46717548370361 2.60316777229309 2.74598407745361 2.87260866165161 3.28022837638855 3.57598948478699 3.65122151374817 3.503253698349 3.26152086257935 3.07565259933472 2.92594003677368 2.75151824951172 2.59420347213745 2.50186800956726 2.59749221801758 2.75318908691406 2.89617776870728 2.75678825378418 2.66186261177063 2.43280291557312 2.39235472679138 2.35119986534119 2.32604598999023 2.32625985145569 2.32403659820557 2.33172345161438 2.37124824523926 2.40333604812622 2.44835114479065 2.49154758453369 2.52646970748901 2.56602549552917 2.61418771743774 2.71773552894592 2.96046209335327 3.25461935997009 3.38818073272705 3.42223501205444 3.55785465240479 3.9018087387085 4.52254390716553 5.90238475799561 6.17312145233154 6.16311836242676 6.1960334777832 6.11195182800293 6.0101318359375 5.86988592147827 5.70765447616577 5.4780855178833 4.88449335098267 4.19296360015869 3.47073149681091 3.18410181999207 2.97614240646362 2.95075726509094 2.94231057167053 3.02203464508057 2.94114232063293 2.87914490699768 2.80778789520264 2.80789852142334 3.00803709030151 3.404629945755 3.55684351921082 3.39586472511292 2.93657493591309 2.32703542709351 2.22739386558533
-2.05372262001038 -2.34707140922546 -2.5557267665863 -2.8633074760437 -2.9871780872345 -3.1088399887085 -3.18302011489868 -3.18789720535278 -2.49447441101074 -2.61747407913208 -2.33923125267029 -2.319744348526 -2.21728038787842 -2.29234194755554 -1.94831144809723 -2.58448576927185 -2.70257592201233 -2.75440716743469 -2.70452189445496 -2.7068943977356 -2.8942608833313 -2.92707586288452 -3.14244985580444 -3.39772701263428 -3.49852657318115 -2.48962044715881 -1.81556665897369 -1.98002088069916 -2.21893358230591 -2.94751977920532 -3.48403763771057 -3.3145215511322 -3.23176860809326 -3.18535089492798 -3.1011209487915 -2.71088171005249 -0.704899668693542 1.14257717132568 2.33774733543396 2.65885710716248 2.69536685943604 1.86207103729248 0.0229202210903168 -1.95755863189697 -2.68912792205811 -2.78535747528076 -2.70398545265198 -2.6417076587677 -2.65155553817749 -2.59096240997314 -2.43607068061829 -2.0545494556427 -1.73241543769836 -1.53402543067932 -1.35288286209106 -1.1281099319458 -0.949489176273346 -0.7828289270401 -0.658096134662628 -0.531160056591034 -0.411659061908722 -0.353157967329025 -0.367493480443954 -0.423626601696014 -0.482809722423553 -0.541901290416718 -0.523816227912903 -0.382484912872314 -0.309431880712509 -0.502776026725769 -0.475268959999084 -0.437212407588959 -0.415265589952469 -0.363087356090546 -0.216900512576103 0.00280225556343794 0.290284812450409 0.584070384502411 0.79542738199234 0.945382058620453 1.21857333183289 1.3654100894928 1.55946505069733 1.69109129905701 1.70781791210175 1.91728794574738 2.06026291847229 2.17294001579285 2.182368516922 2.23673057556152 2.42361402511597 2.76737284660339 3.01428127288818 2.94437479972839 2.87352585792542 2.69044041633606 2.66408395767212 2.50879049301147 2.4534740447998 2.46096587181091 2.49906635284424 2.50166988372803 2.52522921562195 2.55583667755127 2.59264612197876 2.75216746330261 2.9275586605072 3.19638013839722 3.38970065116882 3.643963098526 3.71170330047607 3.57129096984863 3.29748940467834 3.05883550643921 2.92553782463074 2.79582834243774 2.62157154083252 2.70247507095337 2.90484571456909 2.87855648994446 3.03240871429443 2.86287689208984 2.7006504535675 2.49723815917969 2.54213333129883 2.58787155151367 2.46386170387268 2.40861916542053 2.38088583946228 2.418381690979 2.44388937950134 2.47248983383179 2.50888609886169 2.55492782592773 2.60039687156677 2.63947439193726 2.69780611991882 2.81033873558044 3.05955410003662 3.34814524650574 3.47417211532593 3.54029560089111 3.78092336654663 4.17564153671265 5.05414295196533 6.09629011154175 6.40448379516602 6.43787002563477 6.3256368637085 6.29748201370239 6.19220781326294 6.04823875427246 5.80993556976318 5.48058080673218 5.03431844711304 4.31791400909424 3.54895257949829 3.25719714164734 3.03957676887512 3.03446340560913 3.10136485099792 3.04170298576355 2.99082612991333 2.86007356643677 2.79332232475281 2.94879484176636 3.48540925979614 3.69769358634949 3.66064643859863 3.48562049865723 3.02136206626892 2.42740178108215 2.39137721061707
-1.83266699314117 -2.20138216018677 -2.4844172000885 -2.68240714073181 -2.77152109146118 -2.90825152397156 -3.02626872062683 -3.02174305915833 -2.99742889404297 -2.77460980415344 -2.51362538337708 -2.21190667152405 -2.10333919525146 -2.25876402854919 -2.42867851257324 -2.45998954772949 -2.41177892684937 -2.4960081577301 -2.45557332038879 -2.45369243621826 -2.57598161697388 -2.93091106414795 -3.12940645217896 -3.32808232307434 -3.49294638633728 -3.48005867004395 -3.47413921356201 -3.48530292510986 -1.85437703132629 -3.41247534751892 -3.4071900844574 -3.16223955154419 -2.94804239273071 -2.86272644996643 -2.65314126014709 -1.50954627990723 1.26927125453949 3.28965759277344 4.48980045318604 4.35789442062378 3.40354347229004 2.38527274131775 0.594213724136353 -1.59300863742828 -2.3791069984436 -2.42270445823669 -2.32247257232666 -2.27424454689026 -2.22612977027893 -2.12671685218811 -1.94160115718842 -1.75938177108765 -1.54713296890259 -1.33533573150635 -1.1386878490448 -0.933232605457306 -0.750946640968323 -0.621522188186646 -0.525880813598633 -0.418152153491974 -0.309259653091431 -0.21313551068306 -0.199101388454437 -0.27934941649437 -0.319016307592392 -0.397718876600266 -0.500343561172485 -0.54260778427124 -0.524420917034149 -0.499179244041443 -0.457083463668823 -0.396951198577881 -0.326981246471405 -0.231713950634003 -0.0820500627160072 0.126658976078033 0.352715402841568 0.628898024559021 0.88486909866333 1.08120918273926 1.28805470466614 1.46671962738037 1.65535616874695 1.8007447719574 1.86606931686401 2.04072618484497 2.26625847816467 2.51836585998535 2.60298109054565 2.48122596740723 2.72217869758606 2.91260385513306 3.06250309944153 3.00360655784607 2.91901850700378 2.73066306114197 2.55461978912354 2.50854015350342 2.53196597099304 2.56714367866516 2.63401007652283 2.63286137580872 2.6656858921051 2.68226599693298 2.72465777397156 2.80437326431274 2.99401044845581 3.42742896080017 3.67269325256348 3.71016430854797 3.78972196578979 3.591956615448 3.37172317504883 3.14230990409851 2.9679536819458 2.78348064422607 2.73467373847961 2.84619426727295 3.04669308662415 3.08215570449829 3.16397356987 2.99555683135986 2.66859221458435 2.66187119483948 2.79212856292725 2.95308184623718 3.12761306762695 2.94416069984436 2.49867939949036 2.52598547935486 2.55583691596985 2.63069200515747 2.71349430084229 2.75727200508118 2.70594358444214 2.75269937515259 2.81422019004822 2.9046483039856 3.14931893348694 3.45031261444092 3.56124043464661 3.67049646377563 3.89384531974792 4.31527471542358 5.22389602661133 6.29760646820068 6.61424207687378 6.65110969543457 6.53978872299194 6.43177509307861 6.27644920349121 6.1129093170166 5.87683153152466 5.30649709701538 4.95637655258179 4.44755935668945 3.63153386116028 3.3356249332428 3.1017587184906 3.13752746582031 3.16236615180969 2.99833393096924 3.04345798492432 2.92884635925293 2.95878577232361 3.18991112709045 3.6252498626709 3.80101037025452 3.61028385162354 3.33711051940918 3.12508845329285 2.49434995651245 2.46808266639709
-1.53679645061493 -1.95446479320526 -2.29093480110168 -2.4944920539856 -2.57448959350586 -2.68530130386353 -2.88185358047485 -2.95436954498291 -2.93893909454346 -2.72091174125671 -2.40126132965088 -2.06349492073059 -1.99398112297058 -0.530048549175262 -2.28277993202209 -2.31861138343811 -2.14746761322021 -2.01787209510803 -1.99597918987274 -1.98849725723267 -2.21648907661438 -2.58510303497314 -3.08964252471924 -3.28653621673584 -3.39245915412903 -3.40205860137939 -3.43991637229919 -3.44020700454712 -3.46015191078186 -3.40236163139343 -3.19184732437134 -2.90661954879761 -2.54755997657776 -2.33751463890076 -1.87671458721161 0.514417052268982 2.73982834815979 5.08528423309326 6.66697692871094 5.93842029571533 4.50734663009644 3.61785221099854 2.18128657341003 0.135095879435539 -2.04843759536743 -2.08728647232056 -2.07141757011414 -2.01653909683228 -1.95053589344025 -1.83434081077576 -1.66807270050049 -1.49957227706909 -1.3255717754364 -1.12676537036896 -0.944276452064514 -0.743699729442596 -0.555279970169067 -0.501707673072815 -0.383365541696548 -0.279215216636658 -0.24631555378437 -0.125701516866684 -0.0878281965851784 -0.106889940798283 -0.17952036857605 -0.266016811132431 -0.36866956949234 -0.473412662744522 -0.523508071899414 -0.473604798316956 -0.402043223381042 -0.287602514028549 -0.228848367929459 -0.118477299809456 0.0453821197152138 0.248459354043007 0.442527920007706 0.694782972335815 0.934050679206848 1.27402555942535 1.38091444969177 1.54593884944916 1.7806568145752 1.9364207983017 2.11923837661743 2.2136504650116 2.58067965507507 2.50124478340149 2.75243854522705 2.56079339981079 2.82862257957458 3.10104203224182 3.00618505477905 3.05303692817688 2.97202444076538 2.77162146568298 2.60202717781067 2.56366539001465 2.59473896026611 2.70271873474121 2.75176906585693 2.72800159454346 2.79904460906982 2.82321763038635 2.8400194644928 2.87533855438232 3.04105997085571 3.49131512641907 3.80210852622986 3.87470698356628 3.81420397758484 3.62209153175354 3.41223955154419 3.18725419044495 3.01354098320007 2.91274952888489 3.26331210136414 3.47852969169617 3.55075621604919 3.34242224693298 3.25280261039734 3.12920618057251 2.79128241539001 2.97217583656311 3.15560483932495 3.21989750862122 3.41875767707825 3.46676468849182 2.79996490478516 2.64005637168884 2.67822456359863 2.70472955703735 2.74413156509399 2.77647542953491 2.86402916908264 2.88237452507019 2.97558689117432 3.13433504104614 3.30923676490784 3.56031084060669 3.68242430686951 3.7840735912323 4.01542615890503 4.4508113861084 5.39129590988159 6.51067590713501 6.83088779449463 6.8707914352417 6.75023078918457 6.6383581161499 6.48328018188477 6.32728004455566 6.07261848449707 5.40609455108643 4.61266469955444 4.20352268218994 3.7166063785553 3.29893970489502 3.17469549179077 3.19752788543701 3.22918391227722 3.05683946609497 3.10977292060852 3.0107409954071 3.01676893234253 3.30282068252563 3.73338389396667 3.91146516799927 3.71676874160767 3.22686505317688 2.90496778488159 2.52752089500427 2.49378108978271
-1.37573349475861 -1.81328845024109 -2.12180542945862 -2.30477166175842 -2.40661120414734 -2.46271133422852 -2.76186966896057 -2.89751267433167 -2.81484627723694 -1.92701435089111 -2.21112132072449 -1.73292577266693 -1.8884904384613 1.88639008998871 -2.27786111831665 -2.23604464530945 -2.02814769744873 -1.77906155586243 -1.7800989151001 -1.73042249679565 -2.00620007514954 -2.36529636383057 -0.746128678321838 -0.451083689928055 -3.31486344337463 -3.32561540603638 -3.37672019004822 -3.40256452560425 -3.35967230796814 -3.21834564208984 -2.82513308525085 -2.45204162597656 -2.19828367233276 -2.10048866271973 -0.740370452404022 1.63871002197266 3.77276968955994 7.35207223892212 9.24113368988037 7.48862838745117 5.64038610458374 4.91744756698608 3.459308385849 1.78795111179352 -1.36052060127258 -1.94451189041138 -1.84519469738007 -1.73837327957153 -1.60209119319916 -1.48046624660492 -1.34596061706543 -1.19716787338257 -1.04881083965302 -0.870415508747101 -0.735800504684448 -0.556787490844727 -0.423721820116043 -0.388280928134918 -0.271043092012405 -0.17725545167923 -0.090285636484623 -0.0566203854978085 -0.0314855687320232 -0.0138523634523153 -0.062489990144968 -0.167797788977623 -0.260724782943726 -0.35329258441925 -0.477412909269333 -0.452092468738556 -0.278358578681946 -0.139010310173035 -0.107829108834267 0.0589235387742519 0.227057203650475 0.36927330493927 0.562610745429993 0.789665043354034 1.00389420986176 1.33424413204193 1.54905068874359 1.63696002960205 1.88519597053528 2.00448513031006 2.06009268760681 2.10131096839905 2.14636778831482 2.38365387916565 2.58289217948914 2.6057186126709 2.85222148895264 3.14452409744263 3.09092426300049 3.00704479217529 2.92517042160034 2.80939626693726 2.71212220191956 2.6782078742981 2.71840000152588 2.85692167282104 2.8586790561676 2.9146454334259 2.90509343147278 2.98457622528076 2.98869609832764 3.0003502368927 3.09271621704102 3.55354404449463 3.87170243263245 3.94103646278381 3.76936507225037 3.52426195144653 3.37322187423706 3.18624424934387 2.97225642204285 3.73360657691956 4.43726015090942 4.61967706680298 4.22177267074585 4.07222986221313 3.49723291397095 3.17511367797852 3.08645939826965 3.35516571998596 3.58916759490967 3.47386240959167 3.57421350479126 3.71057772636414 3.41101598739624 2.7467794418335 2.798344373703 2.82755064964294 2.88003182411194 2.90132021903992 2.98079586029053 3.00129389762878 3.13263511657715 3.39286375045776 3.75804424285889 3.83175349235535 3.8867609500885 3.92837309837341 4.14392280578613 4.5871434211731 5.60278797149658 6.73327922821045 7.05983257293701 7.10285615921021 6.97686433792114 6.85080814361572 6.69559669494629 6.53545570373535 6.28112649917603 5.59648704528809 4.77062559127808 4.00665092468262 3.64457154273987 3.25002193450928 3.28022313117981 3.21122312545776 3.29750084877014 3.11840438842773 3.18482232093811 3.0922703742981 3.07350158691406 3.40934038162231 3.84765768051147 4.03911209106445 3.82728958129883 3.32709383964539 2.63381195068359 2.5741913318634 2.41897583007812
-1.28366661071777 -1.7154586315155 -1.96452653408051 -2.12899518013 -2.28236413002014 -2.36513781547546 -2.64951014518738 -2.77881813049316 -2.68023300170898 -2.44810247421265 -2.08697891235352 -1.51218903064728 -1.84688329696655 -2.28138184547424 -1.62951683998108 -2.11831092834473 -1.9127209186554 -1.55514848232269 -1.52015125751495 -1.75862681865692 -1.86088502407074 0.00625645322725177 1.51693105697632 -3.25730848312378 -3.29071378707886 -3.30641555786133 -3.31714057922363 -3.28182363510132 -3.26677894592285 -3.03007078170776 -2.64446806907654 -2.22460222244263 -2.03303527832031 -1.99633049964905 1.36463224887848 6.82959651947021 9.93603801727295 11.5253171920776 10.3081026077271 9.59363269805908 7.3351092338562 6.56709146499634 4.58436727523804 2.03832292556763 -0.569667041301727 -1.82787561416626 -1.62833631038666 -1.43602788448334 -1.25027060508728 -1.12129461765289 -1.00516176223755 -0.890899360179901 -0.774567246437073 -0.646001875400543 -0.521041810512543 -0.35954213142395 -0.280564606189728 -0.294333457946777 -0.190110668540001 -0.108574524521828 -0.0117897540330887 0.0108909457921982 0.0370867550373077 0.0409642308950424 0.0191697478294373 -0.0678131729364395 -0.184439852833748 -0.288114011287689 -0.403945714235306 -0.388172268867493 -0.161105871200562 -0.0173442270606756 0.00752691458910704 0.133974894881248 0.334756910800934 0.570279717445374 0.752091705799103 0.888023972511292 1.0788791179657 1.40429759025574 1.63274776935577 1.81073904037476 1.93062055110931 2.00188946723938 2.07345008850098 2.14562153816223 2.08997702598572 2.31906962394714 2.47801804542542 2.56371212005615 2.87620639801025 3.17942595481873 3.12104606628418 3.04342842102051 3.04304003715515 2.93816709518433 2.85796546936035 2.7817645072937 2.85837292671204 2.97411155700684 3.02535319328308 3.08018803596497 3.12952184677124 3.08390736579895 3.20521378517151 3.14254093170166 3.44772958755493 3.67170214653015 3.93630790710449 4.01231050491333 3.84178280830383 3.58379745483398 3.35837960243225 3.1823718547821 2.96500158309937 3.13246488571167 4.29449462890625 5.01916790008545 4.48986005783081 4.63522338867188 4.48850107192993 3.49247407913208 3.50755739212036 3.64814424514771 3.7771897315979 3.77862858772278 3.77622723579407 3.89502239227295 3.81543326377869 2.90442442893982 2.92511749267578 2.99289774894714 3.03204083442688 3.05308866500854 3.103191614151 3.11083126068115 3.24137401580811 3.57487940788269 3.86185359954834 4.01019096374512 4.1067008972168 4.27076005935669 4.66088771820068 5.39812469482422 7.02415037155151 7.353919506073 7.2995023727417 7.34874248504639 7.211829662323 7.07362270355225 6.91808748245239 6.76781320571899 6.49192333221436 5.79195594787598 4.92601537704468 3.90999126434326 3.59737944602966 3.31956124305725 3.34599041938782 3.27698254585266 3.36706876754761 3.28018951416016 3.23693656921387 3.15746927261353 3.15266537666321 3.5243124961853 3.96464800834656 4.16497945785522 3.94480872154236 3.43846845626831 2.70014357566833 2.64424204826355 2.35080552101135
-1.19223248958588 -1.62674558162689 -1.77917563915253 -2.0238311290741 -2.20527124404907 -2.38071250915527 -2.56966853141785 -2.67020559310913 -0.650451958179474 -2.28478693962097 -1.97525668144226 -1.82007217407227 -1.11027193069458 -2.26224160194397 -2.27163648605347 -2.05668449401855 -1.554802775383 -1.1025196313858 -1.23183751106262 -1.47756361961365 -2.02772569656372 -2.45971632003784 -2.98560428619385 -3.18425416946411 -3.1352322101593 -3.01443076133728 -3.01748585700989 -2.96090269088745 -2.91872549057007 -2.6733992099762 -2.37280321121216 -2.02922487258911 -1.92621040344238 0.254381895065308 5.08955574035645 10.0724401473999 13.0669364929199 16.524341583252 16.4336757659912 10.0162029266357 8.27035999298096 6.25168752670288 2.41588759422302 1.51012563705444 1.1264476776123 0.0259662605822086 0.587134063243866 0.965826690196991 -1.00077080726624 -0.885929822921753 -0.752906024456024 -0.639950811862946 -0.523115277290344 -0.37337189912796 -0.262149274349213 -0.209193214774132 -0.217074871063232 -0.243333876132965 -0.16238722205162 -0.0855741128325462 0.0201129354536533 0.0598806329071522 0.120954670011997 0.12243664264679 0.0555461123585701 -0.0031804486643523 -0.0979052037000656 -0.21912083029747 -0.212191477417946 -0.0635959357023239 -0.00603433651849627 0.0338717624545097 0.0884057879447937 0.195770129561424 0.396376192569733 0.629595398902893 0.906433999538422 1.07310652732849 1.18162822723389 1.49807453155518 1.71374928951263 1.87470006942749 1.97624826431274 1.91068458557129 2.02308464050293 2.13115882873535 2.1081805229187 2.12279295921326 2.3749041557312 2.49280285835266 2.88569521903992 3.19960141181946 3.18751239776611 3.21176147460938 3.31815719604492 3.13315677642822 2.99926352500916 2.92973113059998 3.1354923248291 3.12307977676392 3.17470288276672 3.32095909118652 3.36072063446045 3.33894014358521 3.38402795791626 3.31694459915161 3.68753576278687 3.96439003944397 4.006751537323 4.09031677246094 3.90253257751465 3.64770531654358 3.33176112174988 3.14310169219971 2.96301126480103 2.82421064376831 2.8370475769043 3.1177020072937 3.8298876285553 5.01073598861694 4.5498161315918 4.03635311126709 3.69791507720947 3.87443041801453 3.97004318237305 3.99965882301331 3.97547245025635 3.9953978061676 3.8999924659729 3.07615113258362 3.11575388908386 3.19444489479065 3.23280668258667 3.26276326179504 3.27037024497986 3.36359643936157 3.41263771057129 3.67628479003906 4.01739883422852 4.18897294998169 4.27310466766357 4.49625110626221 4.97964715957642 6.04407405853271 7.34986209869385 7.67886257171631 7.70293235778809 7.53089380264282 7.44879627227783 7.33226919174194 7.1603045463562 6.88176536560059 6.48789405822754 5.95854997634888 5.08489942550659 4.01853179931641 3.67600607872009 3.37885665893555 3.40598344802856 3.46283316612244 3.39186930656433 3.36678624153137 3.26438117027283 3.1348512172699 3.44893360137939 4.09332752227783 4.32914924621582 4.27505254745483 4.07519865036011 3.54657649993896 2.76780223846436 2.71540689468384 2.40568661689758
-0.936575293540955 -1.4571316242218 -1.68496537208557 -1.92367303371429 -2.12347555160522 -2.34687399864197 -2.50714492797852 -2.64793014526367 -2.54526901245117 -2.20862317085266 -1.92256009578705 -0.936540424823761 1.4596643447876 -1.93594741821289 -2.08278036117554 -1.73261499404907 -0.893370985984802 -0.864936947822571 -1.01425790786743 -1.26771914958954 -1.91040301322937 -2.60467219352722 -2.88070702552795 -2.9151623249054 -2.93231630325317 -2.81465220451355 -2.85235118865967 -2.74960780143738 -2.62366461753845 -2.36416053771973 -2.02705240249634 -1.84351742267609 -1.82783651351929 1.57797563076019 7.89139842987061 5.12583446502686 -0.797414064407349 0.439746260643005 6.82539463043213 11.8222789764404 9.90488815307617 4.32432317733765 -0.582184076309204 0.466764807701111 0.440272152423859 -0.89119952917099 -0.458004713058472 1.47231411933899 -0.410554528236389 -0.668843507766724 -0.558308959007263 -0.436381846666336 -0.26078936457634 -0.206430599093437 -0.080043725669384 0.119857050478458 0.12896041572094 -0.0550391227006912 -0.0818509235978127 -0.044278547167778 0.0812270045280457 0.103651538491249 0.17565743625164 0.163105800747871 0.0902730152010918 0.0174985621124506 -0.0694190636277199 -0.184781402349472 -0.149317547678947 0.116750828921795 0.129234984517097 0.054090391844511 0.149309977889061 0.29189732670784 0.45186921954155 0.663810074329376 0.93938809633255 1.19587707519531 1.39268636703491 1.58892679214478 1.7544150352478 1.93536233901978 2.01708579063416 1.94133269786835 2.03623986244202 2.13289213180542 2.1068422794342 2.10514283180237 2.33249378204346 2.77795338630676 3.01545763015747 3.20393109321594 3.15496635437012 3.48308157920837 3.43995237350464 3.44870710372925 3.20982909202576 3.56880950927734 3.13327860832214 3.30531430244446 3.41053628921509 3.55500268936157 3.60379767417908 3.61534667015076 3.54689240455627 3.51325082778931 3.75330805778503 4.08311176300049 4.17205095291138 4.11101484298706 3.91838335990906 3.66944479942322 3.38209080696106 3.15893745422363 2.93674683570862 2.94497203826904 2.94530296325684 3.1356794834137 3.24716353416443 3.73247742652893 4.69932746887207 3.91725492477417 3.81761980056763 3.95743322372437 4.07109594345093 4.12292814254761 4.11750268936157 4.07466125488281 3.95274114608765 3.22596001625061 3.29079365730286 3.37376761436462 3.40850186347961 3.43673896789551 3.45001292228699 3.53355979919434 3.71584963798523 3.95498943328857 4.2227087020874 4.37865781784058 4.47278594970703 4.68274688720703 5.18396091461182 6.27493906021118 7.60153770446777 7.94264507293701 7.96455526351929 7.87063074111938 7.66471147537231 7.47722101211548 7.3473048210144 7.04942512512207 6.27627229690552 5.86943054199219 5.25564336776733 4.14726829528809 3.66392374038696 3.47773265838623 3.5162193775177 3.56321930885315 3.37849283218384 3.48119640350342 3.328857421875 3.35330176353455 3.74580407142639 4.22730445861816 4.478111743927 4.23846054077148 3.92515444755554 3.65495991706848 2.8598325252533 2.78650593757629 2.46930170059204
-0.683611989021301 -1.16222751140594 -1.51987421512604 -1.73402070999146 -2.03076410293579 -2.23777890205383 -2.31495332717896 -2.41970300674438 -2.34668397903442 -2.03263688087463 -1.87449824810028 -0.226242005825043 4.69388628005981 -1.63680899143219 -1.76585733890533 -1.47429192066193 2.7977147102356 -0.833081066608429 -0.88066440820694 -1.13197374343872 -1.62083077430725 -2.32994651794434 -2.60995864868164 -2.64618301391602 -2.71958088874817 -2.67345643043518 -2.56567144393921 -2.42561626434326 -2.22814202308655 -1.99637281894684 -1.7712630033493 -1.69072031974792 -1.74210631847382 0.784794270992279 -2.20969986915588 -2.47343158721924 -2.59320044517517 -1.58429563045502 0.0467184819281101 2.50677251815796 -2.39421677589417 -2.23466658592224 -1.97235286235809 1.2686505317688 1.26280677318573 -1.10266613960266 -0.590230405330658 2.49207472801208 -0.222040459513664 -0.432858973741531 -0.315974235534668 -0.259707510471344 -0.157186314463615 0.372892320156097 0.647996664047241 0.609077513217926 0.600035309791565 0.455128133296967 0.0712011307477951 0.0248378869146109 0.182001918554306 0.194416597485542 0.196848183870316 0.175851583480835 0.104840911924839 0.0330665595829487 -0.0585881173610687 -0.175558477640152 0.0797902196645737 0.157404139637947 0.341065049171448 0.191843941807747 0.299102813005447 0.527033805847168 0.626588404178619 0.736509263515472 1.00347661972046 1.27049541473389 1.65632581710815 1.72968828678131 1.83555829524994 2.01202082633972 2.08348941802979 2.03845620155334 2.11505365371704 2.13120651245117 2.10787773132324 2.14402532577515 2.37743091583252 2.87636065483093 3.19036531448364 3.07857203483582 3.15515375137329 3.64288234710693 3.21613693237305 3.50487303733826 3.45635747909546 3.18436646461487 3.50930023193359 3.4644558429718 3.59807825088501 3.79237771034241 3.87881588935852 3.90352845191956 3.85987520217896 3.65139579772949 3.80739116668701 4.14056539535522 4.23219394683838 4.04325866699219 3.78018355369568 3.59702610969543 3.42823791503906 3.20860648155212 3.06970024108887 3.13145613670349 3.11684131622314 3.34872555732727 3.46679520606995 3.37873721122742 3.40582871437073 3.74278402328491 4.02026748657227 4.15507745742798 4.18967151641846 4.20896100997925 4.26897001266479 4.14289522171021 3.77388691902161 3.38313722610474 3.45764112472534 3.56475925445557 3.58716106414795 3.60594129562378 3.64521813392639 3.77263259887695 4.09506750106812 4.47145795822144 4.59475183486938 4.57991409301758 4.687171459198 4.90670490264893 5.41979122161865 6.6963038444519 7.95400190353394 8.30580615997314 8.29972553253174 8.13298797607422 8.00633811950684 7.78927993774414 7.6302661895752 7.32766771316528 6.52608680725098 5.49926424026489 4.98507404327393 4.31830215454102 3.57436537742615 3.55948495864868 3.58100295066833 3.67597723007202 3.49485802650452 3.56352591514587 3.43171906471252 3.44132781028748 3.88663673400879 4.367844581604 4.62025547027588 4.38257169723511 3.80310153961182 3.42574667930603 2.87867784500122 2.83881211280823 2.5236189365387
-0.369525551795959 -0.796863675117493 -1.23955273628235 -1.47465837001801 -1.71541607379913 -2.03655934333801 -2.18968939781189 -2.2170729637146 -2.10919165611267 -1.70213651657104 -1.63015305995941 -1.82204902172089 -2.01130604743958 0.0366644486784935 -1.44017612934113 -1.16127169132233 -0.972678184509277 -0.879607379436493 -0.786229372024536 -1.0499507188797 -1.49092578887939 -2.09370279312134 -2.30741858482361 -2.3829517364502 -2.42069482803345 -2.41991949081421 -2.20377707481384 -2.02656865119934 -1.82669579982758 -1.68612682819366 -1.57226455211639 -1.52767372131348 -1.63242316246033 -1.92562580108643 -2.14175367355347 -2.35149908065796 -1.13576626777649 0.0146166048943996 -0.876627326011658 -2.58180475234985 -2.35505223274231 -2.14498233795166 -1.9660496711731 -1.81017327308655 -1.67695581912994 -1.50122165679932 -1.28405797481537 -0.95517510175705 -0.431835412979126 -0.289046347141266 -0.213759183883667 0.12431500852108 0.694633305072784 0.837192833423615 0.881765484809875 0.839747965335846 0.78038889169693 0.69263219833374 0.37343230843544 0.191901028156281 0.242501705884933 0.280890226364136 0.220248103141785 0.151974558830261 0.104584582149982 0.0414403975009918 -0.0549962110817432 -0.174018174409866 -0.203975901007652 0.152838155627251 0.452816963195801 0.37100887298584 0.435330718755722 0.641328692436218 0.928500652313232 1.07237708568573 1.13416922092438 1.33721280097961 1.71372842788696 1.92614507675171 1.92230546474457 2.1002984046936 2.16520571708679 2.0944561958313 2.15765476226807 2.10573244094849 2.09401202201843 2.16847538948059 2.38887596130371 2.89686679840088 3.21470069885254 3.13845825195312 3.05508017539978 2.99716424942017 3.35470175743103 3.48386406898499 3.16170763969421 2.8642246723175 3.12589049339294 3.52588963508606 3.92602467536926 4.01097965240479 4.14214277267456 4.24191761016846 4.24212408065796 3.8584988117218 3.81557178497314 4.19656801223755 4.27841711044312 4.09282922744751 3.81282496452332 3.56952333450317 3.41120624542236 3.1794536113739 3.22762393951416 3.3418116569519 3.38836669921875 3.63442730903625 3.72353768348694 3.44138526916504 3.37554144859314 3.74887156486511 4.03960275650024 4.24039220809937 4.3224081993103 4.32011651992798 4.36920118331909 4.21937894821167 3.78100395202637 3.55710434913635 3.69374251365662 3.82031965255737 3.79194021224976 3.80239248275757 3.86067795753479 3.96649408340454 4.30599880218506 4.71088790893555 4.85358428955078 4.96431398391724 5.10703992843628 5.58478164672852 6.4714035987854 8.40927219390869 8.78421974182129 8.66939926147461 8.67103576660156 8.49681854248047 8.27851104736328 8.14060401916504 7.96842765808105 7.63742065429688 6.80695056915283 5.70200634002686 4.77824544906616 4.17258548736572 3.68427729606628 3.70947098731995 3.66092753410339 3.77895855903625 3.69770121574402 3.62372756004333 3.53536605834961 3.53931331634521 4.0305700302124 4.53468656539917 4.78412008285522 4.52583074569702 3.93005609512329 3.07844185829163 2.94851493835449 2.75229549407959 2.52577209472656
-0.0347599051892757 -0.437108218669891 -0.801854431629181 -1.17620396614075 -1.4552675485611 -1.81338953971863 -1.87515223026276 -1.86994588375092 -1.78605437278748 -1.48827731609344 -1.40482985973358 -1.70553267002106 -1.98063826560974 -1.57520627975464 -1.09601712226868 -0.82379561662674 -0.710163831710815 -0.767236471176147 -0.859827399253845 -0.983332574367523 -1.44809198379517 -2.01685047149658 -2.10445046424866 -2.12227320671082 -2.12783622741699 -2.03243780136108 -1.89004397392273 -1.70356285572052 -1.53341162204742 -1.41101884841919 -1.33944392204285 -1.26882791519165 -1.46962356567383 -1.81268775463104 -2.06847476959229 -2.25070261955261 -2.43455266952515 -2.59796524047852 -2.63761043548584 -2.52932739257812 -2.2006049156189 -1.97917008399963 -1.7907098531723 -1.57809495925903 -1.42417275905609 -1.30799806118011 -1.11347329616547 -0.838641166687012 -0.367353826761246 -0.245539501309395 0.224180683493614 0.776910841464996 1.02325832843781 1.10812437534332 1.12206947803497 1.07626366615295 1.02137291431427 0.953830718994141 0.683507204055786 0.281409293413162 0.295400142669678 0.323874741792679 0.258171826601028 0.147013708949089 0.08852918446064 0.0391977354884148 -0.0478261224925518 -0.17704875767231 -0.255105882883072 0.18606735765934 0.412882775068283 0.524814009666443 0.603033304214478 0.778444409370422 1.06613326072693 1.34308886528015 1.44968008995056 1.48761260509491 1.7685489654541 1.96903729438782 2.12063956260681 2.26741647720337 2.25138139724731 2.1709611415863 2.21028900146484 2.12958407402039 2.14043188095093 2.34675550460815 2.3321681022644 2.9214870929718 3.25277638435364 3.17029237747192 3.07055282592773 2.79619884490967 2.93916797637939 3.08994269371033 2.94690012931824 2.92053651809692 3.14938592910767 3.18530321121216 3.53653836250305 4.07679414749146 4.58181667327881 4.80214929580688 4.43573236465454 3.98372006416321 3.95065355300903 4.22788047790527 4.34387063980103 4.13980484008789 3.85767197608948 3.50589942932129 3.36491870880127 3.42854189872742 3.57404637336731 3.69049072265625 3.76513862609863 3.94234204292297 4.01162433624268 3.69858407974243 3.47484874725342 3.79840064048767 4.07797288894653 4.28259658813477 4.39123678207397 4.48769187927246 4.37516450881958 4.27078008651733 3.79973745346069 3.83398032188416 3.98148083686829 4.05829000473022 4.02923679351807 4.03106307983398 4.08158540725708 4.16404342651367 4.52629804611206 4.94990015029907 5.09675312042236 5.2077054977417 5.44309759140015 6.00315618515015 7.23917579650879 8.814453125 9.2131929397583 9.16253185272217 8.97326374053955 8.79875659942627 8.64182758331299 8.42564105987549 8.16160106658936 7.64629030227661 7.01177597045898 5.94662427902222 4.7425365447998 4.14493942260742 3.79752039909363 3.82062244415283 3.92055821418762 3.82621264457703 3.82311463356018 3.65314769744873 3.54620742797852 3.63984322547913 4.27092027664185 4.7095947265625 4.95982933044434 4.68260765075684 4.07190132141113 3.18988633155823 3.02722406387329 2.70199584960938 2.38550186157227
0.217888668179512 -0.106934823095798 -0.423218041658401 -0.794315814971924 -1.24882853031158 -1.53445637226105 -1.64801967144012 -1.60834717750549 -1.52887511253357 -1.2272322177887 -1.096519947052 -1.35589075088501 -1.33457565307617 -1.20957958698273 -0.870106637477875 -0.344327569007874 -0.111197181046009 -0.234118551015854 -0.470750570297241 -1.17369866371155 -1.54306209087372 -1.88426923751831 -1.95282423496246 -1.94978368282318 -1.92879247665405 -1.90249466896057 -1.72350811958313 -1.47967946529388 -1.27283108234406 -1.10214841365814 -1.02399432659149 -0.964552938938141 -1.22590398788452 -1.56066024303436 -1.80308401584625 -2.00928974151611 -2.25299835205078 -2.46777892112732 -2.31124567985535 -2.12659120559692 -1.97540295124054 -1.78116536140442 -1.5577187538147 -1.33933079242706 -1.14972817897797 -0.971261262893677 -0.811360657215118 -0.54064679145813 -0.292707324028015 0.198017746210098 0.689612567424774 1.09005665779114 1.31779301166534 1.4677187204361 1.50798451900482 1.34398603439331 1.29181325435638 1.23403227329254 0.948075115680695 0.35155525803566 0.324058204889297 0.374308794736862 0.298594802618027 0.177938625216484 0.0883171930909157 -0.0199927911162376 -0.0835279449820518 -0.199694454669952 -0.274148523807526 0.124322906136513 0.294501513242722 0.583544671535492 0.769778966903687 1.02696979045868 1.260666847229 1.49747920036316 1.67051994800568 1.79087364673615 1.87754344940186 2.00501346588135 2.21675324440002 2.32646989822388 2.16179776191711 2.22043538093567 2.28002071380615 2.15998959541321 2.1092541217804 2.53882598876953 2.487797498703 2.93605327606201 3.28815889358521 3.20277500152588 3.07907009124756 2.8128969669342 2.57443308830261 2.83933258056641 2.87846612930298 3.40526700019836 3.26630759239197 3.25644278526306 3.53819179534912 3.78277659416199 3.68486618995667 4.18298292160034 4.49033498764038 4.20955944061279 4.27385759353638 4.33000993728638 4.41328716278076 4.19244766235352 3.90399813652039 3.53344869613647 3.33988070487976 3.59507441520691 3.82532572746277 4.02950096130371 4.37442636489868 4.29227495193481 4.28370952606201 3.95460343360901 3.69557476043701 3.87441086769104 4.13010597229004 4.33414793014526 4.46296405792236 4.57186508178711 4.4761757850647 4.37901544570923 4.06350040435791 4.09363508224487 4.24100303649902 4.34731245040894 4.30782699584961 4.3733172416687 4.45227670669556 4.39071893692017 4.76168060302734 5.20611000061035 5.35435152053833 5.46784639358521 5.70309209823608 6.28019094467163 7.57518196105957 9.25075149536133 9.66143131256104 9.59186553955078 9.40562915802002 9.13544940948486 8.94659423828125 8.78209209442139 8.45243644714355 7.56981420516968 6.91511106491089 6.21735572814941 4.93073987960815 4.26707983016968 3.88172435760498 3.91086268424988 4.03103637695312 3.84079003334045 3.93728375434875 3.76539635658264 3.76180195808411 4.20992040634155 4.93516635894775 5.22090482711792 5.09636974334717 4.85428905487061 4.20132207870483 3.29693293571472 3.11297988891602 2.77846002578735 2.32924127578735
