NCOLS 174
NROWS 31
XLLCORNER 353696
YLLCORNER 6701024
CELLSIZE 16 
NODATA_value -3.4e+38 
6.39534664154053 8.51795387268066 9.30739879608154 9.88118743896484 10.3721904754639 11.3715000152588 12.462064743042 23.2290172576904 37.343807220459 15.1786260604858 20.2009315490723 28.9604473114014 35.4446563720703 31.1441764831543 11.6908531188965 21.0533504486084 12.9426765441895 7.93880891799927 2.91064929962158 1.7618887424469 5.7751202583313 1.11530995368958 10.4686870574951 2.68246984481812 3.44088864326477 7.62941455841064 14.8083429336548 15.7930812835693 13.5885715484619 22.5340919494629 1.09236574172974 1.866379737854 6.5108208656311 8.2503604888916 4.22051048278809 9.91056632995605 10.4717054367065 5.04216623306274 2.95084142684937 4.36571598052979 3.74360656738281 9.05644130706787 5.9172797203064 6.79884910583496 18.9122714996338 15.4962272644043 6.33800411224365 12.0520343780518 16.153902053833 16.2983894348145 16.8687877655029 19.9812927246094 8.04613018035889 13.4616212844849 3.9893479347229 9.92395687103271 15.5000696182251 9.51710224151611 30.3533020019531 29.6167163848877 4.16717433929443 11.9357748031616 9.44150543212891 9.08220958709717 8.22369194030762 5.76830863952637 16.3528518676758 3.45726633071899 4.53964614868164 3.46912527084351 3.94622588157654 4.27834844589233 5.58251476287842 3.63530850410461 5.24443006515503 5.28465938568115 4.94629812240601 4.97980737686157 4.92489576339722 4.02520370483398 2.330162525177 2.40275955200195 2.74673557281494 2.64767575263977 2.60680437088013 2.70283150672913 2.42759656906128 2.46050071716309 1.62351143360138 1.02526128292084 0.92960113286972 0.414013355970383 0.12612372636795 0.238120824098587 0.228268459439278 -0.0324215069413185 -0.456577867269516 -0.562507808208466 -0.480834901332855 -0.305090397596359 -0.264383643865585 1.25534784793854 2.18942594528198 0.346851140260696 0.742962062358856 0.474037826061249 1.6386616230011 2.5027813911438 1.01185095310211 0.718022763729095 0.72564160823822 0.177214816212654 0.198136731982231 0.675114154815674 0.226099655032158 2.75580716133118 2.46713399887085 3.13599228858948 3.10314011573792 3.79272484779358 2.4454927444458 3.01590657234192 1.90674781799316 2.33179712295532 2.21898031234741 5.2141318321228 1.33524322509766 1.51910948753357 11.0353860855103 1.31139326095581 0.753007709980011 2.96865367889404 1.6764909029007 0.909336507320404 0.797076284885406 2.6690628528595 7.58297872543335 7.01065921783447 2.89487051963806 2.08995842933655 2.25708913803101 2.24441576004028 2.23966002464294 2.54849052429199 2.88797855377197 2.64131283760071 2.79246544837952 3.67348337173462 3.56278443336487 3.51136994361877 3.73328804969788 4.01995134353638 5.67069482803345 5.96101570129395 6.07508897781372 5.15627288818359 4.32805919647217 4.22713470458984 5.12378692626953 2.10508418083191 3.07496094703674 0.954470992088318 0.865955412387848 0.841586112976074 1.70943546295166 1.76436257362366 0.797360122203827 0.732825100421906 0.631551027297974 0.577188789844513 1.29936993122101 1.24869954586029 1.78750014305115 1.42178475856781
6.58871841430664 8.47592639923096 9.40736198425293 9.83584213256836 10.4680805206299 11.122145652771 16.250675201416 21.3566188812256 40.622673034668 18.6959590911865 21.990083694458 22.099027633667 28.3659629821777 49.7217788696289 37.0443344116211 21.1250495910645 15.8457775115967 21.1246871948242 18.1254081726074 4.36052656173706 0.988285422325134 3.36920309066772 2.66233086585999 1.61796045303345 3.30431485176086 7.8306360244751 12.4691610336304 22.0113430023193 18.5393829345703 27.4383010864258 25.8212108612061 5.9015007019043 6.0827169418335 9.96522521972656 25.2815742492676 31.5014019012451 9.34930515289307 1.48095405101776 12.798321723938 10.7733087539673 7.22097110748291 6.94188499450684 12.0646133422852 12.855094909668 12.4673366546631 19.1554698944092 11.3883066177368 14.345534324646 10.2497272491455 10.6461915969849 12.997896194458 1.70008456707001 6.18661260604858 9.4734935760498 5.40540885925293 6.84705638885498 5.76970338821411 19.6231231689453 23.3935623168945 30.0115261077881 24.0109710693359 11.8264636993408 9.92755317687988 4.68841600418091 12.8008308410645 7.77538394927979 23.53515625 3.11948823928833 3.12378549575806 9.81660842895508 17.4347343444824 4.60497665405273 32.3275108337402 5.02834701538086 5.12009048461914 4.79330921173096 4.75870180130005 4.65910339355469 3.79336905479431 2.22634649276733 2.2846314907074 2.35850858688354 1.84595859050751 1.73794734477997 1.97878885269165 2.3765811920166 2.41075730323792 1.59378445148468 0.981736600399017 0.85082221031189 0.339692264795303 0.0664528757333755 -0.0818240270018578 -0.03629981726408 0.142001762986183 -0.101413369178772 -0.584132730960846 -0.527887284755707 -0.33406338095665 -0.295995652675629 0.958124160766602 1.7432507276535 0.0595317892730236 0.535619616508484 0.404246777296066 1.30313742160797 2.01046180725098 0.635342717170715 0.516634702682495 0.503890216350555 0.514392971992493 0.159335315227509 0.60713267326355 0.200403690338135 2.49777030944824 2.30049467086792 2.91211891174316 2.87109065055847 3.5143780708313 2.27960181236267 2.81062936782837 1.7673054933548 2.14996528625488 1.87287747859955 3.68805623054504 12.9941034317017 1.52194142341614 0.88097482919693 0.0874704942107201 4.29993677139282 15.3105974197388 1.28791010379791 1.28601253032684 6.85619354248047 6.07640600204468 3.26827144622803 2.72318148612976 10.6771287918091 12.6157302856445 2.1918830871582 2.17351531982422 2.15496587753296 2.25899147987366 2.76307058334351 2.6371328830719 2.65296578407288 3.44481778144836 3.36998224258423 3.2998833656311 3.49887204170227 3.65294742584229 5.21344757080078 5.44040107727051 5.53456258773804 4.80502510070801 3.97315549850464 3.68864846229553 4.50476455688477 1.79071509838104 2.78094530105591 0.906867563724518 0.822312831878662 0.721656680107117 0.647090911865234 0.680744469165802 0.719133615493774 0.560736656188965 0.512393712997437 0.439509987831116 0.383423507213593 0.373839348554611 0.397008180618286 0.746744513511658 1.21109259128571
6.49632024765015 8.92129421234131 9.34933185577393 9.7675313949585 10.6436920166016 12.6102094650269 15.1182327270508 23.6869163513184 35.1178169250488 16.8312854766846 19.2590160369873 16.2225131988525 28.0528297424316 29.7848968505859 20.453426361084 19.3896636962891 20.3374309539795 12.279990196228 12.7339744567871 20.6914196014404 6.2309513092041 5.90024900436401 0.473115056753159 3.20208048820496 3.76305174827576 13.4411182403564 11.8367385864258 17.4193058013916 10.182201385498 15.4474849700928 12.7803907394409 5.95950937271118 15.0552654266357 9.78271198272705 24.633279800415 19.2502059936523 25.7174224853516 3.00152468681335 5.31926298141479 4.66469192504883 4.90253639221191 5.97436428070068 5.44706630706787 8.86131572723389 7.48044157028198 8.70802211761475 11.4498310089111 9.20897102355957 8.46383666992188 9.78553771972656 25.3110237121582 3.95040011405945 3.78258728981018 12.9866161346436 7.00425148010254 28.7551937103271 17.1518020629883 14.6797533035278 26.0709552764893 18.9139213562012 22.7474594116211 24.0826282501221 25.3134689331055 12.2693386077881 12.6653175354004 5.00542545318604 10.4775638580322 2.82456970214844 3.54988646507263 6.76795148849487 4.2916111946106 18.5586090087891 4.89266633987427 4.98368692398071 4.93496799468994 4.59225749969482 4.47061014175415 3.60340523719788 2.12551259994507 1.96567463874817 2.0431125164032 1.54192566871643 1.2697776556015 1.30266034603119 1.39025032520294 1.65125560760498 1.28397715091705 0.975129783153534 0.835285604000092 0.311087965965271 0.0239322353154421 -0.134986251592636 -0.440993577241898 -0.0602730289101601 -0.250363826751709 -0.205888077616692 -0.546062529087067 -0.373145401477814 -0.331193417310715 0.728256642818451 1.37266325950623 -0.102525435388088 0.319227039813995 0.364115953445435 1.00419247150421 1.61292397975922 0.403450340032578 0.25602775812149 0.211210489273071 0.205275565385818 0.0958062037825584 0.213615864515305 0.52258163690567 2.27219176292419 2.15382647514343 2.7204921245575 2.66010999679565 3.25063109397888 2.10917162895203 2.61672616004944 1.64381146430969 1.99251413345337 1.61331677436829 2.83170866966248 6.181480884552 11.3751602172852 11.5734596252441 -0.185284420847893 -0.418867945671082 1.2390068769455 11.6522722244263 4.76886129379272 7.10997009277344 3.0794792175293 2.54050755500793 4.87877082824707 2.61706972122192 1.99574255943298 2.1090042591095 2.10633683204651 2.08834886550903 2.17649912834167 2.38030552864075 2.69158029556274 2.53400135040283 3.2920196056366 3.25043797492981 3.16846418380737 3.289794921875 3.36052989959717 4.81379842758179 4.99681425094604 5.08398771286011 4.48266410827637 3.67561769485474 3.66332745552063 3.59130764007568 1.0582560300827 1.86522722244263 0.722000598907471 0.701675832271576 0.681796789169312 0.611475586891174 0.531442105770111 0.45809343457222 0.370499283075333 0.333293229341507 0.324880987405777 0.29269090294838 0.259415835142136 0.230691149830818 0.217226460576057 1.12103450298309 3.61775422096252
8.41732883453369 8.89138507843018 9.29868793487549 10.1466941833496 11.5044870376587 13.7089405059814 16.6239433288574 19.924295425415 39.9232749938965 19.1560287475586 35.4984893798828 22.7381210327148 18.8570537567139 22.2424449920654 36.3792037963867 42.9583473205566 30.6912364959717 23.3818435668945 18.0154800415039 7.54492616653442 14.0118770599365 20.000581741333 1.53028213977814 2.24208736419678 8.73771953582764 9.83649158477783 15.6664361953735 15.2572145462036 14.2100667953491 14.6893148422241 18.807445526123 11.6964845657349 21.1700210571289 20.5527057647705 28.0702114105225 31.5405387878418 37.207088470459 23.4871253967285 8.51325607299805 3.86612629890442 5.33846044540405 4.59884119033813 3.56602668762207 4.25228786468506 6.69111776351929 7.76905584335327 18.1344699859619 20.6566257476807 11.9957141876221 7.1933388710022 3.09165620803833 3.06990623474121 6.40077829360962 6.32536506652832 12.5755214691162 9.28654098510742 14.1969938278198 19.4721450805664 13.87375831604 13.1517515182495 11.8557586669922 12.3324909210205 8.01174068450928 6.68360328674316 2.94721746444702 7.79725122451782 7.12277555465698 4.19419384002686 4.12891340255737 13.8205194473267 8.9966459274292 4.818039894104 4.87270593643188 4.77919864654541 4.46860361099243 4.35509824752808 3.51004672050476 2.04608941078186 0.859147667884827 0.850057780742645 1.0000513792038 0.609091520309448 0.431863129138947 0.880270421504974 0.898636281490326 1.07127153873444 0.913785874843597 0.822137653827667 0.334663569927216 -0.032030388712883 -0.155249506235123 -0.513105094432831 -0.106521874666214 -0.537568509578705 -0.598843157291412 -0.539661347866058 -0.5335613489151 -0.499159276485443 0.512038111686707 1.01571452617645 -0.298666387796402 0.14455883204937 0.262437373399734 0.700785338878632 1.24933278560638 0.37626039981842 0.0405349060893059 0.0235243123024702 0.0207855999469757 0.0431102812290192 0.155497416853905 0.376368314027786 1.92536377906799 2.13294291496277 2.53415107727051 2.44876646995544 3.01367902755737 1.94296967983246 2.42075085639954 1.5114152431488 1.83522927761078 1.45953381061554 1.74144887924194 3.8695433139801 6.58250331878662 5.46185731887817 20.5413684844971 23.9561042785645 20.9308891296387 6.77881097793579 9.27685737609863 4.09762144088745 1.08869659900665 2.70276188850403 7.62594556808472 2.20079922676086 4.53418445587158 1.53563988208771 1.97046530246735 2.03631472587585 2.10302042961121 2.29666614532471 2.588059425354 2.36473536491394 3.10054564476013 3.06801986694336 2.93016219139099 3.08896064758301 3.14506649971008 4.46987247467041 4.6152663230896 4.71361351013184 3.68363642692566 4.31179475784302 3.54210925102234 8.29330062866211 8.14953804016113 7.21881866455078 0.393973469734192 0.567085027694702 0.505118727684021 0.177257284522057 0.087152436375618 0.349057376384735 0.267422735691071 0.193201094865799 0.138194069266319 -0.0685136020183563 0.174654021859169 0.164059340953827 0.148545652627945 1.02654612064362 3.2940685749054 2.02708458900452
8.39160823822021 8.84047794342041 9.64260482788086 10.5263252258301 12.60218334198 14.2177419662476 14.6786203384399 23.1350612640381 28.0906867980957 32.3229370117188 26.0093269348145 18.9747886657715 19.197811126709 18.6539211273193 28.2420635223389 21.0899715423584 18.8159694671631 19.8687610626221 19.6001434326172 11.9845733642578 16.5029163360596 10.0746717453003 8.10313129425049 4.54732465744019 8.16250896453857 12.1121892929077 20.5295639038086 9.95779228210449 12.0660381317139 14.4746131896973 14.3225889205933 12.5170745849609 15.7049255371094 23.0543231964111 19.78879737854 25.7141246795654 16.7426280975342 24.1418342590332 16.6601867675781 17.1699237823486 4.93221712112427 16.0066146850586 6.07224225997925 17.4804840087891 7.7597713470459 9.56654357910156 15.0405626296997 11.7578601837158 5.34995651245117 7.84412717819214 3.89313459396362 2.83796811103821 5.63782453536987 8.23175144195557 18.961597442627 11.4087772369385 9.73332214355469 7.70272922515869 8.45930099487305 10.2422513961792 8.07602214813232 4.64204597473145 6.3952898979187 17.4683685302734 7.04994964599609 28.3321285247803 8.30492782592773 4.0097770690918 4.20580387115479 4.96229648590088 4.71117782592773 4.80080795288086 4.66821670532227 4.38230657577515 4.27277660369873 3.46377992630005 2.0332293510437 1.02710342407227 0.834169983863831 0.737545371055603 0.613932311534882 0.836324036121368 0.515709221363068 0.697266638278961 0.572725713253021 0.536319553852081 0.303136438131332 0.201782912015915 0.017241932451725 0.0310644544661045 -0.235715687274933 -0.129895076155663 -0.519826114177704 -0.592194199562073 -0.570074796676636 -0.641453266143799 -0.553410708904266 0.30560439825058 0.740875780582428 -0.446024179458618 0.0250944178551435 0.13454495370388 0.411963701248169 0.900051057338715 -0.0181312691420317 -0.195652350783348 -0.167346492409706 -0.0324981473386288 -0.00759932398796082 0.109331883490086 0.265919327735901 1.7637779712677 1.88663709163666 2.34353351593018 2.27090311050415 2.79415369033813 1.76506674289703 2.24891996383667 1.38075959682465 1.6873950958252 1.31924426555634 1.52833926677704 2.71414804458618 4.23041296005249 3.61487483978271 10.1938714981079 12.0626583099365 10.1981945037842 4.06090593338013 4.37246608734131 2.99187922477722 19.1241264343262 0.692906975746155 0.752715110778809 2.52149271965027 2.48430752754211 7.40217399597168 1.90468442440033 1.83107256889343 2.03318047523499 2.20656299591064 2.50063991546631 2.28114056587219 2.95290279388428 2.95930457115173 2.82184267044067 2.95211291313171 2.4533703327179 3.84949350357056 4.30201864242554 4.37874937057495 3.73546361923218 4.08531951904297 3.36213135719299 4.66582345962524 4.13966751098633 3.41156530380249 7.52781200408936 2.85851383209229 2.20539474487305 7.32202005386353 2.90309071540833 0.18834987282753 0.0977405458688736 0.103317387402058 0.0316841788589954 5.9914870262146 -0.349649161100388 -0.240892559289932 -0.273603916168213 0.613957345485687 3.02575731277466 1.84683656692505 2.37455201148987
8.39987850189209 9.17668533325195 9.81752586364746 11.5484790802002 13.1095838546753 13.4315700531006 16.1097736358643 17.5869522094727 23.5342750549316 29.2747402191162 17.5726375579834 14.5914516448975 17.9563579559326 20.7846374511719 18.3386001586914 29.6820831298828 20.6522407531738 30.841890335083 12.197247505188 10.7421827316284 17.0710487365723 8.18490219116211 4.06692552566528 6.35119009017944 9.88396167755127 11.71311378479 20.014554977417 6.76468753814697 11.3607025146484 10.7587776184082 10.0228233337402 14.471996307373 16.2216033935547 17.6196975708008 20.7677555084229 14.7321243286133 16.3537826538086 16.5839862823486 12.569896697998 4.82537221908569 9.53813362121582 7.22705507278442 5.58036231994629 5.84573554992676 6.85151863098145 9.27505588531494 10.6310243606567 7.92890214920044 5.31492471694946 1.53657257556915 1.57967483997345 3.32126379013062 4.22700929641724 5.60059833526611 8.28169059753418 10.043041229248 6.89134502410889 9.06122207641602 7.78441953659058 23.7345390319824 31.8265228271484 18.0195026397705 19.8406734466553 21.7204971313477 18.0908851623535 28.6777095794678 12.8842163085938 3.97245812416077 8.14732837677002 4.44265031814575 4.77375984191895 4.59525346755981 4.33494472503662 4.20523357391357 3.40802764892578 2.37573432922363 2.02393054962158 1.57512938976288 1.28476738929749 0.773096799850464 0.56415069103241 0.633337557315826 0.610602080821991 0.42527636885643 0.397550582885742 0.323748856782913 0.161346077919006 -0.0632783472537994 -0.157766819000244 -0.324048280715942 -0.134555414319038 -0.512377560138702 -0.617499887943268 -0.589849174022675 -0.669663190841675 -0.594113826751709 0.118752405047417 0.514060616493225 -0.499091416597366 -0.0457204505801201 0.0330879166722298 0.144533976912498 0.580396771430969 -0.320961117744446 -0.294445246458054 -0.249251067638397 -0.0938085243105888 -0.0673365741968155 0.0507234185934067 0.170020863413811 1.62545835971832 1.6753671169281 2.15962553024292 2.08705806732178 2.5793571472168 1.63642990589142 2.08222985267639 1.23158812522888 1.55835402011871 1.19787359237671 1.32657957077026 1.96166145801544 2.96369957923889 2.51858448982239 6.74971580505371 7.84916543960571 6.52106618881226 2.76372241973877 2.88041973114014 1.86105012893677 8.03557395935059 12.336989402771 18.1675777435303 5.82042694091797 0.624904334545135 1.17112028598785 1.84329342842102 1.76854920387268 1.9604207277298 2.1408097743988 2.40268564224243 2.20672917366028 2.83007478713989 2.54584336280823 2.89404487609863 2.83599543571472 2.34054803848267 3.0417013168335 4.06304550170898 4.11579418182373 4.20785331726074 3.85051584243774 3.15474104881287 3.06692481040955 3.54653525352478 2.57167601585388 4.0927882194519 1.52669525146484 0.921441495418549 3.50228810310364 3.92723798751831 3.83677554130554 -0.43101179599762 -0.225104793906212 -0.0822272375226021 1.87383592128754 3.39622259140015 -0.294001042842865 0.591998338699341 -0.280989289283752 2.0498788356781 1.69051969051361 2.15726566314697 3.61794757843018
8.71012783050537 9.3232250213623 10.5591230392456 11.933235168457 12.4836654663086 14.0665626525879 15.7015790939331 18.248685836792 19.7883243560791 33.9535636901855 35.718921661377 16.4970531463623 16.9880809783936 17.2904796600342 16.1434707641602 18.1257076263428 23.2344589233398 21.544527053833 23.8265113830566 11.1103429794312 18.2327690124512 26.9866008758545 9.47210597991943 6.41222143173218 10.1515846252441 11.4346828460693 30.7673530578613 11.0521411895752 6.78717279434204 13.78564453125 9.41488361358643 14.7446184158325 17.1292781829834 16.0755004882812 17.4216499328613 21.8936653137207 7.274827003479 11.3390207290649 30.5600872039795 11.2857046127319 12.841236114502 5.24599361419678 4.81450939178467 5.47758960723877 7.24123954772949 6.40192461013794 6.18590688705444 14.4084177017212 9.08081436157227 9.9209623336792 1.16009533405304 1.77730333805084 3.41441416740417 8.23337078094482 10.3356142044067 6.55535984039307 5.30485248565674 6.52395915985107 6.76166963577271 4.08101081848145 8.85499095916748 13.8979530334473 13.0867538452148 13.616397857666 11.579158782959 19.358283996582 10.3234062194824 4.20475149154663 9.56026458740234 4.65630292892456 4.69434642791748 4.38610696792603 4.21860504150391 3.53398990631104 2.34221887588501 1.7215017080307 1.47772121429443 1.4870218038559 1.29825472831726 1.1676629781723 0.5484699010849 0.518276154994965 0.50827819108963 0.538320541381836 0.358074694871902 0.135095357894897 0.0466159954667091 -0.150183171033859 -0.396071970462799 -0.153642699122429 -0.526252806186676 -0.509430170059204 -0.59284782409668 -0.698098003864288 -0.61505264043808 -0.00507207261398435 0.329906702041626 -0.550501525402069 -0.12084923684597 -0.0416788831353188 -0.0344230532646179 0.306910187005997 -0.449388861656189 -0.374071151018143 -0.329609304666519 -0.171511635184288 -0.140113547444344 -0.0101616578176618 0.0561371371150017 1.47629129886627 1.52664983272552 1.98100388050079 1.90826761722565 2.36652445793152 1.47910916805267 1.91694009304047 1.13924920558929 1.41184020042419 1.08896768093109 1.16954255104065 1.38013076782227 2.14331197738647 2.24152302742004 4.86255407333374 5.7063512802124 4.7471866607666 2.1381254196167 2.19756484031677 1.21533703804016 4.80013132095337 4.38540935516357 7.01260232925415 1.90622222423553 12.8818130493164 12.3602638244629 1.34771394729614 1.70823502540588 1.88661170005798 2.06514263153076 2.32663559913635 2.12531495094299 2.70905494689941 2.44028997421265 2.78566575050354 2.70646929740906 2.26886248588562 2.89861178398132 3.8354926109314 3.87305188179016 3.98486614227295 3.62814259529114 2.98509573936462 2.89285755157471 3.34191346168518 1.78633236885071 2.52527046203613 0.908025503158569 0.736188411712646 2.57012724876404 2.46438670158386 2.06445503234863 15.0965881347656 4.42137718200684 -0.370103418827057 1.01393747329712 7.24342679977417 -0.341058492660522 -0.442200988531113 4.71012115478516 0.672849297523499 1.5428569316864 1.94866406917572 3.30122232437134 3.21184158325195
8.83634948730469 9.66171550750732 10.8982191085815 11.3861675262451 12.7989931106567 14.3339872360229 15.2401990890503 16.3659362792969 19.8484020233154 32.0928115844727 36.0682563781738 21.8557300567627 24.7849254608154 14.4079504013062 13.2569017410278 13.6158933639526 10.8701763153076 21.8788375854492 36.1791038513184 9.39847183227539 3.50155472755432 6.252845287323 18.3678798675537 8.71499824523926 9.8519458770752 14.7666244506836 9.38109683990479 12.4775772094727 7.17184066772461 15.0053625106812 11.3874969482422 14.0551652908325 17.5151081085205 13.7412128448486 15.8920459747314 36.2206954956055 16.818826675415 19.1548728942871 20.15478515625 18.2449989318848 13.6440086364746 4.73683881759644 5.000168800354 5.89194250106812 5.56103801727295 9.1157398223877 6.4485878944397 14.2388792037964 7.96545886993408 5.82304620742798 1.59887039661407 1.59045124053955 4.32289457321167 5.06440925598145 11.1207609176636 4.600013256073 20.1647090911865 17.5723686218262 7.36060428619385 5.59719753265381 7.96823978424072 9.13700771331787 10.9661998748779 6.9399619102478 4.950599193573 6.46587944030762 19.7986087799072 7.69327068328857 4.56402063369751 4.18893051147461 3.84954833984375 3.38171315193176 3.51726937294006 3.40705108642578 2.26998472213745 1.42245852947235 1.2123407125473 1.15790140628815 1.14241397380829 1.00557959079742 0.599108755588531 0.429731339216232 0.426554799079895 0.392032444477081 0.30589234828949 0.0154876802116632 0.0294996406883001 0.0637613162398338 -0.163506403565407 -0.584276080131531 -0.662656784057617 -0.596847951412201 -0.681772768497467 -0.627688348293304 -0.59801584482193 0.227704927325249 -0.586489796638489 -0.176030293107033 -0.112713776528835 -0.114007368683815 0.113489329814911 -0.546045482158661 -0.548852264881134 -0.415488928556442 -0.258517146110535 -0.232582569122314 -0.207121923565865 -0.0713084265589714 0.344372808933258 1.3867928981781 1.81585705280304 1.77860224246979 2.14294075965881 1.31388676166534 1.7321263551712 1.00097715854645 1.27215492725372 0.965795814990997 0.574180006980896 1.20874714851379 1.55459117889404 1.73087799549103 3.62263894081116 4.35516881942749 3.60711073875427 1.67392683029175 1.72316801548004 1.78648746013641 3.81647777557373 3.14169549942017 4.31293344497681 1.27256226539612 3.97723841667175 3.21827840805054 9.85995197296143 1.60791480541229 1.83135390281677 1.98892390727997 2.22917103767395 2.04756021499634 2.58322191238403 2.32323241233826 2.68033695220947 2.5928521156311 2.19918179512024 2.77610850334167 3.62147307395935 3.68980956077576 3.74245929718018 3.41710329055786 2.83529543876648 2.74979162216187 3.16250133514404 1.52393746376038 2.05956649780273 0.693208277225494 0.504452288150787 1.76988875865936 1.65993499755859 1.12309443950653 7.63643932342529 4.99979305267334 10.6658325195312 -0.406684845685959 3.19323778152466 4.7352089881897 12.1358528137207 2.57495546340942 -0.884678304195404 2.36069059371948 1.86763513088226 3.1155424118042 3.01683497428894 3.56480598449707
8.90257835388184 10.0057420730591 10.4816818237305 11.472225189209 13.0918321609497 13.8611621856689 14.8453845977783 17.5254650115967 23.0795936584473 27.0625152587891 38.824520111084 33.4379730224609 21.468240737915 27.5141048431396 17.8862972259521 24.3618335723877 11.2038812637329 27.4130020141602 29.602933883667 19.3885383605957 4.82641983032227 4.68476390838623 5.90085077285767 8.29481601715088 7.93446779251099 19.4496898651123 7.60717725753784 10.5263700485229 7.17154407501221 9.53500652313232 12.1277761459351 14.1610298156738 14.8295059204102 14.8414964675903 21.8710708618164 11.1719179153442 13.8482522964478 15.965708732605 11.8898420333862 6.5983419418335 4.30757808685303 3.9594624042511 4.30480289459229 4.81812620162964 5.17878150939941 5.15935611724854 8.77432727813721 5.27371215820312 5.3106517791748 1.49675953388214 1.0525039434433 2.49781799316406 1.98797786235809 2.37766122817993 4.04817724227905 5.34705924987793 9.46242618560791 16.0005664825439 3.77495527267456 6.21563816070557 5.97726392745972 7.4589672088623 7.21556234359741 4.67929935455322 20.4667549133301 10.2440958023071 6.84024000167847 3.19989538192749 3.07647466659546 3.18558621406555 3.14631533622742 2.60830879211426 2.24442911148071 3.87914752960205 3.14555096626282 1.64655208587646 1.06756901741028 0.977926731109619 0.937998056411743 0.791803479194641 0.402911156415939 0.335988014936447 0.278594404459 0.194088444113731 0.149060934782028 0.0266290139406919 -0.0713825300335884 0.255516976118088 0.0682432502508163 -0.602044880390167 -0.611247360706329 -0.744473934173584 -0.633094787597656 -0.599335730075836 -0.0845446586608887 0.182269901037216 -0.205893307924271 -0.164108008146286 -0.175585746765137 -0.0312059186398983 -0.562780916690826 -0.62547242641449 -0.595760881900787 -0.576721608638763 -0.314666092395782 -0.302832812070847 -0.216174885630608 0.244636282324791 1.20866870880127 1.28039169311523 1.70160293579102 1.92123258113861 1.37662816047668 1.54657137393951 0.845674812793732 1.10503697395325 0.811215758323669 0.558896660804749 0.895749568939209 1.05936050415039 1.41355013847351 0.97001838684082 3.02566266059875 3.68664479255676 3.02214980125427 1.29200613498688 1.46081447601318 3.05377721786499 2.56229639053345 3.59763979911804 1.20768082141876 2.38977408409119 1.14974892139435 2.15933513641357 1.36873471736908 1.64842450618744 1.8841358423233 2.1666898727417 1.98645329475403 2.06589007377625 2.5185809135437 2.56492209434509 2.47113871574402 2.32768678665161 2.65601801872253 3.44819617271423 3.4811532497406 3.56134700775146 3.27371072769165 2.730224609375 2.63674473762512 3.00106287002563 1.61302375793457 1.72004389762878 0.877173960208893 0.596287727355957 1.47848677635193 1.43765914440155 0.9832524061203 5.23365211486816 2.91401815414429 6.30803108215332 14.6834545135498 3.87272477149963 2.36570167541504 5.93175268173218 2.49174785614014 23.2062168121338 2.15722227096558 1.72763860225677 2.85776424407959 2.72324347496033 3.28466200828552 2.79922032356262
9.24070930480957 9.70343494415283 10.5852928161621 11.8489627838135 12.6902027130127 13.660252571106 15.6773834228516 17.8832015991211 19.1001148223877 22.4439277648926 25.4836292266846 43.5223503112793 26.4311580657959 22.4034061431885 17.5366325378418 25.0694541931152 13.0015382766724 16.5281829833984 26.4633083343506 39.2146377563477 19.875581741333 16.3228797912598 6.63820695877075 7.5235276222229 12.9721078872681 7.39481830596924 15.0382862091064 14.8933115005493 7.67174959182739 9.96439647674561 11.6735982894897 11.9746494293213 11.4075679779053 19.4417629241943 21.298282623291 20.2076435089111 22.1887035369873 10.9572420120239 19.5175895690918 4.47153043746948 8.29153537750244 15.6083040237427 4.77610397338867 4.99641895294189 5.14174222946167 5.64869070053101 20.9899711608887 15.6337690353394 14.3756723403931 9.73934841156006 5.54302501678467 8.62050533294678 1.49530208110809 3.80982303619385 4.54368686676025 6.30942726135254 7.00891304016113 11.3146419525146 3.7779335975647 4.40654993057251 3.55779266357422 8.60085678100586 23.9557647705078 11.0424518585205 7.22893238067627 3.47312474250793 2.88579368591309 35.282772064209 2.70995044708252 3.01490640640259 15.0381317138672 8.1866283416748 4.64941692352295 4.23298597335815 3.68444514274597 2.50218796730042 1.26214683055878 0.833056688308716 0.658163726329803 0.75600278377533 0.455872893333435 0.178473740816116 0.0783218070864677 0.0363781042397022 -0.0138418404385448 0.197455570101738 0.0733192265033722 -0.00540440436452627 0.348118543624878 0.0472728312015533 -0.715082883834839 -0.644661068916321 -0.614661276340485 -0.128141552209854 0.12848111987114 -0.218562766909599 -0.180335655808449 -0.207711040973663 -0.356633305549622 -0.113040313124657 -0.648420512676239 -0.667938590049744 -0.645031809806824 -0.62404328584671 -0.370357990264893 -0.343125313520432 -0.185262337327003 1.03481066226959 1.10450720787048 1.5232253074646 1.74965882301331 1.4642196893692 1.01618337631226 1.41542100906372 0.925524055957794 0.647224068641663 0.352179855108261 0.690868258476257 0.883308291435242 1.20625591278076 0.709539592266083 2.29110360145569 2.83901715278625 2.28669381141663 1.08848607540131 1.03654372692108 1.31838619709015 2.62508153915405 2.94781613349915 1.45888340473175 2.07132577896118 1.11408925056458 1.44919943809509 1.25502634048462 1.45348405838013 1.6694324016571 1.98425722122192 1.88149070739746 2.00114417076111 2.43561339378357 2.48488330841064 2.32583117485046 2.42225885391235 2.52020955085754 3.28475904464722 3.31697797775269 3.3779182434082 3.12998533248901 2.60950899124146 2.52034950256348 2.86231398582458 1.43425107002258 1.64288675785065 1.60717117786407 0.681076407432556 0.538463711738586 1.42751824855804 1.34263598918915 4.02839040756226 2.33989429473877 4.41967153549194 0.260920315980911 1.95170736312866 8.47431087493896 5.01148653030396 -0.408158957958221 9.28977203369141 2.05061340332031 1.34541988372803 2.54807591438293 2.78751730918884 3.08788371086121 2.60838747024536 2.63044047355652
8.95663070678711 9.81265163421631 10.8874273300171 11.6927757263184 12.677640914917 14.155743598938 14.5979795455933 15.3176279067993 17.3216133117676 19.791051864624 29.7571659088135 36.7332611083984 38.3596076965332 21.9118061065674 21.0170211791992 35.0225105285645 12.9237394332886 16.4157276153564 21.813159942627 20.9611663818359 11.8177556991577 7.25305938720703 6.7786078453064 8.54079246520996 19.8419170379639 6.95052909851074 6.73735857009888 7.57345294952393 9.56574726104736 10.9262180328369 11.1680536270142 10.399564743042 16.9199695587158 11.1139879226685 14.8165407180786 11.9321632385254 21.0652046203613 16.3633899688721 26.9511184692383 24.89573097229 8.73276615142822 6.8748517036438 4.79965734481812 4.98722743988037 13.8269023895264 7.72506904602051 19.9798221588135 8.62605381011963 7.93553829193115 6.28144645690918 11.7924098968506 8.64269351959229 2.51052665710449 4.12930536270142 4.8980565071106 5.05306959152222 6.17340755462646 2.4601731300354 3.24035477638245 13.9722261428833 5.92088794708252 3.98108983039856 7.87013101577759 6.46106672286987 3.06169867515564 5.18200159072876 2.83908176422119 2.60184955596924 26.7879123687744 22.408805847168 1.71704316139221 0.85595691204071 0.640061855316162 4.07630729675293 3.73341512680054 2.96374869346619 1.9004842042923 0.999988496303558 0.624007701873779 0.420768052339554 0.556109726428986 0.0690789744257927 -0.0690552517771721 -0.119939640164375 -0.115540944039822 0.019676087424159 0.187632128596306 0.0818773955106735 -0.0393087044358253 0.102524191141129 -0.283953487873077 -0.728178918361664 -0.190846502780914 0.0476468428969383 -0.243860110640526 -0.199567049741745 -0.219807207584381 -0.374156266450882 -0.206194013357162 -0.701138556003571 -0.723338544368744 -0.702707886695862 -0.695586025714874 -0.670989215373993 -0.421776622533798 -0.433705717325211 0.92058914899826 0.942781269550323 1.33173787593842 1.25999736785889 1.621617436409 0.872468292713165 1.2404021024704 0.566666066646576 0.792478263378143 0.208208054304123 0.450351655483246 0.647398591041565 0.997311294078827 0.579841792583466 1.71416187286377 2.17960095405579 1.75911819934845 0.934359133243561 0.668101787567139 0.554351568222046 2.00409388542175 1.60544669628143 2.5213725566864 1.75602102279663 1.05251264572144 1.29479217529297 0.693155765533447 0.846988260746002 1.54895114898682 1.80023717880249 1.69868957996368 1.84829306602478 2.31139492988586 2.4047577381134 2.24183368682861 2.32579278945923 2.40947675704956 3.08945345878601 3.14995670318604 3.21366047859192 2.99189710617065 2.49189162254333 2.40430879592896 2.72287559509277 1.249467253685 1.56289982795715 1.38288021087646 0.616977453231812 0.498043477535248 1.22684919834137 1.17493414878845 3.26425099372864 1.91430294513702 3.39245367050171 13.6201238632202 -0.371085584163666 0.056134469807148 1.80074691772461 15.3165588378906 9.96889972686768 1.84020900726318 0.582962214946747 1.57481861114502 2.60706186294556 2.88458609580994 2.45532035827637 2.46706008911133 2.70288467407227
8.86714649200439 10.0096101760864 10.8815517425537 11.7238235473633 13.017448425293 13.2596302032471 13.9973630905151 15.113018989563 16.8347587585449 21.3755760192871 23.8839569091797 28.6076641082764 39.5540962219238 26.6690998077393 18.586404800415 30.1053161621094 22.2226409912109 21.982421875 19.9632339477539 16.4589157104492 20.232400894165 17.1644020080566 8.4372034072876 10.6843109130859 22.1526985168457 20.6313438415527 7.47169542312622 8.1422700881958 10.2272329330444 13.1450500488281 10.2261562347412 12.8255653381348 25.4616050720215 10.5829563140869 10.3339529037476 9.60340213775635 14.9411115646362 16.3549709320068 16.6894264221191 19.0430278778076 13.5011949539185 11.7230834960938 7.88289070129395 10.4439086914062 20.9459991455078 14.5634002685547 25.4318370819092 10.3884353637695 4.96027517318726 7.9363112449646 6.46665954589844 2.13447594642639 3.39030432701111 2.97429871559143 2.51118636131287 4.45371580123901 20.2002277374268 2.73698592185974 9.69514083862305 5.78342485427856 19.6941738128662 6.10390090942383 6.42414808273315 2.89216089248657 2.75122809410095 9.15319061279297 13.0373220443726 14.2620639801025 1.94554626941681 1.50621771812439 30.0610656738281 -0.627310931682587 0.177782088518143 3.79976725578308 3.26045608520508 3.24515676498413 2.4225971698761 1.50465738773346 1.04019725322723 0.524729311466217 0.342873722314835 0.177731394767761 -0.16822113096714 -0.225925281643867 -0.174507617950439 -0.0488497167825699 0.116047225892544 0.08456751704216 -0.0951203256845474 -0.158915162086487 0.0801628604531288 -0.134003862738609 1.93961095646955e-05 -0.792247474193573 -0.236401990056038 -0.252002149820328 -0.397206693887711 -0.248540848493576 -0.722594738006592 -0.781387329101562 -0.768633663654327 -0.75018584728241 -0.73920089006424 -0.503439664840698 -0.696741223335266 0.813844561576843 0.841636598110199 1.19033658504486 1.09292495250702 1.44713890552521 0.747682631015778 1.11440777778625 0.450959384441376 0.647986710071564 0.345511674880981 0.222231343388557 0.357229173183441 0.691771566867828 0.337024956941605 1.23641753196716 1.77110826969147 1.35223948955536 0.812641024589539 0.733172595500946 0.355007112026215 1.44598662853241 1.12250745296478 1.95184886455536 0.75629335641861 1.48344731330872 1.05874931812286 0.617138564586639 0.778912007808685 1.30064749717712 1.70772349834442 1.56631028652191 1.67743122577667 2.10544610023499 2.26821112632751 2.14154386520386 2.24407601356506 2.06900715827942 2.95432662963867 2.97176551818848 3.05362868309021 2.86686587333679 2.38219213485718 2.2930760383606 2.59564256668091 1.10826218128204 1.48305380344391 1.18589603900909 0.556596994400024 0.481717199087143 1.08220946788788 1.01577436923981 0.671775043010712 2.95361399650574 2.74024701118469 7.09492826461792 10.9024782180786 0.610277593135834 0.398639023303986 2.98533511161804 5.76229190826416 0.543740928173065 0.0748511478304863 0.568020164966583 2.46389770507812 2.27400231361389 2.76747870445251 2.35514974594116 2.11572098731995 2.61906862258911
9.1579532623291 9.7050313949585 10.9344301223755 11.8571462631226 12.3744649887085 12.8854560852051 13.8943815231323 15.5032539367676 17.5713996887207 19.7690486907959 20.9896793365479 25.6931018829346 35.9133453369141 39.4068603515625 24.3256320953369 33.1246490478516 19.4507617950439 18.2542533874512 14.8105344772339 11.7800636291504 12.1436128616333 6.91629028320312 8.26392650604248 8.62244701385498 15.5547828674316 26.5109920501709 26.2665519714355 9.95300388336182 10.4333143234253 12.7449178695679 11.8319854736328 13.366021156311 17.7800636291504 24.3613090515137 12.0441226959229 11.2187204360962 11.2629461288452 10.4615468978882 14.9589500427246 9.28470420837402 10.836766242981 6.05189847946167 8.28817462921143 9.77537727355957 11.9830026626587 21.3415622711182 32.9233169555664 32.9492645263672 9.7519474029541 15.6658182144165 13.2557382583618 3.84029674530029 9.40847873687744 3.86254549026489 2.56364560127258 10.3277730941772 18.2185554504395 2.43634486198425 5.31757545471191 11.479585647583 5.41377067565918 5.2640643119812 2.58733654022217 3.62540650367737 2.62317061424255 26.0858764648438 9.58602905273438 12.5104875564575 4.9275164604187 0.37136709690094 -0.748526930809021 17.7256164550781 -0.421337246894836 3.8775417804718 2.96486616134644 2.74719381332397 3.04782366752625 1.93460142612457 1.4754866361618 0.892914950847626 0.376824975013733 0.380930036306381 -0.165164709091187 -0.290322870016098 -0.220396220684052 -0.0382848121225834 -0.0485913306474686 0.0570963770151138 -0.0512524768710136 -0.180909290909767 -0.171969652175903 0.0317792445421219 -0.345027685165405 -0.673461973667145 -0.460446983575821 -0.429510593414307 -0.313655108213425 -0.743720650672913 -0.812045514583588 -0.810277223587036 -0.810342311859131 -0.802659809589386 -0.784963667392731 -0.55770480632782 0.702497601509094 0.747410655021667 1.07397902011871 0.972497522830963 1.29086136817932 0.619065940380096 0.969737231731415 0.342864602804184 0.52347058057785 0.226203411817551 0.0491885505616665 0.163847744464874 0.456251621246338 0.0796501487493515 0.639400005340576 1.17413866519928 1.06480193138123 0.681950569152832 0.57923811674118 0.0877554267644882 0.993935108184814 0.708756864070892 1.43786406517029 0.687583804130554 1.10952079296112 0.653187870979309 0.834798455238342 0.751578032970428 0.821218192577362 1.01952433586121 1.14213383197784 1.56486093997955 1.92434000968933 2.09412431716919 1.99250864982605 2.12766933441162 1.96070444583893 2.82380247116089 2.83274078369141 2.89194560050964 2.74060702323914 2.28864026069641 2.19306945800781 2.47927904129028 1.03126120567322 1.41620576381683 1.0537269115448 0.538054704666138 0.463854104280472 0.957703232765198 0.918848693370819 0.61660772562027 2.54240894317627 1.49824333190918 4.86204957962036 6.99921751022339 13.5513114929199 5.67706298828125 5.75167798995972 4.18730735778809 21.6364421844482 19.4640655517578 -0.148233205080032 1.13174879550934 1.45117282867432 2.58085203170776 2.18804430961609 2.18734550476074 2.42745327949524 2.6869056224823
9.01417350769043 9.92041397094727 11.0588579177856 11.466404914856 12.1187019348145 12.8664112091064 14.3603200912476 14.301944732666 16.1375999450684 18.1640682220459 19.1826705932617 22.6443634033203 30.1236743927002 22.5168991088867 18.2723865509033 27.0825328826904 17.4825668334961 15.5681705474854 24.7465648651123 11.9573135375977 8.92621326446533 7.71138381958008 7.70389413833618 11.1906661987305 12.1335582733154 14.89976978302 17.8997993469238 10.0559558868408 9.89763355255127 13.7533349990845 20.5861167907715 18.0247173309326 34.5711669921875 39.9279670715332 9.39012813568115 10.2904863357544 8.89304161071777 9.89239978790283 19.7340660095215 9.20714473724365 7.01817083358765 6.43479633331299 10.5334548950195 11.4797658920288 15.5029678344727 22.538948059082 24.5237522125244 26.5246105194092 25.8219242095947 23.6542949676514 21.2236747741699 13.2610206604004 9.03462314605713 19.6332492828369 4.84214639663696 2.43558597564697 8.27683639526367 3.76686906814575 3.3045711517334 4.8804235458374 4.73516845703125 2.39503145217896 6.87297439575195 36.7616348266602 13.7175664901733 2.54543256759644 2.03948664665222 1.38431966304779 2.86578631401062 -0.0165116861462593 -0.960412859916687 -0.700968265533447 2.77864623069763 0.158160462975502 2.7419753074646 2.33428931236267 2.51944494247437 2.90503883361816 1.89463698863983 1.46447253227234 0.675717234611511 0.54884660243988 0.264577269554138 -0.286321192979813 -0.25100377202034 -0.203305199742317 -0.182136014103889 -0.229546695947647 -0.166488021612167 -0.19876404106617 -0.0275675281882286 -0.414871335029602 -0.405791997909546 -0.469050914049149 -0.449970722198486 -0.365498155355453 -0.771821141242981 -0.859995067119598 -0.854152679443359 -0.844969630241394 -0.844367742538452 -0.844457924365997 -0.619010090827942 0.611592829227448 0.647378444671631 0.969992280006409 0.863660156726837 1.16121280193329 0.510687530040741 0.845822632312775 0.241712525486946 0.407260060310364 0.117137156426907 -0.0537325330078602 0.00854200404137373 0.27267399430275 -0.0348582714796066 0.249619036912918 0.715610027313232 0.790727257728577 0.478787779808044 0.41910719871521 -0.0512552261352539 0.672672271728516 0.522135496139526 1.05006730556488 0.386198669672012 0.637071669101715 0.338177680969238 0.522862136363983 -0.060804758220911 0.256442189216614 0.965630948543549 0.581852495670319 0.974276781082153 1.77793455123901 1.93545627593994 1.81440448760986 1.9662059545517 1.82323169708252 2.67456912994385 2.67849159240723 2.76338410377502 2.32930541038513 2.68067765235901 2.23693132400513 2.3717577457428 0.985538244247437 1.35632109642029 0.948832273483276 0.522039234638214 0.449144899845123 0.869362354278564 0.836944401264191 0.535472273826599 2.09939312934875 1.26569664478302 3.66964197158813 4.76656150817871 6.93046951293945 8.96084594726562 4.69709873199463 6.61078643798828 11.6867389678955 2.1234815120697 11.0993280410767 21.0553035736084 11.4430694580078 1.85789167881012 1.42151176929474 1.89863729476929 2.2651686668396 2.40729641914368 2.61045813560486
9.37403678894043 10.1493120193481 10.7826843261719 11.3363914489746 12.0741539001465 13.3812446594238 13.1565160751343 14.0939989089966 15.5980033874512 16.1531352996826 17.6374492645264 21.5180149078369 23.2654190063477 35.2950668334961 22.720365524292 18.8443355560303 18.3574180603027 22.4389801025391 23.8138008117676 20.7696132659912 8.54506492614746 15.3651418685913 9.88145351409912 11.9045076370239 12.8061857223511 12.5055561065674 24.4319515228271 24.2772598266602 25.5586128234863 18.4019584655762 14.1316041946411 23.2625370025635 28.9245338439941 43.0961761474609 43.0303764343262 25.7842597961426 18.8533248901367 10.8967018127441 8.68370246887207 18.5804195404053 6.23125028610229 8.98558330535889 7.75092315673828 13.1567487716675 16.5654430389404 20.0510654449463 21.3634395599365 19.7032718658447 22.6113739013672 16.894811630249 19.9366626739502 31.173885345459 17.7812900543213 26.0558185577393 16.7029304504395 6.41871547698975 2.18845772743225 25.4525451660156 6.2053542137146 2.97705554962158 20.3855800628662 29.2336692810059 20.2663059234619 3.22031402587891 2.08613276481628 8.95125484466553 15.4308309555054 15.1143789291382 13.8899374008179 8.97240447998047 20.4147491455078 -0.624567806720734 -1.07735896110535 -1.16888701915741 3.92655730247498 2.50260233879089 2.33996438980103 3.18101787567139 3.37622046470642 1.87246382236481 1.19000518321991 0.86258202791214 0.391294032335281 -0.20615853369236 -0.265697091817856 -0.321463495492935 -0.423973798751831 -0.410408943891525 -0.23133672773838 -0.0552600286900997 -0.452154278755188 -0.664378702640533 -0.483937412500381 -0.463404297828674 -0.384690314531326 -0.781839549541473 -0.900202512741089 -0.89986127614975 -0.894529938697815 -0.882241487503052 -0.874352216720581 -0.645181179046631 0.533328175544739 0.560646593570709 0.878730177879333 0.767887592315674 1.04722273349762 0.422566771507263 0.734384536743164 0.15106774866581 0.319089889526367 0.0188202522695065 -0.132488712668419 -0.0954968705773354 0.136806979775429 -0.132325530052185 -0.0792051702737808 0.318248361349106 0.552853941917419 0.29420804977417 0.209746226668358 -0.11687670648098 0.436103165149689 0.320653885602951 0.650231778621674 0.403115093708038 0.356554180383682 0.0525242164731026 0.202121675014496 -0.253968358039856 -0.184562265872955 0.10324089974165 -0.0425267852842808 0.798557460308075 1.64398741722107 1.78632128238678 1.65141153335571 1.78187501430511 1.41456496715546 2.20390439033508 2.57960057258606 2.60863065719604 2.3007230758667 2.55538368225098 2.14054942131042 2.26819157600403 1.50729405879974 1.29412841796875 0.861006259918213 0.504122853279114 0.435434281826019 0.781790852546692 0.758978426456451 0.501514375209808 1.90824007987976 1.02392864227295 2.83228492736816 3.59623694419861 4.63243675231934 4.90835905075073 3.16574716567993 5.19854021072388 9.10002136230469 15.2015209197998 12.8845996856689 9.01510334014893 1.36127638816833 1.64670979976654 2.36150407791138 1.68446660041809 1.66367816925049 2.28926968574524 2.47280120849609 3.22048377990723
9.51173400878906 10.1340980529785 10.4467496871948 11.366418838501 12.5593595504761 12.1834764480591 13.0486221313477 13.6774291992188 14.1637544631958 15.2531595230103 17.5012168884277 18.7096996307373 19.8412094116211 19.1321029663086 27.7675495147705 23.785457611084 14.4448947906494 19.1435470581055 17.9898681640625 24.6087512969971 14.3570957183838 23.1371784210205 11.6999597549438 12.3666858673096 9.3484001159668 16.5639591217041 14.3857269287109 14.836630821228 15.4692277908325 17.4244079589844 18.813081741333 21.7759914398193 28.7511444091797 30.7002010345459 35.7915420532227 17.5425128936768 22.110143661499 15.1340007781982 7.22297430038452 5.35213994979858 17.7924957275391 26.4452457427979 17.5305652618408 30.716329574585 23.6577339172363 19.2491550445557 38.5491943359375 20.6245803833008 23.9470520019531 11.7886695861816 10.2740888595581 14.8032855987549 11.2614765167236 28.0945358276367 31.5060958862305 40.2759475708008 14.475471496582 2.71437239646912 2.66704988479614 5.60659027099609 15.7039651870728 2.31848454475403 2.16082692146301 1.95476031303406 5.41385459899902 1.56057691574097 0.361884713172913 7.7520866394043 3.41189455986023 11.6020011901855 7.47417259216309 -1.10664546489716 -0.136434137821198 -0.592846810817719 -0.97180587053299 3.74982380867004 2.76243495941162 2.75884985923767 3.98978400230408 3.6059627532959 1.61161351203918 1.40988326072693 0.659337162971497 0.239791870117188 0.025143276900053 -0.435684263706207 -0.577348530292511 -0.288448542356491 -0.126256614923477 -0.660100162029266 -0.631685972213745 -0.713344514369965 -0.490677744150162 -0.434138208627701 -0.790013134479523 -0.934614539146423 -0.937728404998779 -0.941407799720764 -0.938766241073608 -0.924201965332031 -0.666488111019135 0.488999277353287 0.504460573196411 0.785278916358948 0.685572445392609 0.951452851295471 0.341171741485596 0.652790129184723 0.0835924223065376 0.233496055006981 -0.0501017607748508 -0.210386589169502 -0.194752603769302 0.0216414593160152 -0.20982600748539 -0.23784427344799 0.0162800569087267 0.326523333787918 0.0883466005325317 -0.0197512414306402 -0.253164023160934 0.110441789031029 0.152266934514046 0.405850321054459 0.278371512889862 0.0518614873290062 -0.0483535677194595 -0.122896984219551 -0.39753270149231 -0.365724444389343 -0.305105239152908 -0.191404297947884 -0.118501618504524 1.54726123809814 1.31572091579437 1.48907744884491 1.60197281837463 1.25056219100952 1.80337393283844 2.3656222820282 2.41146397590637 2.52075362205505 2.43536949157715 2.0374801158905 1.96516907215118 2.21970200538635 1.2399685382843 0.783514380455017 0.488769084215164 0.419762343168259 0.717410087585449 0.693891882896423 0.452633857727051 1.74941611289978 0.99982875585556 1.59709525108337 2.78650188446045 3.47626733779907 3.67363595962524 2.3769416809082 3.51536631584167 6.89062738418579 7.90161991119385 9.16658973693848 7.19478225708008 9.95162296295166 11.5035972595215 8.14727687835693 3.88239359855652 8.14700317382812 2.17874145507812 2.37282967567444 3.05842423439026 2.98589873313904
9.57269477844238 9.81370258331299 10.329701423645 11.249192237854 12.179051399231 12.193585395813 12.5032548904419 12.9473237991333 13.5986127853394 15.3658180236816 16.1055297851562 17.1108665466309 17.3461647033691 18.1666259765625 18.7237529754639 22.745943069458 19.4086666107178 24.4994373321533 21.6349334716797 21.8572101593018 20.1191349029541 22.2637710571289 18.471851348877 11.9720506668091 12.5219507217407 11.2301731109619 11.6501264572144 12.8648662567139 13.1392879486084 15.3916673660278 16.9103698730469 20.7671089172363 23.0110702514648 24.0409812927246 29.8017482757568 14.4500799179077 13.9816703796387 27.5145416259766 23.0474414825439 8.72027397155762 15.5654916763306 20.2034816741943 22.2968711853027 21.011926651001 26.1044826507568 24.6884117126465 29.18408203125 25.346794128418 38.3995475769043 38.4808464050293 21.3338603973389 29.8600177764893 16.5064888000488 18.2219200134277 2.10248422622681 2.48137736320496 10.4540309906006 8.29161643981934 34.3761596679688 1.92440235614777 1.99881899356842 1.75746774673462 1.71235144138336 1.90163540840149 1.15657579898834 0.189489215612411 -0.756474077701569 1.17945528030396 7.59449005126953 -0.401984483003616 -1.14777612686157 4.37109184265137 -0.991320550441742 0.46440926194191 -0.849543273448944 -1.29457867145538 3.1043221950531 3.03358721733093 3.05543279647827 4.10311985015869 2.93741965293884 1.76603829860687 1.35330283641815 0.848279774188995 0.953337788581848 0.639180719852448 -0.152762204408646 -0.168588936328888 -0.808968544006348 -0.704853296279907 -0.929239392280579 -0.578649640083313 -0.466096669435501 -0.81434565782547 -0.975051283836365 -0.971642076969147 -0.947398364543915 -0.979935228824615 -0.967487275600433 -0.706790208816528 0.424645721912384 0.460018008947372 0.736800372600555 0.62096756696701 0.863256573677063 0.272136569023132 0.571493327617645 0.0220319516956806 0.177019536495209 -0.100385166704655 -0.246675059199333 -0.255167484283447 -0.0795660018920898 -0.275039255619049 -0.300605088472366 -0.170961037278175 0.155483976006508 -0.0717110261321068 -0.251521974802017 -0.410457044839859 -0.241803035140038 -0.0949183627963066 0.0366790890693665 0.0746974721550941 -0.0301098823547363 -0.172567278146744 -0.356373906135559 -0.489156693220139 -0.464906364679337 -0.45168599486351 -0.400951683521271 -0.197832405567169 1.43292319774628 1.21592271327972 1.37048947811127 1.44611763954163 1.1043883562088 1.60979354381561 2.11449909210205 2.16443824768066 2.28581047058105 2.24630641937256 1.90800261497498 1.84717166423798 2.10992121696472 0.877353131771088 1.19767928123474 0.473946094512939 0.407976418733597 0.658153414726257 0.639926970005035 0.412744402885437 1.58480226993561 0.922382116317749 1.45186913013458 2.2090699672699 2.79618644714355 2.93199062347412 1.90107011795044 2.6521270275116 5.54443740844727 5.2841854095459 6.96081304550171 5.42515802383423 5.02550935745239 5.87495374679565 4.1650447845459 1.97393000125885 4.22360372543335 2.09054851531982 2.26692605018616 2.91555857658386 2.85437488555908 3.00205779075623
9.26393222808838 9.74619007110596 10.34450340271 11.5857429504395 11.3995628356934 11.8364639282227 12.1334390640259 12.2786674499512 13.6826543807983 14.1033687591553 14.6898574829102 15.3766288757324 16.1919784545898 15.9821434020996 19.4860401153564 17.5585174560547 20.946460723877 21.2281017303467 20.6235542297363 15.1792850494385 17.4971389770508 14.7760744094849 25.289400100708 9.83218955993652 10.322678565979 10.278923034668 11.8762407302856 11.4295787811279 11.7731380462646 14.3334550857544 15.8389883041382 17.7347621917725 18.7679290771484 17.3429946899414 27.0127925872803 10.6635398864746 25.022668838501 26.5522518157959 31.934232711792 28.2850189208984 16.7546539306641 16.3420276641846 17.7356948852539 19.3263626098633 19.0520420074463 19.9593276977539 20.0329780578613 24.5203380584717 8.64668846130371 5.82613849639893 5.90322923660278 6.47952699661255 3.4816746711731 19.2807216644287 12.9699192047119 6.38165330886841 34.3965072631836 2.02472352981567 2.09160733222961 5.21058130264282 1.49842512607574 1.55746352672577 1.664027094841 1.01586949825287 0.133637085556984 -1.04688465595245 -1.07842242717743 1.65244805812836 -0.626431822776794 0.633768260478973 -0.0688749700784683 -1.03824400901794 3.79235649108887 1.29588353633881 5.65735912322998 -1.29666841030121 -1.69910764694214 2.8611421585083 3.02587652206421 2.83159017562866 3.63968348503113 2.43586444854736 1.79538404941559 1.58073723316193 1.59324610233307 1.73358428478241 1.38888680934906 0.321353405714035 -0.834109008312225 -0.761204123497009 -0.614394724369049 -0.506904602050781 -0.822419345378876 -1.01053130626678 -1.01841306686401 -0.958531677722931 -1.00836586952209 -0.977852046489716 -0.735075712203979 -0.988704025745392 0.145606935024261 0.677720487117767 0.577103018760681 0.816717624664307 0.23678907752037 0.505428850650787 -0.0325053222477436 0.119108662009239 -0.144328251481056 -0.38307324051857 -0.319432139396667 -0.141956984996796 -0.321283668279648 -0.353481650352478 -0.283931195735931 0.0610478520393372 -0.582578003406525 -0.164730608463287 -0.548258543014526 -0.496846616268158 -0.297985166311264 -0.334475457668304 -0.212351381778717 -0.241393655538559 -0.233790293335915 -0.640743553638458 -0.641213595867157 -0.66247832775116 -0.582962393760681 -0.542406022548676 -0.566930294036865 1.28584659099579 1.08934903144836 1.25777351856232 1.32101833820343 0.958538770675659 1.43945920467377 1.9024453163147 1.93752908706665 2.05347895622253 2.03060793876648 1.72974467277527 1.69751811027527 1.96965658664703 0.812366724014282 1.14379191398621 0.440799534320831 0.382631182670593 0.589557826519012 0.587293982505798 0.372595757246017 1.42088007926941 0.83135586977005 1.31319355964661 1.92985653877258 2.17923140525818 2.54299330711365 2.67286562919617 2.12129211425781 3.31430721282959 5.02384519577026 5.58801651000977 4.36236906051636 3.41640090942383 3.98311591148376 2.82692885398865 1.6340708732605 2.85309290885925 1.82500112056732 2.16863989830017 2.78526091575623 2.73490595817566 2.88123202323914 3.03598976135254
9.22474575042725 9.74959850311279 10.9678602218628 10.6183271408081 11.1695375442505 11.4339265823364 11.3969135284424 12.3314247131348 12.6710109710693 12.8562870025635 14.0005283355713 14.5938282012939 14.4019165039062 13.7142505645752 15.0821447372437 16.005012512207 16.9336204528809 16.1496849060059 21.6281967163086 14.2860441207886 13.4463577270508 16.393669128418 20.7382831573486 10.6895999908447 10.0156631469727 10.9311857223511 8.93309020996094 10.7062578201294 12.1233549118042 12.6902284622192 14.2142314910889 15.0988693237305 14.6921377182007 14.2582416534424 22.6888065338135 17.9583358764648 18.5219917297363 19.9477119445801 17.8073463439941 13.9800710678101 14.3415966033936 15.7520542144775 16.9436359405518 16.9622554779053 18.0031852722168 18.4547481536865 18.1748676300049 42.9603996276855 13.0841608047485 9.79989147186279 5.89009809494019 3.56542706489563 7.97927761077881 5.76567506790161 36.6967468261719 2.39477062225342 1.95868957042694 1.53375864028931 0.88636040687561 7.96212959289551 11.790620803833 1.21149933338165 0.948648154735565 0.0742218270897865 -0.262430995702744 -1.16232419013977 2.37302732467651 -0.731619894504547 -0.00682432809844613 2.07360100746155 -1.22135996818542 0.489424258470535 0.0761552080512047 1.55847656726837 -1.3887403011322 5.69233369827271 -1.52123737335205 2.88310694694519 2.70239543914795 2.87672233581543 2.77495789527893 3.11848926544189 1.59410512447357 1.94236826896667 2.04838609695435 2.06735181808472 2.27238607406616 1.77739655971527 0.368672847747803 -0.835010647773743 -0.542729616165161 -0.840720653533936 -1.04992663860321 -1.04304027557373 -0.975084602832794 -1.04785346984863 -0.987187564373016 -0.750251650810242 -1.03388845920563 0.0772427767515182 0.203785702586174 0.523575901985168 0.762843012809753 0.211001262068748 0.473534911870956 -0.0556407161056995 0.0409779213368893 -0.178658440709114 -0.512521147727966 -0.401355028152466 -0.356228768825531 -0.175946280360222 -0.430410742759705 -0.465271890163422 -0.00637275958433747 -0.614561259746552 -0.232815235853195 -0.614896416664124 -0.653696715831757 -0.422668009996414 -0.517974317073822 -0.393408566713333 -0.476870536804199 -0.358257561922073 -0.682547330856323 -0.742148339748383 -0.738440573215485 -0.74577522277832 -0.754151046276093 -0.661744058132172 -0.633961141109467 0.923164665699005 0.924998462200165 1.15523874759674 0.769510865211487 1.24474310874939 1.66374802589417 1.68594920635223 1.81394195556641 1.84116184711456 1.53665387630463 1.52239120006561 1.80886197090149 0.706101715564728 1.04564261436462 0.340065628290176 0.34499916434288 0.504439949989319 0.501744210720062 0.2999607026577 1.23462951183319 0.502929270267487 1.08097922801971 1.56748962402344 1.78720319271088 2.09687900543213 2.24453926086426 1.82384443283081 3.00135946273804 4.2592601776123 3.35814213752747 5.06635141372681 3.95405054092407 2.96655201911926 2.14026665687561 1.55096781253815 2.15671157836914 1.43559730052948 1.97277224063873 2.64619112014771 2.62148642539978 2.64732933044434 2.87341141700745 3.22155165672302
9.25161647796631 10.3431253433228 10.1457185745239 10.5923280715942 10.823751449585 10.947286605835 11.2402820587158 11.7221345901489 11.8910913467407 12.8501005172729 13.2795305252075 13.0994749069214 12.1738128662109 12.8846263885498 13.0279817581177 14.592432975769 13.9583740234375 14.1436786651611 13.7195482254028 12.4644479751587 12.6554861068726 13.296257019043 10.4456691741943 9.61382675170898 10.8465566635132 15.2749786376953 9.94040584564209 10.0313282012939 10.5438137054443 11.5609893798828 13.0732851028442 13.8399438858032 12.4987325668335 11.9405450820923 13.8693599700928 14.5802268981934 13.9517812728882 13.7068014144897 11.9385757446289 12.9709758758545 14.1091718673706 15.1891193389893 14.802770614624 15.6352758407593 16.0774536132812 14.8652982711792 26.0313529968262 8.31535148620605 18.6381874084473 15.3688344955444 3.32937002182007 3.98153114318848 41.1286392211914 5.63402462005615 1.87269568443298 8.75204372406006 1.95501899719238 2.42694568634033 1.39035606384277 3.73380064964294 0.621979176998138 8.74085903167725 10.6981821060181 9.80972957611084 2.83492016792297 0.516326367855072 1.70820498466492 3.30484914779663 2.53340244293213 1.21405029296875 0.247900262475014 3.35415744781494 0.861081302165985 2.62076425552368 -1.07443857192993 -1.94288456439972 -1.98900246620178 -1.4178900718689 2.80914783477783 2.63332986831665 2.52219247817993 2.93087816238403 2.25780391693115 1.65419912338257 2.25654053688049 2.20255899429321 2.28925347328186 2.44418549537659 1.75168836116791 0.384851545095444 -1.98121845722198 -1.95414566993713 -1.08340549468994 -0.993405878543854 -1.08412647247314 -1.00882232189178 -0.777861177921295 -1.07774901390076 0.0271707903593779 -0.987213492393494 -0.395870715379715 0.693929553031921 0.0530711971223354 -0.232239112257957 -0.199544608592987 0.645719289779663 -0.202418744564056 -0.524852156639099 -0.431932389736176 -0.376213848590851 -0.189033910632133 -0.473393768072128 -0.562973141670227 -0.0539740920066833 -0.668206691741943 -0.278315126895905 -0.651048004627228 -0.70393568277359 -0.533181846141815 -0.663148760795593 -0.523948073387146 -0.643059551715851 -0.46965092420578 -0.752226650714874 -0.765057325363159 -0.833025634288788 -0.84181159734726 -0.86858993768692 -0.830572843551636 -0.818406641483307 -1.89052581787109 0.385197818279266 0.638523101806641 0.61914187669754 1.07292199134827 1.45042371749878 1.43055522441864 1.52716088294983 1.58216536045074 1.04431116580963 1.25895822048187 1.51913201808929 0.491473138332367 0.85823929309845 0.285152405500412 0.165099769830704 0.194031238555908 0.380306094884872 0.403514206409454 1.06589555740356 0.490938603878021 0.765112280845642 1.06525468826294 1.21848356723785 1.51009798049927 1.78408074378967 1.58156597614288 2.7304630279541 3.69175052642822 2.88206267356873 4.28803110122681 3.35136938095093 0.29923814535141 -0.187145978212357 -0.519955694675446 -0.0318295583128929 1.36494636535645 1.89484620094299 2.52453756332397 2.51004910469055 2.5406436920166 2.72022795677185 2.86683034896851 3.33259296417236
8.85045433044434 9.64092350006104 10.1354856491089 10.2888879776001 10.3328409194946 10.5320806503296 10.9238996505737 11.2706441879272 11.8842582702637 12.1919193267822 12.0132112503052 11.0953073501587 11.3494672775269 11.3824825286865 12.47474193573 12.5512790679932 12.1482725143433 12.8901071548462 11.2264404296875 10.6395578384399 10.1488981246948 9.86718940734863 9.3378849029541 10.5103769302368 13.5950307846069 11.3347816467285 8.39658355712891 9.59313488006592 9.43849563598633 10.6914901733398 11.4893550872803 10.4969863891602 10.5602111816406 11.6127643585205 11.7439384460449 11.5292701721191 10.9166259765625 12.5402250289917 11.7004098892212 12.6166248321533 13.6078987121582 13.0490064620972 13.9818782806396 14.1573572158813 13.0790977478027 18.3491439819336 36.8886528015137 11.8567085266113 6.25779104232788 3.98117113113403 42.8260688781738 3.06234216690063 2.048983335495 5.72154378890991 3.61806774139404 4.16913604736328 0.861894190311432 6.95315599441528 7.80395364761353 10.2243871688843 5.85676383972168 6.65541172027588 5.69553422927856 3.9014310836792 2.27704620361328 13.5769243240356 13.7362022399902 19.9548473358154 17.0482158660889 15.0257778167725 14.931755065918 2.65878963470459 0.530658662319183 1.65411484241486 9.22086143493652 4.75977325439453 -1.92238974571228 -1.82674789428711 -1.5651398897171 2.6781108379364 2.65333986282349 2.22966122627258 2.93762183189392 2.12485909461975 1.92382740974426 2.34405779838562 2.29458665847778 2.34542727470398 2.57444262504578 24.971549987793 18.6786918640137 -1.2233499288559 -1.04525506496429 -1.15093338489532 -1.03134822845459 -0.81132310628891 -1.12953221797943 -0.0352693237364292 -1.011883020401 -0.977449595928192 -0.526522159576416 -0.0827717632055283 -0.472406417131424 -0.232414409518242 -0.24959571659565 -0.215734496712685 -0.531131565570831 -0.447281956672668 -0.414924085140228 -0.228394508361816 -0.563308835029602 -0.573111057281494 -0.446719408035278 -0.0980560258030891 -0.299906462430954 -0.665461421012878 -0.721141040325165 -0.614157259464264 -0.832519173622131 -0.666640639305115 -0.754850268363953 -0.936021566390991 -0.899623692035675 -0.8093421459198 -0.862455308437347 -0.920370161533356 -0.949036180973053 -0.992266416549683 -0.961678385734558 29.9333667755127 -2.06176090240479 0.274306565523148 0.429765284061432 0.923986256122589 1.27450048923492 1.24639868736267 1.2938905954361 1.32042765617371 0.683478772640228 0.680130541324615 1.23680305480957 0.24883446097374 0.580628573894501 -0.0471177808940411 -0.00128614355344325 0.019277835264802 0.101031497120857 0.137654885649681 0.80084502696991 0.232303828001022 0.492770195007324 0.61197704076767 0.682697653770447 0.862492322921753 1.15808367729187 1.24032580852509 2.42863416671753 0.364764034748077 1.60674393177032 0.630613744258881 0.804946601390839 12.2347078323364 10.8869733810425 6.56168937683105 -0.223971784114838 -0.573324382305145 0.23045751452446 0.663866698741913 2.15774250030518 2.45846509933472 2.61160826683044 2.75871634483337 3.2133264541626 3.57499718666077
9.1154956817627 8.23875522613525 9.86382007598877 9.81326770782471 9.62286376953125 10.2987079620361 10.6249208450317 11.0636177062988 11.2688484191895 11.1049671173096 10.2488651275635 10.3141794204712 10.3373327255249 10.8678569793701 10.7061376571655 10.6208829879761 11.0474472045898 10.1603260040283 9.66543388366699 9.71496868133545 9.44840431213379 9.00972270965576 10.1139831542969 11.0255508422852 9.38360977172852 26.0881576538086 9.57811260223389 9.26537895202637 9.77827835083008 9.73791980743408 9.23243522644043 8.59759902954102 8.86812400817871 10.6336679458618 10.7863664627075 9.27144145965576 10.6908206939697 10.6320657730103 11.3617219924927 12.2831954956055 11.617115020752 12.6025991439819 12.6805772781372 11.6508178710938 14.079891204834 20.7606811523438 12.3637828826904 3.17614769935608 37.5059356689453 3.19847345352173 5.88049173355103 4.38299417495728 3.41533637046814 1.81142008304596 1.26065993309021 1.08944869041443 1.71501159667969 2.41567063331604 10.0951948165894 13.3853969573975 9.36875629425049 5.77767133712769 7.86237239837646 10.1548023223877 7.77791357040405 7.8358736038208 6.38250207901001 6.96412229537964 9.92168045043945 6.3906569480896 11.696985244751 0.515723705291748 1.43463945388794 2.29496264457703 10.432635307312 13.1782207489014 8.30234622955322 -2.03174448013306 -1.93179988861084 -1.62826263904572 2.46814489364624 2.56257581710815 2.05752897262573 3.00999736785889 2.31410074234009 2.28351521492004 2.64125299453735 2.61655783653259 13.7080936431885 9.94261169433594 -1.60510218143463 -0.707337319850922 -2.46452903747559 -2.01158571243286 -0.858896672725677 -1.19577026367188 -0.1031733751297 -1.05074489116669 -1.01259887218475 -0.890798926353455 -0.618388235569 -0.642655909061432 -0.544958174228668 -0.508977234363556 -0.547185301780701 -0.554920017719269 -0.458463072776794 -0.426377415657043 -0.273035436868668 -0.594457447528839 -0.605887413024902 -0.5012246966362 -0.144492983818054 -0.326965510845184 -0.544609844684601 -0.724067568778992 -0.648811042308807 -0.880409777164459 -0.739794909954071 -0.848907053470612 -1.04344201087952 -1.02470552921295 -0.976091742515564 -0.320725589990616 -0.972133636474609 -1.03330731391907 -1.08488583564758 -1.10939276218414 -2.88157510757446 -0.0373526848852634 -2.01474952697754 0.271983206272125 0.443873137235641 1.10691225528717 1.08395087718964 1.12930560112 1.11617934703827 6.56591081619263 -0.134017691016197 0.697164952754974 -0.0186487548053265 0.319182455539703 -0.322718381881714 -0.364697575569153 -0.18163238465786 -0.14741675555706 -0.146727487444878 -0.161327213048935 0.411257088184357 0.18716336786747 0.212034001946449 0.137090459465981 0.295621067285538 0.540181457996368 0.723843812942505 1.15057766437531 17.0270347595215 -0.106376752257347 9.5618314743042 15.5270433425903 17.6376800537109 17.5969924926758 24.6719512939453 15.8702068328857 14.8287239074707 13.6370325088501 3.9741632938385 1.49192023277283 2.34165167808533 2.51516771316528 2.65148973464966 3.09266757965088 3.45335721969604 4.19050979614258
22.5549812316895 9.2525691986084 9.24175834655762 9.16411781311035 9.82814407348633 10.0941123962402 10.4062156677246 10.5455293655396 10.381854057312 9.58060073852539 9.47117042541504 9.46261501312256 9.61674404144287 9.30265140533447 9.40459632873535 9.73143577575684 9.25079154968262 8.8442497253418 9.03695487976074 9.00524139404297 8.60614776611328 8.93613338470459 9.86291217803955 9.14016342163086 16.1278762817383 9.3456916809082 9.04942226409912 9.56416034698486 9.08347511291504 8.50504398345947 7.74213933944702 7.5100359916687 8.19586086273193 8.81150722503662 8.33071899414062 9.26855754852295 9.73541259765625 10.3196716308594 11.1769981384277 10.4674854278564 11.4556198120117 11.5259828567505 10.5001020431519 11.4233093261719 14.3610601425171 9.32274532318115 42.189094543457 2.29725217819214 2.14829707145691 3.50113487243652 9.17680358886719 3.39730954170227 4.32630157470703 5.09483575820923 5.28849649429321 0.879675626754761 0.968951404094696 0.583312809467316 2.21485877037048 6.62042331695557 5.56074666976929 9.88710498809814 6.5615119934082 5.70225954055786 5.30405473709106 5.44545459747314 12.3892469406128 8.72971057891846 9.38411521911621 7.52407693862915 11.7002172470093 10.579288482666 14.0686702728271 5.20567464828491 8.90671253204346 7.70666933059692 5.59827089309692 2.83929467201233 -2.00835251808167 -1.62152540683746 -1.72919857501984 2.58644413948059 2.64726758003235 2.27352643013 3.17319869995117 2.74155616760254 2.81756997108459 9.64260673522949 0.514341235160828 -1.98170852661133 -1.67651498317719 30.4718189239502 -2.61138105392456 -2.42044806480408 -2.36813473701477 -0.173729613423347 -1.0922611951828 -1.05991053581238 -0.941158413887024 -1.17188036441803 -1.10842263698578 -0.583774149417877 -0.620071291923523 -0.753088772296906 -0.601266741752625 -0.503539681434631 -0.459011763334274 -0.289487659931183 -0.622194588184357 -0.631980776786804 -0.57975447177887 -0.209789603948593 -0.378249377012253 -0.580663561820984 -0.740165233612061 -0.669785737991333 -0.887961149215698 -0.755504369735718 -0.879669964313507 -1.14262437820435 -1.15274620056152 -1.12483215332031 -1.06916844844818 0.129270806908607 -0.557809591293335 -1.13347899913788 -1.18239295482635 44.5838279724121 13.8422002792358 -2.24873661994934 -0.777767896652222 0.280853688716888 0.930142223834991 0.91480153799057 0.968035876750946 0.95454603433609 0.656877934932709 22.7440929412842 0.411001682281494 -0.265846431255341 0.0409537553787231 -0.588947772979736 -0.520213663578033 -0.465492814779282 -0.502410471439362 -0.372517824172974 -0.853018045425415 0.0628139674663544 -0.397844046354294 -0.12390660494566 -0.321345418691635 -0.157455682754517 -0.078475184738636 0.216927170753479 -1.26646518707275 -0.457680344581604 -0.744204223155975 1.53182935714722 1.96720540523529 6.67049169540405 1.65407299995422 3.24739050865173 0.180567353963852 -0.326652556657791 0.081512838602066 0.304375261068344 0.758903026580811 0.963302373886108 2.41197800636292 2.55163526535034 2.96759390830994 3.32299733161926 4.04234647750854 4.56703424453735
8.76443004608154 8.68270111083984 8.61498546600342 9.27024841308594 9.50856685638428 9.20124244689941 9.97457695007324 9.62129306793213 8.8789005279541 8.72092247009277 8.78308200836182 8.71697330474854 8.29229736328125 8.44717884063721 8.97161674499512 8.46218585968018 8.12064838409424 8.64670276641846 8.6083288192749 8.21951770782471 8.5149974822998 9.33808040618896 8.79121875762939 12.123007774353 9.10648059844971 8.77990245819092 9.21946907043457 8.7641077041626 8.19864845275879 7.30749273300171 6.86520147323608 6.47564029693604 6.72384309768677 7.40537166595459 8.47663974761963 8.91663074493408 9.5017786026001 10.2205743789673 9.53994178771973 10.5145530700684 10.5594186782837 9.54833030700684 9.16886806488037 3.81025695800781 10.9553232192993 2.83754348754883 3.18796467781067 8.84228038787842 4.97848463058472 1.9598137140274 1.15895676612854 9.4412145614624 12.3452081680298 4.05032348632812 3.77750539779663 0.222465142607689 0.7459477186203 0.825096070766449 2.83459329605103 4.45692873001099 4.66099834442139 4.39430475234985 4.14615964889526 3.95187973976135 4.87713956832886 5.89903974533081 5.61896753311157 5.5069317817688 5.40143632888794 6.62720537185669 7.62239551544189 7.84280967712402 4.372971534729 2.07228708267212 0.507283985614777 2.44460010528564 0.421605467796326 4.4957594871521 -1.87504911422729 1.86061668395996 -1.13042974472046 -1.24509811401367 2.75487470626831 2.65972065925598 2.71755409240723 3.23564386367798 15.1654577255249 8.93027019500732 31.1334209442139 20.9417285919189 19.6017074584961 38.1545600891113 33.0862617492676 32.0900001525879 -2.99607849121094 -1.53035521507263 -1.09674441814423 -0.991488575935364 -1.25274157524109 -1.16114616394043 -0.646079897880554 -0.866662979125977 -0.885389804840088 -0.785398781299591 -0.577855348587036 -0.529288947582245 -0.35066893696785 -0.643036484718323 -0.70316618680954 -0.611666083335876 -0.268506526947021 -0.425191581249237 -0.634203970432281 -0.778806090354919 -0.846020400524139 -0.726501941680908 -0.774596393108368 -0.770054638385773 -1.12680101394653 -1.23593711853027 -1.25660216808319 -1.21798610687256 -1.1509952545166 0.528447866439819 0.0811481103301048 -0.301378488540649 26.002477645874 13.6788129806519 28.5525512695312 -1.9896125793457 -0.602303862571716 0.750070929527283 0.738343596458435 0.821393609046936 0.258010983467102 0.26523357629776 9.0329122543335 6.51432228088379 -0.399069398641586 -0.150896728038788 -0.832070529460907 -0.871646583080292 -0.788399457931519 -0.76740300655365 -0.701732337474823 7.57100534439087 -1.57472705841064 -0.722543895244598 -0.721859753131866 -0.480622857809067 -0.435582369565964 -0.54634028673172 -0.1986203789711 -1.47783827781677 -0.773927748203278 -1.06874227523804 -0.908622026443481 0.124937511980534 3.42132306098938 5.74022054672241 1.52645635604858 -0.670044779777527 -0.483034640550613 0.0746379345655441 0.0738130733370781 0.303129762411118 0.38169726729393 1.56230854988098 1.7014274597168 2.85999417304993 3.19990730285645 3.89850497245789 4.40206813812256 4.16088199615479
8.21260356903076 8.16518020629883 8.78686714172363 8.997145652771 8.67042350769043 9.35360717773438 9.42246437072754 9.28372573852539 8.56738471984863 8.09282207489014 7.93817281723022 7.59136438369751 7.7459135055542 8.36894607543945 8.12653827667236 7.79613065719604 8.27381706237793 8.21707153320312 7.86188507080078 8.14794254302979 8.83079528808594 8.3936824798584 9.47100925445557 8.76422691345215 8.42948436737061 8.91141414642334 8.68607616424561 8.53259372711182 7.98802375793457 6.93428516387939 6.32143306732178 5.78740978240967 6.33206224441528 7.02294397354126 8.07995700836182 8.76726150512695 9.40863513946533 8.84720516204834 9.71098709106445 9.77085304260254 8.75324726104736 8.46078586578369 42.519100189209 9.1810998916626 2.80404019355774 2.40153002738953 1.99323427677155 2.83644080162048 1.40983009338379 6.8668065071106 3.69138503074646 4.85463190078735 5.26004886627197 18.0291175842285 4.47738647460938 9.88030052185059 5.44976425170898 2.47289156913757 2.04116344451904 1.59200954437256 4.14685678482056 2.9391086101532 3.17219471931458 4.31227254867554 4.61946105957031 3.86605310440063 2.64883255958557 6.16465330123901 6.09458541870117 4.29977941513062 5.47924470901489 7.65909814834595 17.1080646514893 12.202826499939 10.8490467071533 3.47822618484497 1.84801185131073 -1.96752691268921 -1.19284284114838 11.0607318878174 6.39474582672119 -1.33318173885345 -1.3890472650528 2.77042865753174 2.89931583404541 9.50899887084961 27.6635665893555 18.3940353393555 1.28466796875 16.0745143890381 21.8025531768799 -2.67143988609314 17.6583976745605 24.2026653289795 -2.05791258811951 -1.44483458995819 -2.47112083435059 -1.33199334144592 -1.21564555168152 -0.720160901546478 -0.929327130317688 -0.927716612815857 -0.81796008348465 -0.627466082572937 -0.593864440917969 -0.43243008852005 -0.712679445743561 -0.754711806774139 -0.657536387443542 -0.307978302240372 -0.457824856042862 -0.679446280002594 -0.863510370254517 -0.889267027378082 -0.776352286338806 -0.955776751041412 -0.820093631744385 -0.719351649284363 -0.833011627197266 -0.869515895843506 -1.30896210670471 -1.28076350688934 -1.2086945772171 0.940281927585602 0.47785609960556 18.0074119567871 9.12255191802979 15.4636707305908 20.0228519439697 -0.951844394207001 -0.222299635410309 0.59142404794693 0.668119013309479 0.0117305517196655 -0.167698875069618 4.78612041473389 0.852684378623962 -0.486895680427551 -0.286702960729599 -0.95082813501358 -1.06488406658173 -1.06705486774445 -1.2974716424942 -1.09385633468628 -0.994611144065857 22.1650199890137 -0.861115336418152 -0.882883191108704 -0.809071719646454 -0.665244460105896 -0.771809160709381 -0.576020777225494 -1.66820478439331 18.8976497650146 26.7574558258057 26.7309837341309 16.0230560302734 3.07029581069946 -0.437430888414383 0.328137546777725 20.1146278381348 16.5392780303955 2.25706720352173 0.00257469853386283 0.758181571960449 4.44318437576294 0.805282294750214 0.80643105506897 2.29744482040405 3.07928442955017 3.7431206703186 4.23798322677612 3.99676585197449 4.55905294418335
7.75991821289062 8.33893394470215 8.51093673706055 8.1433162689209 8.74592113494873 8.79688453674316 8.68233966827393 8.0153751373291 7.72266578674316 7.29412937164307 7.17997646331787 7.30969047546387 7.76528596878052 7.6126446723938 7.50598859786987 7.94484853744507 7.88020753860474 7.53782081604004 7.80781602859497 8.39126873016357 8.03336143493652 8.44800662994385 8.38347244262695 8.04005908966064 8.1985330581665 8.67447853088379 8.29539489746094 7.72056913375854 6.82286071777344 6.31987190246582 5.5492582321167 5.97262144088745 6.43879556655884 6.50026035308838 7.36550855636597 8.21530818939209 8.36851024627686 8.97486019134521 9.03534984588623 8.04303455352783 7.8285756111145 24.5465335845947 8.12885665893555 3.95077610015869 2.74340057373047 11.146017074585 2.33080124855042 6.44275331497192 1.04739964008331 1.02916467189789 7.6787691116333 3.8421585559845 9.23812294006348 12.8471803665161 12.1767520904541 11.0793886184692 2.13100504875183 4.16438007354736 4.30711555480957 2.65020394325256 1.99797606468201 2.44696140289307 2.40212273597717 2.32416152954102 4.5069260597229 3.72957921028137 2.96918392181396 6.49420404434204 4.65293645858765 3.4255633354187 3.80974578857422 6.20163822174072 6.0124135017395 9.90615081787109 9.03575706481934 6.35120916366577 1.28836274147034 8.59567642211914 1.76085138320923 13.3890953063965 1.86175143718719 9.07149314880371 -1.80692672729492 -1.38219904899597 7.23977088928223 16.178991317749 13.8634958267212 25.5097236633301 13.0246849060059 4.80778503417969 16.4600486755371 -0.840298354625702 28.1757030487061 3.14456868171692 0.612833142280579 38.0663299560547 -1.43309152126312 -1.25464582443237 -0.769323110580444 -0.985354483127594 -0.978060185909271 -0.863860547542572 -0.663012385368347 -0.631931483745575 -0.476211071014404 -0.765665471553802 -0.813078939914703 -0.741545855998993 -0.360232651233673 -0.495025217533112 -0.711984872817993 -0.891730964183807 -0.926160454750061 -0.824037551879883 -1.00639092922211 -0.860816299915314 -0.945698440074921 -0.668357789516449 -0.485177367925644 -0.321179568767548 -1.32297563552856 -1.31254100799561 -1.18401253223419 0.245022311806679 14.2825660705566 7.17825317382812 10.6338224411011 10.7486429214478 11.2152309417725 -0.708691358566284 -0.471557468175888 -0.0546863488852978 -0.106801591813564 -0.46156519651413 3.02168536186218 -0.340088069438934 -0.745039999485016 -0.358521908521652 -1.0288895368576 -1.18998551368713 -1.19753324985504 3.88232636451721 -1.26536905765533 -1.24680936336517 5.94620418548584 -1.13902032375336 -1.4111442565918 -1.12346816062927 -0.990200698375702 -0.974409401416779 -1.79408657550812 19.8160037994385 2.70747494697571 5.92750406265259 9.75897312164307 3.4194655418396 0.123086161911488 22.6507778167725 14.3317852020264 11.0639400482178 3.73927450180054 3.93384075164795 -0.0103813856840134 -0.168225064873695 1.70422208309174 0.63467800617218 0.717571020126343 1.10434913635254 2.64189338684082 3.58490395545959 4.05732917785645 3.8244309425354 3.9909131526947 4.0419659614563
7.9535984992981 8.0649881362915 7.6790018081665 8.12890148162842 8.15060901641846 8.07524681091309 7.47660541534424 7.18888378143311 7.22529315948486 6.84663867950439 6.86978721618652 6.86881399154663 7.49666500091553 7.2056941986084 7.61305856704712 7.54442501068115 7.23469305038452 7.47262334823608 7.93901014328003 7.65802192687988 8.00267601013184 8.00061225891113 7.66574239730835 7.7666540145874 8.22146606445312 7.99152994155884 7.48029041290283 6.56607437133789 6.33672904968262 4.26523208618164 5.36293315887451 5.65988063812256 6.170814037323 5.88289880752563 7.54730129241943 7.63914155960083 8.12896251678467 8.40079402923584 7.89701843261719 7.273512840271 16.8200454711914 7.13203477859497 37.7239379882812 2.78308129310608 4.74294710159302 3.22325158119202 2.72805118560791 3.64596176147461 3.81652927398682 2.69958567619324 7.50874996185303 4.78192901611328 8.53438949584961 7.44425773620605 8.47066879272461 10.2470264434814 9.48618125915527 8.16060447692871 9.14141178131104 5.7138204574585 0.657219350337982 0.406410723924637 1.58334362506866 1.88545095920563 2.0047881603241 2.20851492881775 3.47180533409119 7.52216148376465 2.38274645805359 3.25195121765137 5.56535768508911 4.07481336593628 4.96114015579224 6.11076831817627 1.0002019405365 0.938590049743652 4.30824708938599 7.91547250747681 4.13263130187988 7.91805171966553 2.52322316169739 7.30054903030396 11.2225847244263 -1.13160908222198 2.12055635452271 11.177583694458 15.0998430252075 11.4185009002686 37.9337501525879 35.1899147033691 26.7042369842529 9.7221851348877 -2.64744305610657 -2.07364654541016 21.843412399292 0.483757525682449 -0.206873312592506 -1.2235951423645 -1.01721656322479 -1.01835703849792 -0.908490300178528 -0.71126663684845 -0.664512455463409 -0.51217520236969 -0.789632081985474 -0.843205511569977 -0.798166811466217 -0.421162486076355 -0.542475342750549 -0.771339297294617 -1.0117415189743 -0.937652409076691 -0.851963758468628 -1.03134071826935 -0.903466463088989 -0.977292656898499 -1.11125862598419 -0.690938174724579 -0.46498104929924 -0.61898547410965 -1.10283553600311 -1.33722174167633 -1.00950968265533 10.7882690429688 5.97642850875854 8.7208776473999 7.72935485839844 10.0182466506958 12.8533668518066 -1.24472320079803 -1.18619203567505 -0.185598194599152 -0.885848581790924 1.90629196166992 -0.696495831012726 -0.96614271402359 -1.17723166942596 -1.05352294445038 -1.29034328460693 -1.29646325111389 0.716307520866394 -1.33365070819855 -1.35632252693176 3.34386301040649 -1.57816123962402 1.87637555599213 -1.74228501319885 -1.3322719335556 -1.61240887641907 19.3812942504883 8.38281154632568 -0.784839153289795 -1.32960593700409 -1.26274156570435 -0.774980008602142 -1.07390856742859 -0.828885972499847 -1.03687560558319 -1.09153604507446 -0.877242624759674 -0.367068588733673 -0.598919272422791 17.8647994995117 -0.0229128990322351 8.45169067382812 0.420370995998383 10.5548839569092 1.85737061500549 3.27120876312256 3.86744046211243 3.64085030555725 3.82242321968079 3.87003231048584 5.44213390350342
7.71084403991699 7.32449245452881 7.61534738540649 7.54643487930298 7.4454493522644 6.89230966567993 6.62669372558594 6.70254135131836 6.51187944412231 6.6254563331604 6.57604885101318 7.01215410232544 6.924973487854 7.0253210067749 7.44368076324463 6.96442461013794 7.17792654037476 7.56823968887329 7.34974479675293 7.64718341827393 7.66968774795532 7.30177116394043 7.33622026443481 7.74950170516968 7.58918476104736 7.15843534469604 6.41919660568237 6.15078353881836 4.15916204452515 10.3064746856689 11.1619577407837 11.8098592758179 18.8143997192383 6.89817714691162 7.15309810638428 6.91349029541016 7.63337230682373 7.8956413269043 6.90297508239746 12.7846717834473 6.35027170181274 20.9169044494629 37.8000068664551 3.87309908866882 4.58262157440186 1.35235345363617 0.940628588199615 3.14898228645325 0.582184851169586 3.46231484413147 4.49478101730347 3.91122341156006 4.30283451080322 5.72918033599854 7.85383987426758 7.1141529083252 11.6007957458496 3.50883865356445 1.96184539794922 19.9645652770996 1.79343283176422 0.3607237637043 0.351727336645126 0.178265511989594 1.69887709617615 2.2895393371582 3.60305118560791 6.95268583297729 2.63350629806519 4.60220909118652 3.26847434043884 4.23794364929199 3.92836332321167 14.2382173538208 3.0875871181488 2.55964779853821 1.72813606262207 5.40363597869873 -0.947980225086212 1.79993557929993 7.7107982635498 7.96290922164917 6.11306047439575 2.0070207118988 2.84322071075439 -1.36238443851471 5.47652292251587 23.1976928710938 21.6655921936035 24.0185108184814 29.84836769104 35.2781753540039 -2.95126366615295 15.0994424819946 -1.56000399589539 0.0230182204395533 -0.515553712844849 -0.527250170707703 -1.02705383300781 -0.934767782688141 -1.39054441452026 -0.708091676235199 -0.552426874637604 -0.813354790210724 -0.863207101821899 -0.82886153459549 -0.464520961046219 -1.21943235397339 -0.815909922122955 -1.26996862888336 -0.97452449798584 -0.886941134929657 -1.05681610107422 -0.937217533588409 -1.01825475692749 -1.28574788570404 -1.11200129985809 -0.771538734436035 -0.903329968452454 -1.11003875732422 -1.31833565235138 -1.05766129493713 -0.760874152183533 9.45841217041016 6.59236431121826 6.45769166946411 7.83872699737549 8.89303588867188 11.5681438446045 2.75073075294495 -1.37350344657898 -1.00868809223175 -1.13447034358978 1.40749990940094 -1.10048592090607 -1.30694186687469 -1.34073901176453 -1.34820258617401 -1.36479675769806 -0.246863663196564 -1.40071725845337 -1.43825101852417 1.69960367679596 4.84946012496948 -0.65778511762619 4.49749326705933 -1.59102272987366 -1.95886874198914 -1.97787129878998 6.51691102981567 13.4221601486206 13.5319271087646 -1.55494320392609 -1.72365999221802 -2.18644547462463 -1.84278893470764 -1.82545471191406 -1.86440765857697 -1.70633351802826 -1.66075003147125 -1.48111188411713 -1.15410876274109 -0.0517595335841179 0.523227155208588 0.221668526530266 0.79234105348587 1.08232486248016 2.38136267662048 3.69599413871765 3.4362804889679 3.03439664840698 3.69323754310608 3.53016138076782 2.57187724113464
7.02961301803589 7.2551383972168 7.13938045501709 6.97060203552246 6.35945272445679 6.22779703140259 6.30393409729004 6.07934617996216 6.29227876663208 6.25946760177612 6.61301946640015 6.64904689788818 6.7429461479187 7.13747501373291 7.06483125686646 6.82702445983887 7.23365831375122 7.10949850082397 7.32375717163086 7.37112665176392 6.99918460845947 6.9676685333252 7.34826993942261 7.17368841171265 6.79207801818848 4.29709243774414 6.01175785064697 26.9487190246582 5.33336162567139 6.05015325546265 6.54943895339966 10.2276487350464 6.54152154922485 6.64070177078247 6.41030216217041 6.90408945083618 7.05414962768555 6.27737522125244 9.66026878356934 5.94749736785889 14.0964803695679 20.874059677124 34.754207611084 1.94971990585327 2.48490333557129 4.17286825180054 0.805318176746368 6.97416114807129 0.997540652751923 3.85388708114624 3.87503695487976 3.80922794342041 3.80431246757507 5.08622407913208 6.02776193618774 5.42911767959595 2.61508178710938 3.26999545097351 6.96787786483765 13.8562364578247 17.2676410675049 9.53378582000732 11.9846248626709 0.652448654174805 2.09916162490845 2.38567638397217 3.51385712623596 6.3465723991394 3.10814523696899 3.1506564617157 2.89505553245544 3.35163235664368 7.60474920272827 15.5340480804443 -0.550514578819275 1.32773733139038 3.78136086463928 8.67936134338379 -0.558978259563446 -0.425519227981567 2.36012125015259 7.30940055847168 4.13609170913696 4.07984018325806 6.47343254089355 -1.64488840103149 3.3414249420166 16.2437534332275 18.212007522583 19.909122467041 24.8931312561035 45.4089965820312 7.30157232284546 -2.1928243637085 -0.448509693145752 -1.66934609413147 -1.63457095623016 -1.37214231491089 -1.0227484703064 -1.12270700931549 -1.12712633609772 -1.16179525852203 -0.837430000305176 -0.882718682289124 -0.904364883899689 -0.4714635014534 -1.04414010047913 -0.830694258213043 -1.05142736434937 -1.05566799640656 -0.914120078086853 -1.08450078964233 -0.966580390930176 -1.04790854454041 -1.31826043128967 -1.30568468570709 -1.14877939224243 -1.13052153587341 -1.16442835330963 -1.27568256855011 -1.33305633068085 -0.882927656173706 7.86591005325317 3.88785719871521 5.7872428894043 6.22386360168457 6.94153738021851 7.308434009552 -1.32371783256531 -2.05709743499756 -2.37824106216431 -0.982645511627197 0.872967958450317 -1.2644110918045 -1.40623152256012 -1.3905816078186 -1.38737726211548 -1.18517756462097 -0.538981437683105 -1.4133585691452 -0.803237915039062 1.1092928647995 1.52076184749603 -1.03369414806366 3.68439221382141 0.801878154277802 10.1487483978271 7.30244779586792 2.30114769935608 0.852952897548676 1.67154681682587 13.6371946334839 -1.31366682052612 -2.56673169136047 -2.56608819961548 -2.92466711997986 -2.90390872955322 -2.25579524040222 -2.90201330184937 -2.24800658226013 -1.34235453605652 -0.797462821006775 -0.524630010128021 -0.445847243070602 0.278734654188156 0.854322552680969 2.03101634979248 2.59283566474915 3.25018310546875 1.72748827934265 3.02794885635376 2.13477683067322 1.70623016357422 1.96100831031799
6.92170667648315 6.79953145980835 6.58221769332886 5.99335670471191 5.92035722732544 5.89238500595093 5.64652395248413 5.85609817504883 4.60952091217041 6.2690110206604 6.32037162780762 6.43446922302246 6.82123708724976 6.74478387832642 6.47138833999634 6.87607336044312 7.06212139129639 7.0081467628479 6.8781533241272 7.21127367019653 6.68364763259888 6.94403600692749 6.76874685287476 6.47800779342651 8.37589454650879 5.63154172897339 14.4667701721191 5.22215127944946 5.56083488464355 6.02883863449097 7.551100730896 6.29293155670166 6.28756237030029 6.05725622177124 6.37121868133545 6.44974517822266 5.60932493209839 5.72043371200562 8.36267280578613 9.94184970855713 13.5856895446777 18.4636745452881 37.0223731994629 18.3125476837158 5.85780954360962 0.720714211463928 1.14088261127472 0.633696973323822 0.911309123039246 1.66833746433258 2.49865674972534 2.55555129051208 4.30810594558716 2.26229357719421 3.66123819351196 2.41813564300537 1.33702385425568 5.13470077514648 7.47067785263062 7.39340257644653 7.8198823928833 7.53018617630005 8.01177501678467 2.72523808479309 2.87859344482422 1.78962290287018 1.29861736297607 1.07915771007538 0.540902733802795 1.84187281131744 2.82491016387939 5.3873176574707 5.50847244262695 14.1294956207275 0.990108489990234 1.82893633842468 0.433973461389542 3.33104228973389 -0.70307719707489 0.193955063819885 -1.19317269325256 6.99441003799438 1.9041428565979 9.96078968048096 17.328010559082 14.1329212188721 4.89943170547485 9.01011371612549 15.1785650253296 19.4044342041016 19.3994903564453 23.8786392211914 27.1190490722656 -1.67961513996124 6.2579984664917 -2.17404317855835 -0.827400684356689 -1.06857645511627 -1.05023968219757 -0.670762658119202 -0.963766932487488 -1.09565031528473 -0.942145645618439 -0.910289704799652 -0.497029930353165 -0.796506643295288 -0.846271157264709 -1.07286858558655 -0.842437088489532 -0.919613182544708 -1.0874969959259 -0.974288284778595 -1.05431532859802 -1.27704381942749 -1.42706251144409 -1.23585689067841 -1.31186974048615 -1.27464461326599 -1.29620790481567 -1.30638360977173 -1.24854326248169 6.66740989685059 3.22917604446411 4.65798950195312 4.49224805831909 5.1258864402771 5.68544292449951 15.6901216506958 19.3163089752197 29.9622554779053 0.387102067470551 0.772988319396973 -1.20631265640259 -1.46482872962952 -1.44789290428162 -1.43151378631592 -0.948499798774719 -0.427012473344803 -0.693700313568115 -0.813025712966919 -0.81744396686554 0.717493891716003 -0.904203951358795 2.01984333992004 0.00541985919699073 5.0464563369751 2.90080642700195 0.491396367549896 -1.33231461048126 -1.33267962932587 1.10238361358643 23.0057277679443 7.52099180221558 -3.00992751121521 -3.67869448661804 -4.23271179199219 -3.97345972061157 -3.67349672317505 -3.41543030738831 -3.15292763710022 -2.64238381385803 -1.63441371917725 -0.884629964828491 -0.263019800186157 0.307910531759262 1.15862393379211 1.76967978477478 1.89341259002686 2.93133091926575 1.39664244651794 1.81189322471619 8.75137805938721 9.28633308410645 1.87836527824402
6.49161767959595 6.35845327377319 5.77625894546509 5.71801614761353 5.70671606063843 5.43094110488892 5.50688219070435 27.7621726989746 5.88058805465698 5.92376518249512 6.03725719451904 6.4370231628418 6.38421535491943 6.1371603012085 6.49369716644287 6.74545955657959 6.69412517547607 6.72179079055786 6.91441535949707 6.53523683547974 6.52001285552979 6.38180780410767 6.20220947265625 28.2796192169189 5.32248544692993 9.76626110076904 5.02354145050049 5.38163995742798 5.85909271240234 6.25011825561523 6.07727813720703 5.99984931945801 5.78410482406616 6.01893901824951 5.93425750732422 5.05887365341187 5.16779756546021 6.43101406097412 7.24237203598022 9.41997337341309 11.644962310791 19.691463470459 24.5257625579834 36.0900917053223 41.3088569641113 0.158487409353256 0.357199907302856 0.894605338573456 1.6958384513855 0.932457625865936 1.10463571548462 1.537184715271 1.23063516616821 2.08421182632446 2.95327877998352 1.28513669967651 4.00800037384033 5.42129802703857 5.47303009033203 4.30587291717529 4.59439992904663 4.18014240264893 1.50743162631989 1.99099791049957 7.99393320083618 14.4031991958618 0.541289448738098 6.94395399093628 4.27823448181152 2.51205468177795 4.69678115844727 4.39312505722046 6.70187091827393 4.78298711776733 1.32013881206512 13.2523574829102 -0.753345966339111 -0.782489001750946 0.0992489084601402 -0.648406147956848 1.23680853843689 5.61397409439087 4.49649381637573 8.0312328338623 6.74722480773926 17.8326416015625 7.19724559783936 2.29935002326965 16.1066074371338 28.9367733001709 16.5711307525635 17.3910236358643 12.9364652633667 4.50022459030151 22.6248645782471 -0.0660312622785568 -1.02543294429779 -0.822687923908234 -0.705637514591217 -0.826261162757874 -0.521078407764435 -0.387005478143692 -0.806888401508331 -0.874659836292267 -0.822697579860687 -0.268556833267212 -1.09300911426544 -1.05791008472443 -0.793010652065277 -0.916207492351532 -0.981504023075104 -1.06058037281036 -1.20180380344391 -1.35191261768341 -1.23954498767853 -1.30842292308807 -1.35201108455658 -1.39315605163574 -1.37714302539825 -1.28938138484955 5.66634702682495 2.67485404014587 3.8713526725769 3.21079850196838 3.96499729156494 3.827885389328 8.51486301422119 11.6383819580078 12.172924041748 2.14164781570435 1.53228306770325 0.906434714794159 0.0148367555812001 -0.564570486545563 -0.821799457073212 -0.817598521709442 -0.5784592628479 -0.321498304605484 -0.282330751419067 -0.308390974998474 0.529057085514069 -0.62988954782486 1.38649988174438 -0.115743920207024 2.68697738647461 3.60053825378418 4.38167858123779 -0.0141577161848545 -1.71759831905365 0.448232173919678 11.2484292984009 21.4165821075439 16.8355350494385 -2.79064440727234 -3.16996502876282 -0.0266095642000437 -4.31853532791138 -3.97829723358154 -3.2033052444458 -3.30139780044556 -2.86541271209717 -2.08344745635986 -1.42277491092682 -0.683582365512848 0.588642656803131 0.971912503242493 9.37563419342041 1.17606341838837 10.1359310150146 2.73384809494019 3.56248950958252 3.71955752372742 7.33675003051758 2.58357405662537
