NCOLS 171
NROWS 31
XLLCORNER 353696
YLLCORNER 6699440
CELLSIZE 16 
NODATA_value -3.4e+38 
1.59191918373108 1.41856253147125 0.986145377159119 0.793972611427307 0.69250100851059 0.631190836429596 0.596405386924744 0.660873472690582 4.80189180374146 6.57370567321777 6.15177345275879 5.53410339355469 4.90832328796387 4.41825199127197 3.97405004501343 3.62712740898132 3.46437883377075 3.08611798286438 2.6470685005188 2.23879432678223 1.9092618227005 1.5956357717514 1.34992277622223 1.10820174217224 0.895637273788452 0.748886823654175 0.649480819702148 0.573883235454559 0.502939879894257 0.428023964166641 0.352090120315552 0.276514500379562 0.21361842751503 0.16746361553669 0.104787178337574 0.0590702816843987 -0.00271431705914438 -0.0420836508274078 -0.0906147658824921 -0.138098701834679 -0.191863313317299 -0.227511242032051 -0.250777900218964 -0.273694664239883 -0.295132726430893 -0.315821588039398 -0.334213405847549 -0.346601217985153 -0.359552711248398 -0.373789042234421 -0.385799884796143 -0.393603026866913 -0.406319946050644 -0.412744969129562 -0.441336303949356 -0.559979796409607 -0.722249031066895 -0.876882493495941 -0.986341238021851 -1.11616969108582 -1.32418584823608 -1.53151166439056 -1.69311690330505 -1.7380872964859 3.38881635665894 0.801825523376465 0.611383438110352 0.706137478351593 0.773444592952728 0.607766151428223 0.442285001277924 0.233510926365852 0.151069775223732 0.0964476466178894 0.00613971892744303 0.0177721511572599 1.65824830532074 3.3957314491272 7.55792474746704 5.83434295654297 2.79877424240112 0.146436661481857 -0.714451789855957 -0.854869306087494 -0.127232551574707 2.03159379959106 5.98390626907349 5.91594648361206 8.89566040039062 9.41497707366943 11.3833932876587 13.5441083908081 12.9745798110962 10.3900079727173 8.58674240112305 7.52684736251831 6.7164945602417 6.06060647964478 5.58129167556763 5.18746852874756 4.84604072570801 4.54968070983887 4.26795482635498 4.00213766098022 3.79483127593994 3.60492014884949 3.43654251098633 3.28156471252441 3.15160131454468 3.02212500572205 2.90364408493042 2.7975537776947 2.69519591331482 2.60016345977783 2.50362634658813 2.186847448349 1.71621656417847 1.14883327484131 0.221778348088264 -0.0792145356535912 1.08193731307983 6.26310682296753 0.645808041095734 -0.318017840385437 -0.610170066356659 -1.04991936683655 -1.22285914421082 -1.24921059608459 -1.51482033729553 -1.66205215454102 -1.3443169593811 27.7346324920654 38.5297737121582 32.771167755127 27.000524520874 23.6464462280273 20.8204154968262 18.256217956543 16.0620079040527 13.8863067626953 12.1184310913086 10.6558904647827 9.45524597167969 8.51192474365234 7.64096593856812 6.89017295837402 6.30360984802246 5.79553651809692 5.24227952957153 4.77465534210205 4.5103440284729 4.20977401733398 3.83280158042908 3.49421882629395 3.14796137809753 2.85428595542908 2.57340812683105 2.13265037536621 1.59290277957916 1.21746802330017 0.807937800884247 0.409131944179535 0.139243379235268 0.080665722489357 3.71962308883667 4.50829648971558 8.53290843963623 13.7900810241699 11.4446105957031 9.54476070404053 7.81805562973022
1.52607452869415 1.47311568260193 1.23674118518829 0.873475730419159 0.74453067779541 0.655902326107025 0.592507600784302 0.57300877571106 3.41657161712646 4.22761583328247 4.652512550354 5.36324548721313 4.66003704071045 4.07395648956299 3.62407732009888 3.2894561290741 3.15739417076111 2.85480451583862 2.42296385765076 2.02410364151001 1.6978325843811 1.38077342510223 1.13307440280914 0.908735930919647 0.702746212482452 0.55696314573288 0.450797557830811 0.368084758520126 0.309217214584351 0.249020293354988 0.180109113454819 0.105216667056084 0.0453382395207882 0.00394469685852528 -0.0414637960493565 -0.0865584313869476 -0.139106184244156 -0.180387884378433 -0.223720163106918 -0.268922209739685 -0.317019373178482 -0.351589143276215 -0.377131044864655 -0.39375051856041 -0.412092715501785 -0.430904656648636 -0.45648193359375 -0.465538114309311 -0.474588423967361 -0.485979825258255 -0.498308420181274 -0.50889641046524 -0.519772052764893 -0.524241030216217 -0.518110394477844 -0.617715239524841 -0.686847329139709 -0.802003085613251 -0.923946619033813 -1.06228268146515 -1.32870328426361 -1.51499056816101 -1.75892281532288 -1.65338921546936 2.39396691322327 2.16142559051514 1.84327352046967 1.46803617477417 1.12253177165985 0.920480012893677 0.790228128433228 1.25759100914001 1.14742767810822 0.75728452205658 0.607472896575928 0.433049649000168 1.46090662479401 4.74747943878174 4.16036510467529 2.71852731704712 0.656838715076447 -0.184947222471237 -0.814305007457733 -0.988569021224976 -1.0306476354599 -0.375545740127563 1.3957052230835 6.57779026031494 11.6218233108521 11.2842473983765 16.3895301818848 15.4577007293701 14.5200653076172 12.5029935836792 10.4332466125488 9.14836025238037 8.15389537811279 7.37121534347534 6.70050811767578 6.19066667556763 5.75196409225464 5.37481737136841 5.03209114074707 4.71661853790283 4.44730949401855 4.21744155883789 4.00381278991699 3.81246376037598 3.65236282348633 3.49642515182495 3.35159349441528 3.21965885162354 3.105144739151 2.99038648605347 2.8079400062561 2.21676969528198 1.62887036800385 0.840616464614868 -0.23914298415184 -0.289943873882294 6.06796455383301 4.19824123382568 0.829646050930023 -0.658459365367889 -1.05942463874817 -1.36933541297913 -1.59004867076874 -1.64708626270294 -1.79174733161926 -2.04976987838745 -2.05578446388245 15.4604740142822 23.4127998352051 38.6364517211914 36.1679573059082 29.3285312652588 24.7397117614746 21.32151222229 18.4047222137451 15.5372619628906 13.8494729995728 12.2028751373291 10.8385705947876 9.76144409179688 8.77964019775391 7.97714996337891 7.41539239883423 6.88320112228394 6.31666374206543 5.8240122795105 5.38917827606201 4.98852252960205 4.55763578414917 4.16234636306763 3.77839827537537 3.4527599811554 2.8546941280365 2.05752658843994 1.6032133102417 1.38831889629364 1.15094149112701 0.942690789699554 0.822591960430145 2.84306645393372 8.20285797119141 8.33024311065674 8.18686103820801 10.1755399703979 8.28475379943848 7.41632604598999 6.53513240814209
1.50183272361755 1.45161163806915 1.39193916320801 1.06590914726257 0.859283924102783 0.728270649909973 0.633158564567566 0.589681088924408 1.88585793972015 2.3252899646759 3.25736856460571 5.32926940917969 5.19739103317261 4.45029973983765 3.72206807136536 3.22874641418457 3.04301929473877 2.71918416023254 2.22255921363831 1.77002549171448 1.47237908840179 1.13218092918396 0.907252848148346 0.700647711753845 0.516777396202087 0.365070939064026 0.239855423569679 0.160904496908188 0.0952628403902054 0.0566886886954308 0.002530139638111 -0.0427404716610909 -0.0959531366825104 -0.150724589824677 -0.186201438307762 -0.223569989204407 -0.264452695846558 -0.304157763719559 -0.329170942306519 -0.376425504684448 -0.419662088155746 -0.454171150922775 -0.477362960577011 -0.49991163611412 -0.523213028907776 -0.54315596818924 -0.567390501499176 -0.584377884864807 -0.590257406234741 -0.600241720676422 -0.605071604251862 -0.61513763666153 -0.628527045249939 -0.555386245250702 -0.397729188203812 -0.514736533164978 -0.622939944267273 -0.685939490795135 -0.814504384994507 -1.02083110809326 -1.30446040630341 -1.45102059841156 -1.58923804759979 -1.63858139514923 0.389000624418259 0.96909773349762 1.16459178924561 0.783387541770935 0.345117092132568 0.13210928440094 0.411306917667389 3.29829740524292 2.09896802902222 1.20922386646271 0.583062887191772 0.128410756587982 0.739477157592773 5.59114980697632 3.36028337478638 1.1895751953125 -0.154571622610092 -0.826385736465454 -1.33283197879791 -1.4603066444397 -1.43518698215485 -1.29390954971313 -0.572214245796204 6.36224269866943 12.0434789657593 13.4013681411743 18.3819389343262 16.9589347839355 15.6832914352417 13.4705476760864 11.4103841781616 9.99211406707764 8.93289470672607 8.07597541809082 7.3435320854187 6.73663568496704 6.24001121520996 5.83019161224365 5.46366786956787 5.12038898468018 4.83535242080688 4.57407140731812 4.34193897247314 4.14107227325439 3.95614314079285 3.78864336013794 3.63432478904724 3.49000811576843 3.36484384536743 3.24359631538391 2.9756293296814 2.15671992301941 1.58419322967529 0.42211127281189 -0.468476504087448 -0.710896193981171 9.29425811767578 7.48582553863525 2.98032593727112 -0.913894534111023 -1.35433268547058 -1.57461845874786 -1.90813517570496 -2.03194117546082 -2.10813355445862 -2.19764399528503 -1.08554232120514 9.52904891967773 10.9060106277466 20.9203243255615 42.6505241394043 39.1685180664062 31.0215930938721 25.2986869812012 20.6051502227783 16.916784286499 14.4685802459717 12.6814498901367 10.9149475097656 9.63823699951172 8.75277233123779 8.03121471405029 7.46318387985229 6.96137857437134 6.43993663787842 5.94574594497681 5.50564622879028 5.05469369888306 4.63818168640137 4.19185829162598 3.74036455154419 3.24432778358459 2.39856672286987 1.48037958145142 1.33161973953247 1.21972334384918 1.06216311454773 1.04987382888794 4.19415140151978 5.68012762069702 10.1951780319214 10.0675010681152 9.2077693939209 8.78838539123535 8.03211307525635 7.03712463378906 6.15330791473389
1.66125524044037 1.59646940231323 1.54124462604523 1.44151091575623 1.10521769523621 0.93110203742981 0.799284875392914 0.728505551815033 0.726521193981171 1.11451900005341 1.99704849720001 3.84343242645264 5.20076465606689 4.59576940536499 3.78313374519348 3.29041433334351 3.01878142356873 2.69336700439453 2.09048938751221 1.56478011608124 1.24351632595062 0.862622380256653 0.622463464736938 0.437109112739563 0.260769993066788 0.126787081360817 0.0191626343876123 -0.0632543563842773 -0.121966175734997 -0.158861726522446 -0.193727180361748 -0.222240716218948 -0.267086327075958 -0.342492073774338 -0.373411774635315 -0.386353075504303 -0.419400036334991 -0.441466927528381 -0.460830420255661 -0.505054652690887 -0.543165922164917 -0.577855408191681 -0.59362131357193 -0.620463907718658 -0.658956468105316 -0.673291206359863 -0.696062564849854 -0.71940004825592 -0.73190826177597 -0.738678812980652 -0.689337730407715 -0.739669919013977 -0.752079010009766 -0.752712428569794 -0.250816613435745 -0.108353994786739 -0.402045667171478 -0.530973970890045 -0.718883395195007 -0.873831510543823 -1.11278355121613 -1.31340849399567 -1.47610259056091 -1.54276633262634 -0.639866471290588 0.423696219921112 1.42408800125122 1.08288633823395 0.458596438169479 0.195793434977531 0.420691102743149 1.8448246717453 0.955209076404572 0.552217364311218 0.287179738283157 0.0230102855712175 0.799612998962402 4.73440074920654 2.32764911651611 0.0156566146761179 -0.80404931306839 -1.32152032852173 -1.70078587532043 -1.75598657131195 -0.44269672036171 -0.657554447650909 0.323283076286316 4.88404273986816 7.62665796279907 11.5902347564697 24.9471054077148 21.9246578216553 19.0112590789795 16.091609954834 13.0538339614868 11.033299446106 9.70723342895508 8.65036392211914 7.78879022598267 7.13494920730591 6.59787034988403 6.13559579849243 5.72546672821045 5.35151815414429 5.03215408325195 4.76103734970093 4.5199875831604 4.30112314224243 4.11351823806763 3.93631529808044 3.77126336097717 3.61868619918823 3.47922515869141 3.36251902580261 3.0689582824707 2.09749722480774 1.36905026435852 0.567026436328888 -0.444187700748444 -0.874283611774445 0.870864033699036 8.60530376434326 3.53220391273499 -0.7132807970047 -1.2752822637558 -1.61483073234558 -1.89721763134003 -2.23665428161621 -2.14359664916992 -2.23644709587097 -2.14438796043396 6.28621387481689 5.48457622528076 17.4032192230225 25.7201137542725 47.2211151123047 35.5471076965332 27.8384323120117 22.4146537780762 17.4559116363525 14.5166521072388 12.7141275405884 11.2919368743896 10.0513181686401 9.08472061157227 8.38656711578369 7.65954923629761 7.04390430450439 6.43458652496338 5.88498449325562 5.5021915435791 5.11462783813477 4.63239669799805 3.9366409778595 3.45693039894104 2.82645678520203 2.0216658115387 1.37470889091492 1.17891943454742 2.07544207572937 2.04144430160522 3.50687789916992 5.22105884552002 7.61463356018066 10.938777923584 10.5073652267456 9.7310791015625 8.91833972930908 7.75792741775513 6.81769895553589 6.08865737915039
2.46598935127258 2.38395810127258 2.30947685241699 2.22737812995911 2.05118227005005 1.75593078136444 1.60834550857544 1.49076628684998 1.4494024515152 1.41916871070862 1.40594673156738 2.31982111930847 4.14459562301636 4.3865270614624 3.84882211685181 3.25484275817871 2.97080588340759 2.60241651535034 1.98091971874237 1.42225861549377 1.02126061916351 0.690622746944427 0.370610356330872 0.171063527464867 0.0103938402608037 -0.106418244540691 -0.216896936297417 -0.28980678319931 -0.333295822143555 -0.385832786560059 -0.405893534421921 -0.415355890989304 -0.445467442274094 -0.519223570823669 -0.572564780712128 -0.575578212738037 -0.589529573917389 -0.601850032806396 -0.621615350246429 -0.653595566749573 -0.693955898284912 -0.718056738376617 -0.731806397438049 -0.756092607975006 -0.798031270503998 -0.818761348724365 -0.842783153057098 -0.85782915353775 -0.872412919998169 -0.877529680728912 -0.888849556446075 -0.89312732219696 -0.905937254428864 -0.911933183670044 1.07885110378265 0.505154550075531 0.107343129813671 -0.0666523724794388 -0.300328850746155 -0.574074149131775 -0.876849770545959 -1.1515394449234 -1.30478060245514 -1.45992147922516 -1.47254288196564 -0.481489688158035 0.8099245429039 1.54496943950653 0.732807457447052 0.486830502748489 0.432195246219635 0.42374175786972 0.382381498813629 0.337557703256607 0.278821289539337 0.145347476005554 0.87101423740387 2.29510855674744 0.87301504611969 -0.225575596094131 -1.26002132892609 -1.53656446933746 -1.63639724254608 -1.72073173522949 -1.78720939159393 -1.8092452287674 -0.134445190429688 2.09612369537354 4.66848468780518 13.1419906616211 31.7408618927002 25.8455486297607 21.9962177276611 18.0792007446289 14.680100440979 12.4477815628052 10.9457521438599 9.75611209869385 8.79679107666016 7.99857759475708 7.34531021118164 6.79786014556885 6.31040668487549 5.87731170654297 5.51208257675171 5.18932008743286 4.90052795410156 4.63515329360962 4.41854858398438 4.21929121017456 4.02819967269897 3.86522436141968 3.72403907775879 3.57385420799255 3.19563412666321 2.3242564201355 1.51928210258484 0.643629670143127 -0.160473421216011 -0.79216068983078 -0.941209852695465 1.43881833553314 0.102234162390232 -0.961987733840942 -1.10962271690369 -1.32787811756134 -1.58763515949249 -2.21199798583984 -2.30635023117065 -0.214548900723457 -0.40875256061554 3.93397855758667 5.91233777999878 6.94993591308594 22.7314605712891 42.6903305053711 34.204906463623 27.9111881256104 22.2681331634521 17.6398773193359 13.5636196136475 10.6798162460327 9.73116779327393 9.17169570922852 8.4764986038208 7.86137819290161 7.13411474227905 6.5073766708374 5.84355783462524 5.42417573928833 5.05984973907471 4.70591926574707 4.08466291427612 3.43572807312012 2.697261095047 2.00463128089905 1.53971290588379 1.0980132818222 2.45937824249268 5.39585065841675 3.71922850608826 2.66144800186157 4.39179611206055 8.70751857757568 12.0662889480591 12.4459171295166 10.9597673416138 9.44402408599854 8.17646217346191 7.12715673446655 6.32554006576538
2.93339467048645 2.84789633750916 2.75611901283264 2.67252779006958 2.57667326927185 2.33858370780945 2.10132670402527 1.97958493232727 1.90027928352356 1.83426117897034 1.78032028675079 1.76348483562469 2.96491765975952 4.02199029922485 3.79030466079712 3.23296308517456 2.87101435661316 2.64000844955444 1.95477116107941 1.30591595172882 0.837617933750153 0.542246162891388 0.150249019265175 -0.037931714206934 -0.200189098715782 -0.312944322824478 -0.406497865915298 -0.473366349935532 -0.538495242595673 -0.562343776226044 -0.589848637580872 -0.60210120677948 -0.627237558364868 -0.684859454631805 -0.739037394523621 -0.78027880191803 -0.784363329410553 -0.53007584810257 -0.791656136512756 -0.811756491661072 -0.855047106742859 -0.871674478054047 -0.881892383098602 -0.90539276599884 -0.943423807621002 -0.966063380241394 -1.00069010257721 -1.01750123500824 -1.07276141643524 -1.09488868713379 -0.974942743778229 -0.976137638092041 -0.59453296661377 -0.984782159328461 0.801975727081299 1.35504806041718 0.620416462421417 0.27327036857605 0.0134718650951982 -0.211778163909912 -0.527970373630524 -0.694739639759064 -0.849617779254913 -1.06216299533844 -1.1523015499115 -0.657294929027557 -0.175972446799278 0.841295897960663 0.456137716770172 0.295143514871597 0.403097450733185 0.264375627040863 0.24538442492485 0.342379659414291 0.200273990631104 0.16960221529007 0.461615175008774 0.450428038835526 0.12043085694313 -0.360342383384705 -1.22258305549622 -1.39950227737427 -1.49004030227661 -1.57232058048248 -1.63796067237854 -1.70061445236206 -1.73154509067535 0.943983316421509 9.3731861114502 15.1320056915283 29.7327690124512 24.9421520233154 21.3261318206787 16.8852081298828 13.9676942825317 12.0454473495483 10.5765762329102 9.43730926513672 8.5815601348877 7.86288213729858 7.27081441879272 6.76397037506104 6.31949186325073 5.91613578796387 5.56479406356812 5.25645065307617 4.97690296173096 4.72366189956665 4.50135087966919 4.29647445678711 4.10727500915527 3.94631218910217 3.79280424118042 3.58289813995361 3.06082201004028 2.36530900001526 1.63079285621643 0.775345683097839 -0.126647725701332 -0.667529284954071 -0.969469726085663 -0.499711275100708 -1.01193153858185 -1.16237485408783 -1.21178388595581 -1.3222873210907 -1.53077352046967 -2.20461869239807 -2.35082411766052 3.54337644577026 3.08690547943115 1.91888415813446 2.59547090530396 10.1104154586792 20.3722286224365 32.9863662719727 27.523645401001 23.0569038391113 19.3377418518066 15.805926322937 11.3748807907104 7.46072578430176 6.95100975036621 10.2167186737061 8.0589599609375 6.80418157577515 6.35495090484619 5.82888078689575 5.26603269577026 4.71664953231812 4.30003213882446 3.84858369827271 3.33365058898926 2.66503238677979 1.71579360961914 1.31526339054108 1.01085579395294 3.23161959648132 5.68494272232056 4.03415584564209 2.24538087844849 1.73127555847168 6.02981567382812 9.48182392120361 11.6515712738037 13.8401641845703 11.6852159500122 9.7421817779541 8.35320854187012 7.30269718170166 6.45844745635986
3.09175944328308 3.0037693977356 2.91891622543335 2.84065270423889 2.75828886032104 2.65908408164978 2.4961154460907 2.29098105430603 2.13710594177246 2.04765701293945 1.95298886299133 1.91015684604645 2.24169826507568 3.18205142021179 3.29402232170105 2.94958138465881 2.71403050422668 2.47685575485229 1.76894068717957 1.1280699968338 0.675091981887817 0.369734853506088 -0.0299583449959755 -0.245390385389328 -0.399642527103424 -0.495379447937012 -0.528459906578064 -0.550166428089142 -0.581555783748627 -0.59859573841095 -0.622622787952423 -0.657971143722534 -0.692322552204132 -0.721621334552765 -0.772524297237396 -0.856860637664795 -0.911775887012482 -0.784548461437225 -0.914476871490479 -0.924065172672272 -0.965001285076141 -0.973152816295624 -0.994828939437866 -1.01118648052216 -1.04540872573853 -1.06977832317352 -1.11687481403351 -1.12887525558472 -1.23493158817291 -1.24944877624512 -1.26439607143402 -1.28374338150024 0.784794270992279 0.0917088687419891 0.0861468315124512 1.49768316745758 1.05786240100861 0.682239890098572 0.342024475336075 0.100130468606949 -0.0720387250185013 -0.254585415124893 -0.424502164125443 -0.49608588218689 -0.696966469287872 -0.708600878715515 -0.0282496605068445 -0.0744490176439285 0.283792048692703 0.0845303609967232 0.0255813337862492 -0.101394049823284 0.216324716806412 0.00329215126112103 -0.113277778029442 -0.193411096930504 1.2497810125351 1.19750607013702 0.418933570384979 -0.345156520605087 -0.839275062084198 -1.05569112300873 -1.14144587516785 -1.16481018066406 -1.26355814933777 -1.43430685997009 -1.50822722911835 5.43254089355469 14.1624536514282 15.6352396011353 21.5426502227783 19.3378353118896 17.1241302490234 14.0542049407959 12.1449251174927 10.6610879898071 9.50587940216064 8.57280731201172 7.80076313018799 7.15893507003784 6.61004781723022 6.14221096038818 5.73578596115112 5.38076066970825 5.0792350769043 4.80005598068237 4.56051969528198 4.33999729156494 4.13827228546143 3.9526584148407 3.79239416122437 3.66126990318298 3.48755860328674 3.08146047592163 2.50477766990662 1.86349582672119 1.192498087883 0.467346429824829 -0.291953921318054 -0.83693253993988 -1.04967057704926 -1.05048716068268 -1.12096869945526 -1.27926564216614 -1.37348198890686 -1.4823911190033 -1.70000088214874 -2.26679110527039 -2.41094422340393 2.96809196472168 1.43476378917694 0.590253174304962 1.00308835506439 5.77260732650757 24.057861328125 24.7305450439453 22.7023792266846 21.1746940612793 18.3226718902588 15.4377527236938 11.6173858642578 6.7687201499939 5.3384428024292 7.64005088806152 7.13877534866333 6.79278326034546 5.59581089019775 4.95438432693481 4.55444526672363 4.12486457824707 3.8784453868866 3.41555523872375 2.99628019332886 2.3244423866272 1.41541767120361 0.967349708080292 1.42178082466125 9.32112979888916 7.14550018310547 5.18658399581909 3.35268020629883 2.07754278182983 7.27617359161377 11.1285715103149 10.9537763595581 11.7440223693848 10.2973260879517 8.97056674957275 7.87792825698853 6.96930456161499 6.26667594909668
3.21497654914856 3.12376260757446 3.0372052192688 2.95757389068604 2.88181233406067 2.79691600799561 2.70123291015625 2.61962080001831 2.47988557815552 2.29022693634033 2.15477132797241 2.08042907714844 2.03771352767944 2.0600802898407 2.71654176712036 2.63028025627136 2.66054844856262 2.16250681877136 1.42023813724518 0.76174658536911 0.348962187767029 0.0102767022326589 -0.204630360007286 -0.416078805923462 -0.465612530708313 -0.496874272823334 -0.518787741661072 -0.544424653053284 -0.579244434833527 -0.596414387226105 -0.622222900390625 -0.653054654598236 -0.693248987197876 -0.721366167068481 -0.792202353477478 -0.862572312355042 -0.921542048454285 -0.947927176952362 -0.971966207027435 -0.998891830444336 -1.03261244297028 -1.07102119922638 -1.11449921131134 -1.14703714847565 -1.17439913749695 -1.2079416513443 -1.24790966510773 -1.28066265583038 -1.32864260673523 -1.43280732631683 -1.46727204322815 -1.48710954189301 -0.706929683685303 0.822817325592041 0.751537263393402 0.71781986951828 0.814294993877411 0.47966206073761 1.21660161018372 0.924583911895752 0.439467936754227 0.197622388601303 -0.0693058967590332 -0.148509085178375 -0.220996499061584 -0.376262366771698 -0.203470483422279 -0.232634961605072 -0.0105321519076824 -0.245154485106468 -0.36943706870079 -0.467165231704712 0.575628995895386 0.110047869384289 -0.203529670834541 -0.470680326223373 1.10209262371063 2.49169301986694 0.729406595230103 0.100984245538712 -0.470997780561447 -0.598643839359283 -0.733713030815125 -0.835052311420441 -0.995465278625488 -1.1537172794342 -1.21172940731049 4.53802680969238 16.7807064056396 17.256067276001 16.8334197998047 16.1784477233887 15.1600933074951 13.1834859848022 11.4104928970337 10.0183897018433 8.92378902435303 8.04794311523438 7.31690883636475 6.71531820297241 6.20416688919067 5.7619194984436 5.37808799743652 5.03525972366333 4.73279428482056 4.46430778503418 4.24212598800659 4.03767013549805 3.84955191612244 3.67874503135681 3.5426778793335 3.41231513023376 3.14778971672058 2.58971905708313 2.00934195518494 1.31690788269043 0.453535109758377 -0.132813885807991 -0.684269607067108 -1.04671967029572 -1.24165368080139 -1.26836967468262 -1.3389036655426 -1.5056871175766 -1.62073385715485 -1.75991809368134 -2.13011980056763 -2.50725555419922 -2.6036593914032 -2.62919068336487 -2.66232347488403 0.935980498790741 -0.273232817649841 7.6339316368103 22.9952487945557 23.2816219329834 22.827766418457 20.8427543640137 18.1297016143799 15.4279537200928 12.3860778808594 8.39185237884521 6.14783191680908 5.50726318359375 5.22163248062134 5.01983499526978 6.28005933761597 4.73682689666748 4.49656009674072 4.31443643569946 4.15119361877441 3.73631834983826 3.30627584457397 2.54128313064575 1.76932692527771 1.46126043796539 7.09085035324097 8.51725006103516 6.41893243789673 4.83430957794189 3.84535002708435 3.34515404701233 6.29998016357422 10.3989849090576 10.2546329498291 9.59429740905762 7.73047494888306 6.77119541168213 7.10981702804565 6.14245271682739 5.55176496505737
3.32990980148315 3.24377536773682 3.15799522399902 3.07621550559998 2.99927377700806 2.92661714553833 2.8404974937439 2.75389957427979 2.66806149482727 2.58670878410339 2.4306526184082 2.30934810638428 2.03462624549866 1.65210366249084 1.78855955600739 2.34169602394104 3.42959809303284 1.63636195659637 1.00223076343536 0.329216063022614 -0.124309249222279 -0.249261051416397 -0.292228609323502 -0.386911004781723 -0.444332391023636 -0.47504585981369 -0.508571445941925 -0.535039365291595 -0.569930255413055 -0.602116823196411 -0.626841902732849 -0.665406346321106 -0.71454519033432 -0.753783822059631 -0.804992377758026 -0.845541894435883 -0.912000834941864 -0.962740540504456 -0.989552140235901 -1.01388251781464 -1.041952252388 -1.07106256484985 -1.10798799991608 -1.15956211090088 -1.21147954463959 -1.26271557807922 -1.30764138698578 -1.38604521751404 -1.46658194065094 -1.60443377494812 -1.6735634803772 -1.73558354377747 -1.46745932102203 0.988257706165314 3.12716674804688 2.0449640750885 0.69877564907074 0.389325708150864 3.92655491828918 2.65229487419128 1.79666137695312 1.02355206012726 0.378813177347183 0.262204170227051 0.170800894498825 0.0267028845846653 -0.0309856384992599 -0.0421504564583302 -0.0476969070732594 -0.128569662570953 -0.29759094119072 -0.334976702928543 -0.364365875720978 -0.376723080873489 0.0992698669433594 -0.394314855337143 0.684188485145569 2.99540686607361 2.48750710487366 2.06258153915405 1.62631607055664 0.681315660476685 -0.156407043337822 -0.467697620391846 -0.554734468460083 -0.709393978118896 -0.714376270771027 4.06937313079834 16.4258594512939 16.0370559692383 14.887225151062 13.8363647460938 13.0485649108887 11.3178243637085 9.78484630584717 8.59521389007568 7.65255069732666 6.88606452941895 6.2764630317688 5.74741554260254 5.30863189697266 4.93271589279175 4.6058874130249 4.3190336227417 4.05685424804688 3.83799147605896 3.63952255249023 3.46662640571594 3.30771231651306 3.16930150985718 3.04459691047668 2.92381024360657 2.68729758262634 2.10289931297302 1.52221584320068 0.74996280670166 -0.107783898711205 -0.606873571872711 -1.09341287612915 -1.36759281158447 -1.57773494720459 -1.65461564064026 -1.77792489528656 -2.00999617576599 -2.26614761352539 -2.48821759223938 -2.93217182159424 -3.10818457603455 -1.05948746204376 -2.05514168739319 -3.157639503479 -1.7777373790741 0.779877483844757 7.70463943481445 22.1429271697998 23.0592784881592 25.0647068023682 21.2832508087158 18.1513195037842 15.53795337677 12.7457990646362 9.59359645843506 7.26935052871704 6.17050790786743 5.64362621307373 5.15361785888672 4.90639877319336 4.71938419342041 4.69318771362305 4.63388919830322 4.47735118865967 4.15289258956909 3.68609189987183 2.83940148353577 2.15514326095581 2.05018401145935 7.41855144500732 7.27411699295044 6.11470603942871 4.52124786376953 3.67166209220886 4.89887857437134 8.12158393859863 9.76327800750732 8.98534774780273 7.43391799926758 5.63210439682007 5.07136249542236 8.78795909881592 6.71379089355469 5.05014896392822
3.40922164916992 3.32114028930664 3.23628878593445 3.15516066551208 3.07842755317688 3.00481700897217 2.92852425575256 2.84977793693542 2.76470065116882 2.67816925048828 2.61131858825684 2.47040867805481 2.15311217308044 1.71798646450043 1.20247411727905 1.35229027271271 2.26897668838501 0.608424067497253 0.0825940072536469 -0.0804189667105675 -0.16340360045433 -0.232409909367561 -0.296970307826996 -0.366179019212723 -0.441211879253387 -0.476768672466278 -0.513781249523163 -0.547380566596985 -0.578853666782379 -0.604868352413177 -0.635710179805756 -0.68078202009201 -0.734874665737152 -0.793510258197784 -0.818825781345367 -0.843614757061005 -0.894390046596527 -0.951306760311127 -1.00845551490784 -1.03407335281372 -0.878525674343109 -0.834316909313202 -1.10748648643494 -1.16757667064667 -1.22546815872192 -1.27422094345093 -1.31700944900513 -1.395228266716 -1.53367114067078 -1.64645612239838 -1.75952649116516 -1.81881463527679 -1.02491080760956 -0.67953097820282 2.23726558685303 2.01470351219177 0.674504637718201 0.420059353113174 4.98053121566772 3.27069878578186 2.42675280570984 1.94181668758392 1.26726055145264 0.794545948505402 0.511938333511353 0.314242482185364 0.173015519976616 0.163225471973419 0.103940792381763 0.00648355716839433 -0.15794250369072 -0.205209881067276 -0.312630474567413 -0.447388797998428 -0.450946450233459 -0.462868750095367 1.30386292934418 6.12962007522583 5.63729906082153 4.83926486968994 4.10087728500366 2.9412362575531 1.72251451015472 1.22852003574371 0.967936933040619 0.607739746570587 1.90033578872681 5.06122875213623 9.39386367797852 12.8380222320557 11.2865657806396 10.397852897644 9.77914237976074 8.2570219039917 7.13398170471191 6.26475524902344 5.57014751434326 5.01008176803589 4.55552768707275 4.20028352737427 3.94222927093506 3.68650221824646 3.45481777191162 3.24988675117493 3.06389260292053 2.89990305900574 2.75463700294495 2.62159061431885 2.50375080108643 2.3947377204895 2.29489898681641 2.20145750045776 2.02387499809265 1.53362441062927 0.937465310096741 0.391520142555237 -0.205015078186989 -0.674152016639709 -1.06299662590027 -1.37288200855255 -1.6385817527771 -1.82353830337524 -2.05690741539001 -2.29456067085266 -2.70460534095764 -3.09656143188477 -3.33912920951843 -3.56941246986389 -3.6040952205658 -2.38320755958557 -3.17969536781311 -1.19336199760437 1.05806720256805 5.76411533355713 22.4920063018799 21.7176132202148 24.9906635284424 21.2371883392334 18.2887706756592 15.3117332458496 12.6167411804199 10.0004606246948 7.84229040145874 6.66767168045044 5.94069910049438 5.37174701690674 5.02461910247803 4.84544134140015 4.83848714828491 4.80257225036621 4.61098146438599 4.32974338531494 3.89218759536743 3.19239354133606 2.57524633407593 2.5179443359375 5.11222887039185 5.0876989364624 5.99752569198608 4.42097902297974 3.86006379127502 5.90266036987305 9.61602306365967 8.70522308349609 7.37087821960449 5.8011646270752 4.77900743484497 4.70266723632812 4.21187257766724 8.00285339355469 6.40781688690186
3.38282132148743 3.2972526550293 3.21473670005798 3.1368682384491 3.06255698204041 2.99153876304626 2.92389917373657 2.85721969604492 2.78715991973877 2.71490478515625 2.6129732131958 2.33397102355957 2.04217219352722 1.63784670829773 1.21912038326263 0.785417318344116 0.487378627061844 0.325076311826706 0.112208239734173 -0.0619741603732109 -0.147065877914429 -0.225933074951172 -0.295987784862518 -0.352679193019867 -0.442851126194 -0.483075737953186 -0.522137999534607 -0.562212526798248 -0.591841280460358 -0.615019798278809 -0.655265867710114 -0.704737663269043 -0.761539578437805 -0.81256890296936 -0.828146934509277 -0.847089231014252 -0.895042657852173 -0.9350945353508 -1.00514757633209 -1.00508213043213 -0.691195249557495 -0.586160063743591 -0.886196434497833 -1.1740266084671 -1.24185538291931 -1.28578782081604 -1.33913612365723 -1.40811455249786 -1.54541730880737 -1.67102360725403 -1.74169313907623 -1.87249207496643 -1.89232587814331 -1.11505150794983 -0.717842638492584 1.56625020503998 1.25871062278748 1.6000611782074 2.56539726257324 2.15003538131714 1.95456981658936 1.68199038505554 1.4649133682251 1.15645802021027 0.862813055515289 0.648436665534973 0.47153651714325 0.392508029937744 0.309466034173965 0.21611163020134 0.0658498257398605 -0.163638025522232 -0.279530107975006 -0.449404299259186 -0.570820987224579 0.0362546406686306 4.35629558563232 7.69185495376587 6.79763650894165 6.50075626373291 6.00243377685547 5.12533569335938 4.27280044555664 3.61354517936707 3.10860729217529 2.87059450149536 3.26593327522278 4.68783473968506 5.29029130935669 8.07681083679199 8.19482803344727 7.56622505187988 6.50566625595093 5.33963203430176 4.59188079833984 4.10587120056152 3.5965051651001 2.796626329422 2.36364221572876 2.1483371257782 4.05099678039551 11.4679269790649 6.46355199813843 4.41048240661621 3.46035647392273 2.88742208480835 2.47069931030273 2.14996385574341 2.0844030380249 2.02326226234436 1.96630191802979 1.89283382892609 1.74800515174866 1.44192588329315 0.972852945327759 0.478937417268753 -0.11796435713768 -0.595638394355774 -1.09733629226685 -1.46032786369324 -1.94219636917114 -2.14928722381592 -2.36449933052063 -2.67014622688293 -2.95698547363281 -3.21273684501648 -3.49474334716797 -3.83233094215393 -3.98899030685425 -2.75486731529236 -1.27176356315613 1.77058613300323 2.27666902542114 5.30967283248901 17.4026222229004 21.0642108917236 22.6442260742188 20.6210250854492 17.1657676696777 14.302526473999 11.6782321929932 9.26416778564453 7.25282621383667 6.16233968734741 5.39385414123535 4.89543008804321 4.79850244522095 4.61481618881226 4.91620874404907 4.83718490600586 4.48516225814819 4.20997142791748 3.82681679725647 3.34269571304321 2.9070999622345 2.75822710990906 3.70550298690796 7.89700078964233 5.7098708152771 5.29937934875488 4.94682598114014 6.35752010345459 7.61098337173462 6.03831768035889 4.48173093795776 4.32062864303589 6.62993001937866 4.5904221534729 4.09277963638306 5.10819005966187 5.1742091178894
3.22273683547974 3.14566016197205 3.06944298744202 2.99857187271118 2.93071627616882 2.86739706993103 2.80653071403503 2.74632668495178 2.64467644691467 2.53081011772156 2.38302230834961 2.18761157989502 1.84185767173767 1.3951141834259 1.1047031879425 0.774719715118408 0.495380401611328 0.442798465490341 0.291239678859711 0.101935379207134 -0.136004626750946 -0.223450556397438 -0.296442896127701 -0.359079480171204 -0.438973069190979 -0.487186282873154 -0.53398209810257 -0.572991013526917 -0.601070940494537 -0.632768034934998 -0.668534457683563 -0.731226801872253 -0.773190081119537 -0.819972455501556 -0.844068050384521 -0.87107789516449 -0.914374232292175 -0.955461859703064 -0.985034763813019 -1.04028737545013 -0.843767881393433 -0.66577684879303 -0.745821356773376 -1.13079357147217 -1.25540494918823 -1.30201268196106 -1.36707091331482 -1.44932520389557 -1.52751588821411 -1.61313021183014 -1.806920170784 -1.95823776721954 -1.03565800189972 -0.768391191959381 -1.01529693603516 -1.06610703468323 0.336970329284668 2.87326264381409 2.81260991096497 2.62531590461731 3.04493808746338 2.41202974319458 2.14144587516785 1.90834355354309 1.45902621746063 1.16736674308777 0.886863350868225 0.694472014904022 0.652284502983093 0.511860728263855 0.285659819841385 -0.117420181632042 -0.256817400455475 -0.494691491127014 -0.580434799194336 -0.582796514034271 6.40182685852051 9.14215278625488 8.44891834259033 8.07626628875732 7.60395383834839 6.81352663040161 6.11092329025269 5.42803430557251 4.83303451538086 4.5884428024292 4.46222543716431 4.34046173095703 4.30143880844116 5.58395099639893 6.09534311294556 5.24093198776245 4.25110626220703 4.02692222595215 3.78896927833557 3.41419434547424 2.98456025123596 2.36783194541931 1.82550799846649 1.34019947052002 1.02495229244232 18.048755645752 17.3833522796631 13.6408042907715 11.4085845947266 9.38660049438477 7.74819326400757 6.80078268051147 5.94178295135498 5.30378866195679 4.74738168716431 4.10658645629883 3.34872198104858 2.34847497940063 0.95918345451355 0.328920185565948 -0.283783704042435 -0.815362155437469 -1.33503484725952 -1.77313494682312 -2.22602319717407 -2.4359769821167 -2.52396249771118 -2.82740592956543 -3.0274064540863 -3.34583640098572 -3.66535973548889 -4.07155752182007 -4.28932619094849 -2.01131987571716 1.31935930252075 3.23769283294678 4.14776182174683 3.83611607551575 11.2562160491943 15.7544279098511 18.2175159454346 25.8978271484375 18.0583744049072 14.0787963867188 11.0550327301025 8.76592063903809 6.80158281326294 5.91473007202148 5.39639711380005 4.90743970870972 4.45866966247559 4.28138589859009 5.7755823135376 5.79310607910156 4.66108417510986 4.07473754882812 3.69089794158936 3.37939620018005 3.11590647697449 2.99648094177246 6.44073057174683 7.26340389251709 5.83974123001099 6.24974346160889 6.09424924850464 6.07660913467407 5.88032484054565 5.57015609741211 5.02430391311646 4.48641395568848 4.59783267974854 4.86966753005981 5.1655101776123 4.57534885406494 4.40105438232422
3.01509118080139 2.94176864624023 2.87209343910217 2.80635643005371 2.74307608604431 2.68593692779541 2.62905526161194 2.57269501686096 2.46099758148193 2.29155969619751 2.11193084716797 1.93754470348358 1.62758302688599 1.26658415794373 1.0556161403656 0.729429423809052 0.618595123291016 0.584535181522369 0.520455420017242 0.381635963916779 0.0927992314100266 -0.206605926156044 -0.303054362535477 -0.386029779911041 -0.436363786458969 -0.499255567789078 -0.547749936580658 -0.596075534820557 -0.631393730640411 -0.660884499549866 -0.688887000083923 -0.73883992433548 -0.781932234764099 -0.830563724040985 -0.873580932617188 -0.91097104549408 -0.949960887432098 -0.977383434772491 -0.477227956056595 -0.82408744096756 -0.840135037899017 -0.673507571220398 -0.794586896896362 -1.02453231811523 -1.25637066364288 -1.3270218372345 -1.38614630699158 -1.4522420167923 -1.5550445318222 -1.68661415576935 -1.86224758625031 -1.99786949157715 -0.765277206897736 -1.01305735111237 -1.38053750991821 -2.15399479866028 -2.2476167678833 4.24230194091797 5.06399393081665 5.49253463745117 4.69734191894531 3.87665891647339 3.42315745353699 3.04737257957458 2.45250606536865 2.093257188797 1.77815496921539 1.49595940113068 1.34624540805817 1.16788458824158 0.730055034160614 0.396189272403717 0.271479219198227 -0.206625983119011 -0.372129261493683 1.5001677274704 8.88743305206299 8.435959815979 9.39462089538574 9.26565837860107 8.3133544921875 7.62916326522827 6.93560409545898 6.45707321166992 5.99924468994141 5.54567193984985 5.25264835357666 5.03503799438477 4.95419359207153 5.74169397354126 4.91640472412109 4.62510919570923 4.30870294570923 3.82353806495667 3.50062251091003 2.98657083511353 2.30722332000732 1.71989369392395 1.26236522197723 0.347290635108948 -0.0360823087394238 11.2986783981323 22.5810165405273 17.3033466339111 15.3518018722534 13.44602394104 10.8433284759521 9.97226715087891 9.54505062103271 8.46773242950439 7.54620218276978 6.64624691009521 5.68545484542847 4.21308135986328 2.54360055923462 0.213346809148788 -0.753136515617371 -1.4661557674408 -1.83849906921387 -2.07553100585938 -2.18657565116882 -2.36613059043884 -2.53925609588623 -2.8340859413147 -3.0914888381958 -3.41969704627991 -3.78239011764526 -4.1569390296936 -4.41357946395874 -0.943846762180328 3.43613147735596 4.19904279708862 3.582035779953 3.45515990257263 11.2568731307983 12.4934787750244 14.4340553283691 24.3503971099854 18.5489845275879 12.774453163147 9.80019569396973 7.87305927276611 6.11238622665405 5.55060052871704 5.09471654891968 4.66191673278809 4.32616233825684 4.02153396606445 3.93632245063782 5.76243829727173 4.22060537338257 3.88750767707825 3.55172038078308 3.29213309288025 3.15347957611084 3.13370203971863 5.71575450897217 6.7365198135376 5.96750211715698 5.9152569770813 6.64578008651733 7.89418649673462 7.197434425354 6.28691577911377 6.06763458251953 5.59261655807495 5.0897045135498 4.95945119857788 4.89445972442627 4.7754955291748 4.56639003753662
2.76044321060181 2.69349431991577 2.6307213306427 2.57415413856506 2.51835322380066 2.46538162231445 2.41334438323975 2.32491636276245 2.20662951469421 2.08944034576416 1.87038314342499 1.6737916469574 1.37508523464203 1.15479493141174 0.978720903396606 0.693864464759827 1.09458220005035 0.660596191883087 0.599434494972229 0.525239884853363 0.301842451095581 -0.090480163693428 -0.291837126016617 -0.380439281463623 -0.438320130109787 -0.507050156593323 -0.563093423843384 -0.622812211513519 -0.660299181938171 -0.683931350708008 -0.717400372028351 -0.755810737609863 -0.798137962818146 -0.849192202091217 -0.903804957866669 -0.947285592556 -0.979413330554962 -0.511198759078979 -0.540873467922211 -0.593490362167358 -0.67727392911911 -0.797296643257141 -0.828940451145172 -0.897889494895935 -1.16810274124146 -1.34874951839447 -1.40064764022827 -1.47438561916351 -1.55031895637512 -1.67458271980286 -1.87875807285309 -2.01968359947205 -0.954567193984985 -0.772365629673004 -1.97473609447479 -2.22080826759338 -2.31663846969604 2.72371101379395 5.91912221908569 6.49207639694214 5.76346588134766 4.59909820556641 3.98736953735352 3.19792318344116 2.61837458610535 2.30392646789551 2.05369687080383 1.74403309822083 1.52065765857697 1.30821514129639 0.960323452949524 0.571551322937012 0.425482213497162 -0.0266007725149393 -0.315443783998489 4.12957954406738 10.8788623809814 9.25535869598389 8.8056755065918 9.61526584625244 8.42008018493652 7.72452402114868 7.04121780395508 6.65561294555664 6.98637008666992 6.28810882568359 5.79405975341797 5.60736465454102 5.48326921463013 5.14276266098022 4.65782403945923 4.13310575485229 3.73626041412354 3.25521159172058 2.75721836090088 2.21427607536316 1.69736909866333 1.11311066150665 0.629310607910156 -0.167813450098038 -0.597906112670898 5.06549835205078 10.458890914917 7.24274253845215 27.6125602722168 22.8599910736084 18.0905876159668 15.3743162155151 14.2385149002075 12.5170278549194 10.4604177474976 8.88812828063965 7.2405686378479 5.03121662139893 2.7318263053894 -0.476331889629364 -1.19589388370514 -1.69995248317719 -2.02509665489197 -2.15451693534851 -2.24493741989136 -2.32198047637939 -2.51690721511841 -2.8475124835968 -3.09299564361572 -3.41317892074585 -3.77263140678406 -4.08931541442871 -4.34548854827881 -2.46755933761597 3.42006993293762 4.66213369369507 3.75500273704529 4.34578323364258 9.56170272827148 12.974871635437 16.9273471832275 18.5064563751221 15.6069602966309 11.1915740966797 7.68844509124756 6.29443311691284 5.34610223770142 4.8136682510376 4.48282480239868 4.22828960418701 4.04859685897827 3.76111340522766 3.5485475063324 3.5493369102478 3.46627426147461 3.45630192756653 3.29905223846436 3.11078882217407 2.9841034412384 2.93408179283142 4.40407276153564 5.68142604827881 8.52793884277344 8.22305107116699 8.94785404205322 10.2291288375854 8.76688671112061 8.02358436584473 7.52709484100342 7.07517099380493 6.49386358261108 6.01539278030396 5.64384269714355 5.32056140899658 4.96737289428711
2.80857133865356 2.49067997932434 2.38311743736267 2.33338356018066 2.2827205657959 2.23507881164551 2.16315746307373 2.07048916816711 1.95917224884033 1.78579330444336 1.58741450309753 1.42183041572571 1.22023451328278 1.06252884864807 0.91489177942276 0.680376052856445 0.672654211521149 0.651360392570496 0.609258949756622 0.557666182518005 0.407155245542526 0.0382670722901821 -0.239737942814827 -0.371129959821701 -0.456393033266068 -0.514543056488037 -0.585771977901459 -0.649887681007385 -0.688400626182556 -0.71399188041687 -0.743080615997314 -0.774639546871185 -0.822797536849976 -0.881512820720673 -0.927998542785645 -0.973430931568146 -1.00756585597992 -0.643690943717957 -0.253002226352692 -0.544868767261505 -0.58289098739624 -0.737958371639252 -0.848065435886383 -0.888805627822876 -1.09810531139374 -1.30292844772339 -1.42999601364136 -1.49783599376678 -1.562983751297 -1.6625349521637 -1.83842074871063 -2.02742862701416 -2.02567267417908 0.245871633291245 -2.17405986785889 -2.24382352828979 -2.31591010093689 0.400242567062378 6.37962055206299 6.404052734375 5.87284755706787 4.87745523452759 4.23612594604492 3.29194140434265 2.58579182624817 2.39050841331482 2.17667603492737 1.88986694812775 1.5924768447876 1.34426355361938 1.06346023082733 0.621056497097015 0.23754920065403 -0.0110472282394767 -0.0795822739601135 7.14997863769531 8.01628875732422 6.97598934173584 8.60091018676758 8.44825649261475 7.31996536254883 6.91354370117188 6.8275899887085 6.48674488067627 6.24782562255859 6.06231546401978 5.75547981262207 5.37302303314209 4.86841869354248 4.22922086715698 3.81720423698425 3.46266007423401 2.98152923583984 2.34256672859192 1.53139936923981 0.971819281578064 0.756501913070679 0.272634148597717 -0.185957431793213 -0.352627724409103 -0.717127442359924 0.0460354648530483 5.17903280258179 4.66389799118042 11.7742938995361 21.3371086120605 19.1926078796387 17.7899513244629 16.3013515472412 14.9173583984375 12.1791944503784 9.96563529968262 7.99438571929932 4.73188972473145 2.13691878318787 -0.652333199977875 -1.48788166046143 -1.91297805309296 -2.26320052146912 -2.34488964080811 -2.35392737388611 0.146821424365044 -2.24482178688049 -2.8452615737915 -3.06463027000427 -3.36464142799377 -3.66889309883118 -3.94246172904968 -4.27685737609863 -3.31159925460815 3.83025479316711 3.72238445281982 3.71650338172913 3.43871784210205 11.5098533630371 11.7012233734131 16.5187168121338 18.3691329956055 14.3830280303955 9.11697578430176 5.82815074920654 5.03581047058105 4.84008312225342 4.63130378723145 4.30399322509766 4.10305833816528 3.98127341270447 3.79389429092407 3.4852659702301 3.33553624153137 3.23927617073059 3.13040828704834 3.00905418395996 2.83681178092957 2.65016055107117 2.63208842277527 3.18738985061646 2.5973949432373 2.4984302520752 7.86810302734375 12.7461519241333 16.9937858581543 16.1314487457275 13.0941972732544 11.3614959716797 10.1250085830688 9.04273891448975 8.07046318054199 7.37350463867188 6.8037896156311 6.26575231552124
2.83615064620972 2.6025972366333 2.26752877235413 2.10232830047607 2.05666851997375 2.01322388648987 1.93690919876099 1.81434464454651 1.65851771831512 1.52970027923584 1.43557441234589 1.30665051937103 1.16807460784912 1.03021955490112 0.898347675800323 0.683330476284027 0.673758804798126 0.659465193748474 0.615766406059265 0.569585025310516 0.448247462511063 0.140619069337845 -0.178952112793922 -0.334796935319901 -0.446164220571518 -0.533618032932281 -0.615466415882111 -0.67925900220871 -0.727863311767578 -0.744503080844879 -0.693421602249146 -0.787685692310333 -0.836432993412018 -0.90003502368927 -0.95345550775528 -1.00506913661957 -1.04294073581696 -0.518629431724548 -0.454662501811981 -0.547077000141144 -0.590339660644531 -0.653380334377289 -0.80717933177948 -0.943883836269379 -1.03145885467529 -1.17336869239807 -1.38032853603363 -1.50536847114563 -1.58519530296326 -1.65984082221985 -1.78926050662994 -2.00195503234863 -2.10659170150757 0.952122688293457 -1.24209380149841 -1.75732088088989 -2.24841570854187 -1.52413856983185 5.76054525375366 7.10130262374878 5.87168025970459 5.01039361953735 4.32754230499268 3.31260442733765 2.66466498374939 2.4101414680481 2.23844599723816 1.96513509750366 1.65378749370575 1.40257227420807 1.10732996463776 0.628289759159088 0.184944480657578 0.0479837767779827 4.67041158676147 6.49617576599121 8.42816734313965 7.67510461807251 7.24672174453735 6.65834045410156 6.40120410919189 9.47254753112793 6.28324127197266 5.93427419662476 5.54312372207642 5.17727994918823 5.95321893692017 4.25944852828979 3.68754172325134 3.36221981048584 3.06372785568237 2.72332262992859 2.18459916114807 1.34677588939667 0.591590464115143 0.0344478748738766 -0.0607515312731266 -0.26632833480835 -0.503753125667572 -0.515740156173706 -0.726599752902985 -0.76996248960495 3.13740873336792 4.91610050201416 8.78182125091553 12.6014566421509 14.6039609909058 18.325553894043 16.5224151611328 14.6903448104858 12.9954195022583 10.0168762207031 7.36417388916016 4.21595764160156 1.08284485340118 -1.2775559425354 -1.68023705482483 -1.97410929203033 -2.37835764884949 -2.41793179512024 3.15682983398438 2.55803537368774 0.724025249481201 -0.902172923088074 -1.75379431247711 -2.36260223388672 -2.8737998008728 -3.39269590377808 -4.04686498641968 -3.95249605178833 1.98127615451813 4.5529317855835 4.43726015090942 2.98741912841797 5.98274421691895 18.243444442749 17.132511138916 18.2322559356689 14.5309839248657 9.23718452453613 5.16283130645752 4.66718196868896 5.40359544754028 4.60793304443359 4.27399492263794 4.07718133926392 3.93029499053955 3.73781538009644 3.52097678184509 3.33219981193542 3.14026713371277 2.96956062316895 2.78287506103516 2.58030200004578 2.42004299163818 2.4020881652832 2.34685516357422 2.11655831336975 1.98321747779846 8.58409595489502 13.6070594787598 13.3049879074097 22.6294250488281 16.7646503448486 13.2776288986206 11.7299671173096 10.3645572662354 9.26753807067871 8.41280746459961 7.73111867904663 7.13853120803833
2.79081416130066 2.54462337493896 2.18894124031067 1.95321190357208 1.82892668247223 1.73540091514587 1.6312712430954 1.54853880405426 1.49482226371765 1.40868330001831 1.30016839504242 1.21010887622833 1.09513103961945 0.972383737564087 0.877925097942352 0.6749107837677 0.661384165287018 0.647390365600586 0.608733236789703 0.55692332983017 0.456527143716812 0.229863986372948 -0.110037408769131 -0.290180861949921 -0.409557044506073 -0.507813811302185 -0.608805537223816 -0.682304561138153 -0.732681095600128 -0.74045330286026 -0.770744740962982 -0.814651489257812 -0.864416658878326 -0.922288537025452 -0.982898890972137 -1.05250036716461 -1.07994413375854 -0.53294426202774 -0.429242044687271 -0.566277086734772 -0.581014037132263 -0.696481049060822 -0.718277454376221 -0.876434206962585 -0.945531666278839 -1.06652462482452 -1.20974171161652 -1.41586601734161 -1.59973883628845 -1.68038511276245 -1.79427301883698 -1.99907183647156 -2.1142749786377 1.15123736858368 -0.408124208450317 -0.752962231636047 -1.12498569488525 -1.62844669818878 4.03911733627319 6.12234115600586 5.27998399734497 4.63712787628174 3.58195948600769 3.031334400177 2.42233800888062 2.02049160003662 1.83737230300903 1.68375778198242 1.4454071521759 1.20274031162262 0.952552318572998 0.435127377510071 0.069973886013031 1.47996401786804 5.82682609558105 8.15929412841797 8.3925142288208 7.03192663192749 6.19820117950439 6.13230752944946 9.10320091247559 5.60790538787842 4.41491365432739 4.26910829544067 4.16922426223755 8.940749168396 5.61179685592651 3.70080780982971 2.76057600975037 2.48369956016541 2.18694090843201 1.71663892269135 0.921724855899811 0.288279682397842 -0.178238570690155 -0.381052792072296 -0.493686467409134 -0.56902140378952 -0.67744255065918 -0.160864189267159 -0.68903374671936 -0.75127774477005 3.03792285919189 7.02627038955688 6.9973521232605 6.91691064834595 8.45874786376953 10.8835515975952 8.25507736206055 6.5942177772522 19.7766761779785 14.6234607696533 6.36348676681519 3.71955370903015 0.255323380231857 -1.44971299171448 -1.89899110794067 -2.14579510688782 -2.3415424823761 -2.43796586990356 3.58640360832214 2.93969941139221 1.02699565887451 0.0572369657456875 -0.931725025177002 -1.58804476261139 -2.09372663497925 -2.62346434593201 -3.16125750541687 -3.29672908782959 -0.712925672531128 3.12773895263672 3.01044654846191 1.91761064529419 2.36891603469849 18.2572937011719 19.4095802307129 18.2375469207764 15.2364635467529 10.8695011138916 6.26695346832275 5.35960483551025 4.98249053955078 4.77365016937256 4.58822870254517 4.36403703689575 4.06756114959717 3.67783093452454 3.43377089500427 3.28947567939758 3.27415204048157 3.11747741699219 2.81029915809631 2.62767696380615 2.43512749671936 2.34898972511292 2.25164794921875 1.97735798358917 1.96213173866272 7.3844838142395 14.3442096710205 14.0977344512939 16.3153228759766 14.6316137313843 12.8474807739258 11.3756170272827 10.0743808746338 8.94765758514404 8.10080242156982 7.42808866500854 6.89671421051025
2.05263876914978 2.02022981643677 1.99200201034546 1.79522573947906 1.63016045093536 1.50347471237183 1.4172340631485 1.38521885871887 1.32879734039307 1.2447555065155 1.16746854782104 1.11236226558685 1.03755044937134 0.954215049743652 0.874351263046265 0.687441647052765 0.668390989303589 0.650063693523407 0.588589906692505 0.507413387298584 0.427359342575073 0.282983183860779 -0.037020493298769 -0.251689970493317 -0.384097635746002 -0.507168650627136 -0.607998728752136 -0.696166932582855 -0.748905122280121 -0.76662003993988 -0.81207138299942 -0.864132463932037 -0.91072815656662 -0.972492396831512 -1.03843021392822 -1.09768867492676 -1.14204144477844 -0.58060085773468 -0.146397963166237 -0.205710753798485 -0.307760804891586 -0.712502241134644 -0.387129217386246 -0.719668924808502 -0.828775405883789 -0.94234299659729 -1.0496062040329 -1.25298964977264 -1.48883044719696 -1.69059491157532 -1.82892179489136 -1.99779772758484 -2.11087846755981 1.52535355091095 0.666289091110229 -0.0259592700749636 -0.206636235117912 -0.301593780517578 -0.311829209327698 3.17733955383301 4.22555065155029 3.60369086265564 2.96446108818054 2.32767915725708 1.7958265542984 1.39356768131256 1.1504522562027 1.01196181774139 0.854442477226257 0.628463983535767 0.480748653411865 0.0488705188035965 -0.314298242330551 4.85914325714111 6.04260921478271 8.59985542297363 7.2607626914978 6.15431880950928 7.03917455673218 6.41638278961182 4.70769929885864 3.15104007720947 2.78234648704529 5.29193019866943 4.17691564559937 3.22849225997925 2.67168283462524 2.39783430099487 1.937624335289 1.65332496166229 1.3085732460022 0.836919069290161 0.212043628096581 -0.350389987230301 -0.562365710735321 -0.700275242328644 -0.791365265846252 -0.718061149120331 0.608656227588654 1.73941516876221 1.229532122612 0.464620262384415 1.69718790054321 5.63451242446899 5.06873750686646 4.5897068977356 4.13938426971436 3.46166014671326 2.37633466720581 4.85236215591431 10.1747989654541 30.5476226806641 12.5055885314941 4.21515417098999 -0.279325217008591 -1.52571702003479 -1.98853170871735 -2.26778507232666 -2.36741662025452 -2.44462943077087 1.88603532314301 2.50821781158447 0.538421630859375 0.267475098371506 -0.174535378813744 -1.1131489276886 -1.64181292057037 -2.15882706642151 -2.44569754600525 -2.59545731544495 -2.81952142715454 -0.286483079195023 2.12755441665649 1.24706387519836 1.99238240718842 10.322211265564 23.5030860900879 20.9286918640137 16.9487571716309 11.0167217254639 6.31490612030029 5.4528431892395 4.99882316589355 4.9757924079895 4.72388601303101 4.41253662109375 4.08508491516113 3.72004580497742 3.45663166046143 3.55203127861023 8.56315231323242 6.49287176132202 4.04081153869629 3.22387218475342 2.85350728034973 2.70023393630981 2.53831028938293 2.4265615940094 2.42414402961731 2.4150722026825 10.580641746521 14.9339284896851 14.3315153121948 13.4276151657104 11.9689970016479 10.3661804199219 9.13317489624023 7.99349975585938 7.14903736114502 6.70883512496948 6.29449605941772
1.6963324546814 1.66215670108795 1.63281762599945 1.61046624183655 1.48685491085052 1.37462329864502 1.28556990623474 1.25685715675354 1.22295200824738 1.16841185092926 1.11047029495239 1.05394434928894 1.00879752635956 0.974611461162567 0.913238704204559 0.734206080436707 0.713008522987366 0.691457092761993 0.58438116312027 0.474208623170853 0.387570410966873 0.282765507698059 0.00494854478165507 -0.216715633869171 -0.352533578872681 -0.498513340950012 -0.596373200416565 -0.698534667491913 -0.766361832618713 -0.80422842502594 -0.853502988815308 -0.899672389030457 -0.935395300388336 -1.03249251842499 -1.11995029449463 -1.15972077846527 -1.20395457744598 -0.957967698574066 -0.0522099509835243 -0.1329425573349 -0.225099116563797 -0.520534873008728 -0.587312877178192 -0.630587697029114 -0.756210267543793 -0.83640992641449 -0.951385200023651 -1.0469514131546 -1.28140985965729 -1.62963128089905 -1.83631634712219 -1.9639093875885 -2.08634972572327 1.10388147830963 1.10218143463135 0.613555192947388 0.293753623962402 0.783005118370056 0.119514480233192 0.0301523543894291 3.72415280342102 3.09801983833313 2.65846300125122 2.10850715637207 1.58193421363831 1.12867474555969 0.814704716205597 0.619356215000153 0.438991963863373 0.298475205898285 0.145439252257347 0.203620746731758 0.0401888266205788 3.34189128875732 6.82600069046021 5.98839235305786 5.54164552688599 6.33294868469238 5.19170331954956 3.75018310546875 1.09248948097229 -0.0102664809674025 3.86229395866394 7.34439086914062 5.84461736679077 4.11119222640991 4.31447553634644 2.74170637130737 1.80471563339233 1.2267484664917 0.60265851020813 -0.0435401722788811 -0.176666721701622 -0.303252577781677 -0.450875222682953 -0.572476267814636 -0.660253524780273 -0.702521979808807 1.57636499404907 2.38994407653809 2.15224528312683 2.07347750663757 1.46290528774261 1.32901203632355 1.16903340816498 1.63754260540009 0.447620242834091 0.189012512564659 0.107666008174419 0.899543941020966 7.6669135093689 34.3725204467773 19.23659324646 8.694411277771 -0.31795409321785 -1.71526730060577 -2.14518046379089 -2.42135548591614 -2.56574606895447 -2.60866928100586 -0.991699039936066 3.61617469787598 2.59672522544861 1.47688794136047 1.11191761493683 -0.0209495555609465 -0.987797915935516 -1.59675109386444 -1.71704769134521 -2.00339007377625 -2.3803117275238 -1.90901410579681 0.286100596189499 1.46573925018311 3.15702033042908 5.58150196075439 18.8496437072754 20.0313110351562 16.9046649932861 12.0474634170532 6.29099702835083 5.07786321640015 4.622971534729 4.53620147705078 4.19334173202515 3.96605896949768 3.79983401298523 3.64831304550171 3.93729591369629 8.78275585174561 8.68923187255859 6.66565370559692 5.25424814224243 3.7134063243866 3.29354977607727 3.07438397407532 2.97418117523193 2.9201807975769 2.88845491409302 2.8296229839325 4.19950485229492 11.2448101043701 12.5505514144897 11.1516370773315 10.1448535919189 8.63460731506348 7.20800256729126 5.76586151123047 4.8535623550415 4.6650710105896 5.2040433883667
1.39882612228394 1.36990821361542 1.34328842163086 1.31817901134491 1.29968345165253 1.28593766689301 1.21906721591949 1.18806111812592 1.16190409660339 1.12700736522675 1.1017130613327 1.07523119449615 1.04785096645355 1.0275467634201 0.97056245803833 0.768764495849609 0.74990838766098 0.732280194759369 0.603257238864899 0.461853504180908 0.32827216386795 0.191609337925911 -0.0221975315362215 -0.204187780618668 -0.336419850587845 -0.479734867811203 -0.586198925971985 -0.66750305891037 -0.750133395195007 -0.832136690616608 -0.886211156845093 -0.93413245677948 -0.984464704990387 -1.09794235229492 -1.20276260375977 -1.23862946033478 -1.27122056484222 -1.31799721717834 -0.127833604812622 0.0813611596822739 -0.311075627803802 -0.00300528318621218 -0.350100219249725 -0.431076973676682 -0.559158146381378 -0.668619573116302 -0.776807487010956 -0.837507307529449 -1.1078155040741 -1.55222320556641 -1.8602534532547 -1.98185038566589 -2.06929898262024 2.10342216491699 1.80838847160339 1.53799855709076 1.23250877857208 1.07150721549988 0.855076193809509 0.623163819313049 0.759158432483673 1.61002540588379 1.47369801998138 1.21691119670868 0.840551555156708 0.511529743671417 0.352742612361908 0.321595638990402 0.248055547475815 0.207243099808693 0.12649641931057 0.221297025680542 3.04358959197998 3.20528364181519 5.9900541305542 5.01297950744629 4.40064144134521 2.79616355895996 5.61356925964355 2.37727904319763 0.67799973487854 -0.192814573645592 0.867203891277313 2.70201230049133 5.05632209777832 4.35767412185669 4.76256561279297 3.26025867462158 1.72008287906647 1.08499801158905 0.704038679599762 0.229621529579163 -0.0541919469833374 -0.158088877797127 -0.242209747433662 -0.360003739595413 -0.438340872526169 -0.50209379196167 1.76141512393951 1.3684276342392 1.56612741947174 1.24677038192749 0.845128178596497 0.417449235916138 0.0341782607138157 -0.281398117542267 -0.750879645347595 -0.88267570734024 -0.97847592830658 1.3035215139389 6.62486219406128 30.0191593170166 20.6613922119141 11.4034080505371 2.67717266082764 -1.64756834506989 -2.22207903862 -2.47232437133789 -2.57350540161133 -0.871000587940216 -1.92218172550201 0.226925015449524 4.90834379196167 3.0127215385437 2.06878447532654 1.00793635845184 -0.562616467475891 -0.811161518096924 -0.990589499473572 -1.40108728408813 -1.86311042308807 -1.87700688838959 0.17616368830204 1.89902579784393 1.88828682899475 1.64262926578522 14.3295660018921 19.4248428344727 15.4091062545776 11.7769508361816 7.35276460647583 5.31454801559448 4.80793190002441 4.35921907424927 4.0447564125061 3.84356307983398 3.80534482002258 5.19420719146729 7.92208862304688 9.69817447662354 7.52976369857788 5.83977746963501 4.63129186630249 3.69825220108032 3.26965975761414 3.09978103637695 6.22949504852295 5.17817878723145 4.4780387878418 4.03871631622314 3.59406685829163 6.66338062286377 8.57870006561279 8.24159622192383 7.49287509918213 5.98769474029541 4.48093557357788 3.36413598060608 3.06279945373535 3.06045484542847 3.59856796264648
1.27673745155334 1.24007773399353 1.21555125713348 1.19192159175873 1.17452430725098 1.16207838058472 1.15146827697754 1.1434041261673 1.11939883232117 1.08601140975952 1.05876553058624 1.03382909297943 1.01264703273773 0.994214117527008 0.926337063312531 0.784312009811401 0.766283094882965 0.748973309993744 0.616617321968079 0.447250872850418 0.26811870932579 0.114854857325554 -0.0497635826468468 -0.21241994202137 -0.336831390857697 -0.464428722858429 -0.585642218589783 -0.663564503192902 -0.739993870258331 -0.832972407341003 -0.918908894062042 -0.986197590827942 -1.07514727115631 -1.18593108654022 -1.29030978679657 -1.25551557540894 -1.36639082431793 -1.05941915512085 -1.14728426933289 0.0352027900516987 -0.0460696145892143 0.612330436706543 0.320407658815384 -0.04137272387743 -0.222968116402626 -0.346758604049683 -0.493918031454086 -0.660264909267426 -0.980042040348053 -1.44066023826599 -1.80902564525604 -2.02359080314636 -2.00105977058411 3.18003582954407 2.51327610015869 2.024094581604 1.73013460636139 1.43356239795685 1.21612143516541 1.0760360956192 0.972680866718292 0.892622888088226 0.885953843593597 0.813278079032898 0.739477157592773 0.647067785263062 0.464443653821945 0.308307200670242 0.264536470174789 0.233821794390678 0.228594601154327 1.37941801548004 2.17450714111328 2.05295896530151 2.02822399139404 5.70133638381958 3.0058217048645 1.72687959671021 1.8877819776535 1.88719522953033 0.398958563804626 -0.0892799198627472 -0.168688341975212 -0.179534241557121 3.86506795883179 3.2705762386322 3.18788003921509 2.54346132278442 1.51140785217285 1.07263100147247 0.830465495586395 0.510457754135132 0.242291167378426 0.0907021015882492 -0.0193555131554604 -0.130297020077705 -0.229706406593323 -0.292672276496887 -0.294153183698654 -0.299881219863892 -0.380558878183365 -0.441549032926559 -0.488662332296371 -0.539380371570587 -0.584894418716431 -0.67859959602356 -0.809786796569824 -1.01628720760345 -1.11691534519196 2.7582471370697 10.9030609130859 22.2313327789307 17.6653270721436 9.85628414154053 5.02512168884277 -1.44170117378235 -2.07812118530273 -2.48490905761719 -2.6074800491333 1.98239493370056 -1.02852964401245 -1.25057291984558 3.72468328475952 3.29949569702148 2.16782331466675 0.998568177223206 -0.0182666573673487 0.0265011321753263 -0.301165640354156 -0.707421362400055 -1.11914956569672 -1.3850017786026 -0.822871923446655 0.76021009683609 1.21591889858246 2.91920781135559 10.9416751861572 13.9432249069214 11.8199625015259 10.0235614776611 7.52952003479004 5.23874664306641 4.68548917770386 4.34985446929932 3.85903334617615 3.77409648895264 5.1059136390686 7.6605806350708 8.88820648193359 8.26290893554688 6.87943983078003 5.33150386810303 4.09888124465942 3.41257739067078 3.1437840461731 4.79222011566162 7.85432291030884 7.24255418777466 5.78471374511719 4.79030990600586 4.4772424697876 4.26833534240723 4.63537263870239 5.87405920028687 5.46088790893555 4.42137956619263 3.79300212860107 3.05887484550476 2.88839054107666 2.88300776481628 4.39356184005737
1.22950553894043 1.19854867458344 1.17258405685425 1.15281546115875 1.13624143600464 1.12523233890533 1.11709344387054 1.11348736286163 1.09248602390289 1.0494133234024 0.975001692771912 0.934175193309784 0.908252656459808 0.888611316680908 0.836700618267059 0.765082359313965 0.748593032360077 0.731265425682068 0.614629805088043 0.443464279174805 0.202499449253082 0.0635160803794861 -0.0845233872532845 -0.220651358366013 -0.323233485221863 -0.435116529464722 -0.571203172206879 -0.673339068889618 -0.750659942626953 -0.837254762649536 -0.93005895614624 -1.06118857860565 -1.16812860965729 -1.28361666202545 -1.39532971382141 -1.33389985561371 -1.4851793050766 -0.96726781129837 0.0463359914720058 -0.0307973194867373 0.175357729196548 0.539569020271301 0.450120687484741 0.191617965698242 0.039112389087677 -0.108437664806843 -0.274882644414902 -0.4591264128685 -0.80675595998764 -1.31981408596039 -1.68757843971252 -1.87547838687897 -1.38188910484314 4.7333288192749 3.15459632873535 2.10084843635559 1.69403851032257 1.59192049503326 1.38343632221222 1.18507170677185 1.07762038707733 0.969870090484619 0.914725005626678 0.863597095012665 0.792252600193024 0.733492851257324 0.654796361923218 0.524654984474182 0.463329434394836 0.438062131404877 0.403413891792297 0.672401249408722 0.792920649051666 1.42892074584961 1.19663226604462 0.798866331577301 3.71257662773132 1.89925098419189 0.963184475898743 3.02590799331665 0.27596190571785 -0.118417412042618 -0.165447667241096 0.137559741735458 -0.177014887332916 2.65354204177856 2.93580269813538 2.22833609580994 1.62378406524658 0.93323278427124 0.530321717262268 0.605077624320984 0.510133326053619 0.402318865060806 0.301197648048401 0.149416878819466 -0.0089543778449297 -0.125387355685234 -0.203856527805328 -0.263881772756577 -0.400349825620651 -0.474533259868622 -0.510952889919281 -0.549788057804108 -0.620786428451538 -0.703862965106964 -0.845114469528198 -1.04458439350128 -1.13709402084351 2.66801810264587 11.729513168335 16.8344078063965 15.6593952178955 8.84293746948242 5.23018980026245 -1.24091374874115 -1.9099246263504 -2.38502645492554 -2.60378789901733 2.40797138214111 0.359659373760223 -1.00470888614655 2.11511325836182 2.31616616249084 1.36150121688843 1.17366528511047 1.05985343456268 0.419885188341141 0.0166383404284716 -0.343967616558075 -0.567907094955444 -0.759663760662079 -1.03920865058899 -0.569728255271912 -0.2456394135952 3.74500513076782 7.33823680877686 10.3708600997925 13.1753044128418 10.8907051086426 8.2796573638916 6.13323497772217 4.93446779251099 4.41123247146606 3.98160433769226 4.84574317932129 7.23858880996704 9.01475811004639 8.95798492431641 7.49577569961548 6.62044620513916 5.45494508743286 4.0322699546814 3.67812371253967 3.56133890151978 3.73999953269958 6.35271644592285 5.12550926208496 4.31172752380371 3.76934552192688 3.55882668495178 3.4780011177063 3.40329217910767 6.28556632995605 6.01279306411743 5.2026252746582 3.93614029884338 3.21327090263367 2.98370695114136 2.90015745162964 5.93247509002686
1.08880603313446 1.0613169670105 1.03835487365723 1.02163922786713 1.00878632068634 1.00548207759857 1.0727334022522 0.991795897483826 0.968688666820526 0.946097731590271 0.925749242305756 0.872128307819366 0.843968093395233 0.804204881191254 0.748667597770691 0.707279026508331 0.692360997200012 0.675598800182343 0.572443544864655 0.367764592170715 0.164650991559029 0.0397406369447708 -0.12468446791172 -0.238330945372581 -0.322981685400009 -0.424637585878372 -0.569092988967896 -0.695336401462555 -0.796702682971954 -0.87767893075943 -0.977749824523926 -1.14436602592468 -1.28207755088806 -1.39059555530548 -1.49454665184021 -0.684625566005707 -1.261345744133 -1.48952436447144 -0.555099427700043 0.477542102336884 0.385503709316254 0.513712108135223 0.763419687747955 0.645801186561584 0.343852639198303 0.138629153370857 -0.105657786130905 -0.294108390808105 -0.623281061649323 -1.27529764175415 -1.60027360916138 -1.72410941123962 1.6799498796463 4.17269659042358 2.45022892951965 1.64890897274017 1.27955162525177 1.2579460144043 1.13949608802795 0.98200136423111 0.904241979122162 0.838225722312927 0.779137492179871 0.730024635791779 0.700911641120911 0.625117063522339 0.581008791923523 0.519328594207764 0.440820544958115 0.368969321250916 0.338517487049103 0.306131631135941 0.296047031879425 0.758980870246887 0.288304001092911 0.235451236367226 1.85211169719696 1.45134377479553 2.09201741218567 0.330591142177582 -0.0155323212966323 -0.077542632818222 -0.149641618132591 -0.226938679814339 -0.342171847820282 4.07760953903198 4.34983062744141 3.47430515289307 3.04308891296387 2.14529371261597 1.3518306016922 1.27244627475739 1.24329543113708 1.12369525432587 0.922605037689209 0.734763860702515 0.555074393749237 0.328700810670853 -0.00263450155034661 -0.276480257511139 -0.500826239585876 -0.623223185539246 -0.685794115066528 -0.70186185836792 -0.795468270778656 -0.863186895847321 -0.990821301937103 -1.0824579000473 -0.615458309650421 3.23050308227539 7.93918752670288 14.833667755127 14.0378379821777 7.58183813095093 3.7654242515564 -0.617107629776001 -1.74394559860229 -2.34925055503845 -2.57018089294434 2.34592366218567 2.16210770606995 0.460108071565628 -0.00416641542688012 1.73092615604401 1.59290874004364 3.71363759040833 1.83016848564148 0.799074828624725 0.273738235235214 -0.0284558068960905 -0.111994467675686 -0.133772686123848 -0.273332327604294 -0.482671678066254 -0.788345336914062 -0.341286867856979 3.66675901412964 10.1760692596436 16.4765949249268 14.9462728500366 11.0366401672363 8.63149261474609 6.43755626678467 5.48434400558472 4.92836856842041 6.7636251449585 7.9326753616333 8.39592361450195 8.33212852478027 7.47817087173462 6.65352487564087 5.98843860626221 5.01285076141357 4.62018537521362 4.35635614395142 4.2083306312561 4.11320352554321 3.88756537437439 3.69298410415649 3.65642738342285 3.93093299865723 3.54936623573303 3.36794328689575 6.14937686920166 8.85297393798828 6.72006940841675 5.2735161781311 4.21776008605957 3.33159685134888 3.17549133300781 3.12016630172729
0.951223611831665 0.926969587802887 0.90733277797699 0.891619384288788 0.88742983341217 1.22229540348053 0.88282573223114 0.862011551856995 0.843151450157166 0.824489891529083 0.805997371673584 0.788836121559143 0.755108416080475 0.725723445415497 0.692731857299805 0.6755251288414 0.660509407520294 0.644186437129974 0.524387836456299 0.295100510120392 0.118561744689941 -0.0317664816975594 -0.167910560965538 -0.255931288003922 -0.344464659690857 -0.45864000916481 -0.588979005813599 -0.719004452228546 -0.825549125671387 -0.927614390850067 -1.02070760726929 -1.15849769115448 -1.31253468990326 -1.43940269947052 -1.52171289920807 -1.5892368555069 -1.65624833106995 -1.71609485149384 -0.419639319181442 1.42586278915405 1.18904030323029 1.00106728076935 0.931214272975922 0.836070537567139 0.681572914123535 0.466029137372971 0.203876867890358 0.0287550948560238 -0.207940101623535 -0.806856095790863 -1.40697777271271 -0.481243818998337 4.20756196975708 2.44606328010559 1.78526151180267 1.35525965690613 1.1299055814743 1.04906356334686 0.953677594661713 0.804094433784485 0.727541506290436 0.648643553256989 0.58394730091095 0.525464713573456 0.444860190153122 0.380768656730652 0.315775573253632 0.206577315926552 0.0879237502813339 0.0046156900934875 0.00262351171113551 -0.0520275868475437 -0.107715860009193 -0.185819610953331 -0.306768178939819 -0.452815622091293 4.50118255615234 7.17547607421875 5.09239482879639 2.98821043968201 1.88325703144073 1.52811551094055 0.79399961233139 0.291673868894577 -0.133716642856598 1.23001003265381 4.60749626159668 4.0317907333374 3.38124775886536 2.70904874801636 2.00083613395691 1.60332345962524 1.36360251903534 1.15656423568726 0.911452829837799 0.705488085746765 0.431213587522507 0.0298027396202087 -0.285065978765488 -0.496682316064835 -0.737084984779358 -0.908523559570312 -1.07497036457062 -1.1485470533371 7.03173351287842 3.45434308052063 1.35513913631439 0.71429830789566 1.21501779556274 2.80103993415833 5.90782356262207 14.4126577377319 12.7837028503418 7.11085748672485 3.40616941452026 -0.380581647157669 -1.70694017410278 -2.22860026359558 -2.42947340011597 0.437342166900635 3.71763706207275 1.3459689617157 0.222540110349655 2.593998670578 3.66014719009399 3.45319986343384 2.24784278869629 1.13304078578949 0.564956724643707 0.512773513793945 0.336406856775284 0.285623997449875 0.098924458026886 -0.164851173758507 -0.573238670825958 -1.07959651947021 2.32350325584412 8.22549915313721 18.7603569030762 18.6025009155273 15.2256622314453 11.9227437973022 8.97297668457031 7.49863767623901 6.94323587417603 6.83423185348511 8.48015785217285 8.84073066711426 8.25044822692871 7.53412914276123 6.72687339782715 6.39183855056763 6.00282573699951 5.60758399963379 5.25125885009766 5.00388240814209 4.64633893966675 4.21555423736572 3.6761360168457 3.58634448051453 9.77906608581543 7.16832208633423 4.49924564361572 4.12489795684814 10.3566370010376 8.0716552734375 6.12807607650757 4.93278551101685 4.09602069854736 3.64185667037964 3.46902823448181
0.921749651432037 0.89399653673172 0.873788774013519 0.862153589725494 1.19061744213104 0.858971238136292 0.834738433361053 0.813914775848389 0.790590941905975 0.770845055580139 0.751213550567627 0.733705461025238 0.715491473674774 0.698564112186432 0.678113281726837 0.662845134735107 0.645599544048309 0.63008713722229 0.515938282012939 0.257258087396622 0.0777751728892326 -0.0570390373468399 -0.184756264090538 -0.282740205526352 -0.372043311595917 -0.476805090904236 -0.598512649536133 -0.73254668712616 -0.836035430431366 -0.935625433921814 -1.04251563549042 -1.17556953430176 -1.33724391460419 -1.46016132831573 -1.58181858062744 -1.660719871521 -1.75182414054871 -1.80636537075043 -0.53058123588562 0.909172117710114 1.55139875411987 1.17280507087708 1.01673543453217 0.869080364704132 0.811176478862762 0.732261776924133 0.456638008356094 0.262691795825958 0.0274805817753077 -0.439740061759949 -0.937033116817474 -0.62628972530365 2.38438034057617 1.53254747390747 1.07515954971313 0.866432249546051 0.709601223468781 0.799107611179352 0.561675310134888 0.487306892871857 0.358650058507919 0.24901619553566 0.188147440552711 0.124045148491859 0.00677344622090459 -0.175177216529846 -0.34451150894165 -0.509871244430542 -0.622474908828735 -0.652507960796356 -0.682126104831696 -0.745421707630157 -0.74897825717926 -0.776264667510986 -0.879470348358154 -1.10510623455048 6.18953323364258 6.47695827484131 8.50565338134766 6.87585163116455 5.13212776184082 4.01491260528564 3.14720678329468 2.5474865436554 2.14233255386353 2.02936720848083 2.16272163391113 2.45566940307617 2.03117537498474 1.94481456279755 1.82360541820526 1.69147098064423 1.5633636713028 1.40869450569153 1.24861538410187 1.0088267326355 0.739155888557434 0.443830460309982 0.12626801431179 -0.266875177621841 -0.91615629196167 -1.64853572845459 -1.90177607536316 -1.94533002376556 23.1044807434082 16.8339958190918 11.9619417190552 9.72822856903076 7.86823701858521 7.15420150756836 6.67873954772949 16.0003108978271 11.8730602264404 6.96624040603638 4.73145294189453 1.48015737533569 -0.460546582937241 -1.32885992527008 -1.82615458965302 -1.83939003944397 3.79938292503357 2.1416597366333 1.87225317955017 4.57429695129395 3.55380034446716 2.36807060241699 1.72846174240112 1.24282777309418 0.802892327308655 0.497230738401413 1.23003733158112 0.623926758766174 0.355562478303909 -0.0924748256802559 -0.582968413829803 -1.09394896030426 -1.11344265937805 5.2404580116272 18.433629989624 21.2056846618652 18.1258411407471 14.6713151931763 12.2156829833984 10.1496210098267 8.99374485015869 8.6163444519043 8.3167200088501 8.27853107452393 10.1579647064209 8.20637512207031 7.75020170211792 7.20953512191772 6.69491004943848 6.40882349014282 6.02747488021851 5.48025226593018 4.94130611419678 4.40191411972046 3.83369183540344 3.65259718894958 7.4678168296814 9.35964870452881 6.7486720085144 5.7591724395752 6.87222957611084 6.51692914962769 5.49226427078247 4.93139886856079 4.45142078399658 3.98832392692566 3.63441443443298
0.983836233615875 0.952242970466614 0.933360517024994 1.00271964073181 0.923809111118317 0.896716952323914 0.873216450214386 0.849118292331696 0.825470447540283 0.803739011287689 0.784907341003418 0.766057372093201 0.746131896972656 0.725016713142395 0.706847429275513 0.687456488609314 0.672152161598206 0.653349876403809 0.551879942417145 0.228146582841873 0.0474549792706966 -0.097680039703846 -0.212169408798218 -0.311698287725449 -0.399371832609177 -0.488460630178452 -0.61027580499649 -0.749947428703308 -0.840438365936279 -0.940590381622314 -1.06209564208984 -1.18708872795105 -1.32834827899933 -1.48955500125885 -1.64105308055878 -1.72140598297119 -1.80421054363251 -1.88133311271667 -1.46240830421448 0.65769100189209 2.03550958633423 1.91463601589203 1.50784409046173 1.18233597278595 1.10005259513855 0.965198814868927 0.816088020801544 0.533639371395111 0.233686789870262 -0.112363919615746 -0.39676958322525 -0.437703639268875 -0.349318861961365 0.284475028514862 0.44403538107872 0.277617692947388 0.282180160284042 0.209128528833389 0.164950892329216 0.026505034416914 -0.150665089488029 -0.246589556336403 -0.328794866800308 -0.48448383808136 -0.644731104373932 -0.735110640525818 -0.822723627090454 -0.904201447963715 -0.941623449325562 -0.965557217597961 -0.979589283466339 -0.447504907846451 -1.02396774291992 -1.10500001907349 -1.13868844509125 -1.24974489212036 0.831503510475159 4.92274475097656 5.65734767913818 9.74464988708496 9.95546627044678 6.87902498245239 5.13019800186157 4.30777931213379 3.72700595855713 3.50720763206482 3.38354277610779 3.09792804718018 2.8904287815094 2.73106575012207 2.55259466171265 2.35845017433167 2.135089635849 1.89086425304413 1.52790772914886 1.18694150447845 0.861160516738892 0.260444492101669 -0.278857201337814 -0.684420704841614 -1.77180898189545 -2.20915460586548 -2.33242511749268 1.15955317020416 7.4078049659729 22.6978206634521 17.7837677001953 15.0667171478271 11.8458528518677 10.5326814651489 9.96200847625732 12.4926195144653 9.36162948608398 8.09430408477783 4.8851375579834 2.01560378074646 0.851312637329102 -0.00259365048259497 -0.477173298597336 1.38770496845245 3.20117115974426 2.18035912513733 3.62240600585938 5.69067811965942 3.41790127754211 2.06183123588562 1.5976470708847 1.20755648612976 0.8563272356987 0.357467591762543 0.320355296134949 0.228213280439377 0.0316842682659626 -0.404801279306412 -0.573395729064941 -0.738348126411438 -0.799193620681763 3.03171110153198 14.4072504043579 20.6810932159424 20.6288375854492 16.1306324005127 13.834038734436 12.1423225402832 10.6864557266235 9.97856330871582 9.36096954345703 8.92684268951416 11.369647026062 8.7750997543335 8.13000583648682 7.58921957015991 7.08583354949951 6.76176261901855 6.3140344619751 5.72688341140747 4.95940113067627 4.5617356300354 4.16128826141357 3.84438180923462 3.90121078491211 7.9403133392334 7.64620971679688 6.45115280151367 5.9620361328125 5.73228120803833 5.05517911911011 4.37875127792358 3.83165860176086 3.69607663154602 3.56413054466248
1.05077278614044 1.02104353904724 1.00645458698273 0.994696021080017 0.965303659439087 0.937917828559875 0.912674367427826 0.887532770633698 0.863234996795654 0.841657638549805 0.821909785270691 0.800057351589203 0.776822686195374 0.756158769130707 0.734044015407562 0.717664480209351 0.700374007225037 0.680577158927917 0.573059916496277 0.214077189564705 0.00625296542420983 -0.140046790242195 -0.253903210163116 -0.360011637210846 -0.452650189399719 -0.536460220813751 -0.65649950504303 -0.767406642436981 -0.856356501579285 -0.947920203208923 -1.07024371623993 -1.19806981086731 -1.3424015045166 -1.51502335071564 -1.67210566997528 -1.79384589195251 -1.87127590179443 -1.94090914726257 -1.9935849905014 -0.373783618211746 1.78043949604034 2.70881366729736 2.05169010162354 1.53842735290527 1.3956423997879 1.13114631175995 1.1040141582489 0.890981018543243 0.484420388936996 0.0119323404505849 -0.288312256336212 0.111577831208706 0.568977057933807 0.427582383155823 0.289187759160995 0.183704137802124 0.0577082484960556 -0.0143590085208416 -0.0491534434258938 -0.240656509995461 -0.340015172958374 -0.402026653289795 -0.489965349435806 -0.679803609848022 -0.797231256961823 -0.855050921440125 -0.945301175117493 -1.05125916004181 -1.16022312641144 -1.25554823875427 -0.695415735244751 -1.14750957489014 -1.3891738653183 -1.48820388317108 -1.4943243265152 -1.50140738487244 1.2980055809021 3.78763222694397 4.40564775466919 6.3859076499939 12.6408720016479 11.688648223877 8.99076271057129 6.88951110839844 5.60874366760254 5.00843524932861 4.80530309677124 4.3250675201416 3.97396397590637 3.68726778030396 3.40964317321777 3.10371685028076 2.77130174636841 2.29079723358154 1.9154531955719 1.58099162578583 1.13833868503571 0.317576944828033 -0.24318890273571 -0.980277836322784 -1.95449805259705 -2.24079704284668 -2.20781707763672 1.85052883625031 3.14190316200256 11.4924077987671 20.8370380401611 17.8734722137451 14.7385349273682 12.8399314880371 12.0326385498047 11.0944032669067 9.83440971374512 8.29787349700928 4.84896326065063 2.03918623924255 1.08618021011353 0.226473316550255 -0.0750244632363319 4.59131765365601 4.1919641494751 3.39130282402039 5.32608699798584 4.73046636581421 3.33243846893311 2.28083872795105 1.77878475189209 1.34854936599731 0.995200514793396 0.625093996524811 0.394944876432419 0.164224624633789 -0.028712160885334 -0.183760538697243 -0.30038383603096 -0.36411041021347 -0.456746757030487 1.79354071617126 8.5539083480835 20.3455257415771 22.6579322814941 17.6885299682617 15.1072950363159 13.8200359344482 12.3108558654785 11.1696510314941 10.3116598129272 9.6906681060791 9.39802742004395 8.79913902282715 8.12382316589355 7.74825429916382 7.29007148742676 6.84008359909058 6.21471643447876 5.43443918228149 4.62522268295288 4.4429874420166 4.34907007217407 4.10742902755737 3.91683650016785 5.2910361289978 7.39907312393188 6.43163919448853 5.49444770812988 4.83763265609741 4.10006189346313 3.80615496635437 3.66070365905762 3.53057861328125 3.41265368461609
0.959522187709808 0.929499924182892 0.914415061473846 0.888050675392151 0.86061692237854 0.834633052349091 0.810002148151398 0.786485612392426 0.765543341636658 0.745638072490692 0.726760745048523 0.705859243869781 0.685645937919617 0.664463400840759 0.644788682460785 0.62737375497818 0.609371066093445 0.589248478412628 0.557685375213623 0.142920687794685 -0.0735160484910011 -0.19586406648159 -0.315753549337387 -0.426935583353043 -0.510690748691559 -0.607893943786621 -0.71264261007309 -0.804498076438904 -0.887011706829071 -0.971596002578735 -1.0921927690506 -1.21401584148407 -1.34326601028442 -1.52435088157654 -1.68835914134979 -1.85639631748199 -1.93903255462646 -1.98722672462463 -2.06086111068726 -0.696112275123596 0.706601858139038 1.51193475723267 2.22211170196533 2.59833383560181 1.9703426361084 1.26631033420563 1.14699757099152 1.01859200000763 0.549450635910034 0.258578270673752 0.0155094964429736 -0.0327177420258522 0.260337710380554 0.00741075538098812 -0.0998873189091682 -0.147502735257149 -0.212383359670639 -0.2715063393116 -0.312033742666245 -0.42573219537735 -0.535382151603699 -0.563266932964325 -0.640906929969788 -0.80518913269043 -0.907099425792694 -0.999322295188904 -1.19258761405945 -1.41777086257935 -1.547234416008 -1.63539040088654 -1.68224537372589 -0.60655277967453 -1.72349441051483 -1.80527865886688 -1.88117444515228 -1.94322168827057 -1.17618453502655 13.3175230026245 9.91092014312744 8.98129177093506 8.05337524414062 13.7043180465698 12.1447906494141 9.79214572906494 7.93061494827271 7.0575909614563 6.65272617340088 6.28619194030762 5.79153776168823 5.35371685028076 4.88931608200073 4.3134970664978 3.52267456054688 2.79686665534973 2.31070780754089 2.00087451934814 1.61302971839905 0.907472789287567 0.226084291934967 -0.544858038425446 -1.38899600505829 -1.72183454036713 -0.790530562400818 2.52673292160034 4.55841541290283 8.19688892364502 17.0199432373047 16.6706390380859 15.5615015029907 14.1402530670166 13.0823497772217 11.409384727478 9.68896293640137 7.91100740432739 5.17952585220337 2.24321341514587 0.898984014987946 0.202733740210533 1.13265299797058 4.29196786880493 3.72744464874268 2.9919331073761 7.15718698501587 5.81913328170776 4.00968360900879 2.20807814598083 1.67503297328949 1.2516895532608 0.872204899787903 0.775372684001923 0.530411005020142 0.2776118516922 0.100460141897202 0.0452863462269306 -0.0393162705004215 -0.099420964717865 -0.141297042369843 -0.186515808105469 8.06261539459229 18.014232635498 21.5860118865967 17.5747489929199 15.5823431015015 14.094557762146 13.0751323699951 12.3207454681396 11.353720664978 10.5166091918945 9.82973003387451 9.140456199646 8.45491218566895 7.91634178161621 7.47187423706055 6.92519426345825 6.26317167282104 5.35214614868164 4.60507011413574 4.45348739624023 7.06297540664673 4.44656276702881 4.23885345458984 4.09104871749878 5.83618116378784 5.52114677429199 4.35910272598267 3.96643590927124 3.80439734458923 3.66105771064758 3.51484489440918 3.3915388584137 3.26279497146606
0.382360517978668 0.373610287904739 0.362807512283325 0.351461261510849 0.339803487062454 0.329639106988907 0.3185655772686 0.307209998369217 0.297715395689011 0.290027290582657 0.282236963510513 0.27405172586441 0.263819307088852 0.2505843937397 0.24045766890049 0.229289501905441 0.216682061553001 0.199470460414886 0.152992606163025 0.0526595823466778 -0.146427601575851 -0.248229324817657 -0.3771593272686 -0.477991133928299 -0.617750406265259 -0.693274259567261 -0.743382513523102 -0.842829287052155 -0.914838314056396 -0.997065961360931 -1.10480308532715 -1.22535920143127 -1.34864294528961 -1.51366794109344 -1.71785020828247 -1.87203919887543 -1.9614896774292 -2.0208044052124 -2.09728622436523 -1.87064290046692 0.175289422273636 0.0983682870864868 1.46093392372131 4.24336194992065 2.94623899459839 1.85595989227295 1.19281852245331 0.98670768737793 0.62327116727829 0.270925968885422 0.077426977455616 0.0173168051987886 -0.0438014678657055 -0.118593379855156 -0.20959298312664 -0.281027585268021 -0.326399147510529 -0.392330557107925 -0.569840431213379 -0.682078301906586 -0.742813646793365 -0.815475702285767 -0.908531427383423 -1.03857696056366 -1.1670184135437 -1.33245468139648 -1.56753289699554 -1.83802008628845 -2.01635789871216 -2.08458685874939 -2.27853083610535 3.05617594718933 1.05883193016052 -0.250848472118378 -0.851975977420807 -2.03909754753113 -2.38819146156311 5.57105588912964 15.6084308624268 12.4445886611938 11.1572036743164 12.1998090744019 14.3231801986694 11.7736654281616 10.5517272949219 9.45469760894775 8.82724666595459 8.16939163208008 7.42142868041992 6.77528619766235 5.92369270324707 4.5883641242981 3.41076111793518 2.66632485389709 2.26727342605591 1.879847407341 1.80309629440308 1.17376315593719 0.728977799415588 -0.0121743669733405 -0.7629075050354 -0.998530447483063 -1.08484172821045 4.39383316040039 5.87900686264038 7.21374368667603 15.1508188247681 16.954797744751 15.232533454895 14.2643909454346 13.0342264175415 11.2792701721191 9.50650310516357 7.64727640151978 5.03857898712158 2.13120198249817 1.06441128253937 0.380976885557175 1.70057272911072 6.0764741897583 4.81688022613525 4.27002477645874 4.85558986663818 5.53606081008911 4.00313138961792 2.75680637359619 1.8444664478302 1.34483027458191 1.06488513946533 2.72049450874329 1.47305643558502 0.700381517410278 0.335603415966034 0.260568588972092 0.216569751501083 0.205367594957352 0.195769339799881 0.125897750258446 4.78714656829834 15.6092920303345 19.7995853424072 17.5547657012939 15.5643815994263 14.0677947998047 13.2766962051392 12.9268293380737 11.986457824707 11.0239534378052 10.174973487854 9.34805107116699 8.66909694671631 8.00424671173096 7.44832372665405 6.92213916778564 6.23442220687866 5.25972032546997 4.62844800949097 4.46170377731323 4.448157787323 4.41817569732666 4.25342893600464 4.08592987060547 4.06069612503052 4.01552104949951 3.85250997543335 3.66874527931213 3.5135669708252 3.37553381919861 3.24720597267151 3.10528206825256 2.99496650695801
0.202490493655205 0.195212885737419 0.188910096883774 0.184190899133682 0.176010772585869 0.166931480169296 0.159800350666046 0.152701377868652 0.144813746213913 0.137146517634392 0.133662492036819 0.132844060659409 0.125270023941994 0.116639658808708 0.108474932610989 0.100110627710819 0.090424008667469 0.0645309761166573 -0.0220906529575586 -0.128038808703423 -0.204247951507568 -0.294088512659073 -0.417353510856628 -0.565620422363281 -0.684932172298431 -0.776993632316589 -0.819096922874451 -0.864262640476227 -0.938885629177094 -1.01453137397766 -1.11790227890015 -1.23524820804596 -1.36331808567047 -1.51933360099792 -1.69402348995209 -1.8658332824707 -1.98320198059082 -2.05312657356262 -2.16367030143738 -1.99642097949982 0.138816490769386 -0.141589537262917 1.42958974838257 2.92167377471924 2.6936571598053 1.96211516857147 1.26953256130219 0.668640613555908 0.379569530487061 -0.0322384908795357 -0.214827075600624 -0.261164128780365 -0.320485949516296 -0.403704345226288 -0.481975942850113 -0.583330929279327 -0.680454134941101 -0.775118470191956 -0.859801650047302 -1.04117226600647 -1.25089800357819 -1.29989850521088 -1.42618024349213 -1.46880292892456 -1.62574529647827 -1.80432283878326 -1.99712753295898 -2.2222011089325 -2.39013862609863 -2.57867574691772 -2.59042954444885 3.84363651275635 1.27327907085419 -0.183166831731796 -0.213517561554909 -0.835256576538086 -1.91011488437653 -2.07502889633179 18.1532287597656 14.2259292602539 10.8900461196899 12.0910034179688 17.8814029693604 14.5489292144775 12.5288219451904 10.8329811096191 9.9528751373291 9.46057796478271 8.49072360992432 7.01105356216431 6.25797557830811 4.82234048843384 3.08279919624329 2.73280358314514 2.43338751792908 2.12050175666809 1.94567596912384 1.43802785873413 0.843799114227295 0.111097231507301 -0.589873492717743 -0.684007525444031 -0.705263912677765 4.43693447113037 6.81478214263916 10.5637445449829 13.0513029098511 14.5295124053955 13.8913583755493 13.0263719558716 11.7153377532959 10.1190700531006 8.72982406616211 7.09096670150757 4.80264520645142 2.35379552841187 1.10373711585999 0.492839723825455 2.55372714996338 6.38566493988037 5.12422180175781 3.88919973373413 3.59810543060303 6.51239824295044 4.38761329650879 2.92292547225952 2.05566024780273 1.42931389808655 1.02523851394653 3.78828501701355 2.51904320716858 0.901159405708313 0.496068805456161 0.41191765666008 0.372695118188858 2.718177318573 1.71710073947906 0.441667705774307 3.21707653999329 11.0302963256836 17.3842353820801 17.3061866760254 15.9520397186279 14.7390251159668 13.7611503601074 12.8777570724487 11.7716493606567 10.8143739700317 9.91504001617432 9.06151580810547 8.33305644989014 7.69379281997681 7.17284727096558 6.67605018615723 6.05922651290894 5.2713360786438 4.68167114257812 4.49294233322144 4.3284592628479 4.16171169281006 4.01701402664185 3.91133165359497 3.82575225830078 3.67356109619141 3.47005295753479 3.30137610435486 3.14013814926147 3.00501465797424 2.88213872909546 2.76826429367065 2.67848563194275
0.195860221982002 0.188257873058319 0.180857628583908 0.174956575036049 0.167626470327377 0.154228284955025 0.138004332780838 0.132415041327477 0.132206469774246 0.126489967107773 0.120110727846622 0.112176008522511 0.106334015727043 0.103072226047516 0.0923544093966484 0.0805643051862717 0.0641246512532234 0.0134995579719543 -0.0930984318256378 -0.187443777918816 -0.251469671726227 -0.341005802154541 -0.474512606859207 -0.608424603939056 -0.725151240825653 -0.832510650157928 -0.898387491703033 -0.581174552440643 -0.959065437316895 -1.03329825401306 -1.14037156105042 -1.25174343585968 -1.3835027217865 -1.51051545143127 -1.65875065326691 -1.82939445972443 -1.98941469192505 -2.0707049369812 -2.2077944278717 -1.4014937877655 -0.202063485980034 -0.34479746222496 1.21676552295685 1.14178812503815 1.05570936203003 1.28866672515869 0.671546220779419 0.0302850566804409 -0.397282958030701 -0.616698563098907 -0.779293894767761 -0.792192280292511 -0.466682851314545 -0.853488028049469 -0.944458603858948 -1.05610597133636 -1.20204138755798 -1.33847653865814 -1.51958060264587 -1.83411943912506 -2.02389788627625 -2.03012752532959 -2.10309481620789 -2.15325021743774 -2.22394466400146 -2.30567169189453 -2.40432572364807 -2.55030107498169 -2.6808454990387 -2.83372282981873 0.302902400493622 0.115266114473343 0.919838190078735 -0.31915095448494 -0.650047659873962 -0.571312725543976 -1.08899128437042 2.00185108184814 10.068811416626 8.88423252105713 8.0722131729126 8.04326438903809 15.0891246795654 11.9371995925903 7.96474123001099 7.77855253219604 14.7467288970947 11.458270072937 7.83172035217285 5.72116422653198 4.95822954177856 4.45129442214966 2.72675132751465 2.20651626586914 2.06628060340881 2.03284287452698 1.89294540882111 1.25138437747955 0.440274029970169 0.0336912423372269 -0.301456719636917 -0.548201560974121 1.39297473430634 5.18212175369263 7.64525699615479 10.3984823226929 12.8458395004272 12.2322225570679 12.1737928390503 11.6890478134155 10.2877073287964 8.92823886871338 7.70979070663452 6.31114387512207 4.51961183547974 2.42348718643188 1.26114821434021 0.720045030117035 0.676522076129913 4.22485780715942 3.23509192466736 2.11640477180481 1.50475442409515 6.37106657028198 7.24463796615601 4.00252437591553 2.09510731697083 1.03116226196289 0.617658913135529 2.56474280357361 1.96303391456604 0.579723000526428 0.400217026472092 1.61856997013092 2.21324586868286 1.56317889690399 1.54531061649323 1.29518759250641 4.11348915100098 9.03207969665527 13.3072261810303 15.0823488235474 16.4457149505615 14.7957916259766 13.2509899139404 12.1669139862061 11.124095916748 10.0639181137085 9.17074203491211 8.35268688201904 7.67001056671143 7.09586668014526 6.59822988510132 6.13328456878662 5.63988924026489 5.14072608947754 4.74653720855713 4.42603826522827 4.10001802444458 3.83858370780945 3.74355149269104 3.62765336036682 3.4638237953186 3.23865008354187 3.04690027236938 2.88949108123779 2.68874311447144 2.56872177124023 2.50255918502808 2.41476917266846 2.33742952346802
