NCOLS 175
NROWS 32
XLLCORNER 353776
YLLCORNER 6699968
CELLSIZE 16 
NODATA_value -3.4e+38 
2.89256381988525 2.01349759101868 1.69180977344513 0.0861828252673149 1.8514142036438 2.21709179878235 1.85535109043121 1.39086413383484 1.67218923568726 2.103999376297 2.72131323814392 2.75735068321228 2.95204210281372 2.91654253005981 2.9693489074707 3.2031774520874 3.16420912742615 3.24290871620178 3.40013432502747 4.38174152374268 4.5701117515564 3.78898477554321 3.20668005943298 2.84671258926392 2.67542314529419 2.4388701915741 2.26170992851257 2.44731640815735 3.98346972465515 7.20019865036011 7.67814493179321 6.64148664474487 4.20576572418213 4.14564609527588 5.63112640380859 6.92341375350952 8.89166641235352 8.64292430877686 9.71535491943359 10.9176530838013 9.16807270050049 8.26860046386719 7.04987192153931 6.98285007476807 5.94199180603027 6.68700695037842 5.7627158164978 6.56914138793945 5.00119686126709 4.0600380897522 4.56716775894165 4.37862730026245 4.45834493637085 4.38840293884277 4.45063495635986 4.35538911819458 4.24565601348877 4.5202169418335 4.01108551025391 4.24186611175537 4.46796274185181 5.32813167572021 5.9103102684021 9.33713912963867 9.11264133453369 3.22747111320496 14.9291687011719 12.4436140060425 10.9408006668091 8.33541488647461 21.8365898132324 8.67947101593018 12.2719497680664 17.5956268310547 5.81985902786255 8.95222949981689 12.1473712921143 5.31198787689209 4.78830766677856 3.93392419815063 3.52714395523071 2.62744927406311 38.068603515625 1.42418944835663 2.4628050327301 2.46029353141785 1.43764019012451 4.60466623306274 4.85570096969604 18.5640754699707 3.93774461746216 0.46342921257019 4.94332218170166 13.7999114990234 14.1859502792358 0.55182933807373 12.4715442657471 21.377254486084 19.7286949157715 20.9690437316895 29.5959529876709 27.4052982330322 22.6248016357422 14.9451150894165 37.6360168457031 9.79790019989014 17.7771625518799 24.8584651947021 31.7627334594727 9.63199329376221 18.4271640777588 19.3157348632812 7.30264854431152 8.27062606811523 5.18187093734741 4.48741769790649 3.67896127700806 21.9200801849365 9.29752922058105 8.89801788330078 9.0379695892334 4.63800859451294 24.2335433959961 8.81725215911865 2.46264314651489 2.53809833526611 2.82930874824524 2.24208617210388 2.06442403793335 2.23871493339539 1.73342597484589 1.76551282405853 7.35438251495361 2.37542772293091 31.2799606323242 22.6138668060303 2.44992566108704 2.78569149971008 2.87778210639954 2.7492299079895 2.6020348072052 2.70943379402161 2.73994612693787 2.98825192451477 2.54775452613831 4.07774114608765 3.68607091903687 3.77897834777832 2.62880992889404 10.3564491271973 3.75993680953979 32.7511749267578 13.3345766067505 4.69196510314941 4.47432994842529 5.27263402938843 5.47178030014038 5.82854413986206 5.81081533432007 6.02391481399536 6.48157787322998 7.58243465423584 7.48649406433105 7.2834939956665 8.05593490600586 7.19855260848999 7.53529500961304 6.76421642303467 7.51939964294434 6.53839588165283 7.35302734375 14.4728546142578 21.8191375732422 21.7319889068604 22.6351432800293
4.52265453338623 2.10967755317688 1.77676892280579 0.508917689323425 1.56160163879395 2.38693976402283 1.97197294235229 2.03615403175354 1.74166023731232 2.16703462600708 2.89023375511169 2.9541871547699 3.08184576034546 3.0396192073822 3.0426037311554 3.33253407478333 3.32439804077148 3.35341858863831 3.55090546607971 4.54221391677856 4.80513477325439 3.99140405654907 3.4186532497406 2.95981764793396 2.76950192451477 2.5074291229248 2.32817459106445 2.53410649299622 2.41937565803528 7.77617025375366 8.22523880004883 7.14741849899292 4.43612957000732 4.39773941040039 5.96987104415894 6.2794303894043 9.69110202789307 9.39139366149902 10.7081823348999 11.9675493240356 10.667667388916 8.81581115722656 7.56189680099487 7.31982183456421 6.24155187606812 6.91546154022217 5.87349033355713 6.76543474197388 5.14811277389526 5.05646657943726 4.6808819770813 4.49020910263062 4.60829401016235 4.52416753768921 4.63130617141724 4.47345733642578 4.3469557762146 4.10670900344849 4.57740211486816 4.36501741409302 4.5933837890625 5.08559417724609 5.24301624298096 4.35097599029541 29.9479370117188 4.97281932830811 39.3878555297852 14.802152633667 9.48153591156006 9.55403518676758 9.80156993865967 8.45153141021729 22.3040504455566 29.906925201416 7.96806764602661 8.61606979370117 12.9604864120483 16.9557571411133 4.98131561279297 3.0168719291687 2.89178705215454 3.80432796478271 1.6386399269104 3.13510370254517 2.74765086174011 7.613525390625 3.84065175056458 6.94820737838745 1.78677785396576 1.968376994133 13.3216724395752 0.869456350803375 1.03526389598846 1.61584556102753 -0.0896840468049049 1.13434207439423 13.9019317626953 17.6042575836182 11.3975210189819 17.6843338012695 12.6198244094849 25.3182888031006 26.7961292266846 32.2281112670898 17.7200965881348 30.7662372589111 28.0158576965332 4.03893375396729 4.06975126266479 6.50730466842651 4.95089101791382 32.1248931884766 12.3215885162354 9.85377502441406 10.7743816375732 4.59467840194702 6.03499174118042 3.90493178367615 11.352198600769 9.8460693359375 17.2290706634521 6.31913948059082 2.30592584609985 21.9026756286621 3.8288197517395 2.6368191242218 2.96571063995361 3.28788828849792 2.69690227508545 3.01531744003296 2.66788077354431 2.63647699356079 2.12211918830872 2.48253536224365 2.75149965286255 2.3294780254364 2.88325381278992 3.6634259223938 3.19189143180847 3.93231773376465 3.51414489746094 3.17018556594849 3.58718109130859 3.71337294578552 3.2640745639801 4.12023258209229 4.46629285812378 4.0321946144104 4.72228622436523 15.1378583908081 17.9177856445312 52.8939666748047 41.4683570861816 12.3031988143921 4.70304918289185 5.65986919403076 5.89527416229248 5.79682731628418 6.4349799156189 6.42080879211426 6.99824810028076 8.16300010681152 8.0792818069458 7.84164237976074 8.60980415344238 7.75131559371948 7.97206592559814 6.66848230361938 7.20509910583496 7.98251342773438 7.72800016403198 18.636079788208 27.5602741241455 27.3272132873535 28.2545433044434
4.79547882080078 2.18283081054688 1.88841915130615 0.3303042948246 0.537383496761322 2.58736205101013 0.336576491594315 2.31657481193542 1.93929588794708 2.24536943435669 3.16093802452087 3.1312050819397 3.25449895858765 3.19966578483582 3.14407563209534 3.51613259315491 3.21673488616943 3.51836395263672 3.71358466148376 4.74514961242676 5.02185201644897 4.19169664382935 3.58361673355103 3.08288621902466 2.8732008934021 2.4119348526001 2.53990077972412 2.52833914756775 2.54644274711609 6.66988134384155 8.89080429077148 7.72364902496338 7.84635972976685 4.71421766281128 6.37967681884766 6.68909597396851 9.24297332763672 11.346884727478 11.0508079528809 12.4220113754272 13.7476501464844 11.3642177581787 8.99084186553955 7.76335620880127 3.05043363571167 6.80061340332031 7.53233289718628 7.03627634048462 6.90344905853271 5.13421487808228 4.72585535049438 3.89257669448853 4.67081737518311 4.58449649810791 4.66419410705566 4.71922206878662 4.39586353302002 4.26739025115967 4.70294141769409 4.46304416656494 4.6815619468689 5.32282495498657 5.4890398979187 5.29625225067139 3.19053244590759 9.03710556030273 2.88404941558838 19.4124221801758 14.1132946014404 10.6952362060547 26.0733947753906 11.6617698669434 5.04084873199463 4.2971453666687 7.02937364578247 7.72006130218506 19.516809463501 29.6145420074463 5.18274402618408 2.85779476165771 2.95191478729248 4.17634201049805 4.47716760635376 6.8586540222168 3.27293038368225 3.2847728729248 2.96129894256592 5.17362117767334 2.0588390827179 1.68106615543365 1.10313773155212 3.28727173805237 2.64431715011597 1.93687093257904 -0.0629328489303589 3.28042721748352 7.35895872116089 3.19965028762817 14.3915414810181 9.25885200500488 12.6371622085571 15.8890810012817 28.1256408691406 36.852653503418 26.1810531616211 26.0365772247314 24.8506526947021 12.8653287887573 4.35693693161011 6.9715576171875 4.30491971969604 3.71798753738403 11.9030199050903 29.1958789825439 12.9154491424561 4.63840341567993 8.952073097229 11.7048845291138 18.1241283416748 11.6796207427979 23.5347537994385 16.5858383178711 14.6798572540283 25.5633335113525 16.1848659515381 3.07446146011353 2.83082723617554 3.48607277870178 3.60321927070618 3.7219831943512 3.72729659080505 3.21242666244507 18.212869644165 8.45040798187256 3.41373944282532 3.72372531890869 3.10389113426208 3.69518208503723 4.05135917663574 4.54870367050171 4.0676121711731 4.2981972694397 4.11981391906738 4.72328615188599 7.55483675003052 14.0568408966064 4.86926555633545 4.39115953445435 4.12660217285156 10.6292543411255 35.3920288085938 2.38631129264832 3.2393434047699 25.9339084625244 4.97659349441528 5.64879322052002 6.31977987289429 6.21578884124756 6.87188959121704 6.83166313171387 7.47320175170898 8.75743103027344 8.6554536819458 8.38358592987061 9.16839408874512 8.18161487579346 7.29336643218994 8.43420791625977 7.57970762252808 8.38416290283203 8.13990688323975 14.0090923309326 27.8282432556152 38.8784408569336 38.2990303039551
5.13240575790405 3.43010377883911 -0.1107582077384 2.00247550010681 1.09729969501495 2.85677146911621 2.05000829696655 2.59633994102478 2.15255761146545 2.48457312583923 3.22660851478577 3.36431837081909 3.19979739189148 3.48356986045837 3.41770839691162 3.74481320381165 3.38842439651489 3.7751293182373 3.59539604187012 4.71030473709106 5.01228904724121 5.17099905014038 4.34522676467896 3.61384916305542 2.97853684425354 2.53473043441772 2.6193368434906 2.60240864753723 2.63656759262085 6.40241575241089 9.36470317840576 9.7811918258667 8.60636615753174 2.60905742645264 5.18442249298096 7.05459690093994 10.7800016403198 12.8964500427246 12.7293033599854 14.1340618133545 15.4759864807129 12.694483757019 10.1989917755127 8.17681217193604 2.86159873008728 7.30508756637573 8.12543392181396 6.70593929290771 7.45250034332275 5.57668161392212 4.2973370552063 4.86856842041016 4.69249391555786 4.78808450698853 4.71282243728638 4.81150054931641 4.60598468780518 4.32373380661011 4.77851724624634 4.23657989501953 4.72937154769897 5.4164457321167 5.69678688049316 5.54954290390015 5.61455249786377 11.1732864379883 5.29729127883911 3.68673253059387 9.35568618774414 17.7707538604736 10.4037990570068 10.2852230072021 5.46743869781494 6.59408044815063 5.96292161941528 8.25827789306641 6.46987152099609 3.09966921806335 5.70121335983276 5.15851449966431 3.22658538818359 4.69848585128784 8.01668071746826 2.91691088676453 8.70231056213379 3.36643648147583 3.09241437911987 2.47548508644104 2.38625931739807 7.03000593185425 2.31506681442261 1.41605877876282 4.29463577270508 2.3809552192688 2.26731944084167 8.01761722564697 1.24200201034546 5.88309049606323 0.193940594792366 4.89916944503784 6.48492956161499 9.85414886474609 14.5249547958374 5.81317377090454 31.798999786377 43.0708808898926 18.3839797973633 25.2921123504639 13.2831411361694 8.11318588256836 4.31714057922363 4.6127986907959 3.92822623252869 5.36676359176636 4.46003580093384 5.67852640151978 10.8411512374878 13.4797859191895 10.039475440979 26.6282424926758 20.0253925323486 34.6914825439453 26.5717906951904 1.63948726654053 30.6775302886963 3.16750073432922 4.03756713867188 3.50957822799683 3.78774738311768 4.27980136871338 4.03295373916626 4.0533652305603 2.88295149803162 2.80818557739258 3.99131917953491 4.03856372833252 3.26846170425415 3.4994113445282 4.29632186889648 4.76358366012573 5.41058492660522 5.42064428329468 5.44363260269165 5.15954971313477 4.10006809234619 4.62890625 5.25555038452148 4.79781198501587 4.47866106033325 25.7888164520264 10.9404449462891 5.11610698699951 3.79937863349915 4.55391311645508 5.87041568756104 6.0312352180481 6.73358631134033 6.64682292938232 7.28858661651611 7.23526191711426 7.90942811965942 9.2626781463623 9.15463733673096 8.83681392669678 8.72086048126221 9.70021820068359 8.06523609161377 8.85534000396729 7.97559785842896 8.81793975830078 8.56916809082031 14.1332225799561 45.5231132507324 56.8717384338379 55.7180557250977
5.74625015258789 3.66173529624939 2.03414154052734 2.13600063323975 0.465945243835449 3.06733655929565 2.22484540939331 2.83477902412415 2.25786399841309 2.35451006889343 3.24073553085327 3.56203389167786 3.48215365409851 3.69259667396545 3.62632775306702 3.61135172843933 3.9870936870575 3.992755651474 3.77362871170044 4.19035816192627 5.16023921966553 5.42591142654419 4.56771612167358 3.80521845817566 3.25318622589111 2.63678646087646 2.6997504234314 2.67806434631348 2.73638868331909 6.48849964141846 10.4508905410767 10.7493019104004 9.53398513793945 5.31264877319336 5.65911626815796 7.65929937362671 13.0234222412109 14.9979228973389 15.1369009017944 16.0694465637207 21.4119758605957 14.3543767929077 11.4312925338745 9.69359493255615 6.57374048233032 7.93357753753662 8.75750541687012 3.34651017189026 7.71890878677368 5.74663591384888 4.35853910446167 4.93369579315186 4.73980140686035 4.83099889755249 4.75623273849487 4.86573314666748 4.63696622848511 4.55586242675781 4.80894947052002 4.29352569580078 4.79983615875244 5.53594303131104 5.84838581085205 5.83844232559204 5.90838813781738 14.3968906402588 5.56068181991577 6.98865222930908 11.3475589752197 12.125020980835 10.3637170791626 25.0425987243652 7.54599046707153 6.96325492858887 4.77022838592529 8.90300846099854 11.704665184021 6.96308898925781 6.62303447723389 5.82855558395386 3.64195489883423 5.63784408569336 13.1186275482178 3.22153639793396 13.3699340820312 3.19124364852905 5.47560977935791 2.53852486610413 2.52021861076355 2.44541001319885 2.08615493774414 1.54120767116547 2.02457213401794 11.8428401947021 5.93388700485229 0.627545833587646 6.69096708297729 3.76499724388123 3.89932537078857 6.06714296340942 5.90462207794189 13.6293153762817 24.3685665130615 22.1930465698242 2.95023012161255 5.87751722335815 2.85846924781799 3.85951328277588 4.64904022216797 5.54350852966309 11.2718639373779 4.60385656356812 4.05794239044189 4.16871738433838 4.74161767959595 5.7850456237793 11.9408521652222 17.3621196746826 10.5707836151123 15.4611787796021 7.36404037475586 6.04101800918579 2.81281614303589 2.17981600761414 1.97576832771301 4.347243309021 5.05795526504517 3.93397498130798 4.04135179519653 4.58406972885132 4.35205125808716 4.28260660171509 4.38026762008667 4.31087493896484 4.25952529907227 4.27365922927856 3.57315111160278 3.68093800544739 4.46821403503418 5.01063346862793 5.70845890045166 5.6996488571167 5.73717021942139 5.99486637115479 5.35008144378662 4.90959596633911 5.66171169281006 10.558895111084 4.90799903869629 3.76362562179565 3.06746411323547 15.0378570556641 5.38242816925049 5.66360378265381 6.17486047744751 6.11287069320679 6.99833154678345 7.41900014877319 7.75814485549927 7.69946575164795 7.92666530609131 8.588454246521 9.87919235229492 9.70677661895752 9.34566688537598 10.1765556335449 8.85662364959717 9.289137840271 8.39165210723877 9.2833309173584 9.04491233825684 9.44939613342285 6.02711629867554 2.43309926986694 12.6503477096558
6.54452800750732 3.95562386512756 2.68759298324585 2.35514044761658 0.164972022175789 2.92509794235229 3.77200818061829 3.10068082809448 2.33600878715515 2.44939351081848 3.00308322906494 3.73669266700745 3.66329336166382 3.85690140724182 3.81783270835876 3.80570816993713 4.22377157211304 4.25932502746582 3.98046827316284 4.41676473617554 5.44584465026855 5.63486957550049 4.78460121154785 4.06206274032593 3.36753034591675 3.13270568847656 2.77567386627197 2.56928634643555 2.82767820358276 5.82592821121216 11.8516263961792 11.9625225067139 10.6718406677246 5.98953723907471 6.22175884246826 8.41115951538086 16.4856853485107 17.9499683380127 18.8566741943359 19.1764259338379 36.7195281982422 21.6110420227051 13.1090507507324 11.0126810073853 9.40821647644043 8.47366523742676 9.37276840209961 6.87405633926392 8.15598678588867 6.01850080490112 5.56234979629517 5.01791429519653 4.70537567138672 4.86198568344116 4.71732950210571 4.88120794296265 4.64300203323364 4.57965230941772 4.84203290939331 4.31161451339722 4.65171098709106 4.93949174880981 5.99335813522339 6.09194421768188 6.90997314453125 12.5131635665894 22.2146015167236 7.33909749984741 5.99921083450317 13.0646800994873 14.5794992446899 14.5934200286865 12.7155828475952 7.99227523803711 5.39776134490967 5.10293674468994 10.9584884643555 7.34872913360596 7.63752508163452 7.26783990859985 4.92779731750488 7.80099773406982 6.12984752655029 22.5003929138184 2.77141857147217 3.36737632751465 3.68206787109375 3.25738263130188 3.02960610389709 2.94707751274109 2.41457748413086 2.05773878097534 2.46974635124207 8.38337230682373 2.38705682754517 4.48308515548706 7.86368227005005 0.300249963998795 5.25464868545532 2.16864967346191 3.40399694442749 1.87029361724854 4.33574342727661 1.72776365280151 8.19968318939209 15.2118453979492 2.98786211013794 4.07893657684326 5.80687236785889 10.4920072555542 20.8934555053711 4.63965320587158 5.21309041976929 4.69747352600098 5.11506652832031 7.18295526504517 14.1881313323975 22.9901466369629 8.4412317276001 3.60327434539795 5.01495742797852 5.56873369216919 40.4697761535645 10.1191396713257 20.8895053863525 8.61749839782715 6.17260551452637 5.10516834259033 4.29849672317505 4.89450836181641 4.68482732772827 4.59494829177856 4.69480991363525 4.66832685470581 4.58926343917847 4.57725095748901 3.9118971824646 3.91535544395447 4.64803028106689 5.245774269104 5.9749870300293 5.97257614135742 5.99815225601196 6.0714316368103 6.22920656204224 6.00705862045288 6.06601095199585 4.81797647476196 5.54308938980103 4.61134386062622 4.93165969848633 4.16131114959717 6.11951875686646 6.02927494049072 6.4618239402771 5.99255466461182 7.3607439994812 7.87717962265015 7.8038535118103 8.48161792755127 8.43296909332275 9.04918766021729 10.380298614502 10.1885442733765 9.82053279876709 10.681489944458 9.26039695739746 9.70973968505859 8.84319591522217 9.78433418273926 8.38293933868408 10.6593265533447 7.43954133987427 4.34777164459229 1.97033596038818
8.13208770751953 6.68819046020508 2.89014196395874 2.57385110855103 0.270906001329422 2.35510325431824 4.09597873687744 3.34798669815063 3.65731716156006 2.58688116073608 3.03175616264343 3.9925754070282 3.83714151382446 4.05906295776367 4.04827737808228 3.97790741920471 4.41790914535522 4.5610671043396 4.08138847351074 4.57940435409546 5.7376708984375 6.01701402664185 5.03630685806274 4.33457708358765 3.54019856452942 3.23974418640137 2.67116189002991 2.8135199546814 2.7868013381958 2.87568116188049 10.2822971343994 13.5747451782227 12.1853084564209 12.2632751464844 6.92832040786743 9.38535976409912 14.7091341018677 24.8124408721924 21.3663730621338 28.3973865509033 15.1251001358032 36.6973686218262 15.8815307617188 13.0477352142334 9.98938751220703 3.14194560050964 9.40728855133057 10.5440053939819 8.51647663116455 6.25457334518433 5.70671939849854 5.12225770950317 4.77323198318481 4.92909336090088 4.7540111541748 4.86333894729614 4.94759321212769 4.62481880187988 4.31630659103394 4.91450977325439 4.74895524978638 5.07968997955322 5.86238670349121 6.23083162307739 6.57035732269287 10.7715625762939 38.9924697875977 8.96899604797363 6.25458192825317 14.5714054107666 16.8228740692139 22.5749740600586 11.1182088851929 9.83278560638428 9.78794288635254 7.03706455230713 30.2233963012695 16.0019950866699 9.29405403137207 9.64617347717285 7.85261106491089 3.80134677886963 15.5550270080566 40.4551010131836 3.21468734741211 3.38125419616699 3.70197224617004 3.61687088012695 3.18889474868774 2.96786570549011 2.67580628395081 2.77505421638489 1.92617750167847 1.79328656196594 13.8465852737427 8.8868465423584 3.30481362342834 2.32453989982605 0.234923988580704 3.14271140098572 7.22124576568604 4.58956956863403 6.22321510314941 6.51192903518677 18.0376529693604 3.24356961250305 5.25614643096924 19.2699546813965 6.04449033737183 15.1457529067993 7.72686290740967 11.0278539657593 4.91750574111938 4.90072202682495 8.26309776306152 15.400749206543 18.0443687438965 10.5339136123657 28.4772777557373 3.99874782562256 5.86781978607178 7.03893518447876 2.94608569145203 37.6684341430664 9.04044437408447 12.8364753723145 7.54610204696655 6.28594779968262 4.92424821853638 5.24820137023926 5.03181457519531 4.97075986862183 5.02067279815674 5.08016872406006 5.01405906677246 4.90952444076538 4.6392707824707 4.21318769454956 4.85173606872559 5.00363779067993 6.21224784851074 6.07331657409668 6.25495195388794 6.22294473648071 6.4792366027832 6.25996398925781 5.87524366378784 6.4127140045166 5.60730409622192 5.53905153274536 4.846839427948 5.35065078735352 6.78291273117065 6.47335147857666 6.78886365890503 6.22387075424194 7.47421455383301 8.36654472351074 8.3311014175415 8.97309303283691 8.90047645568848 9.53179168701172 10.9118347167969 10.7217617034912 10.3433895111084 11.2835521697998 9.68802261352539 10.1480646133423 8.97058773040771 9.46483421325684 10.470142364502 12.1750202178955 7.85729360580444 5.24095869064331 2.26550149917603
9.66672229766846 7.26909112930298 3.10335230827332 2.84170699119568 0.393815368413925 -0.543536305427551 4.48792123794556 0.892166793346405 4.04260349273682 2.78202199935913 3.06044173240662 3.97179007530212 4.23004484176636 4.20296192169189 4.45284748077393 4.27635717391968 4.70149993896484 4.15298843383789 4.71836376190186 4.80176639556885 6.05552387237549 6.35706424713135 5.46694421768188 4.67599678039551 4.19320964813232 3.34452772140503 2.78638315200806 2.88782811164856 2.85009384155273 2.94717407226562 9.78615283966064 15.7929563522339 15.3670282363892 14.2269248962402 2.9055073261261 8.0345630645752 10.8467350006104 42.5401306152344 33.24658203125 46.5111045837402 22.8182353973389 23.00217628479 31.8535995483398 15.2342281341553 10.8051376342773 3.14274764060974 10.3945579528809 11.5881700515747 8.84665489196777 8.92982196807861 5.84534454345703 4.63232612609863 5.26645612716675 4.98952770233154 5.06449747085571 4.95155954360962 5.03340291976929 4.69248914718628 4.41037797927856 4.97194051742554 4.53795194625854 5.1462574005127 6.06162643432617 6.44744682312012 6.83701276779175 21.0324668884277 3.87630271911621 11.4758987426758 6.0789680480957 10.1228284835815 19.9047508239746 27.5516796112061 13.816704750061 9.62661266326904 11.984185218811 5.75237703323364 4.01623296737671 8.91042900085449 12.0376825332642 12.9293899536133 6.16801929473877 15.1270093917847 32.0643653869629 2.49938535690308 3.33743906021118 3.45584344863892 19.8440113067627 4.01532077789307 4.30816221237183 3.7132740020752 3.30782079696655 2.83862209320068 2.71303915977478 1.88054227828979 15.8997611999512 1.94510674476624 1.61299061775208 0.750898659229279 0.525028049945831 4.33885669708252 0.854252815246582 0.869100749492645 1.02146816253662 5.71563005447388 1.86601138114929 15.5059633255005 25.3273143768311 28.3614463806152 9.87502479553223 4.71636772155762 12.1032037734985 5.69932889938354 5.21452617645264 9.68912506103516 14.0205965042114 30.810188293457 18.42018699646 11.1318140029907 3.66392183303833 16.8238697052002 3.13830709457397 3.55485773086548 3.75403714179993 3.5137722492218 41.7343559265137 24.7995300292969 8.64793300628662 8.78603363037109 7.67638874053955 4.81203699111938 5.61205101013184 5.44959306716919 5.32824611663818 5.45790815353394 5.46316480636597 5.32146120071411 5.15482378005981 4.56974029541016 4.84488201141357 5.20262670516968 5.81705760955811 6.49963521957397 6.48389482498169 6.48906517028809 6.77280139923096 6.53463411331177 6.28360366821289 6.7594141960144 6.32374095916748 5.90510177612305 5.99363994598389 6.22242259979248 7.44347763061523 7.08077144622803 6.71802473068237 7.48411750793457 7.89368724822998 8.88472080230713 8.86211204528809 9.47301578521729 9.40491676330566 10.0528001785278 11.5083408355713 11.3079242706299 10.9291391372681 12.0213184356689 10.4042596817017 9.54083824157715 10.9123058319092 10.3230142593384 11.1631965637207 10.9774074554443 10.2055358886719 9.36981868743896 5.43560791015625
11.0724925994873 9.19538593292236 5.29020261764526 -0.308063507080078 3.35619449615479 -0.477814674377441 5.02703762054443 3.28399419784546 4.45170116424561 2.99411082267761 2.79440522193909 3.94406199455261 4.48701953887939 4.59548091888428 4.68876075744629 4.37278461456299 5.00337314605713 4.32086420059204 5.02870655059814 4.47782373428345 6.01403713226318 6.44916915893555 6.74032258987427 5.62529182434082 4.62147235870361 3.49398398399353 2.95912885665894 2.95984101295471 2.91105341911316 3.0152153968811 9.65695667266846 18.6413383483887 17.7670421600342 16.9055881500244 8.32435321807861 9.26687049865723 12.5236396789551 4.59719228744507 34.6730880737305 10.4142847061157 23.1570606231689 23.0369281768799 50.0556602478027 28.7795658111572 12.2904014587402 8.81651973724365 11.7924489974976 13.129919052124 8.19133949279785 9.54688930511475 6.91268110275269 4.72661066055298 5.40631675720215 5.10709238052368 5.19752979278564 5.08159780502319 5.1650390625 4.83733177185059 4.50659275054932 5.08206605911255 4.57659530639648 5.30516719818115 6.29655599594116 6.72066497802734 7.31115102767944 6.09288835525513 4.48990631103516 10.4254140853882 17.5427379608154 15.6006851196289 24.0586795806885 31.4662494659424 31.550651550293 14.7325944900513 14.6681003570557 11.5364942550659 8.10958766937256 11.4877738952637 14.698881149292 20.4450359344482 22.3229312896729 30.9942569732666 3.32306599617004 3.07935667037964 3.46069121360779 4.82658290863037 3.83022332191467 4.06149911880493 6.00013542175293 3.9379677772522 3.39384627342224 3.30605912208557 3.21285223960876 2.342045545578 2.10731410980225 12.8882989883423 2.17439007759094 2.58947134017944 0.727206170558929 0.736593663692474 1.13262248039246 1.0216076374054 3.64631366729736 1.74733138084412 10.3828506469727 2.08512878417969 33.0430641174316 4.20359182357788 18.8630409240723 9.36414337158203 11.3329610824585 20.4384365081787 20.4736309051514 28.5954685211182 17.953784942627 5.12596416473389 24.9945793151855 15.4328746795654 7.9567699432373 3.72987461090088 10.6349277496338 4.44527673721313 5.27360153198242 3.56240344047546 2.26036143302917 15.1359548568726 10.2438306808472 9.90370559692383 8.54366874694824 6.5948634147644 5.73824691772461 5.65618467330933 5.60692071914673 5.78171253204346 5.81126832962036 5.64130449295044 5.59779834747314 4.93822717666626 4.69130849838257 5.43659830093384 6.0463080406189 6.7221212387085 6.70300912857056 6.75515842437744 7.1459321975708 7.03038215637207 6.87520742416382 7.13216018676758 6.69668531417847 6.26617860794067 6.40066909790039 6.6285514831543 8.06644153594971 7.75074195861816 7.45282316207886 8.03335189819336 8.40446949005127 9.35818099975586 9.35643100738525 9.99503040313721 9.96070957183838 10.6577749252319 12.1787557601929 11.9660148620605 11.5639944076538 11.2805881500244 12.8861036300659 10.7119913101196 14.025785446167 13.4073657989502 13.9328632354736 13.9080533981323 9.84272289276123 12.1948356628418 8.81234169006348
13.7385606765747 10.9347658157349 5.93236637115479 3.47735166549683 3.92763137817383 0.975739240646362 5.00856637954712 6.32971382141113 4.8823184967041 3.18934059143066 3.00946235656738 3.60129737854004 4.77010297775269 4.89829063415527 4.91008710861206 4.72559356689453 4.64601802825928 5.27804946899414 5.40962982177734 4.73809003829956 5.4507474899292 6.85197782516479 7.15031909942627 5.97781991958618 4.8988037109375 3.80246520042419 3.09172606468201 3.03122425079346 2.78361797332764 3.08635282516479 8.39532375335693 22.5184764862061 20.9176578521729 20.6779251098633 9.70698356628418 11.0657663345337 14.7277812957764 6.56021308898926 4.66766786575317 3.26347947120667 0.860089123249054 1.31205689907074 6.41328191757202 46.1966133117676 27.580738067627 13.1391944885254 13.9002647399902 15.5329999923706 3.38999485969543 10.1125898361206 7.24840641021729 4.81114196777344 5.54149436950684 5.08503341674805 5.34563255310059 5.26212739944458 5.36485910415649 4.99441957473755 5.12081384658813 5.29259204864502 4.78000450134277 5.34808826446533 5.83918857574463 7.05917263031006 7.92748737335205 8.30279731750488 6.44990253448486 20.1976642608643 32.6314353942871 19.477970123291 24.7781429290771 27.4106254577637 50.3167343139648 18.1200790405273 17.9844512939453 15.2093324661255 17.681095123291 18.872465133667 31.9425315856934 38.5345191955566 40.8810424804688 3.12969303131104 6.55474996566772 3.20817065238953 19.7921562194824 5.51435089111328 6.00380086898804 5.1220850944519 7.10772180557251 4.20244646072388 3.8614194393158 3.54905462265015 3.7949013710022 2.74616241455078 2.40208268165588 2.21959948539734 3.85388588905334 11.2336378097534 1.06718111038208 0.691200911998749 1.02003800868988 1.125852227211 1.43304264545441 1.48656439781189 2.05455589294434 6.83930349349976 2.25133275985718 8.55683135986328 6.10279178619385 8.58925914764404 4.93689966201782 35.0216407775879 10.5518264770508 5.18190908432007 17.2885608673096 33.9815902709961 12.9330015182495 4.45455598831177 14.062479019165 3.33421206474304 32.0292015075684 4.17905950546265 10.7812471389771 3.59391474723816 7.04947280883789 44.5212593078613 19.1519241333008 11.7470903396606 10.2717771530151 7.83221483230591 6.41756677627563 5.82812738418579 5.81411123275757 6.0249547958374 6.08572244644165 5.89012861251831 5.84757137298584 5.1336145401001 5.27308225631714 5.65114498138428 6.28720569610596 6.96526193618774 6.96009492874146 6.99353504180908 7.3743462562561 7.44555950164795 7.27181100845337 7.539222240448 7.08209657669067 6.86667394638062 6.78661775588989 7.02242946624756 7.1005597114563 8.62367916107178 8.30723762512207 8.70395469665527 8.58885955810547 9.47739601135254 10.3769102096558 10.5553026199341 10.4868545532227 10.7425451278687 11.4586791992188 13.0714778900146 12.8584680557251 12.4505081176758 13.8549699783325 13.7995939254761 19.4561061859131 20.5661029815674 18.836389541626 18.9536037445068 10.2157316207886 13.7426843643188 12.0105409622192
18.0483837127686 12.9101533889771 10.9900922775269 4.49590921401978 4.35774564743042 1.08389246463776 4.31177520751953 7.31653261184692 5.07022190093994 5.87870836257935 3.62046551704407 3.64273285865784 5.11753273010254 5.0594334602356 5.22810745239258 4.97653818130493 5.0578818321228 5.65143394470215 5.836021900177 4.96214771270752 5.81877851486206 7.28908777236938 7.6128306388855 6.37480878829956 5.23917484283447 4.09797859191895 3.66157746315002 3.1313533782959 2.85741186141968 3.16012096405029 3.06679344177246 28.1746921539307 25.8995304107666 26.2369499206543 11.5392456054688 13.3487396240234 17.7464275360107 13.4371032714844 8.55959510803223 10.4407653808594 0.926254153251648 3.3781852722168 8.3237476348877 13.1484050750732 44.5116119384766 14.7580261230469 17.2410011291504 19.4572944641113 8.63413238525391 10.8583221435547 7.63646841049194 6.40856838226318 5.63790273666382 5.17259788513184 5.50460147857666 5.19209861755371 5.59357881546021 5.16805124282837 5.44120597839355 4.86351823806763 5.6772723197937 5.67495489120483 6.1972131729126 7.11811399459839 8.58362579345703 8.53837394714355 9.20048809051514 6.45774745941162 6.06630182266235 24.3499393463135 22.9736175537109 51.0250434875488 40.9593124389648 36.4896850585938 22.6167297363281 17.7732315063477 24.6111698150635 36.5754127502441 52.9748802185059 7.51341104507446 2.77998876571655 3.40321111679077 5.06978940963745 11.6726417541504 3.28436589241028 6.13061475753784 7.49941349029541 6.66869115829468 8.00212478637695 4.46136379241943 4.15514659881592 3.76376724243164 3.63478970527649 3.36487889289856 2.77391242980957 2.38460421562195 5.83909320831299 1.38147282600403 3.43926501274109 1.29760110378265 5.36988353729248 1.24703705310822 1.50540924072266 1.87079381942749 2.25349473953247 2.38626456260681 2.89547038078308 3.10272407531738 12.7895984649658 20.148998260498 14.1964426040649 4.21213006973267 4.88186740875244 5.34238195419312 5.23652267456055 5.12274932861328 5.1516637802124 4.51033115386963 3.72054696083069 3.4757707118988 3.81641435623169 4.39980411529541 4.31342458724976 3.78049445152283 3.07111191749573 2.33281946182251 34.7343673706055 22.8954105377197 12.9059705734253 9.64058208465576 7.66473245620728 6.01235103607178 6.11088895797729 6.27728939056396 6.31781578063965 6.08861637115479 6.04396533966064 5.51975774765015 5.49047946929932 5.84252023696899 6.52329397201538 7.2219934463501 7.22947025299072 7.24011850357056 7.38462591171265 7.76136207580566 7.62786388397217 7.93497705459595 7.02134466171265 7.49714279174805 6.85953092575073 7.42172145843506 7.63562822341919 9.27155780792236 9.03326034545898 9.53789520263672 8.87830829620361 10.1791400909424 10.9698362350464 10.7440986633301 11.3958654403687 11.458948135376 12.2112512588501 13.9204349517822 13.7221374511719 13.3135995864868 14.8908357620239 20.3081283569336 32.6430702209473 39.1558380126953 31.2272052764893 35.6435966491699 29.2771835327148 15.5642786026001 15.195764541626
39.3536796569824 28.3137187957764 12.9351749420166 4.87798070907593 5.03399658203125 1.32724678516388 -0.385436415672302 8.83370113372803 1.46016573905945 6.87210655212402 3.9611644744873 3.79120469093323 5.2835521697998 5.25055742263794 5.41706705093384 5.42940282821655 5.40473175048828 6.06368923187256 6.30854749679565 5.33825969696045 6.22690868377686 7.79379749298096 8.14716625213623 6.82321500778198 6.15153789520264 4.29554080963135 3.79896426200867 3.07531595230103 3.15907192230225 3.07219839096069 3.17590236663818 24.1108283996582 39.4955596923828 36.5603675842285 36.8274536132812 16.8567867279053 22.3389053344727 23.051441192627 14.173677444458 23.6176738739014 7.02699518203735 6.47374391555786 19.1310863494873 10.0159730911255 12.6110515594482 25.5702571868896 3.18797087669373 25.4360942840576 28.5750045776367 11.882740020752 12.2414789199829 6.58866882324219 5.78118419647217 4.44918870925903 5.6702184677124 5.31806993484497 5.77476692199707 5.93908786773682 5.76799774169922 5.19704675674438 5.99751901626587 6.03185224533081 6.56032991409302 7.47601079940796 8.56705093383789 9.519118309021 10.0592393875122 8.62795066833496 29.8560886383057 22.7370853424072 36.589542388916 26.4381675720215 1.67045295238495 52.699405670166 30.7869739532471 33.6753730773926 43.1813850402832 20.5730934143066 2.45351910591125 2.76636099815369 4.02239990234375 3.50327181816101 3.83435702323914 13.2910823822021 3.92228055000305 7.49267816543579 11.2745628356934 7.03184843063354 9.47990608215332 4.97998094558716 6.24552917480469 6.22344446182251 3.75878763198853 3.40664553642273 4.1838116645813 2.42121243476868 5.61590957641602 1.67748892307281 23.5233936309814 1.77839922904968 1.3498911857605 1.78267621994019 2.6628954410553 2.84789276123047 3.09502792358398 2.94970846176147 3.15577435493469 3.74290370941162 3.84673380851746 10.1989812850952 16.274169921875 4.89067554473877 5.22192001342773 5.62574195861816 5.61960601806641 5.41402244567871 5.74363231658936 4.98319244384766 3.9868061542511 3.54700875282288 4.26245737075806 4.53779220581055 4.99648380279541 4.81540727615356 3.30344152450562 2.79731178283691 24.553316116333 41.0558662414551 17.3792591094971 12.2874641418457 9.39233303070068 6.92099046707153 6.35209083557129 6.47972726821899 6.66702556610107 6.61198711395264 6.3268346786499 6.14172554016113 5.70510911941528 5.71359300613403 6.05658864974976 7.46455144882202 7.36848497390747 7.53936529159546 7.61890983581543 8.04565906524658 7.93229675292969 7.69111680984497 8.34564685821533 7.88288974761963 7.36769199371338 7.57551383972168 8.19413280487061 9.93240451812744 9.71002101898193 10.3149194717407 9.81405925750732 11.047191619873 11.6770839691162 11.3662900924683 12.003812789917 12.2368535995483 13.0697164535522 14.9253406524658 14.7206888198853 14.2834510803223 21.0455379486084 32.4359588623047 12.4072198867798 18.9743175506592 25.7334251403809 22.259069442749 49.0280876159668 19.4073944091797 18.7971897125244
56.7032890319824 46.1194839477539 15.3335771560669 8.97856521606445 0.111428141593933 6.30834531784058 0.222585767507553 11.1466779708862 5.54532766342163 8.13919830322266 4.29874229431152 3.9788498878479 5.18740129470825 5.76403760910034 5.75803756713867 5.80541563034058 5.78914451599121 6.51590204238892 5.51233100891113 6.86316299438477 6.69422483444214 8.38950252532959 8.7379322052002 7.6759295463562 6.71070957183838 5.38067483901978 4.04413986206055 3.40020298957825 3.25082492828369 3.14057922363281 3.24860453605652 22.3277626037598 57.7180595397949 54.7799339294434 55.5864486694336 3.67775130271912 24.6983242034912 32.4200248718262 10.059681892395 20.0797672271729 13.6848764419556 12.2018918991089 3.46474981307983 10.724928855896 17.485595703125 42.0943069458008 2.92207169532776 42.3654251098633 46.4438438415527 11.1155557632446 13.8080472946167 9.12815952301025 5.16276884078979 6.09439420700073 5.70967531204224 5.97223663330078 6.05434560775757 6.2385311126709 6.13757419586182 5.45914888381958 6.34302949905396 6.06522512435913 6.7947940826416 7.85015106201172 8.5840892791748 10.355429649353 10.9767427444458 9.53610801696777 6.50257396697998 19.9928092956543 50.3902549743652 18.3712139129639 1.77357077598572 2.79962468147278 47.0888442993164 51.698314666748 8.67066287994385 3.41729784011841 4.52444267272949 4.86409854888916 5.12880420684814 3.96765780448914 13.0201253890991 3.60869669914246 4.07910108566284 9.72476673126221 7.49039220809937 14.5748672485352 16.7567501068115 14.502911567688 5.16340494155884 3.77580738067627 3.82867193222046 3.46778130531311 3.00304889678955 2.75238347053528 2.2289571762085 20.5951251983643 1.86820137500763 11.7631330490112 2.74022030830383 2.48969912528992 3.48494625091553 3.56315851211548 3.64449691772461 3.75718832015991 4.07507753372192 4.03230047225952 6.27881765365601 4.23399305343628 4.78302431106567 5.05614948272705 5.80414772033691 6.61164903640747 9.10937786102295 9.24927139282227 6.39410877227783 5.5914568901062 4.15646839141846 4.40551376342773 4.95820045471191 5.20469045639038 5.12148141860962 4.45048332214355 4.16005229949951 12.1559915542603 2.53724479675293 3.02258253097534 32.2413597106934 29.5791797637939 12.0956611633301 8.36770057678223 6.72604703903198 6.6833963394165 6.92013883590698 6.8731427192688 6.55604267120361 6.43659591674805 6.27417898178101 5.79923534393311 6.26065683364868 7.03921890258789 7.76781845092773 7.80297660827637 7.89511442184448 8.3381986618042 8.23040771484375 8.06639099121094 8.70789337158203 8.27049255371094 7.73832702636719 7.95765924453735 8.7559642791748 10.5957946777344 10.3527364730835 10.1960763931274 11.117527961731 12.1595830917358 12.6826858520508 12.203049659729 12.7302103042603 12.9934482574463 14.0358209609985 16.0367908477783 23.7127876281738 15.571816444397 15.5483331680298 12.0955791473389 10.9223718643188 11.0653352737427 9.94432067871094 11.2719202041626 11.051830291748 35.5431022644043 34.688606262207
-2.35890579223633 11.2330169677734 31.1753520965576 10.5858373641968 6.14030981063843 7.50859117507935 2.22589612007141 14.5506639480591 6.38926219940186 9.92610549926758 4.71870231628418 3.44262003898621 5.11142587661743 6.08253526687622 6.25403785705566 6.2071213722229 6.22452116012573 7.03607034683228 5.89815759658813 7.50773525238037 6.22657775878906 8.29268646240234 9.08042335510254 9.45287895202637 7.87739658355713 6.49403619766235 4.44614791870117 3.55449438095093 3.3474452495575 3.24043750762939 3.33811187744141 21.0829067230225 1.05982530117035 22.0327243804932 3.39550280570984 24.4406852722168 41.5646095275879 51.0956954956055 51.6089286804199 2.00662636756897 24.1660118103027 13.4749441146851 5.19320869445801 0.602441489696503 1.1841287612915 10.4671678543091 23.4649124145508 3.45112800598145 4.07419776916504 4.21850299835205 16.0921993255615 10.4275722503662 5.37752151489258 6.35578393936157 5.93344354629517 6.26820278167725 6.41955423355103 6.60577630996704 6.58609247207642 5.74189329147339 6.68757629394531 6.52941274642944 6.9902400970459 8.23070526123047 8.99381351470947 11.3518419265747 12.0741720199585 10.3586101531982 10.4475631713867 15.9604539871216 3.31354188919067 22.2941493988037 1.57928717136383 5.5892767906189 3.32113647460938 3.28203725814819 3.90476489067078 8.44367790222168 5.28790092468262 5.11654615402222 4.73174619674683 12.5649738311768 14.0075950622559 5.17340850830078 4.31748819351196 5.73130702972412 15.4269409179688 23.901065826416 4.5229115486145 19.629186630249 10.6172399520874 4.11853075027466 3.8605489730835 4.13093900680542 3.25714254379272 3.06313848495483 2.6093475818634 2.14233827590942 1.78702056407928 14.4924716949463 2.99790120124817 3.21147441864014 16.7824935913086 3.89144659042358 4.23031616210938 4.40217256546021 4.58976745605469 4.56190013885498 4.15125370025635 4.30068111419678 5.24036550521851 6.37620401382446 6.0511212348938 6.4380841255188 6.85600519180298 6.79198026657104 6.69717073440552 6.16492176055908 6.1009669303894 5.59800338745117 5.87450838088989 5.98677968978882 6.03303861618042 5.99535179138184 4.64589691162109 2.96640229225159 2.72621202468872 3.36627316474915 35.8544654846191 49.9124603271484 28.6366100311279 10.4414081573486 6.99535703659058 6.922776222229 7.16859912872314 7.11303663253784 6.78583765029907 6.62971448898315 6.69980096817017 6.13197755813599 6.4412055015564 7.2918872833252 8.03597545623779 8.07202816009521 8.19304752349854 8.64826202392578 8.7175464630127 8.62586402893066 9.09300231933594 8.62941646575928 8.49039173126221 8.34783935546875 9.30742073059082 11.249002456665 11.0044202804565 11.0279865264893 11.9662733078003 13.4275741577148 13.8874835968018 13.7184839248657 13.6630506515503 13.9080142974854 15.0021829605103 17.2094783782959 14.9047346115112 15.1138677597046 14.6026592254639 15.605731010437 12.8178482055664 13.7677659988403 12.0390996932983 15.4521360397339 13.7186737060547 16.1124134063721 17.3255195617676
1.49516344070435 5.5592098236084 48.942512512207 12.483078956604 7.67802000045776 8.90241050720215 2.68146586418152 14.3513765335083 22.4742832183838 12.6363554000854 5.43678379058838 5.54636859893799 4.62551736831665 6.42501592636108 6.77070665359497 6.70385026931763 6.73329639434814 6.32246160507202 7.65816688537598 8.30476951599121 6.79057931900024 7.88187837600708 9.8615894317627 10.285605430603 8.58759880065918 7.09500455856323 4.73751020431519 4.23250532150269 3.48000121116638 3.10238456726074 3.39881324768066 18.4846878051758 1.61589205265045 0.121242940425873 6.66958522796631 39.7712707519531 1.48223805427551 1.05575609207153 1.06419503688812 23.8383617401123 9.00597190856934 1.6375116109848 7.69978857040405 2.95997071266174 1.0703296661377 10.0642709732056 40.195369720459 3.51826667785645 10.6307306289673 12.3532018661499 19.3529167175293 12.2036542892456 5.70741271972656 6.71311712265015 5.93968820571899 6.63702917098999 6.87529802322388 7.01118803024292 6.11695384979248 7.44877243041992 7.0255446434021 6.60797119140625 7.67601299285889 8.17153930664062 9.87027263641357 12.4780836105347 12.2446184158325 13.6933469772339 11.5383720397949 26.8822994232178 3.46591401100159 0.956624209880829 1.6451643705368 3.36175942420959 4.145188331604 5.2569522857666 5.21101951599121 5.25711536407471 5.5355281829834 4.92085647583008 5.57545375823975 26.3110485076904 3.9489483833313 5.66097354888916 5.81007528305054 6.16890478134155 23.4500560760498 4.50336170196533 4.55312633514404 4.12349367141724 8.29106521606445 4.42370939254761 3.99853992462158 4.3462028503418 3.59864807128906 3.15298175811768 2.89921808242798 2.40240144729614 1.97604513168335 2.85941243171692 3.38005614280701 3.30073952674866 3.25858092308044 4.06999015808105 4.02472066879272 4.46965932846069 4.92096138000488 5.08558750152588 4.8749098777771 5.34016180038452 6.09221887588501 6.42266941070557 6.9360146522522 9.28482627868652 12.2878437042236 7.14447355270386 6.78346633911133 7.19759130477905 7.04342031478882 14.4311571121216 7.02136039733887 12.4666061401367 13.7322473526001 9.64725303649902 4.98045682907104 4.05018949508667 3.04611206054688 7.80273580551147 3.271968126297 3.56080794334412 48.8251953125 28.1053276062012 7.28326845169067 7.49976587295532 7.43486452102661 7.36381006240845 7.0265531539917 7.00548362731934 7.17690181732178 6.5455117225647 6.63631153106689 7.55827903747559 8.31383800506592 8.3666820526123 8.37626361846924 8.85158348083496 9.08589553833008 8.96945285797119 9.48506259918213 8.51795101165771 9.10359287261963 8.46628761291504 9.01520252227783 9.97113990783691 12.0271673202515 11.7753257751465 14.6343622207642 16.8084659576416 14.9983425140381 15.4493284225464 16.2635498046875 15.1160621643066 15.4913778305054 21.0230865478516 23.6386947631836 17.0615520477295 16.7015857696533 18.4291820526123 16.7690277099609 15.1256093978882 13.0445461273193 17.1004295349121 14.1808519363403 22.3557224273682 22.585542678833
-0.439801216125488 10.516001701355 9.476975440979 34.905200958252 8.87333393096924 11.2065591812134 3.2970597743988 12.3944063186646 39.9179420471191 13.4980163574219 19.4071521759033 6.23572826385498 4.7688102722168 6.83449554443359 6.78319835662842 7.4933500289917 7.18852472305298 7.35930585861206 8.39784908294678 9.25049018859863 7.45198535919189 8.62305450439453 10.8165321350098 11.3674945831299 9.53691577911377 9.30090236663818 5.24544191360474 4.48604774475098 3.61491107940674 3.20153021812439 3.54098558425903 3.34024381637573 0.987197935581207 1.643226146698 0.35905197262764 7.614089012146 3.33473515510559 13.9043617248535 1.6753203868866 0.367579311132431 0.797843933105469 1.09058165550232 20.6423320770264 14.5982637405396 1.37546992301941 17.8625450134277 31.0213584899902 3.37172627449036 12.2719783782959 14.2915382385254 24.5670013427734 14.5223331451416 8.36350536346436 7.15854072570801 6.22049283981323 7.03752946853638 6.50454425811768 7.62514734268188 6.38933181762695 8.05593013763428 6.3854398727417 7.57166910171509 9.00754451751709 8.93988513946533 10.8014106750488 12.2733459472656 14.1774129867554 15.4949169158936 12.9335985183716 9.20968341827393 5.73775863647461 2.96690654754639 2.33945322036743 14.1531400680542 5.82962322235107 6.04086399078369 6.37799072265625 9.94021129608154 7.78197526931763 5.46762657165527 8.23321342468262 4.16347885131836 7.12966346740723 6.29990005493164 6.25295639038086 5.17537355422974 4.41081094741821 10.470067024231 4.57674407958984 4.44834041595459 4.49310398101807 4.61152267456055 4.1443395614624 4.01668977737427 4.47123670578003 3.80555844306946 3.20376110076904 3.01884007453918 18.8058547973633 2.92423224449158 3.78675031661987 4.3229193687439 4.40029525756836 4.3399977684021 4.45915699005127 4.53880214691162 5.28326749801636 5.49343347549438 5.65722036361694 5.85623788833618 6.53455924987793 14.3982601165771 15.7776746749878 26.6466636657715 7.5858006477356 7.35017728805542 7.52930450439453 8.27391052246094 7.85131502151489 7.87338638305664 7.94791221618652 6.52656507492065 6.54318952560425 6.58464574813843 5.09369087219238 4.87734317779541 3.67396807670593 19.2233180999756 4.1068263053894 9.81811428070068 4.47450113296509 47.8625869750977 8.43486022949219 8.83728408813477 7.72083520889282 7.92096185684204 7.44192695617676 7.51524305343628 7.72091770172119 7.01876258850098 6.84603500366211 7.84237957000732 8.61722087860107 8.67747020721436 8.72297763824463 8.92150497436523 9.44450950622559 9.34351634979248 9.2119197845459 9.99814319610596 9.54173564910889 8.8902702331543 9.2338399887085 10.639931678772 12.791844367981 12.5822420120239 18.8041667938232 21.4604568481445 16.4754505157471 19.7106094360352 20.79368019104 16.4029865264893 16.789083480835 17.8286209106445 32.9650993347168 21.4283294677734 17.7886695861816 21.2119789123535 13.3069829940796 17.9486961364746 14.7120342254639 18.3310680389404 19.2005634307861 22.9473781585693 23.7096557617188
7.25295114517212 3.32957601547241 9.40058040618896 53.0814552307129 10.5088920593262 14.5760583877563 4.02490758895874 0.0333645306527615 -0.37962794303894 4.34630441665649 35.3107757568359 7.29061603546143 5.01302242279053 7.29652261734009 7.11790561676025 8.22241592407227 7.98913240432739 8.09195804595947 9.2883358001709 7.37998390197754 10.4355735778809 9.58553600311279 12.0837516784668 12.7409467697144 11.7289133071899 10.8682374954224 5.59432983398438 4.74045133590698 3.73512864112854 3.64718341827393 3.44030356407166 3.54850125312805 0.977009654045105 0.518711388111115 3.92059421539307 1.60052132606506 4.08481311798096 8.12236404418945 20.2538909912109 18.9674682617188 2.42281746864319 1.30178868770599 0.524991095066071 0.575358211994171 5.40596055984497 1.14194893836975 1.21938145160675 3.44396424293518 14.2124109268188 16.7604503631592 26.7020263671875 35.1035308837891 9.24245071411133 7.65557098388672 5.62445163726807 7.43461751937866 7.08484792709351 8.27274990081787 8.38005828857422 8.80358791351318 6.78900098800659 7.91536045074463 10.5846910476685 9.6980504989624 11.0447301864624 12.2114601135254 16.0073776245117 17.8178024291992 14.654899597168 13.6765298843384 8.85702705383301 6.03490447998047 3.64873957633972 7.45757913589478 7.10749530792236 6.55030822753906 6.6555061340332 7.42269611358643 15.4817295074463 6.15717887878418 11.6565132141113 6.78383159637451 9.00039291381836 8.18948554992676 6.72106742858887 5.43217849731445 4.758948802948 4.50642251968384 5.06246376037598 5.10785627365112 4.8891716003418 4.66130685806274 4.30604791641235 4.20121479034424 4.5844521522522 4.15502738952637 3.55597066879272 3.34501314163208 2.87049055099487 3.27345991134644 9.03359317779541 4.49443292617798 4.589035987854 5.05604553222656 4.61396503448486 5.49424886703491 6.00663709640503 5.69823026657104 5.54092073440552 7.21517944335938 9.02186584472656 13.5894908905029 9.33779811859131 7.46027660369873 7.77170753479004 7.95403337478638 7.793288230896 9.48247241973877 8.15874004364014 7.39789390563965 8.43820858001709 8.10132217407227 10.7595949172974 6.90453720092773 5.73427200317383 5.1751708984375 3.79876565933228 3.61677932739258 4.01962995529175 4.05078649520874 23.7771778106689 5.7795238494873 28.8841781616211 10.7531538009644 8.78540515899658 8.90265560150146 8.6511344909668 8.11630630493164 8.34929180145264 7.55099725723267 6.90868854522705 7.25600242614746 8.94017124176025 8.94501781463623 9.06490039825439 9.2760124206543 9.84567165374756 9.78023529052734 9.629225730896 10.4404621124268 9.99090194702148 9.57577991485596 9.6629638671875 11.3028469085693 13.6272897720337 13.5205049514771 16.0206146240234 35.3324928283691 31.5108623504639 22.834846496582 29.3094863891602 30.7693576812744 18.8573589324951 19.5867080688477 17.4491195678711 21.7333393096924 17.223108291626 19.6056175231934 20.9589309692383 19.4733982086182 20.496561050415 22.6087322235107 42.8880462646484 34.6873741149902 36.2336578369141
31.6242141723633 -2.46481871604919 -0.430461853742599 -2.15230989456177 29.3434295654297 2.70340943336487 22.8222103118896 2.63434505462646 -0.36565887928009 20.3284587860107 2.72929358482361 9.06896018981934 5.33915424346924 7.0476336479187 8.08736038208008 8.91688823699951 9.07866096496582 9.01015472412109 10.370943069458 8.16949462890625 12.0861473083496 9.367995262146 12.0650453567505 14.0016479492188 14.6789512634277 12.9404153823853 9.86937808990479 5.18404102325439 4.36813879013062 3.83375692367554 3.58577704429626 3.68734526634216 1.35594189167023 0.819266557693481 0.722606778144836 3.42021727561951 3.33282017707825 3.57922005653381 35.6821517944336 1.3091629743576 3.40657782554626 2.12740778923035 0.917525231838226 0.94400829076767 7.7949800491333 5.46988964080811 9.38322353363037 3.15415859222412 16.6813087463379 19.5972194671631 25.3622627258301 54.7993392944336 28.0992622375488 7.1047306060791 8.34450912475586 7.44045114517212 8.27855587005615 9.02494239807129 9.08697986602783 9.65673446655273 7.09257888793945 8.2814826965332 12.7830076217651 8.94702911376953 10.8756713867188 13.6370220184326 18.2574043273926 20.7891674041748 17.1103229522705 15.2854785919189 17.9674911499023 14.6939496994019 4.39584398269653 27.2381076812744 8.49382591247559 7.84132766723633 8.48366641998291 8.14163875579834 5.5764799118042 7.47019338607788 8.12646865844727 16.0577697753906 15.9720163345337 9.43224716186523 7.48416805267334 6.338547706604 4.86587619781494 4.8539981842041 5.51295900344849 5.31494140625 5.08092784881592 4.82147026062012 4.40937471389771 4.35470819473267 4.67149305343628 4.24572992324829 4.03212261199951 4.0259575843811 3.80518102645874 3.79763031005859 3.99518203735352 18.3994541168213 7.38109827041626 13.8571062088013 5.67695093154907 5.83307027816772 6.54571628570557 6.60991716384888 7.17793655395508 7.45983505249023 8.41169261932373 7.85205793380737 14.0294675827026 15.3820676803589 26.2224884033203 10.2421274185181 18.5646572113037 16.9240531921387 8.55324077606201 8.14256763458252 9.002366065979 8.5149040222168 8.28242301940918 8.15792846679688 8.43821716308594 7.01544380187988 4.63326597213745 4.2379093170166 9.53036975860596 4.36028575897217 4.08475637435913 8.02940940856934 48.0599708557129 16.6175727844238 10.9361171722412 9.36253929138184 10.405065536499 8.93890762329102 9.00222778320312 9.23164176940918 7.08404874801636 7.58860063552856 8.528733253479 9.32279300689697 9.44791889190674 9.65313053131104 10.1895418167114 10.3517827987671 10.2162971496582 10.9242343902588 10.4761772155762 10.3839063644409 10.115626335144 11.9822902679443 14.4755697250366 14.3428068161011 14.7646780014038 19.3110427856445 50.2635307312012 39.4848327636719 48.030460357666 49.8750686645508 21.6562156677246 22.3230133056641 17.4892616271973 16.7092113494873 19.1250286102295 20.7573051452637 30.2875156402588 31.4518566131592 34.006893157959 22.9622478485107 21.7464046478271 19.4496364593506 21.1169242858887
-2.6501898765564 3.7845311164856 17.391508102417 1.43120336532593 46.6285743713379 21.8473720550537 40.7839508056641 10.0606021881104 -0.361760318279266 37.3827247619629 -0.176558867096901 15.5145301818848 4.56793642044067 6.90663146972656 8.71454048156738 9.73228359222412 9.67150115966797 10.3789415359497 8.73211669921875 11.7826137542725 14.3957233428955 10.9633331298828 12.8467702865601 16.2181835174561 16.8955020904541 15.5907678604126 11.3421487808228 6.26888036727905 4.65207958221436 4.02342462539673 3.75511884689331 3.87061667442322 3.91439437866211 5.24647569656372 3.01297116279602 2.8977837562561 3.84603023529053 3.52405118942261 1.89214634895325 3.63909912109375 4.05896043777466 3.22798752784729 1.76044046878815 1.58663940429688 1.41498613357544 1.97310662269592 1.93374133110046 3.78082704544067 20.2298126220703 21.8417987823486 12.121901512146 10.530553817749 45.8016014099121 7.57466077804565 8.94572830200195 7.91899681091309 8.94423770904541 9.91362476348877 9.8511791229248 7.5981616973877 11.0422334671021 8.59767150878906 8.24061679840088 18.2152423858643 12.0692710876465 15.4169149398804 20.9247875213623 24.7980136871338 20.5029258728027 17.5348358154297 22.7437782287598 21.0225830078125 16.1943340301514 3.60520672798157 10.6739740371704 10.0821590423584 10.92347240448 9.21297645568848 6.59641456604004 9.04343223571777 11.0938882827759 5.11832475662231 28.6134662628174 11.1443653106689 8.0454740524292 8.6546049118042 6.57772207260132 4.85912752151489 5.21699666976929 5.62644672393799 5.29035425186157 5.24411535263062 4.86415004730225 4.4513111114502 4.80186367034912 4.34720468521118 4.19593524932861 4.18708086013794 4.08899974822998 3.75332903862 4.34093999862671 4.28774356842041 4.83345651626587 16.6320037841797 5.96129179000854 7.86859369277954 7.27213096618652 7.41664266586304 7.46243000030518 7.786461353302 8.54314136505127 7.93690156936646 7.36360692977905 7.97533082962036 7.72707176208496 8.199294090271 7.83434772491455 7.89169692993164 9.02118301391602 8.81930828094482 9.31930255889893 9.9768648147583 9.28060626983643 8.92067241668701 8.47328567504883 7.17920160293579 5.6147346496582 4.57275915145874 4.71401357650757 8.96604061126709 5.407066822052 5.28784513473511 6.49549007415771 30.5646648406982 14.4056406021118 11.5801019668579 12.1215600967407 10.0283527374268 9.85205364227295 10.109224319458 9.00318050384521 7.69299936294556 8.86622524261475 9.67602062225342 9.77609062194824 9.93374538421631 10.3889112472534 10.8106298446655 10.6773777008057 11.4521961212158 10.9809913635254 11.2678470611572 10.7096290588379 12.6691112518311 15.3292636871338 15.037769317627 15.8744468688965 12.0991249084473 11.4099493026733 17.0918636322021 15.3784103393555 14.2057428359985 36.356201171875 25.9145088195801 23.3206520080566 25.7543544769287 24.0461769104004 30.1603927612305 23.7326583862305 23.275089263916 23.1180953979492 25.3705654144287 21.5436363220215 20.5772476196289 17.964599609375
-1.91237413883209 -2.26439762115479 -2.31906914710999 -1.80222547054291 -1.56377995014191 36.1613426208496 -0.118597567081451 13.518138885498 0.76115471124649 0.198784157633781 1.59928035736084 11.9074945449829 18.9446868896484 6.97139549255371 9.549729347229 9.79146099090576 11.6056089401245 12.006275177002 11.3422679901123 13.651460647583 17.752477645874 13.1479625701904 15.3266649246216 19.0404472351074 20.523458480835 19.9048461914062 13.4018363952637 6.84500741958618 5.43889331817627 4.21232557296753 3.71849274635315 4.10204267501831 3.84366512298584 3.79515242576599 6.21114587783813 5.23530626296997 4.04966306686401 3.67195057868958 2.78313732147217 3.81901025772095 3.69127225875854 4.43833541870117 2.93062043190002 2.0190908908844 2.14731192588806 8.96086120605469 2.90965247154236 3.94272708892822 3.65662908554077 24.4660263061523 29.3043422698975 2.04883790016174 3.94157457351685 12.519172668457 9.67320728302002 7.76333093643188 9.71397113800049 9.21842002868652 11.1471033096313 8.92708492279053 12.024377822876 8.93597221374512 8.84463691711426 31.0365600585938 13.4327898025513 17.2568492889404 25.1352272033691 24.7220249176025 34.5244102478027 27.5160789489746 24.6162567138672 32.9117126464844 35.0975341796875 21.6883068084717 13.7966251373291 13.3655958175659 15.463207244873 18.3590393066406 11.4639225006104 11.485499382019 15.2794227600098 8.25636100769043 7.64850902557373 14.1181631088257 9.6238842010498 10.0854377746582 8.30276393890381 9.17581081390381 7.21120834350586 5.81963014602661 5.51881217956543 5.48072862625122 5.18649196624756 4.63347911834717 4.51869249343872 4.95527982711792 4.49733686447144 4.31886863708496 4.20003986358643 3.63203835487366 4.47090244293213 4.83415079116821 4.94051122665405 5.01025676727295 17.1092433929443 28.7715187072754 17.1651973724365 13.7153568267822 9.60311031341553 8.29824542999268 9.48342800140381 8.71054267883301 8.64295196533203 8.4254846572876 8.41240787506104 8.79691982269287 8.12992191314697 9.01282501220703 9.88187122344971 9.94751167297363 10.9631614685059 10.9974431991577 11.7188968658447 11.0386114120483 10.4044275283813 8.94694900512695 6.63844394683838 5.81803131103516 5.66091775894165 5.11852598190308 6.11361169815063 6.25109148025513 7.7056040763855 11.2661924362183 26.5056667327881 22.1049652099609 14.4039068222046 11.5971765518188 10.9581871032715 11.1532678604126 9.84681987762451 7.99876356124878 9.22669410705566 10.0476760864258 10.1671104431152 10.3600473403931 10.5920648574829 11.2985286712646 11.152868270874 11.988109588623 10.8411130905151 12.2359428405762 10.7609100341797 13.7905673980713 14.1651639938354 16.4938945770264 17.0630588531494 16.5664939880371 12.9885854721069 17.307731628418 21.8429946899414 22.7371292114258 28.281135559082 25.786111831665 23.7332305908203 28.094518661499 26.4915161132812 22.9468288421631 26.3577899932861 24.5729312896729 24.2798671722412 21.1838245391846 24.6708164215088 21.8680458068848 17.5904083251953
-1.47374129295349 -1.42205834388733 -1.00526928901672 -1.62279033660889 32.7798194885254 10.0161790847778 3.47969937324524 0.563592135906219 1.14655375480652 12.752516746521 0.554329574108124 28.5208721160889 35.7378005981445 7.3439359664917 10.7111835479736 10.7364463806152 13.6203145980835 13.9707889556885 13.1290073394775 16.255651473999 22.8698234558105 16.3807067871094 18.6774463653564 22.850715637207 24.5402736663818 29.7044448852539 28.8086185455322 7.79207324981689 6.2438850402832 4.5744571685791 4.33437204360962 4.00901222229004 4.17411994934082 4.12201595306396 13.5462341308594 12.6079406738281 4.40635108947754 3.96063637733459 4.34192180633545 4.01766443252563 3.86052393913269 4.74981880187988 3.19481110572815 24.2790412902832 3.3541624546051 3.05549359321594 3.49743843078613 4.15412616729736 3.63642978668213 42.6119232177734 47.262866973877 2.21774744987488 12.0622215270996 13.9731540679932 10.5772352218628 8.18260765075684 10.5382175445557 10.0250558853149 11.5837879180908 11.411169052124 13.4104900360107 12.2063894271851 9.72487354278564 7.18352270126343 14.9476757049561 20.4395046234131 23.8935070037842 34.9873809814453 52.6225509643555 46.1201858520508 43.012077331543 52.4778709411621 26.5658569335938 18.9224166870117 18.2622299194336 17.9633464813232 18.0827198028564 35.3166427612305 13.4521818161011 12.4986276626587 14.2934646606445 20.0753555297852 18.3463764190674 26.3188419342041 11.8150062561035 11.9771604537964 10.026985168457 11.7978391647339 13.7531118392944 12.5837383270264 5.74150466918945 5.67272663116455 5.35554647445679 4.78528928756714 4.66913366317749 5.09332323074341 4.61661958694458 4.452317237854 4.32425975799561 3.89362359046936 4.61074829101562 5.03272104263306 5.48274660110474 5.84113502502441 5.66256761550903 5.88233518600464 6.55025911331177 7.48859119415283 15.6037244796753 13.0114517211914 9.58183097839355 9.59558486938477 9.50429725646973 9.11724090576172 9.06785106658936 10.0325937271118 9.50364017486572 10.7625484466553 11.0469579696655 12.9371118545532 12.8997287750244 12.6310958862305 12.9071407318115 12.636269569397 11.9708881378174 10.7373552322388 8.46237754821777 7.12329244613647 6.61364793777466 9.07643127441406 13.8649702072144 26.4189872741699 17.566291809082 18.613842010498 26.0048809051514 38.3126373291016 22.9594268798828 13.7335577011108 12.7108879089355 12.4264059066772 10.8233938217163 8.40179443359375 8.76854801177979 10.4336891174316 10.55295753479 10.776141166687 11.0038213729858 11.7748823165894 11.593469619751 11.6482257843018 12.5697898864746 12.0195255279541 13.4342632293701 15.9775543212891 14.7081689834595 19.0516700744629 18.2833404541016 31.2256679534912 23.9032745361328 27.4348449707031 36.6102447509766 16.0988464355469 19.3725700378418 25.9921360015869 28.5430774688721 28.8027210235596 26.4468383789062 24.3207111358643 27.9319915771484 31.5391979217529 28.1255474090576 21.273473739624 21.7013263702393 20.5965251922607 25.0531711578369
0.494981735944748 -0.322089493274689 -0.477765738964081 -0.230798751115799 -0.397052586078644 -0.424203991889954 1.33957946300507 2.3383412361145 0.882349729537964 0.584128141403198 1.19657683372498 0.109078459441662 2.53070116043091 8.46370315551758 10.7186460494995 12.9717559814453 15.7957324981689 16.8968639373779 15.3986320495605 19.6834087371826 17.3217716217041 33.1455383300781 23.8373680114746 29.0239734649658 29.9346694946289 48.9747772216797 47.8287925720215 11.5324964523315 6.84631681442261 4.88753080368042 4.57425451278687 4.24100732803345 4.4807391166687 4.49229764938354 2.88871455192566 2.98755311965942 4.91016530990601 4.38204145431519 4.65036821365356 4.2250189781189 4.13359308242798 5.07101392745972 5.14850234985352 3.49321937561035 3.39816689491272 4.9095196723938 4.85175514221191 4.44563388824463 4.13783836364746 2.8399121761322 2.59516072273254 3.8732430934906 12.8112916946411 15.291576385498 9.99515151977539 12.2229824066162 10.1269464492798 11.6908197402954 13.1205883026123 12.6780033111572 15.8048000335693 7.5977897644043 10.8082399368286 13.9599018096924 17.9034118652344 21.1048069000244 29.5842933654785 53.46142578125 3.84402394294739 9.80078220367432 17.0800037384033 6.29162311553955 3.87512159347534 20.8728179931641 32.9018402099609 31.3062400817871 31.3771877288818 18.6995754241943 13.5880298614502 16.9104499816895 14.4551725387573 44.3018646240234 43.7383422851562 15.903977394104 26.5894546508789 17.886043548584 16.3388118743896 23.8095874786377 24.1681289672852 15.5361976623535 5.88384771347046 5.86077833175659 5.53349733352661 4.95644235610962 4.79227209091187 5.25146102905273 4.74921941757202 4.57366847991943 4.44790887832642 4.04826307296753 4.24584865570068 4.91456031799316 5.70791625976562 5.92754983901978 6.57378768920898 7.01176500320435 7.6573748588562 8.67213535308838 7.64949417114258 8.03805351257324 19.589183807373 27.311487197876 20.3296070098877 10.1452569961548 9.9034366607666 11.1181869506836 12.4638042449951 13.7479915618896 18.2767372131348 20.7705497741699 18.6865978240967 13.8658514022827 13.8303995132446 13.3056354522705 12.6590280532837 11.9767827987671 11.3381958007812 7.70593118667603 7.11150979995728 14.6601514816284 21.8947925567627 6.58422374725342 6.66786289215088 7.89531850814819 7.45808362960815 8.44959545135498 39.6294288635254 16.7844047546387 14.8643894195557 14.2623777389526 14.2204904556274 8.81054973602295 9.18278217315674 10.0265026092529 10.9567184448242 11.1815137863159 11.3800268173218 12.1962814331055 12.2659406661987 12.127833366394 13.0901527404785 12.5391321182251 14.8454875946045 19.1831855773926 15.263427734375 30.2270278930664 23.5283164978027 17.5750007629395 36.1766014099121 21.7778053283691 19.2180862426758 18.6252880096436 27.2840938568115 30.1634616851807 32.3732795715332 31.2176685333252 29.6047420501709 25.8431282043457 28.8698253631592 26.7773990631104 28.1162166595459 27.6198139190674 18.6643314361572 32.8988647460938 -0.296086221933365
0.951777815818787 0.584679961204529 0.389596402645111 0.378238558769226 0.511877119541168 0.711362659931183 0.604710340499878 0.959073901176453 0.773347973823547 0.914470136165619 1.25417459011078 1.14160168170929 8.34381103515625 7.82231330871582 12.4645662307739 15.2928829193115 18.9323101043701 21.5043926239014 18.8156719207764 24.9246768951416 26.3511142730713 52.160285949707 30.5083084106445 34.5168342590332 40.8267402648926 17.6071605682373 9.97908782958984 30.6659660339355 9.5775899887085 6.1891713142395 4.81523895263672 4.46234178543091 4.80961322784424 4.89197158813477 4.24183464050293 4.29569482803345 5.34793996810913 4.80292701721191 5.01211977005005 4.29974508285522 4.51727962493896 5.39155101776123 5.50101232528687 5.28568553924561 5.32273054122925 5.27264928817749 5.20200729370117 4.74124479293823 4.52447557449341 4.22998571395874 3.09560251235962 4.26270914077759 16.39430809021 18.162446975708 11.1849184036255 13.8395433425903 11.0650339126587 13.3039665222168 16.0376834869385 14.5460233688354 18.9224033355713 9.30752754211426 12.5848503112793 16.9643001556396 15.3897371292114 25.8721809387207 47.4007682800293 5.21925926208496 4.25214338302612 13.8258447647095 6.45337200164795 4.31134605407715 7.13985967636108 7.02972602844238 53.0831069946289 51.6288032531738 51.1034774780273 9.10171222686768 14.1596670150757 9.09670734405518 13.4607152938843 6.30609607696533 5.33016490936279 32.537166595459 31.7696781158447 19.3508224487305 16.4906978607178 10.2080335617065 5.66102075576782 5.54539823532104 6.20839214324951 6.10968494415283 5.73631191253662 5.25347518920898 4.91973257064819 5.56071805953979 4.98639440536499 4.70219707489014 4.68767118453979 4.55726289749146 4.33756065368652 5.02961540222168 5.80746555328369 6.17920351028442 6.39726638793945 7.10841369628906 7.75515604019165 8.87619590759277 9.03735065460205 8.55550289154053 8.53383827209473 10.4855823516846 10.4808359146118 10.2579317092896 10.6362142562866 21.9085750579834 16.955379486084 18.943359375 35.8462753295898 40.4484634399414 32.0675506591797 19.5321292877197 15.0514831542969 14.0437421798706 12.9580745697021 13.6717624664307 12.0416946411133 12.6524820327759 8.56586074829102 6.28615474700928 6.03750991821289 6.42839336395264 6.61625194549561 8.00558280944824 7.87523603439331 7.62126207351685 8.20553779602051 31.5848388671875 17.5052032470703 16.62375831604 16.1911697387695 13.5103130340576 9.4682674407959 10.3853826522827 11.38121509552 11.6252126693726 11.8167915344238 12.4202461242676 12.7471494674683 12.6208019256592 13.6253318786621 13.0660972595215 16.6883277893066 15.9386329650879 25.8257026672363 16.9572696685791 17.5820484161377 19.7509918212891 33.5155181884766 18.7103519439697 29.7750549316406 26.2626705169678 22.1993637084961 25.8152542114258 32.4959373474121 28.6036167144775 27.726619720459 27.5315418243408 23.8559093475342 29.1772842407227 11.7338457107544 40.2077598571777 1.43194878101349 -1.19738566875458 18.1040344238281
1.83474695682526 0.698389172554016 0.677480578422546 0.585910737514496 0.809079110622406 0.997856795787811 0.987593531608582 1.06937980651855 0.881300806999207 1.05505752563477 2.4398250579834 1.55228996276855 5.34729146957397 9.8042049407959 15.4833726882935 18.1525135040283 23.6913566589355 21.9848136901855 31.2651538848877 27.3344993591309 44.5797080993652 2.28018736839294 49.5943069458008 53.958683013916 60.0350952148438 20.057258605957 26.1988620758057 50.0469627380371 11.1343154907227 6.79378938674927 5.07785415649414 4.53134059906006 5.15957117080688 5.33610248565674 4.66666555404663 4.70773458480835 4.69890975952148 5.86851835250854 5.24123811721802 5.40025615692139 4.73482370376587 5.52458477020264 5.87012481689453 5.95512580871582 5.68437004089355 5.62405824661255 5.66687488555908 5.35183191299438 4.86342763900757 4.48431730270386 4.44432926177979 4.50487184524536 22.7002811431885 24.3721160888672 13.2149047851562 16.0529613494873 11.5431289672852 15.6935558319092 20.7778835296631 17.5789279937744 10.7131881713867 28.9526748657227 15.9169588088989 17.9669075012207 26.3270168304443 43.5640640258789 8.20477676391602 5.58106422424316 5.68278646469116 3.92022705078125 3.83899974822998 1.43085098266602 19.1436443328857 7.87085103988647 4.28544235229492 5.80087614059448 6.4160361289978 12.8468189239502 9.16309070587158 7.91303586959839 7.28763580322266 9.20919322967529 12.8269891738892 3.84268665313721 4.21200275421143 11.8224906921387 13.7446632385254 12.7203226089478 14.2460908889771 5.78111934661865 6.79235363006592 6.39175319671631 6.28968811035156 5.75224733352661 5.16563034057617 5.72247409820557 5.23264598846436 5.02539491653442 4.93253421783447 4.82646179199219 4.32784128189087 5.02459001541138 5.7079381942749 6.08986377716064 6.50451803207397 7.44516372680664 7.87225437164307 9.20195579528809 9.31821918487549 9.6220064163208 9.32509994506836 11.6770286560059 11.5272197723389 11.9283714294434 12.3923854827881 11.4344530105591 20.9473438262939 38.285228729248 11.7006855010986 11.9022636413574 12.1525402069092 20.571117401123 19.3420009613037 17.0403480529785 14.6088209152222 14.2565355300903 12.4869298934937 23.257194519043 13.0432062149048 7.45032930374146 7.00152587890625 7.17543125152588 8.434889793396 9.67288780212402 8.27292156219482 10.6411952972412 10.1737098693848 50.8177909851074 30.3600273132324 19.6727981567383 18.4782276153564 15.0226879119873 9.56066226959229 10.7443056106567 11.8098468780518 11.8194732666016 12.1510200500488 12.5068798065186 13.2873706817627 13.2021331787109 14.2540416717529 13.6680688858032 19.3364887237549 19.1267642974854 41.7206726074219 14.0759468078613 18.9906101226807 21.56614112854 12.4445896148682 28.5938873291016 25.7500381469727 28.0612869262695 17.7791957855225 16.3853187561035 15.967303276062 19.6185989379883 27.9292640686035 26.1479110717773 18.0269050598145 33.7586669921875 23.8924942016602 -0.406452029943466 12.1912269592285 4.43723297119141 0.049978107213974
2.28830695152283 1.29760587215424 1.03778302669525 0.979152798652649 1.18483173847198 1.0780234336853 1.04097926616669 1.23134970664978 1.35820436477661 1.53434157371521 1.40015423297882 1.55758380889893 5.2602162361145 11.4905300140381 19.1023139953613 22.9817810058594 23.9254417419434 34.5598258972168 50.5338325500488 46.0906677246094 24.8154315948486 9.50100517272949 4.3440637588501 2.60868620872498 1.39845025539398 1.26920318603516 1.69236183166504 4.53995990753174 13.2528429031372 9.65153217315674 5.37388134002686 4.8385648727417 5.4963116645813 5.30927419662476 5.67083883285522 5.05923557281494 5.12970542907715 6.33669233322144 5.68658828735352 5.87718772888184 5.02121591567993 5.17046070098877 6.27861452102661 6.37524271011353 6.09390735626221 6.03178119659424 6.05314302444458 5.88577651977539 5.41969680786133 4.84559965133667 4.73801946640015 4.8818359375 12.5113620758057 34.0839538574219 36.0575408935547 19.336555480957 13.615704536438 19.916711807251 19.9387607574463 30.7237682342529 23.4524250030518 46.8064308166504 10.9479904174805 32.5854454040527 24.3092575073242 7.39164733886719 7.96298265457153 7.64686727523804 9.91726970672607 7.66370677947998 8.78252601623535 2.03539085388184 1.65866482257843 3.36629009246826 4.35042572021484 20.4818592071533 7.05343246459961 6.61120510101318 9.23727607727051 7.91931009292603 10.5395336151123 9.90122890472412 7.27750205993652 5.28171300888062 7.70838642120361 9.42238426208496 16.1638069152832 18.7665672302246 16.0857772827148 5.78341436386108 7.11340284347534 6.64548540115356 6.69830656051636 6.42243003845215 5.74486780166626 5.5289192199707 5.97625112533569 5.45112133026123 5.25584506988525 4.9913501739502 4.1161904335022 5.15617799758911 5.68763875961304 6.26596879959106 6.7737135887146 7.72915458679199 8.19371128082275 9.03385257720947 9.71288394927979 9.90850448608398 11.3678922653198 13.8101787567139 13.1511640548706 12.5315542221069 14.0329122543335 16.4516048431396 13.8261079788208 11.6894092559814 12.0339441299438 14.6073894500732 12.3327894210815 13.7237510681152 16.3814830780029 18.8453502655029 17.7960414886475 15.5668888092041 13.3364953994751 9.0519962310791 10.6934566497803 11.1517477035522 12.8491230010986 10.2801914215088 8.34218978881836 20.0395202636719 27.790319442749 8.10064697265625 18.2917175292969 7.49306154251099 47.6188697814941 31.0899505615234 21.4870452880859 16.8340625762939 9.86478519439697 11.06409740448 11.982084274292 12.3319730758667 12.6857080459595 13.0540266036987 13.9416980743408 13.8722715377808 15.0185699462891 14.2274971008301 23.221700668335 22.3752975463867 9.95333671569824 15.5232496261597 24.7478904724121 25.9452018737793 20.4264469146729 6.93686676025391 9.84037971496582 16.8051052093506 22.1718788146973 19.2652950286865 19.4924812316895 22.1206951141357 39.6077537536621 20.8938751220703 26.215518951416 -0.517504572868347 16.9938659667969 17.4607257843018 0.304486960172653 13.5456657409668 5.69286394119263
2.78083181381226 1.83593761920929 1.08985495567322 1.1857670545578 1.41574847698212 1.69988644123077 1.56719994544983 1.43056464195251 1.57464194297791 1.55328810214996 1.42647230625153 1.38292491436005 2.58596229553223 14.7088289260864 16.6765098571777 27.6612777709961 33.5110549926758 54.0513305664062 7.70381450653076 18.7994079589844 1.50517201423645 17.2881126403809 4.51481866836548 5.51637506484985 1.45205640792847 1.33320438861847 4.00583839416504 18.1371822357178 25.4987335205078 11.2636823654175 6.5635838508606 5.65566921234131 5.1614203453064 5.81978702545166 6.14401054382324 5.52221822738647 5.58665132522583 6.88571310043335 6.1641845703125 6.39509344100952 5.37671947479248 5.57787609100342 6.73724937438965 6.84575080871582 6.55917358398438 6.49568319320679 6.48937511444092 6.2808051109314 5.79700469970703 4.9734845161438 4.90822601318359 5.07015419006348 13.6183042526245 54.061595916748 55.5319061279297 25.0737171173096 17.4455318450928 23.7329978942871 29.8579883575439 50.1969528198242 41.2604789733887 3.77474403381348 27.4674167633057 12.7907962799072 7.88690519332886 11.5623645782471 10.8382339477539 14.1115493774414 11.9750547409058 25.3035869598389 9.26634407043457 3.70550847053528 4.31808614730835 4.78149747848511 4.6341381072998 6.16831493377686 7.86214923858643 21.3411140441895 13.5515880584717 9.74795722961426 17.3733081817627 19.1922855377197 19.934965133667 10.9302968978882 18.1598472595215 12.6235933303833 4.62390184402466 5.0194673538208 4.90663957595825 5.72712659835815 13.6401081085205 6.8989109992981 6.84011077880859 6.45857810974121 5.88164281845093 5.71926164627075 6.17973279953003 5.63777446746826 5.42651271820068 5.18083953857422 4.50609302520752 4.70917510986328 5.46670532226562 6.42861366271973 6.98494577407837 7.82040929794312 8.26394844055176 8.89077186584473 10.222918510437 10.5630054473877 12.0177011489868 14.8732242584229 14.4771595001221 20.3403091430664 23.4177074432373 11.6547613143921 15.6774034500122 12.6537418365479 13.9631910324097 12.3590860366821 14.0070781707764 14.1609563827515 26.8591861724854 20.3476428985596 18.7452030181885 17.6816387176514 15.6492509841919 12.2817640304565 18.0906562805176 20.6692676544189 23.7092456817627 11.8889827728271 22.3590202331543 38.9955749511719 8.47859001159668 18.8527240753174 7.86559963226318 9.34927272796631 13.103798866272 48.2750625610352 32.7067604064941 19.4715843200684 10.2180891036987 10.7005987167358 12.3645401000977 12.8340110778809 13.2552242279053 13.7381725311279 14.6735019683838 14.8129844665527 14.7468109130859 17.2009334564209 15.5757427215576 34.8915138244629 39.2709541320801 15.7243976593018 29.6352615356445 38.9389114379883 23.4139289855957 7.04240655899048 4.68282079696655 5.11367082595825 5.82856130599976 14.9198532104492 7.21047401428223 2.35593843460083 -1.22060668468475 -0.929055273532867 -0.337196439504623 28.5900630950928 10.3232164382935 18.1120471954346 -0.383913666009903 0.563431441783905 1.11915838718414
4.96158456802368 2.08823776245117 1.17666172981262 1.23555612564087 1.52363097667694 1.77025234699249 1.75901508331299 1.67136323451996 1.78012549877167 1.46514523029327 1.63296544551849 1.50265836715698 3.54815793037415 15.9301433563232 21.1094493865967 46.6394004821777 52.8651008605957 3.40412521362305 12.9450721740723 4.40531396865845 10.2622365951538 7.05331802368164 7.38994312286377 4.19308662414551 12.8080310821533 1.46944439411163 1.46105182170868 2.74574255943298 43.7700271606445 13.3830232620239 9.59880638122559 6.11423110961914 5.47650623321533 6.21699619293213 6.62466287612915 6.00038433074951 6.0766978263855 7.51731538772583 6.73793792724609 6.98194122314453 5.78514623641968 6.14058876037598 7.29350709915161 7.38447952270508 7.0783224105835 7.0099139213562 6.96469879150391 6.71091461181641 6.19320726394653 5.07320594787598 5.16329383850098 5.12022829055786 5.65180921554565 3.22204637527466 3.21120858192444 43.6444892883301 35.8556861877441 26.9279804229736 48.8914642333984 4.53062915802002 23.9747943878174 9.00362014770508 13.7026338577271 9.51339530944824 7.70461893081665 13.5063676834106 12.910927772522 10.6389379501343 34.6987266540527 14.8628730773926 6.61677360534668 4.47360467910767 5.49295997619629 5.37947797775269 7.90392541885376 8.39956855773926 8.79892921447754 7.75225019454956 23.8904666900635 20.5920810699463 8.2160816192627 25.0502967834473 20.3433380126953 8.21370029449463 3.58713626861572 5.42202138900757 4.18663024902344 4.50125169754028 14.100625038147 5.89471340179443 19.0181503295898 7.3838963508606 7.23816013336182 6.72020101547241 6.48368835449219 5.88110876083374 6.39726209640503 5.81418085098267 5.60348892211914 5.43147897720337 4.73108339309692 4.78750944137573 5.54106283187866 6.44623327255249 7.20417070388794 7.9247522354126 8.38904762268066 9.25228786468506 10.624659538269 10.9647903442383 13.1498947143555 14.4054985046387 16.5376224517822 13.7953929901123 14.5877370834351 20.6302261352539 14.0644226074219 14.3900804519653 13.0247459411621 13.9614334106445 15.5932874679565 15.3464603424072 16.8663711547852 34.098201751709 21.4853839874268 21.1562175750732 21.7775268554688 15.6852521896362 11.9827871322632 12.1408100128174 7.15011930465698 11.8675498962402 25.458423614502 7.56912803649902 10.2784948348999 9.09667778015137 12.0730791091919 13.1146030426025 16.1781101226807 11.1080179214478 49.9493789672852 35.4948997497559 10.8969469070435 11.1717090606689 12.0383005142212 13.3872003555298 13.8852767944336 14.2235736846924 15.3382034301758 16.0356597900391 15.7428693771362 17.0724430084229 22.9389324188232 26.5564002990723 11.5535831451416 20.5642147064209 26.0896949768066 22.6527214050293 22.7964935302734 17.7903709411621 6.15426445007324 21.6060276031494 20.1820735931396 -0.670455157756805 6.26399993896484 5.27846527099609 2.40334963798523 33.5648765563965 1.46690845489502 -0.425658345222473 -0.60296219587326 -0.260461330413818 3.72041463851929 0.780664145946503 7.78413724899292
7.66168069839478 3.65662360191345 1.35904729366302 1.17818188667297 1.57264995574951 1.78655385971069 1.87625074386597 1.73412096500397 1.86620438098907 1.70229053497314 2.05342197418213 2.11814999580383 2.1636335849762 20.3653259277344 37.9824333190918 8.83786106109619 13.9705982208252 5.55713939666748 5.87453269958496 7.85312175750732 21.1519622802734 3.21649122238159 7.94534349441528 5.28230476379395 5.11643123626709 12.9311332702637 1.87576007843018 5.33319759368896 25.4632129669189 30.5278015136719 11.157133102417 6.73183965682983 5.89618921279907 6.66263246536255 7.14849328994751 6.49076318740845 6.57124710083008 8.17750358581543 7.36313676834106 7.60377550125122 6.12751197814941 6.2391939163208 7.78328371047974 8.10877227783203 8.19075965881348 7.82649040222168 7.69840431213379 7.62898969650269 6.64413499832153 6.14587688446045 5.39121246337891 5.48686838150024 6.02386474609375 4.11596393585205 3.53209471702576 14.0152082443237 55.4013137817383 45.3552169799805 14.4144105911255 5.78784990310669 4.47437238693237 9.83078193664551 8.70738792419434 28.550724029541 14.6176767349243 16.8102226257324 24.3800888061523 13.2672576904297 9.70642185211182 7.85131740570068 8.73389053344727 11.340106010437 3.39309096336365 5.21323108673096 8.45242691040039 13.8159961700439 20.1979999542236 13.5447864532471 8.41116714477539 7.40173768997192 7.905113697052 5.96122598648071 4.89785861968994 9.38244152069092 9.45092105865479 6.83819103240967 16.8251037597656 8.32793617248535 5.05421829223633 6.01163578033447 6.39803838729858 8.03128433227539 7.57802963256836 7.45860290527344 6.99057626724243 6.15178394317627 6.48385572433472 5.90061140060425 5.7499361038208 5.84667110443115 5.55351781845093 4.79466533660889 5.57674407958984 6.29149198532104 7.37115907669067 7.74830675125122 8.74519634246826 9.338059425354 10.9923295974731 13.5466499328613 16.7535839080811 17.0908164978027 26.5351333618164 14.4724025726318 18.1239109039307 17.6922302246094 12.6453905105591 15.910400390625 14.4502429962158 16.8482398986816 17.8332672119141 19.41872215271 19.0207061767578 22.3387870788574 22.2222175598145 34.882926940918 34.0772705078125 17.1008014678955 20.0760688781738 17.4923706054688 7.2119460105896 14.2633409500122 7.26960420608521 8.38110256195068 10.689697265625 13.622368812561 18.3469352722168 17.6997375488281 7.51091146469116 17.8447322845459 11.6973543167114 53.4855918884277 32.860466003418 11.9743404388428 12.6409692764282 14.0542840957642 14.6108675003052 14.8966846466064 15.7092523574829 16.7536697387695 17.7621765136719 18.350212097168 37.5833015441895 10.4481649398804 17.4752960205078 26.8793544769287 31.4000339508057 28.4709281921387 32.1236305236816 32.6228942871094 6.44989347457886 -0.729856431484222 6.80314540863037 6.72955179214478 21.9792251586914 11.2129688262939 11.7010164260864 -1.01416659355164 4.83094835281372 0.138725280761719 0.307011336088181 -0.158409014344215 4.30010747909546 -0.334011495113373 24.5411987304688
9.24704837799072 5.41300487518311 2.5357038974762 1.54840409755707 1.54112470149994 1.67126309871674 1.93059909343719 1.90707969665527 1.92190742492676 1.92847716808319 2.12099957466125 2.20394730567932 2.2044358253479 11.3251028060913 10.4873094558716 22.792293548584 1.3231246471405 6.13722848892212 1.3492728471756 2.64493274688721 3.6077196598053 7.07987833023071 5.74629974365234 5.17906761169434 9.67372989654541 7.87948179244995 1.77722799777985 3.9594087600708 2.69272208213806 49.8410301208496 13.2808084487915 8.29907989501953 6.40844869613647 7.20379447937012 7.73833608627319 7.02221727371216 7.13589525222778 7.0880241394043 9.01010990142822 8.10987663269043 8.41147804260254 6.79770469665527 8.03787899017334 8.97492027282715 9.02020835876465 8.59888648986816 8.44632244110107 8.35129737854004 7.77405309677124 6.52978038787842 5.65837097167969 5.59425735473633 5.75650310516357 4.19981098175049 3.86765217781067 3.23736882209778 2.90960812568665 9.02509117126465 4.33572435379028 6.96330165863037 6.62228679656982 13.6845989227295 10.6186666488647 23.549732208252 18.0693664550781 3.56775832176208 4.08340072631836 21.1914520263672 18.0015449523926 14.0446424484253 11.7947750091553 20.6407260894775 19.4632740020752 23.5766315460205 9.53250026702881 27.2047748565674 9.96986198425293 16.1063022613525 10.0097303390503 7.8430233001709 7.33368062973022 13.819561958313 4.80243539810181 14.7812471389771 13.6990547180176 3.62988662719727 20.7126750946045 10.4090757369995 15.1446352005005 6.22672939300537 6.54392194747925 8.43329334259033 7.96220064163208 7.9990758895874 7.53932809829712 6.74509143829346 6.67975902557373 6.12075901031494 5.85202980041504 6.06120252609253 5.91525411605835 4.72762584686279 5.74242210388184 6.25044631958008 6.89522933959961 7.96070528030396 9.1146936416626 9.64490509033203 10.4910678863525 15.4620790481567 18.2522029876709 25.0130195617676 17.0211601257324 19.6306819915771 13.4271831512451 14.1165962219238 14.5556621551514 17.1765823364258 15.8085308074951 18.1872596740723 19.4869709014893 20.169490814209 21.4035625457764 25.6481246948242 23.3551979064941 19.5866451263428 18.4260215759277 18.2289295196533 9.82999324798584 7.64386320114136 8.10986423492432 7.57062149047852 7.45303153991699 8.62199687957764 11.0167551040649 10.8968067169189 7.97943162918091 8.39612007141113 7.74870777130127 7.14056301116943 7.04690313339233 4.92595100402832 50.907398223877 13.4438152313232 14.4924211502075 14.8653354644775 14.8728084564209 15.8913202285767 16.8672580718994 18.061206817627 19.8550910949707 19.8779678344727 13.1762990951538 16.1354637145996 14.3348350524902 27.3043193817139 16.0220165252686 19.7717628479004 11.8702630996704 -0.092733733355999 10.4244165420532 27.7841567993164 -0.479045301675797 18.1751022338867 1.15277767181396 28.9776668548584 35.0666160583496 29.0324802398682 19.4555988311768 8.13665771484375 0.4993577003479 2.60783219337463 4.01327419281006 2.80887603759766 -0.158311665058136
4.38144779205322 6.54703807830811 3.96707010269165 1.74206280708313 1.568195104599 1.7139003276825 1.98498857021332 1.97060060501099 1.99992060661316 2.03221130371094 2.16203451156616 2.25582981109619 2.21981358528137 10.1498031616211 43.771614074707 3.80058550834656 1.27716910839081 1.26790833473206 1.05833733081818 1.54229760169983 0.870301187038422 10.0486783981323 3.94073033332825 4.63856601715088 4.91765165328979 8.36198997497559 1.82965815067291 11.263445854187 3.77415084838867 6.26369380950928 30.8603363037109 10.2578287124634 7.07922029495239 7.803062915802 7.60076284408569 8.50408554077148 7.74012279510498 7.86592483520508 9.94335174560547 8.95715808868408 9.26806163787842 7.47156143188477 8.39700031280518 9.90399646759033 9.92044353485107 9.44077491760254 9.3197546005249 9.19542598724365 8.48497486114502 7.81734466552734 5.94049692153931 5.95535516738892 6.13424730300903 9.09495258331299 4.18995380401611 3.7332456111908 3.37725305557251 11.3425626754761 25.822338104248 6.05780267715454 12.4625511169434 19.3390560150146 23.538890838623 9.32929420471191 11.3720846176147 5.49651956558228 17.0346374511719 26.3249702453613 14.265941619873 15.3355093002319 9.98035430908203 4.98534822463989 7.61634349822998 3.4575879573822 9.70821094512939 6.67353963851929 12.2824020385742 25.6260738372803 19.6270904541016 10.3029670715332 10.649022102356 15.7675228118896 8.05326652526855 4.24527597427368 6.14051389694214 5.94312715530396 3.94383525848389 4.97257709503174 26.5127792358398 6.38457918167114 6.75114488601685 8.81429862976074 8.55053806304932 8.36205863952637 7.89623928070068 7.07222843170166 6.55266189575195 6.98691034317017 6.34233427047729 6.19920301437378 6.01869869232178 4.82665395736694 5.89812564849854 6.50707674026489 7.15900897979736 8.05454921722412 9.17615032196045 9.75734901428223 10.4408655166626 21.9728412628174 16.2386455535889 23.4499988555908 17.0359058380127 15.8288774490356 15.9341077804565 27.3986968994141 21.210391998291 23.5501861572266 26.5068969726562 15.814510345459 21.1640644073486 21.2596950531006 25.751558303833 28.379903793335 24.2796592712402 22.0875835418701 22.7357292175293 20.0106735229492 12.8001565933228 9.4216947555542 7.77435493469238 7.79014539718628 7.71402931213379 8.93495464324951 11.1833267211914 9.48326015472412 9.36686992645264 9.08802318572998 8.99915218353271 8.87829780578613 8.13215446472168 16.6914539337158 6.29424524307251 16.5925445556641 13.94105052948 20.1358985900879 15.9643259048462 17.28786277771 18.3707580566406 19.6371307373047 22.6546173095703 27.6273975372314 18.0898303985596 16.2035255432129 23.2871246337891 44.7789421081543 27.9934978485107 32.1449203491211 11.7352705001831 18.2055644989014 13.0298643112183 -0.585026323795319 7.07068157196045 -0.775317072868347 3.09073543548584 -1.31483566761017 -1.07941675186157 -0.607386827468872 -0.0568226352334023 0.39153054356575 1.17614459991455 4.6781907081604 0.334828436374664 3.36793279647827 9.79672622680664
0.703640639781952 1.11120676994324 4.46512222290039 2.78003239631653 1.68131709098816 1.74266684055328 2.03163361549377 2.0238618850708 2.05287623405457 2.08371877670288 2.18174839019775 2.30338525772095 2.26230835914612 2.36105895042419 0.594548523426056 9.88121128082275 1.43105840682983 3.26504182815552 1.32074916362762 2.55599188804626 1.71078848838806 1.55348300933838 1.75983476638794 5.94655609130859 1.48048543930054 1.79392194747925 1.94784557819366 3.66627740859985 2.30757117271423 19.9268093109131 50.9620933532715 11.8854198455811 9.54683113098145 7.64011812210083 8.4880256652832 9.31335067749023 8.47344398498535 8.58122634887695 10.9348859786987 9.88430786132812 10.1893396377563 8.193190574646 9.30222415924072 10.9863090515137 11.0197458267212 10.4555797576904 10.3370094299316 10.1999778747559 9.31955909729004 8.52638912200928 6.35782289505005 6.33533620834351 6.47534227371216 7.11346387863159 5.33371591567993 4.13691854476929 3.8201858997345 3.3268187046051 3.49198508262634 6.15816736221313 24.6806621551514 23.3757457733154 18.3592510223389 33.4675064086914 20.9440937042236 5.80035734176636 3.39038515090942 2.81576752662659 15.3585557937622 2.75707745552063 10.3043241500854 12.8566112518311 8.13087463378906 5.8300895690918 25.4270076751709 9.50451564788818 10.3447742462158 11.2041673660278 28.2838096618652 19.1851406097412 15.7256956100464 4.96147727966309 10.1213264465332 7.61048269271851 15.0936193466187 3.97181463241577 4.14602851867676 6.0371241569519 5.49622249603271 15.0604486465454 7.19992685317993 9.30068397521973 9.14221668243408 8.89497756958008 8.24969959259033 7.80309057235718 6.9585280418396 7.38940477371216 6.52054929733276 6.34669256210327 6.16354370117188 5.36869955062866 5.45798921585083 6.24648809432983 7.39381742477417 8.42118072509766 9.29781627655029 10.0778970718384 11.6885080337524 11.5097856521606 21.6977348327637 13.2371816635132 15.4692888259888 22.2988147735596 15.6554765701294 11.1337423324585 13.0452852249146 14.3710403442383 16.6236972808838 18.9319114685059 21.3803462982178 22.3808841705322 28.2296581268311 32.3287353515625 32.3270645141602 26.2237548828125 20.8493671417236 18.8084278106689 19.031888961792 18.5221710205078 8.10269069671631 7.78801488876343 7.96548891067505 9.33696460723877 12.400951385498 10.1301240921021 9.61755657196045 12.1466808319092 11.2370567321777 10.2410116195679 7.19801139831543 7.35964298248291 7.0151801109314 27.7244777679443 15.591625213623 33.7168426513672 17.6747550964355 18.1485233306885 23.8626346588135 22.43434715271 29.2550373077393 18.8590507507324 18.9217872619629 19.8275394439697 37.2166938781738 10.0200338363647 6.82505226135254 2.79062604904175 5.62745046615601 8.73623466491699 5.27220392227173 16.9162883758545 0.180458471179008 -0.55965268611908 -0.758579671382904 -0.498441815376282 0.472197532653809 0.755604088306427 2.57856845855713 7.29488277435303 4.84921073913574 6.77186346054077 11.4755973815918 5.48050022125244 9.66251182556152
0.654636561870575 1.11783754825592 3.62474632263184 3.26344132423401 1.77645003795624 1.91630852222443 2.07724571228027 2.0766224861145 1.99560570716858 2.1490581035614 2.19280076026917 2.36410212516785 2.32610058784485 2.33969688415527 6.78958702087402 3.17102956771851 2.37432980537415 3.27146148681641 1.14856791496277 4.1055645942688 8.04422855377197 9.27164745330811 7.43078279495239 5.61054134368896 7.54968070983887 1.83276093006134 2.21149897575378 1.7436249256134 2.37461566925049 4.2953462600708 5.9927659034729 30.4330101013184 11.0474405288696 8.42386054992676 9.25169086456299 10.2106142044067 9.28395938873291 9.41782283782959 12.1280956268311 10.9461288452148 11.3079137802124 9.0914192199707 9.0210428237915 11.5358238220215 12.6096725463867 12.6212129592896 11.992015838623 11.825231552124 11.6679792404175 9.34328651428223 7.06236934661865 6.79146146774292 6.79774951934814 7.49259042739868 13.3702411651611 4.67593574523926 4.20927715301514 3.47706723213196 13.0798692703247 4.76573038101196 33.8677711486816 35.6017379760742 35.0644760131836 50.8410453796387 3.56003856658936 3.84029531478882 10.8643493652344 3.5764319896698 2.81740188598633 2.97884917259216 2.99188590049744 2.96547555923462 10.6292037963867 3.16349506378174 5.9043436050415 7.19447040557861 19.7762641906738 14.3933429718018 7.1805214881897 8.64767169952393 7.11115837097168 7.37890911102295 8.61616897583008 10.3749809265137 6.61147499084473 7.09493541717529 23.0674858093262 9.49782943725586 5.617103099823 20.4117107391357 7.30760765075684 14.4121055603027 9.8835506439209 9.79050540924072 8.69666385650635 8.81615829467773 7.22504806518555 7.69197654724121 6.78305387496948 6.5265474319458 6.68079328536987 6.3114800453186 5.47339677810669 6.41858863830566 7.59634208679199 8.74395942687988 9.4580774307251 10.3911581039429 18.3086967468262 18.6704559326172 10.6338319778442 14.4972476959229 19.862621307373 17.8528327941895 18.510139465332 13.6709690093994 15.9354152679443 15.7144107818604 19.5211544036865 19.8650608062744 24.4746532440186 28.2414474487305 30.8589706420898 45.2872734069824 50.769889831543 45.428409576416 27.3220310211182 22.9647350311279 22.59006690979 12.9289474487305 12.7977247238159 20.5261211395264 11.0622100830078 10.2364072799683 9.20829677581787 12.0827989578247 11.151083946228 9.52011489868164 10.5867710113525 11.2410821914673 7.91679954528809 8.67041110992432 7.97489356994629 14.0735483169556 23.4134311676025 12.9704942703247 29.0100173950195 23.6949291229248 39.0109939575195 21.358549118042 25.2934226989746 21.2954196929932 25.2134647369385 45.9246292114258 15.13889503479 19.7339267730713 17.4993858337402 16.6129322052002 16.9414577484131 8.72526168823242 0.230976238846779 -0.479407221078873 1.63492202758789 -0.226918146014214 11.8335494995117 0.258689403533936 1.14351689815521 3.71464848518372 9.52743053436279 13.0102252960205 11.0859069824219 9.30887603759766 26.531286239624 6.73100662231445 11.9867935180664
