NCOLS 175
NROWS 32
XLLCORNER 353936
YLLCORNER 6700160
CELLSIZE 16 
NODATA_value -3.4e+38 
3.85214424133301 0.650852203369141 0.618998467922211 -0.414665818214417 1.10339462757111 1.32029867172241 1.94503140449524 2.00001215934753 2.13412809371948 2.2436351776123 4.3480110168457 2.28306579589844 1.10827660560608 1.07136142253876 8.2785120010376 7.27953910827637 10.8097171783447 17.1529541015625 12.2081699371338 2.03299927711487 10.5428733825684 10.5282096862793 4.38472414016724 4.85247659683228 4.28058242797852 3.14095330238342 3.06664729118347 3.95511150360107 4.75036334991455 4.78823137283325 4.95741939544678 5.35399055480957 4.42087411880493 4.77111101150513 4.41078329086304 3.98777413368225 4.24288368225098 3.33370471000671 3.55990982055664 3.31410670280457 3.70203757286072 4.07854127883911 3.08169770240784 3.24542450904846 3.37574601173401 2.83306288719177 3.17528486251831 2.60770273208618 1.83905899524689 1.66419386863708 1.8347761631012 1.6198308467865 26.9644050598145 10.4039535522461 2.05657076835632 1.95213341712952 2.22175121307373 6.99706411361694 15.3544054031372 2.5145800113678 9.2229118347168 4.67897796630859 4.22076797485352 6.55008792877197 21.7806930541992 25.4367904663086 25.1273994445801 4.45456552505493 5.12624645233154 6.11566829681396 4.4144082069397 4.06399965286255 2.05795431137085 5.00002384185791 15.3344984054565 16.8614635467529 19.2066783905029 14.8424339294434 3.94626522064209 9.85370063781738 2.64395403862 -0.581595838069916 -1.15367949008942 -2.72608137130737 -2.65403771400452 -2.71859931945801 2.78210520744324 5.99156475067139 -2.79114508628845 0.177495643496513 0.463014632463455 2.13350439071655 2.94515085220337 11.8064641952515 7.74079751968384 3.47928047180176 2.19351840019226 28.4808444976807 -1.56612265110016 -0.665831625461578 0.14252208173275 6.49050378799438 2.57000374794006 5.78546571731567 7.94553565979004 6.72239971160889 1.88462102413177 41.8283615112305 8.54865074157715 12.6450548171997 3.84425926208496 8.32936000823975 5.34762048721313 6.14142274856567 19.2436580657959 26.546968460083 27.5744915008545 -1.14184391498566 29.8736534118652 6.87734079360962 4.16224336624146 21.1787929534912 26.1272315979004 0.124145321547985 5.71843242645264 3.5745165348053 4.52977323532104 6.23324251174927 16.3960723876953 8.34348773956299 9.4792537689209 9.43966865539551 4.17384099960327 3.98287796974182 22.9359149932861 1.67098081111908 -2.90946412086487 6.02425241470337 21.0273685455322 17.2501735687256 10.1214723587036 -0.862959444522858 1.09608066082001 -0.146690636873245 0.518213093280792 0.690800726413727 34.8741264343262 2.77978658676147 3.03546810150146 3.17531681060791 2.73016047477722 3.1853666305542 2.62166833877563 2.59166479110718 1.2618887424469 1.270103931427 1.9838627576828 2.04020118713379 1.97582697868347 3.18128561973572 3.88231015205383 3.26282072067261 2.83020353317261 4.66766309738159 5.4995002746582 6.29112815856934 6.20868444442749 4.93609619140625 4.28415489196777 4.18768548965454 6.12936067581177 6.10248231887817 4.69376754760742 5.84911298751831 4.9326024055481
4.80923223495483 0.703746855258942 0.679916858673096 -0.288680553436279 1.21354234218597 1.39998173713684 2.02940654754639 2.10673809051514 2.29930353164673 2.17900848388672 2.15033006668091 2.02916765213013 2.02625322341919 11.2428684234619 1.87395024299622 1.94407534599304 20.8572120666504 29.5185108184814 17.2881164550781 2.04434537887573 12.3789291381836 12.9406547546387 4.5586085319519 5.03596162796021 4.44009256362915 3.24805307388306 3.181321144104 4.10447120666504 4.98218631744385 4.99305582046509 5.23778247833252 5.67723083496094 4.68868017196655 5.00288677215576 4.59377861022949 4.11819505691528 4.38763284683228 3.47417593002319 3.72027325630188 3.42674851417542 3.82530808448792 4.22310018539429 3.1874463558197 3.33332848548889 3.47094202041626 2.91895532608032 3.273761510849 2.68832087516785 3.09444856643677 1.97901940345764 2.66289949417114 2.03891801834106 1.56749248504639 1.83942496776581 2.25332927703857 3.62297487258911 2.55493354797363 10.558614730835 2.57927966117859 2.83553528785706 2.31900835037231 5.63015222549438 5.56297779083252 5.73621129989624 3.58860516548157 3.36070680618286 1.87231612205505 7.03607559204102 6.65950012207031 8.04075527191162 10.8081254959106 11.5181484222412 8.94721221923828 17.1726913452148 4.7522144317627 9.75223350524902 3.25718879699707 5.87966108322144 10.8746728897095 36.2154350280762 13.1573629379272 7.89390850067139 -0.347825855016708 -1.51204991340637 -2.20909428596497 -2.56592202186584 26.9236106872559 -3.39556670188904 0.296609431505203 0.627163350582123 1.84882211685181 2.51650094985962 8.95133590698242 3.36680340766907 4.09223413467407 4.09106779098511 2.99609231948853 12.0402803421021 38.5861015319824 13.7089748382568 24.4467334747314 11.9916687011719 5.27819681167603 11.3637437820435 8.82364082336426 11.326117515564 4.62504577636719 -0.637230038642883 6.16741132736206 18.746976852417 6.36898899078369 5.20933246612549 9.72351360321045 14.8589391708374 -0.338966637849808 -0.3441202044487 -0.627553820610046 -0.354949861764908 -0.212963730096817 8.7528829574585 14.2289896011353 1.37181234359741 -0.514845788478851 3.11097168922424 21.903003692627 15.7039079666138 5.51205492019653 3.0649209022522 0.0843063294887543 10.2985534667969 13.9906387329102 -2.6608555316925 -2.70336508750916 -0.678249835968018 0.475271910429001 3.22515964508057 -1.64410519599915 20.6778945922852 -1.21803259849548 2.7954797744751 -1.10390734672546 -0.101496502757072 4.86940717697144 4.16717195510864 0.751178443431854 1.08061707019806 1.49726545810699 3.12454009056091 3.16866612434387 3.35895705223083 2.97086000442505 3.34145283699036 3.1494517326355 3.46811747550964 3.30388712882996 3.08321356773376 3.96394777297974 3.41572427749634 3.64000940322876 4.72466897964478 4.46526765823364 4.49612379074097 4.02495145797729 5.29003763198853 6.15924501419067 6.99464750289917 6.88439464569092 5.38547229766846 4.43868398666382 4.3061671257019 6.63617372512817 6.59181499481201 5.01776790618896 6.22144556045532 5.21588802337646
6.17038011550903 0.733469367027283 0.835988879203796 -0.202736258506775 1.29669988155365 1.47629630565643 2.12578582763672 2.22991418838501 2.33326363563538 2.1793749332428 2.19156813621521 2.0705554485321 2.06433796882629 1.76176357269287 2.35192728042603 13.8615407943726 1.64070343971252 0.932225942611694 30.5198535919189 2.12046074867249 19.2911338806152 16.5722599029541 4.71482133865356 5.21072149276733 4.60366678237915 3.35786724090576 3.30462527275085 4.30041360855103 5.32780075073242 5.26838874816895 5.55043601989746 5.96847248077393 4.89072275161743 5.18517351150513 4.77681398391724 4.27193021774292 4.55404043197632 3.61936187744141 3.91173434257507 3.54411125183105 3.95094656944275 4.37212467193604 3.30356025695801 3.43835139274597 3.58006596565247 3.00263118743896 3.35789728164673 2.76877498626709 3.225510597229 2.95871043205261 2.94462966918945 2.30327701568604 2.18376922607422 14.1351490020752 9.91289806365967 18.1971549987793 3.86559820175171 8.8006010055542 13.241042137146 3.34751653671265 3.19695138931274 5.81385278701782 6.35882043838501 16.760763168335 5.71194553375244 5.71087169647217 2.33263659477234 9.10721015930176 9.16955661773682 9.72213649749756 12.9297132492065 13.4616413116455 9.67022323608398 5.46197891235352 7.37306928634644 13.1170301437378 14.3384628295898 2.85376882553101 1.71781861782074 4.87799978256226 13.6590089797974 10.7213821411133 4.54980039596558 -1.50355875492096 -2.09592866897583 -2.28697681427002 -3.10756587982178 -3.20492911338806 0.456170499324799 2.57371759414673 2.43775486946106 4.13018655776978 3.57705187797546 3.82434940338135 4.53026390075684 5.06637477874756 5.54271650314331 2.79955720901489 -0.336504459381104 0.904179632663727 2.81941723823547 17.1479587554932 14.0254688262939 13.6745748519897 13.7760419845581 13.2407560348511 6.69700193405151 0.0234170258045197 -0.123817130923271 0.134916424751282 0.347324520349503 22.5230178833008 10.539252281189 -0.335946023464203 0.230018615722656 0.0124979093670845 -0.107661560177803 2.63958382606506 0.457363694906235 8.66785144805908 5.14138841629028 2.40907192230225 9.9072961807251 4.36037302017212 -2.0363461971283 4.01286649703979 6.18120002746582 19.0911827087402 -1.73408317565918 -1.80733942985535 -2.00588488578796 -2.3140389919281 -2.13192510604858 -2.7822093963623 -2.83379483222961 5.90500164031982 0.925049602985382 -1.62791168689728 -1.27758204936981 -0.826741635799408 -0.289427131414413 0.302840679883957 3.77070689201355 0.758744060993195 1.05046010017395 6.27609539031982 16.832649230957 3.25711607933044 3.29072260856628 3.48254609107971 3.09791302680969 3.57958054542542 3.4322521686554 3.78626823425293 3.6022527217865 3.82585310935974 4.62706136703491 4.5617880821228 4.43884611129761 4.96677589416504 4.61677217483521 4.61120128631592 4.14638328552246 5.71876764297485 6.59874963760376 7.41727781295776 7.32021903991699 5.73669147491455 4.56952905654907 4.40960788726807 7.17362403869629 7.12214612960815 5.42242956161499 6.61616134643555 5.51412630081177
8.15896701812744 0.899784803390503 0.946232557296753 -0.185547113418579 1.35988664627075 1.54126036167145 2.21490287780762 2.33971095085144 2.34687185287476 2.23725771903992 2.26476454734802 2.12738823890686 2.11023044586182 1.82704615592957 2.74399447441101 39.6441497802734 2.32464933395386 1.30487060546875 1.28649079799652 2.33307695388794 14.1152715682983 23.2807712554932 4.84934520721436 5.38670206069946 4.77383947372437 3.46618247032166 3.4440929889679 4.47395467758179 5.63491010665894 5.47968435287476 5.8157811164856 6.25258636474609 5.13978242874146 5.41696405410767 4.99322366714478 4.44130373001099 4.72846937179565 3.7744472026825 4.10814332962036 3.6646900177002 4.08790349960327 4.53854942321777 3.43855333328247 3.54517269134521 3.6835572719574 3.07774615287781 3.44095683097839 2.83183598518372 3.32464265823364 3.0986065864563 3.09676790237427 3.0264744758606 2.87808299064636 2.29531526565552 2.31212830543518 2.02345132827759 2.93635869026184 2.80457973480225 3.15235495567322 3.93516039848328 3.6774570941925 6.63321685791016 6.64514350891113 3.1997389793396 1.91629087924957 2.08903694152832 3.05883502960205 8.79940319061279 14.6029424667358 12.372727394104 23.7841663360596 25.5998210906982 14.5266036987305 19.8848037719727 20.8277816772461 1.31671619415283 2.19257140159607 1.58074247837067 2.78345704078674 12.591326713562 13.8064279556274 10.842188835144 7.39716911315918 5.5743203163147 -1.39068758487701 -1.79236435890198 -1.21407926082611 1.15403163433075 2.49608469009399 4.15429019927979 4.80847024917603 5.58012628555298 5.07102298736572 4.55237770080566 5.1422438621521 5.60663843154907 7.84784364700317 7.62755727767944 1.08861911296844 1.14503765106201 5.45119047164917 8.90334320068359 25.4509334564209 16.6934413909912 16.5731315612793 15.8693609237671 8.91946411132812 1.38816368579865 0.0168510861694813 0.148336082696915 13.3479852676392 0.227159395813942 -0.295838266611099 -0.0748762711882591 0.498902410268784 0.386469274759293 0.0496298037469387 0.408543705940247 1.13069558143616 0.638885021209717 8.39639377593994 8.35999488830566 13.861231803894 12.5977725982666 -0.255609482526779 2.0152108669281 5.1655158996582 13.1616115570068 7.02593421936035 -1.05678188800812 -1.35035967826843 -0.00571914482861757 2.15149593353271 -2.382967710495 3.35930871963501 -1.81375801563263 -1.51336419582367 8.849778175354 -0.210047870874405 2.55649399757385 3.99267411231995 0.680976748466492 0.696348190307617 0.809896945953369 1.10284721851349 18.9297199249268 32.4715042114258 3.37477421760559 3.3952054977417 3.59683680534363 3.24658489227295 3.76461005210876 3.62644028663635 4.06612157821655 3.95646405220032 4.19059610366821 5.01178121566772 4.93480443954468 4.75292205810547 5.2103214263916 4.7774977684021 4.76983642578125 4.27372550964355 6.08298397064209 7.00404119491577 7.82164859771729 7.72269535064697 6.07941341400146 4.71105480194092 4.64389753341675 7.8335428237915 7.772536277771 5.91706418991089 7.08937168121338 5.88012027740479
13.4783325195312 1.00391805171967 0.997742176055908 -0.17078609764576 1.39139926433563 1.57728791236877 2.27366971969604 2.41132283210754 2.40535092353821 2.30957531929016 2.35537791252136 2.2149293422699 2.18291592597961 2.27109742164612 2.86187171936035 1.45704865455627 2.40846991539001 2.07026338577271 2.13298392295837 2.05707788467407 18.9419040679932 39.2979431152344 4.99651527404785 5.54601764678955 4.82358169555664 3.48707556724548 3.55095934867859 4.71143293380737 5.89179372787476 5.75371026992798 6.15377426147461 6.62517833709717 5.45693111419678 5.67566108703613 5.22195529937744 4.62788391113281 4.93897485733032 3.96689319610596 4.32343006134033 3.81753373146057 4.2592306137085 4.73004388809204 3.57630562782288 3.66448140144348 3.80101275444031 3.15137481689453 3.5208625793457 2.90952157974243 3.42705416679382 3.23135209083557 3.24706435203552 3.17788100242615 3.02739691734314 2.90825343132019 2.54214358329773 2.25579977035522 13.4345283508301 5.65466928482056 3.50044345855713 6.92991924285889 5.31624126434326 6.85408544540405 6.95796632766724 5.25981521606445 3.20864939689636 3.86745023727417 2.83553504943848 17.1644725799561 15.6721048355103 23.2968597412109 15.1159887313843 31.8068027496338 22.7508525848389 2.30599594116211 2.02917814254761 1.39913535118103 2.42457485198975 7.61018085479736 0.30182734131813 0.12565116584301 4.57683801651001 18.2354888916016 10.5092363357544 7.55745220184326 2.07870173454285 3.16660666465759 -0.589201331138611 2.0468533039093 4.64432573318481 6.25241184234619 6.64015865325928 5.90963840484619 6.64795637130737 6.2466893196106 6.7688307762146 14.5993585586548 8.26691627502441 0.797304213047028 1.24251818656921 6.33034229278564 6.18407583236694 13.6877117156982 6.28786039352417 20.3286476135254 20.8449726104736 19.847864151001 12.0495510101318 3.17913246154785 10.6243686676025 0.961956143379211 0.231693252921104 0.509173095226288 -0.0275801829993725 0.12981553375721 0.525963604450226 0.578228771686554 0.473676472902298 0.66580730676651 1.307901263237 0.718548595905304 0.329017817974091 3.45152854919434 -0.673467040061951 1.84612381458282 7.66686820983887 -0.810617029666901 -0.750605642795563 -0.872953534126282 18.2224063873291 3.01160454750061 1.00999844074249 7.99645042419434 7.47117710113525 7.40398216247559 9.09682178497314 2.78951072692871 -1.28220510482788 -1.20170557498932 7.97574949264526 4.8802375793457 12.4426870346069 2.09173631668091 1.0437775850296 1.11743748188019 1.5455082654953 31.1743507385254 1.89545440673828 3.47465801239014 3.48667812347412 3.72370982170105 3.42414116859436 3.96572804450989 3.83276772499084 4.31912469863892 4.22864389419556 4.5156421661377 5.35669088363647 5.27875852584839 5.07793188095093 5.51250743865967 4.99890804290771 4.97003698348999 4.42674922943115 6.57263278961182 7.49223661422729 8.33797359466553 8.16661930084229 6.39939832687378 4.83960151672363 5.20020294189453 8.67153263092041 8.60733318328857 6.54410791397095 7.62926197052002 6.27589845657349
26.8849830627441 1.0419636964798 1.04044342041016 -0.0793530866503716 1.43430125713348 1.60845148563385 2.31582641601562 2.46033716201782 2.52889728546143 2.39131712913513 2.44891500473022 2.31180143356323 2.26232719421387 2.35358452796936 2.99469041824341 3.09413838386536 2.47650241851807 2.12019968032837 2.16307878494263 2.08311605453491 12.3498163223267 2.60276961326599 5.12158346176147 5.70524120330811 5.02894353866577 3.56842041015625 3.67188096046448 4.98095846176147 6.17380046844482 6.02999687194824 6.52751970291138 7.03065061569214 5.79819440841675 5.96025657653809 5.49848794937134 4.8512921333313 5.18065690994263 4.18648290634155 4.57639646530151 3.99567127227783 4.42127370834351 4.92975330352783 3.73774886131287 3.77521109580994 3.9208505153656 3.24994134902954 3.62773394584656 2.99697375297546 3.53840136528015 3.37148427963257 3.43501567840576 3.37183690071106 3.18940877914429 3.09330439567566 4.94651174545288 6.66680955886841 2.61648273468018 3.24908685684204 4.25301885604858 4.02702522277832 4.18086242675781 7.04070329666138 7.28463268280029 5.51138019561768 4.71136045455933 6.48734521865845 3.33653998374939 2.66612315177917 2.81133842468262 5.9587459564209 2.46219801902771 2.44166874885559 2.57657432556152 2.48426961898804 2.28692936897278 1.62868714332581 1.0297429561615 0.367715150117874 4.36541700363159 7.31611728668213 2.12856197357178 21.4708003997803 11.6098203659058 19.6489791870117 11.6491441726685 29.0364933013916 2.43006706237793 4.76634407043457 6.91420984268188 8.59243011474609 20.9744281768799 18.8510932922363 14.3312664031982 17.8517608642578 8.87649631500244 5.76892137527466 15.5131855010986 2.44042253494263 1.91130030155182 10.9044895172119 9.52986907958984 23.8643856048584 17.1305255889893 25.3744468688965 28.977445602417 26.1320495605469 18.7089347839355 5.67664575576782 0.405911594629288 1.13491213321686 0.841249585151672 0.858445167541504 0.208356887102127 0.270514994859695 0.72783488035202 0.768697142601013 0.674585103988647 0.880965232849121 1.39512348175049 0.773162424564362 0.660690069198608 6.25255107879639 2.53194999694824 -0.653221905231476 23.3055000305176 -0.170262455940247 -0.394671618938446 -0.334330081939697 0.0176371168345213 -0.0355945229530334 0.00221065618097782 6.6394510269165 15.9941720962524 9.79777526855469 -1.46808695793152 -1.73448157310486 -1.26468300819397 -0.504498898983002 2.35803914070129 5.09640502929688 0.361877143383026 1.25818705558777 1.35564684867859 1.38800179958344 1.69565320014954 23.8755588531494 3.4827253818512 3.62924671173096 3.65546154975891 3.91378855705261 3.64943623542786 4.18182229995728 4.04325437545776 4.56189060211182 4.50407028198242 4.82382297515869 5.70515060424805 5.61573123931885 5.40508317947388 5.86474609375 5.27033185958862 5.20035791397095 4.60850620269775 7.18242979049683 8.10905933380127 8.95076465606689 8.73018360137939 6.74386596679688 4.95174789428711 5.79311275482178 9.61818027496338 9.55270576477051 7.27134895324707 8.24540424346924 6.73144483566284
0.119817852973938 1.0569064617157 1.07152771949768 0.108832105994225 1.48998081684113 1.67941164970398 2.38965773582458 2.46495032310486 2.66442942619324 2.48265910148621 2.54319667816162 2.41386342048645 2.34385633468628 2.44706988334656 3.11258101463318 3.17012572288513 2.55569863319397 2.18005037307739 2.2088737487793 2.10616374015808 0.767634272575378 0.934729218482971 5.29152202606201 5.89026641845703 5.25846529006958 3.72433471679688 4.76388120651245 5.28758001327515 6.53219223022461 6.32853841781616 6.97221183776855 7.48759508132935 6.19495487213135 6.29256868362427 5.80789375305176 5.10009479522705 5.43159103393555 4.40400886535645 4.78519535064697 4.12615823745728 4.62159442901611 5.15874910354614 3.89095115661621 3.90709567070007 4.06282091140747 3.3687150478363 3.75263214111328 3.09148287773132 3.65655136108398 3.49565529823303 3.61288952827454 3.58762240409851 4.03342056274414 4.47597312927246 5.92668151855469 8.88716411590576 6.04342079162598 4.49036407470703 4.29973602294922 4.03869819641113 4.20163011550903 7.1954231262207 7.56335687637329 5.86794853210449 4.93289279937744 4.10351943969727 3.85092687606812 3.41232585906982 11.4729127883911 9.13878154754639 2.71503710746765 2.64614629745483 2.97541308403015 3.43942999839783 2.74448156356812 3.94169974327087 3.85635876655579 0.607574760913849 0.735024631023407 0.883824348449707 9.39287185668945 32.230785369873 17.451810836792 26.5144023895264 8.27689933776855 -0.964219689369202 3.81115651130676 8.09627151489258 8.75293159484863 9.42625617980957 7.74520778656006 8.09878635406494 8.77527141571045 8.14281368255615 7.17596006393433 6.87042665481567 3.48154067993164 3.06278991699219 2.32766485214233 14.7355031967163 26.1559371948242 43.8112983703613 23.8179035186768 31.2302265167236 38.8305244445801 24.7298908233643 36.7471466064453 12.1936616897583 2.0946991443634 1.82964634895325 1.20035469532013 1.45175349712372 0.711520493030548 0.641774237155914 1.02585744857788 0.978788912296295 1.26823914051056 1.34172642230988 1.53083789348602 1.26802480220795 5.29909324645996 16.5576019287109 5.33375835418701 3.81385731697083 -0.695450961589813 -0.638385713100433 7.04483366012573 0.233858674764633 0.442590355873108 0.314334809780121 0.57727175951004 0.171157643198967 -0.43103364109993 -0.690578639507294 -1.14276564121246 -1.29041886329651 -0.819205403327942 -0.16353939473629 0.690028846263885 0.421372056007385 0.72365802526474 1.74258506298065 2.20547938346863 3.06827759742737 2.85885524749756 1.26361274719238 9.70828819274902 3.83128881454468 3.84767007827759 4.11200571060181 3.89205360412598 4.42321395874023 4.26948499679565 4.81412744522095 4.76719427108765 5.12390613555908 6.03626108169556 5.9443621635437 5.72950029373169 6.21223974227905 5.55759143829346 5.48412227630615 4.86750650405884 8.04307842254639 8.9234561920166 9.72955417633057 9.45594024658203 7.17078876495361 5.05265140533447 6.382896900177 10.6869888305664 10.7123737335205 8.19382095336914 8.98416519165039 7.26242065429688
1.38402760028839 1.09626388549805 1.11468231678009 -0.175750181078911 1.54481172561646 1.77187860012054 2.49970030784607 2.52034068107605 2.74271059036255 2.58659386634827 2.64551043510437 2.52296209335327 2.43546772003174 2.56921601295471 3.25018835067749 3.33692502975464 2.6882529258728 2.27510833740234 2.27006006240845 2.14715981483459 2.1244421005249 2.06117391586304 5.45806121826172 6.09226322174072 5.45354890823364 3.856281042099 3.75262880325317 5.48148822784424 6.94439315795898 6.68147993087769 7.43178462982178 8.00227546691895 6.63826036453247 6.67632818222046 6.16161251068115 5.33048868179321 5.65797805786133 4.62414216995239 5.04669618606567 4.29879236221313 4.79220914840698 5.39535236358643 4.10356378555298 4.06087875366211 4.20824575424194 3.48552012443542 3.88432955741882 3.19704508781433 3.77802133560181 3.61261367797852 3.75533938407898 3.78118205070496 6.37290716171265 6.78626775741577 7.26763486862183 12.5112609863281 7.8284707069397 5.60706424713135 4.44565582275391 4.15528345108032 4.35491466522217 7.46758604049683 7.89602613449097 6.5580096244812 5.18123245239258 5.31111669540405 4.05491495132446 4.36623573303223 3.05063700675964 2.55687952041626 2.99191188812256 10.7735538482666 3.85229086875916 6.54580402374268 2.79680132865906 7.09387874603271 11.1290445327759 4.4667797088623 0.396525263786316 4.25487279891968 2.90444898605347 0.539373695850372 31.3885974884033 6.94969892501831 32.4679336547852 3.37456369400024 7.38627672195435 8.58721542358398 10.5820560455322 11.6453084945679 10.1338634490967 10.3729810714722 9.08898639678955 15.8952016830444 11.2007732391357 7.70550012588501 4.04428100585938 3.98896765708923 2.44715976715088 1.36093258857727 13.3144435882568 -0.216247528791428 27.3067378997803 28.2839813232422 20.5106372833252 42.0209617614746 11.907187461853 18.936393737793 2.57128858566284 1.90744316577911 7.55568265914917 2.09599804878235 1.50067889690399 1.19062697887421 1.33369779586792 1.6227639913559 1.34570384025574 1.67403054237366 1.84954285621643 9.80369663238525 10.3838481903076 25.7915744781494 16.1180782318115 7.31057071685791 0.805759012699127 -0.276887446641922 0.166516870260239 1.03652060031891 0.759073138237 0.782087981700897 0.863844752311707 0.574570775032043 0.208429604768753 -0.219481647014618 -0.607467412948608 -1.07322335243225 -0.585048079490662 0.0684233754873276 0.504869043827057 0.780748844146729 1.25053060054779 5.27884531021118 3.59407162666321 3.19846153259277 2.92151355743408 8.92361259460449 3.65576648712158 4.03539609909058 4.05719995498657 4.3215594291687 4.13173675537109 4.65163469314575 4.51147413253784 5.06064367294312 5.02113151550293 5.41038131713867 6.36454105377197 6.27006912231445 6.04991006851196 6.58015394210815 5.89445829391479 5.81853008270264 5.15070772171021 9.15557193756104 9.91969871520996 10.6784744262695 10.3710985183716 7.82305812835693 5.19568061828613 7.23086929321289 11.9584169387817 12.0367374420166 9.28733348846436 9.88790702819824 7.93778800964355
1.43459975719452 1.16575682163239 1.18684554100037 -0.169928312301636 1.61098957061768 1.86083102226257 2.62409543991089 2.62759232521057 2.80342769622803 2.71813440322876 2.75339412689209 2.62870383262634 2.52023029327393 2.68793654441833 3.39161491394043 3.51205039024353 2.82221555709839 2.36660313606262 2.35068559646606 2.20794296264648 2.17244648933411 2.09531784057617 5.6762056350708 6.29641962051392 5.62126684188843 3.95009660720825 3.93791770935059 5.96706390380859 7.3984169960022 7.1230936050415 7.88190650939941 8.55591201782227 7.1320972442627 7.01317119598389 6.4588451385498 5.55378866195679 5.91722249984741 4.8985538482666 5.37348365783691 4.49970102310181 5.00957441329956 5.618408203125 4.2666072845459 4.19330549240112 4.37561511993408 3.62503862380981 4.01677656173706 3.31518816947937 3.91538739204407 3.73985409736633 3.88022756576538 3.92504930496216 9.36021423339844 10.0304288864136 8.77762603759766 19.018913269043 10.8556451797485 8.03318214416504 4.60305070877075 4.29989814758301 4.73171234130859 7.82989406585693 8.36413383483887 7.50410604476929 5.43610143661499 5.56395101547241 5.0415472984314 5.79758644104004 3.08516359329224 3.19527769088745 12.6034030914307 3.36399817466736 14.1461009979248 8.44487476348877 2.85840058326721 11.0152864456177 8.02653694152832 6.59246158599854 9.90036010742188 5.74880170822144 5.64896059036255 3.33418035507202 7.70757484436035 19.7226676940918 0.489800602197647 27.8549671173096 10.9114675521851 6.57082796096802 11.7920036315918 18.5080299377441 16.5325145721436 10.9505023956299 12.2030029296875 8.53099346160889 7.36424589157104 9.88214206695557 6.74639558792114 4.88629531860352 3.0826997756958 1.99003267288208 40.5305061340332 1.82794690132141 2.26988244056702 5.47912406921387 9.88111019134521 11.9053926467896 8.05625247955322 29.0399780273438 6.65276670455933 3.26345634460449 3.73646306991577 21.3855876922607 2.23396778106689 2.63378357887268 2.50658130645752 2.32662749290466 1.82962930202484 2.08430361747742 2.36824870109558 21.6982555389404 22.1765518188477 36.3775749206543 21.7937679290771 9.96749973297119 1.25982582569122 4.95528125762939 0.635497510433197 1.1666944026947 0.909124970436096 0.996605098247528 1.20656216144562 1.21744930744171 0.81621903181076 0.478657513856888 -0.128756701946259 -0.247003808617592 -0.15770198404789 0.381259173154831 1.06365752220154 1.34711062908173 2.01350998878479 5.36620712280273 5.09027099609375 3.39384484291077 3.10369682312012 20.4665431976318 2.81262850761414 4.2505955696106 4.27252006530762 4.51137685775757 4.35279083251953 4.86299085617065 4.72832298278809 5.28940486907959 5.25914716720581 5.69312238693237 6.68661689758301 6.60281133651733 6.37327432632446 6.95959377288818 6.27124929428101 6.2479190826416 6.2471604347229 10.6197147369385 11.2015886306763 11.9750642776489 11.4464139938354 8.61448192596436 5.38497161865234 8.55609321594238 13.7033967971802 13.7683057785034 10.6854906082153 10.9762334823608 8.74420547485352
1.54558098316193 1.24448502063751 1.27392423152924 -0.142411202192307 1.68560886383057 1.9350688457489 2.72776436805725 2.74118065834045 2.89122867584229 2.85195755958557 2.88143014907837 2.73768854141235 2.60242795944214 2.80813765525818 3.55442810058594 3.66524434089661 2.95755696296692 2.47138452529907 2.43661522865295 2.27493023872375 2.2268533706665 2.14336681365967 5.97808027267456 6.60551834106445 5.85782909393311 4.01925945281982 4.10378646850586 6.35523223876953 7.88649082183838 7.64717674255371 8.39773559570312 9.19974803924561 7.67175626754761 7.39656782150269 6.82018804550171 5.84274578094482 6.25480794906616 5.23856401443481 5.71442890167236 4.67132759094238 5.19212007522583 5.84809398651123 4.45170021057129 4.33248996734619 4.50598621368408 3.74245476722717 4.20374059677124 3.46065139770508 4.0483660697937 3.88019919395447 3.99565887451172 4.06101894378662 14.3403282165527 14.9513721466064 16.0457935333252 35.2638740539551 16.4496994018555 12.4925470352173 4.78192901611328 5.3787317276001 5.59951400756836 8.29439353942871 8.98848533630371 8.8433723449707 5.71480274200439 5.88033580780029 5.4403772354126 6.88077211380005 5.71848154067993 4.06807518005371 3.36822962760925 3.59138512611389 3.93322467803955 11.157732963562 2.94874405860901 17.7101020812988 13.7604207992554 6.96163511276245 0.430776685476303 1.800577044487 0.0811015516519547 0.00232615903951228 0.385699898004532 0.567278146743774 6.26232385635376 5.1037073135376 29.367712020874 10.2375535964966 15.5801134109497 12.9498605728149 18.5466175079346 19.4920673370361 13.5008344650269 16.1450748443604 13.792103767395 12.6173267364502 9.15563869476318 6.47134160995483 8.4196081161499 3.0859055519104 -0.317633271217346 0.0263959784060717 0.467762529850006 -0.101245269179344 0.304745018482208 0.535088539123535 1.41201734542847 5.21498966217041 15.4966173171997 3.46130776405334 5.82482528686523 2.7241063117981 9.59692668914795 2.98493123054504 2.81446504592896 2.75782108306885 2.40623307228088 2.79664993286133 2.58610105514526 2.23196458816528 31.8414325714111 55.9484825134277 38.5723304748535 14.0657176971436 7.18562173843384 0.423104226589203 0.69156539440155 7.35671520233154 1.26781129837036 1.37090921401978 1.48045551776886 1.26695168018341 1.19889628887177 0.803674042224884 0.435673505067825 0.202983647584915 0.219484269618988 0.923157036304474 1.46890473365784 2.42660045623779 2.86430716514587 9.51219081878662 15.023494720459 3.6754093170166 3.39611887931824 2.61120748519897 3.4981415271759 4.49893093109131 4.49013376235962 4.69597768783569 4.56225538253784 5.06386756896973 4.93282032012939 5.51310157775879 5.49189233779907 5.96987581253052 7.00866365432739 6.91221809387207 6.6947169303894 7.33540773391724 6.62310647964478 6.68751573562622 7.87297868728638 12.5870780944824 12.8108549118042 13.7652397155762 12.7179956436157 9.45536518096924 5.57557106018066 10.6581268310547 16.3491802215576 16.3839225769043 12.7444334030151 12.2898330688477 9.69923114776611
1.66585266590118 1.54084694385529 1.38152277469635 -0.105190873146057 1.77156901359558 2.01241374015808 2.82324552536011 2.83940672874451 2.98768973350525 2.97114133834839 3.02283120155334 2.86361527442932 2.68715167045593 2.9195249080658 3.70166611671448 3.82655739784241 3.09555125236511 2.58010983467102 2.52778601646423 2.34962272644043 2.29070329666138 2.19859528541565 6.35429382324219 6.96402549743652 6.14386320114136 4.13750839233398 4.23338079452515 6.658860206604 8.15079498291016 8.19948768615723 9.05288124084473 9.82163047790527 8.20065689086914 7.88848733901978 7.24156427383423 6.13703536987305 6.57800483703613 5.51899576187134 6.02925205230713 4.84074211120605 5.3993239402771 6.13085508346558 4.66234874725342 4.48104667663574 4.66947841644287 3.87165880203247 4.33639812469482 3.57759499549866 4.24772500991821 4.04083490371704 4.09733390808105 4.13359975814819 25.9072952270508 27.9988574981689 9.42545127868652 3.7986376285553 30.788703918457 24.5406436920166 5.85856008529663 8.88565254211426 6.9106822013855 8.84116458892822 9.59131050109863 10.8553829193115 6.0664234161377 6.19022846221924 6.18812990188599 7.97407674789429 6.07749557495117 4.24079036712646 4.0570387840271 4.02700519561768 14.2213716506958 13.0893125534058 3.06768345832825 1.91261208057404 1.97837817668915 0.883394718170166 0.809777021408081 1.15942752361298 1.96858847141266 5.55238151550293 1.20950329303741 1.64170598983765 4.83266115188599 12.1595840454102 8.27998924255371 11.4423055648804 31.4080085754395 28.4256839752197 25.2571754455566 19.5498504638672 19.8544807434082 35.4026184082031 20.6097106933594 23.8536777496338 14.3399848937988 10.2450914382935 12.1691513061523 2.54480242729187 0.989248752593994 7.72565174102783 0.604241132736206 0.866996049880981 0.742560863494873 1.92261612415314 2.27816271781921 31.6985263824463 3.14175581932068 16.8386383056641 3.08489465713501 2.98127245903015 3.03545594215393 5.69597673416138 3.81047463417053 4.42405700683594 3.13583707809448 13.9963188171387 2.78497838973999 21.3908634185791 51.246395111084 0.855487108230591 23.4758548736572 21.1764602661133 10.3168964385986 1.56530070304871 0.881659209728241 1.67974388599396 1.43055438995361 1.62647461891174 1.65751874446869 1.55581319332123 2.55850172042847 1.25055837631226 7.19791030883789 0.472358763217926 0.856886148452759 1.8512350320816 2.49483418464661 3.1491174697876 3.46054601669312 15.34730052948 5.30573415756226 3.90688061714172 3.51211428642273 3.51166081428528 3.68842792510986 4.74904632568359 4.75752830505371 4.92545318603516 4.80374240875244 5.30089473724365 5.167649269104 5.75956392288208 5.73781967163086 6.24812746047974 7.33288192749023 7.23588132858276 7.01810455322266 7.70625972747803 6.94655847549438 7.08835077285767 9.81230354309082 15.1514930725098 15.1559543609619 16.0811634063721 14.2845363616943 10.4596834182739 5.76465129852295 14.1313180923462 20.1699466705322 20.239429473877 15.7403898239136 13.9118070602417 10.8491363525391
1.75931322574615 1.33174693584442 1.47939622402191 -0.0576908551156521 1.86946702003479 2.10738468170166 2.93501019477844 2.93678021430969 3.08635902404785 3.08233070373535 3.17553901672363 3.0095100402832 2.77967953681946 3.03177905082703 3.85125660896301 3.99892997741699 3.24394273757935 2.69633293151855 2.6296546459198 2.43193864822388 2.36318635940552 2.250981092453 6.78512191772461 7.36033964157104 6.4773120880127 4.2523045539856 4.40335321426392 7.19647884368896 8.78785514831543 8.64577198028564 9.80405807495117 10.6952676773071 8.84099960327148 8.30875205993652 7.78272008895874 6.44773483276367 6.86531782150269 5.84537696838379 6.43171358108521 5.0625262260437 5.63855504989624 6.42184782028198 4.88412952423096 4.65053224563599 4.84466791152954 4.00998258590698 4.51452732086182 3.73099255561829 4.37763404846191 4.21015882492065 4.18646574020386 4.19700241088867 3.30176877975464 3.03345346450806 28.3926334381104 2.49812841415405 5.30956411361694 4.63175392150879 9.18211650848389 18.4410305023193 10.7334108352661 9.40082168579102 10.1900119781494 13.4712734222412 6.36467552185059 6.55053472518921 7.41164112091064 9.49747657775879 6.47230768203735 4.53738021850586 4.14696407318115 4.12291240692139 20.7204856872559 7.13323163986206 5.12232732772827 1.93203973770142 1.23897647857666 2.36074280738831 7.84682130813599 7.60718774795532 1.98629355430603 8.59217834472656 4.55159711837769 5.52071952819824 9.95113277435303 1.67910313606262 2.46333336830139 26.0778999328613 10.803635597229 21.7018451690674 30.8758087158203 21.0129623413086 30.6086082458496 26.7520141601562 28.3913860321045 40.9665565490723 16.924633026123 14.7619552612305 19.3701915740967 4.52557563781738 7.65526294708252 11.9301538467407 8.38242721557617 2.83454298973083 2.10814881324768 2.34920620918274 2.42942929267883 2.51473379135132 3.41597485542297 5.56755828857422 8.96362495422363 3.37625360488892 6.08660697937012 10.7175607681274 5.54038953781128 4.57471370697021 4.10141134262085 3.25185084342957 2.92201352119446 38.7443618774414 1.84800243377686 1.21471238136292 0.964002907276154 38.1329612731934 16.366003036499 9.82263565063477 2.02076554298401 1.86968815326691 1.7691662311554 1.92263758182526 2.00359320640564 1.81672477722168 1.69975256919861 1.9145735502243 1.3600594997406 0.918753504753113 1.21870768070221 2.57157111167908 2.96354174613953 3.90998840332031 7.61719465255737 21.8482036590576 19.5670852661133 4.14500427246094 3.862056016922 3.72970962524414 3.91765809059143 5.02767324447632 5.03890609741211 5.24875926971436 5.15822410583496 5.64699602127075 5.48993682861328 6.06829357147217 6.02655363082886 6.56772613525391 7.6952486038208 7.59702444076538 7.35483932495117 8.06699371337891 7.25274515151978 7.43924045562744 12.0506048202515 18.2992630004883 18.2718982696533 19.2682914733887 16.3934230804443 11.8711795806885 6.46369361877441 20.9160633087158 26.0700359344482 26.0611476898193 20.2946243286133 15.9271364212036 12.2784757614136
1.91708886623383 1.47923076152802 1.558309674263 -0.0568440183997154 1.96348071098328 2.22031307220459 3.06921315193176 3.04904747009277 3.19887971878052 3.17514109611511 3.34947061538696 3.180344581604 2.89894247055054 3.171706199646 4.02026653289795 4.18326425552368 3.4139564037323 2.85576510429382 2.7499566078186 2.50731062889099 2.43115520477295 2.30651688575745 7.27365684509277 7.82770347595215 6.89401721954346 4.42683696746826 4.58035945892334 7.77933979034424 9.60377311706543 9.4217586517334 10.6808881759644 11.7161693572998 9.6501989364624 8.77704429626465 8.15183925628662 6.86547994613647 7.33572769165039 6.30665493011475 6.90821886062622 5.2971076965332 5.92192792892456 6.78808736801147 5.16915655136108 4.84442615509033 5.03547525405884 4.18312358856201 4.68911218643188 3.82169604301453 4.45109510421753 4.29919815063477 4.36910486221313 4.30781841278076 5.9103102684021 9.33713912963867 9.11264133453369 2.69457530975342 14.9291687011719 14.0212440490723 10.9408006668091 4.3806300163269 21.8365898132324 10.0430288314819 12.2719497680664 17.5956268310547 6.61026811599731 6.91539716720581 9.33715057373047 12.0994644165039 6.88548707962036 4.75080156326294 4.27582120895386 4.22133207321167 38.068603515625 2.75157499313354 3.08905625343323 2.3916916847229 1.30076658725739 4.79442453384399 4.85570096969604 18.5640754699707 3.93774461746216 1.06665277481079 4.94332218170166 13.7999114990234 14.1859502792358 2.19457817077637 7.5758810043335 21.1855583190918 19.7286949157715 20.9690437316895 29.5959529876709 27.4052982330322 20.6530780792236 19.6300010681152 37.6360168457031 16.4860057830811 20.2101516723633 24.8584651947021 31.7627334594727 4.61557054519653 18.4271640777588 19.3157348632812 8.84967041015625 8.82085037231445 7.79515790939331 3.53469181060791 3.11651062965393 21.9200801849365 5.97649717330933 9.07180976867676 13.5184326171875 5.06305551528931 24.2335433959961 14.7273511886597 7.36647796630859 4.70760536193848 4.51955986022949 3.92389607429504 3.10721206665039 2.98521876335144 1.97287511825562 1.47902727127075 7.35438251495361 1.5573136806488 31.2799606323242 22.6138668060303 3.0763738155365 3.33780241012573 2.81814312934875 2.36455392837524 2.31242322921753 2.14586734771729 2.13713669776917 2.47538161277771 2.20228481292725 2.53679132461548 2.76329040527344 3.60419464111328 3.64486050605774 4.13907051086426 10.7769985198975 32.7511749267578 13.3345766067505 6.50804710388184 4.12346315383911 3.99988746643066 4.19909286499023 5.35463523864746 5.35274839401245 5.62179279327393 5.6114935874939 6.11048793792725 5.92568874359131 6.49902868270874 6.41578531265259 6.95361661911011 8.10896015167236 7.98103046417236 7.70254802703857 8.45448398590088 7.56341648101807 7.77509641647339 14.9975872039795 22.5467052459717 22.5437564849854 23.7365913391113 19.0224494934082 13.5399360656738 7.82759380340576 37.7898406982422 36.5177726745605 36.1970977783203 28.7103881835938 18.7381629943848 14.4974498748779
2.14858436584473 1.70055294036865 1.67182612419128 -0.0388241559267044 2.00341534614563 2.30094623565674 3.20236253738403 3.1740460395813 3.32567000389099 3.27424597740173 3.5339183807373 3.37328600883484 3.04278945922852 3.35422039031982 4.22252655029297 4.38321399688721 3.58997917175293 3.01665282249451 2.88455700874329 2.59208822250366 2.50175023078918 2.37024664878845 7.82402944564819 8.37092876434326 7.38456153869629 4.63589286804199 4.78164958953857 8.57409286499023 10.6454916000366 10.3634967803955 11.4117116928101 12.760950088501 10.6159801483154 9.36152458190918 8.65391159057617 7.07782316207886 7.59682703018188 6.59893465042114 7.29977178573608 5.47007322311401 6.1512246131897 7.12226819992065 5.44411897659302 5.04420280456543 5.26272678375244 4.32364940643311 4.80054903030396 3.86090421676636 4.56244945526123 4.44159984588623 4.50269508361816 4.3272500038147 4.04130983352661 3.2345495223999 29.9479370117188 3.51650476455688 39.3878555297852 14.802152633667 4.88050651550293 4.97847032546997 7.06201505661011 10.8455190658569 22.3040504455566 29.906925201416 7.96806764602661 8.61606979370117 12.9604864120483 16.9557571411133 7.28088045120239 4.83238840103149 4.38692474365234 4.29996967315674 3.14399242401123 3.86034893989563 3.54092907905579 7.613525390625 1.66107082366943 6.94820737838745 0.79045706987381 1.968376994133 13.3216724395752 1.59793269634247 1.73552358150482 2.20139694213867 2.0298924446106 2.70309543609619 13.9019317626953 17.6042575836182 11.3975210189819 17.6843338012695 12.6198244094849 25.3182888031006 26.7961292266846 32.2281112670898 20.4248600006104 30.7662372589111 28.0158576965332 7.48572778701782 2.48330044746399 4.9356369972229 4.95089101791382 32.1248931884766 12.3215885162354 9.85377502441406 10.7743816375732 3.53585529327393 3.63218784332275 3.34555888175964 6.89775037765503 9.94947338104248 18.171350479126 6.37264776229858 5.55557155609131 21.9026756286621 10.2749195098877 4.87224864959717 4.71039485931396 5.08091449737549 3.7640528678894 3.8765287399292 3.02987480163574 2.28529262542725 1.45656824111938 1.65450751781464 2.28249597549438 2.40208768844604 3.46877527236938 4.33838224411011 3.35071706771851 3.46189117431641 3.13888931274414 2.87647795677185 2.99948191642761 3.05658030509949 2.80105257034302 2.92814254760742 3.01144075393677 3.8215537071228 4.45690727233887 4.79544734954834 17.9177856445312 52.8939666748047 41.4683570861816 12.3031988143921 4.40385913848877 4.26356220245361 4.47146844863892 5.72099924087524 5.7084903717041 6.0199499130249 6.11019325256348 6.65228366851807 6.47641658782959 7.02272415161133 6.88252973556519 7.40016078948975 8.54958724975586 8.36958885192871 8.07222652435303 8.84385681152344 7.88285827636719 8.12955284118652 19.6516799926758 28.829870223999 28.6736526489258 29.9337139129639 22.093599319458 15.4040422439575 9.61508464813232 4.48803424835205 55.8635177612305 55.6562690734863 47.5334587097168 23.4281978607178 17.7348766326904
2.55862903594971 1.89626157283783 1.84454452991486 -0.00402009766548872 2.06917357444763 2.42576456069946 3.36329007148743 3.28241562843323 3.46148705482483 3.40622496604919 3.69684243202209 3.55709028244019 3.17637252807617 3.54936981201172 4.44957733154297 4.60345458984375 3.77788329124451 3.17676377296448 3.03201651573181 2.69690299034119 2.59123849868774 2.44738745689392 8.50872611999512 9.02933216094971 7.98527336120605 4.89469718933105 5.06896829605103 9.68169689178467 11.7705774307251 11.5965185165405 12.7782068252563 14.2139282226562 11.8534879684448 10.1550779342651 9.33279323577881 7.4458589553833 8.00208568572998 7.02929401397705 7.72313070297241 5.59733772277832 6.29725885391235 7.33782052993774 5.59772300720215 5.15007352828979 5.37491178512573 4.37855291366577 4.86584281921387 3.97232913970947 4.70838403701782 4.55822324752808 4.59772491455078 4.52591562271118 4.24174022674561 4.00689554214478 2.80792117118835 4.26926231384277 2.86828017234802 19.4124221801758 14.1132946014404 9.38796901702881 26.0733947753906 11.7548055648804 10.4671983718872 5.69475507736206 7.02937364578247 7.14900398254395 19.516809463501 29.6145420074463 7.73234558105469 5.05000782012939 4.66437196731567 4.37565803527832 3.86947774887085 6.8586540222168 6.69305610656738 2.53536939620972 2.22710299491882 5.17362117767334 1.01022410392761 1.27050459384918 1.48878121376038 3.28727173805237 1.89551913738251 2.74070882797241 2.28762316703796 3.28042721748352 2.32511520385742 1.59448158740997 14.3915414810181 9.25885200500488 12.6371622085571 15.8890810012817 28.1256408691406 36.852653503418 26.1810531616211 26.0365772247314 24.8506526947021 12.8653287887573 3.72160029411316 5.23947858810425 2.22068881988525 1.56245684623718 11.9030199050903 29.1958789825439 12.9154491424561 3.56816720962524 4.66584300994873 5.469153881073 18.1241283416748 12.7221221923828 23.5347537994385 16.5858383178711 14.6798572540283 25.5633335113525 16.1848659515381 5.12170124053955 4.95188999176025 5.35226011276245 4.69569635391235 4.65636730194092 4.20908784866333 2.64550733566284 18.212869644165 8.45040798187256 2.92034459114075 3.25265049934387 3.67311382293701 4.62020826339722 4.46819925308228 4.02837753295898 3.74294567108154 3.87792253494263 3.52793073654175 3.93625617027283 7.55483675003052 14.0568408966064 3.35389399528503 4.12901401519775 4.76184272766113 10.6292543411255 35.3920288085938 2.70326828956604 3.12740302085876 25.9339084625244 4.64334154129028 4.49922227859497 4.73641967773438 6.08035516738892 6.07079792022705 6.39751243591309 6.56602764129639 7.20689487457275 7.00828456878662 7.5292592048645 7.35451745986938 7.85102272033691 8.96844482421875 8.7771167755127 8.44634532928467 9.2601318359375 8.22882747650146 8.49798488616943 27.8282432556152 38.8784408569336 38.2990303039551 39.4745292663574 25.7011127471924 17.1134166717529 11.3301086425781 4.59722280502319 3.15151786804199 2.834153175354 4.87604331970215 32.7770538330078 22.8723049163818
2.9647376537323 2.0640549659729 1.96196353435516 0.0484271869063377 2.26312494277954 2.58586454391479 3.54280996322632 3.47737979888916 3.57391309738159 3.53902554512024 3.85428643226624 3.7422788143158 3.30743646621704 3.74616169929504 4.69121742248535 4.85430145263672 3.98578143119812 3.342440366745 3.19341993331909 2.82173442840576 2.69087839126587 2.53515315055847 9.36050510406494 9.80408191680908 8.72379589080811 5.21455240249634 5.4288330078125 11.2814044952393 13.3377199172974 13.3043613433838 15.4547004699707 16.0143165588379 13.0935907363892 11.1525192260742 10.1164474487305 7.89914464950562 8.5125207901001 7.58746433258057 8.33096027374268 5.8004937171936 6.51153707504272 7.61850309371948 5.72749185562134 5.23875617980957 5.48342800140381 4.45929861068726 5.00924444198608 4.0264048576355 4.79918241500854 4.66213703155518 4.69435358047485 4.58991479873657 4.40307712554932 4.13633584976196 4.63388729095459 4.46752023696899 11.4840888977051 3.93706107139587 9.35568618774414 17.7707538604736 4.49310207366943 11.7632608413696 11.6720266342163 8.44358062744141 6.72613334655762 7.33294868469238 5.57043123245239 3.58889698982239 8.45480537414551 5.43453645706177 5.15083312988281 4.45703172683716 4.27515268325806 5.76153087615967 8.70231056213379 2.62383365631104 2.30664920806885 0.981137096881866 1.94498372077942 7.03000593185425 2.4567506313324 2.06747484207153 4.29463577270508 3.77211332321167 2.54722547531128 8.01761722564697 2.42210173606873 1.80717623233795 0.757362544536591 0.991043567657471 6.42902231216431 9.85414886474609 14.5249547958374 5.81317377090454 31.798999786377 43.0708808898926 18.3839797973633 25.2921123504639 13.2831411361694 6.56574726104736 2.32303619384766 4.6013126373291 2.28344035148621 5.36676359176636 3.34709692001343 4.96365213394165 5.92287921905518 7.42974853515625 7.05131483078003 26.6282424926758 20.0253925323486 34.6914825439453 26.5717906951904 4.18732976913452 30.6775302886963 6.46618270874023 6.09459352493286 5.64799118041992 5.44832849502563 4.96454906463623 4.49476337432861 3.53658556938171 2.20163106918335 2.04357481002808 3.47541999816895 3.40430593490601 3.82898211479187 4.86785411834717 4.77048540115356 4.73203992843628 4.81922674179077 4.88303995132446 4.67356014251709 4.30529117584229 3.47483229637146 3.29654288291931 3.67803835868835 4.47551822662354 5.08432579040527 25.7888164520264 10.9404449462891 4.79913949966431 3.76855945587158 4.22451496124268 4.85449409484863 4.73089170455933 4.98622417449951 6.44119071960449 6.41113662719727 6.76677799224854 6.98194742202759 7.66788768768311 7.45866298675537 7.94718885421753 7.7854905128479 8.25244903564453 9.40648651123047 9.18936347961426 8.84040546417236 9.70877838134766 8.58461666107178 8.89560508728027 45.5231132507324 56.8717384338379 55.7180557250977 56.815601348877 30.8310680389404 19.0510578155518 11.0248355865479 4.66674852371216 3.43622279167175 8.15059280395508 12.3564777374268 35.0557250976562 31.9274444580078
3.272136926651 2.27725553512573 2.19544458389282 0.119448468089104 2.41845798492432 2.71847772598267 3.71940541267395 3.63768935203552 3.79312944412231 3.71982312202454 3.94764137268066 3.94674944877625 3.44555711746216 3.95813822746277 4.95515823364258 5.12270259857178 4.2086067199707 3.51964592933655 3.37629318237305 2.97739148139954 2.81615805625916 2.63273501396179 10.4097080230713 10.7436408996582 9.65170001983643 5.58900880813599 5.87060880661011 13.6412305831909 15.4934339523315 15.9410791397095 21.4119758605957 18.3329181671143 14.7841510772705 11.8267011642456 10.9386920928955 8.44299030303955 9.04377460479736 8.09724807739258 8.89356136322021 5.97239685058594 6.73385000228882 7.91239500045776 5.88787794113159 5.31134653091431 5.5678825378418 4.50223255157471 5.06804704666138 4.03754281997681 4.83966827392578 4.72853565216064 4.77964162826538 4.67621612548828 4.50807476043701 4.28135061264038 4.79343271255493 5.5404896736145 15.143214225769 6.01078701019287 11.3475589752197 5.08405351638794 5.07624053955078 25.0425987243652 15.1693887710571 9.11213874816895 6.81079196929932 7.49337959289551 11.704665184021 4.83413553237915 9.50766277313232 6.06419467926025 5.83002901077271 4.5642294883728 7.16345453262329 11.3029556274414 13.3699340820312 2.71285343170166 5.47560977935791 1.41497838497162 1.96467435359955 2.55894064903259 2.62140870094299 2.65381598472595 2.24734044075012 11.8428401947021 4.99652194976807 2.72661876678467 3.30268526077271 3.76499724388123 1.21507525444031 0.3951775431633 1.88798749446869 13.6293153762817 24.3685665130615 22.1930465698242 5.80172538757324 5.87751722335815 6.21537733078003 8.25728416442871 5.31926965713501 8.25397968292236 11.2718639373779 5.88424110412598 2.37368869781494 3.24826049804688 3.70454025268555 4.63720417022705 6.13484954833984 10.6897306442261 10.5707836151123 15.4611787796021 7.36404037475586 6.04101800918579 3.98594427108765 4.65184307098389 4.57793807983398 8.22610855102539 7.64905023574829 5.95996952056885 5.81820058822632 5.29518795013428 4.83478784561157 3.84168243408203 3.59069609642029 3.50158596038818 3.72780561447144 3.62192249298096 4.03800678253174 5.09087181091309 5.01275539398193 4.99559688568115 5.11950588226318 5.12799215316772 4.92999458312988 5.02333784103394 4.40125370025635 3.43968415260315 4.01812648773193 10.558895111084 5.4078164100647 4.35434675216675 3.51836562156677 15.0378570556641 4.97798681259155 5.24518966674805 5.06711053848267 4.94157409667969 5.27884721755981 6.79394865036011 6.79305791854858 7.19168519973755 7.44891738891602 8.1087532043457 7.86328077316284 8.35810661315918 8.19179439544678 8.65829658508301 9.83577442169189 9.61401748657227 9.25352478027344 10.1897077560425 8.97268009185791 9.3538932800293 5.16943311691284 4.28077697753906 12.6503477096558 11.1655340194702 39.3148956298828 21.8946514129639 8.68357181549072 4.96014213562012 4.00658082962036 3.79161429405212 19.3802738189697 21.510368347168 50.4793853759766
3.64056062698364 2.45929741859436 2.39752697944641 0.135566592216492 2.55399537086487 2.87706971168518 3.92099475860596 3.8316388130188 4.05791044235229 3.89443278312683 4.17044448852539 4.09696054458618 3.57327914237976 4.17401552200317 5.22531700134277 5.40291166305542 4.43800163269043 3.69625806808472 3.55302691459656 3.14040088653564 2.97204065322876 2.75341057777405 11.7148389816284 11.9031200408936 10.7935314178467 6.0512318611145 6.40555810928345 17.4039134979248 18.6582279205322 20.264741897583 36.7195281982422 22.3100738525391 18.0857028961182 13.5832834243774 12.0118789672852 9.00806999206543 9.55121231079102 8.81733798980713 9.83550262451172 6.23697566986084 7.00342035293579 8.27105617523193 6.07092142105103 5.37388467788696 5.63010883331299 4.50663661956787 5.09858322143555 4.03959703445435 4.88451910018921 4.77443742752075 4.86395359039307 4.76806259155273 4.6040186882019 4.39379930496216 4.97696304321289 7.28045225143433 22.2146015167236 6.34468793869019 4.99467754364014 5.16931867599487 10.1422996520996 12.089638710022 17.6263637542725 10.638710975647 7.72159624099731 7.99486637115479 10.9584884643555 4.87847852706909 11.0063648223877 7.34138631820679 7.3344783782959 5.49111032485962 9.61802959442139 22.5003929138184 3.19717454910278 3.05269050598145 3.00508785247803 2.45339894294739 2.34666037559509 2.8520200252533 2.72743344306946 2.97668147087097 2.46974635124207 8.38337230682373 6.29023504257202 4.48308515548706 7.86368227005005 1.92179048061371 1.25543069839478 0.218076676130295 3.40399694442749 1.87029361724854 4.33574342727661 2.57964444160461 8.19968318939209 15.2118453979492 8.40153980255127 12.6332406997681 7.11386060714722 10.4920072555542 20.8934555053711 6.52930593490601 5.21309041976929 3.74673295021057 4.0488805770874 6.37776327133179 9.10360527038574 22.9901466369629 7.53122234344482 3.03069257736206 5.01495742797852 5.56873369216919 40.4697761535645 10.1191396713257 20.8895053863525 10.69846534729 9.48006248474121 6.64679050445557 6.87987279891968 5.63397884368896 5.19036960601807 4.16122484207153 3.93755197525024 3.83092021942139 4.04000949859619 3.90606737136841 4.29784917831421 5.349928855896 5.23384284973145 5.21699237823486 5.38743114471436 5.38865089416504 5.15498208999634 5.2351188659668 5.11021709442139 4.27825975418091 4.35351228713989 4.64369964599609 5.72901344299316 5.39261817932129 5.13241624832153 4.82329750061035 5.38221836090088 5.53705215454102 5.26067590713501 5.13434982299805 5.54581832885742 7.14931488037109 7.18097543716431 7.66186094284058 7.94982528686523 8.56366443634033 8.28804969787598 8.77377796173096 8.62995338439941 9.08714580535889 10.2405042648315 10.0275440216064 9.69922161102295 10.7071208953857 9.39986324310303 9.87376308441162 6.38045835494995 4.44060134887695 3.28078150749207 15.1219520568848 55.6439666748047 27.6165428161621 5.87111330032349 5.25952243804932 4.55042791366577 3.25933694839478 6.34310150146484 2.34251403808594 12.2585201263428
4.00157403945923 2.76581120491028 2.59185552597046 0.176769018173218 2.66694569587708 2.99273133277893 4.08261442184448 4.04707765579224 4.19242286682129 4.01170969009399 4.39401054382324 4.43030643463135 3.75012135505676 4.35786151885986 5.51567125320435 5.70702171325684 4.69217872619629 3.88518786430359 3.71725487709045 3.27488923072815 3.11820888519287 2.8795325756073 13.4161024093628 13.3862037658691 12.2674140930176 6.64963912963867 7.13893556594849 24.8124408721924 23.8135871887207 28.3973865509033 13.3570308685303 36.6973686218262 23.3714160919189 16.7779769897461 13.4787139892578 9.89861011505127 10.1787309646606 9.5843563079834 10.7800016403198 6.47081136703491 7.30107879638672 8.70678520202637 6.32312440872192 5.48078203201294 5.73162984848022 4.54243564605713 5.15468549728394 4.05755710601807 4.94359540939331 4.84600496292114 4.98370933532715 4.88326454162598 4.73111867904663 4.46391153335571 5.15555238723755 10.7715625762939 38.9924697875977 6.71654462814331 5.21048831939697 5.39321136474609 11.554347038269 17.1184387207031 18.5796146392822 13.1003065109253 9.61413669586182 8.73762226104736 30.2233963012695 16.0019950866699 13.0394201278687 9.80989360809326 10.2625122070312 8.78007411956787 15.5550270080566 40.4551010131836 3.82018113136292 3.06620931625366 3.01632785797119 2.78122639656067 2.49178576469421 2.87200617790222 2.99038934707642 3.36276316642761 2.30106616020203 2.33385467529297 13.8465852737427 8.8868465423584 3.30481362342834 2.49463510513306 1.27663946151733 0.742815673351288 7.22124576568604 4.58956956863403 6.22321510314941 6.51192903518677 18.0376529693604 3.24356961250305 14.5407934188843 19.2699546813965 8.04825210571289 15.1457529067993 3.72595858573914 11.7242774963379 3.12078022956848 3.92599105834961 6.01206636428833 15.400749206543 11.1582098007202 8.2200345993042 28.4772777557373 3.99874782562256 5.86781978607178 7.03893518447876 4.1657395362854 37.6684341430664 9.04044437408447 13.9919633865356 11.4561672210693 8.53453540802002 8.61541271209717 7.34991407394409 5.62590074539185 4.48546504974365 4.2730712890625 4.17689609527588 4.36424207687378 4.23146915435791 4.62346124649048 5.66986465454102 5.48471117019653 5.44363975524902 5.625084400177 5.62263441085815 5.36486005783081 5.42918729782104 5.29264116287231 4.44044876098633 4.60450506210327 5.43546533584595 5.79003477096558 5.99789476394653 5.3333888053894 5.74849414825439 5.85793495178223 5.88828086853027 5.48007011413574 5.29933738708496 5.8117504119873 7.52297782897949 7.58951234817505 8.08924674987793 8.41229248046875 9.04220390319824 8.73850727081299 9.23527050018311 9.11566257476807 9.60577964782715 10.7568168640137 10.4589128494263 10.1461954116821 11.2876920700073 9.86778545379639 10.446759223938 6.72389078140259 5.3050742149353 3.6534149646759 3.19637560844421 3.73227214813232 42.8956069946289 5.90197515487671 5.30807304382324 5.26352119445801 4.28338575363159 3.46682119369507 7.16644191741943 3.91041684150696
4.41769599914551 3.03999543190002 2.92545390129089 0.357260197401047 2.90421867370605 3.19628643989563 4.32063102722168 4.20999670028687 4.31215143203735 4.17535209655762 4.63698720932007 4.71352005004883 4.02791357040405 4.67107200622559 5.78853178024292 6.03082418441772 4.96264839172363 4.07990074157715 3.87828850746155 3.38781452178955 3.24036526679993 3.0088586807251 15.6548357009888 15.2548494338989 14.2263689041138 7.35012006759644 8.0890645980835 42.5401306152344 33.24658203125 46.5111045837402 22.8182353973389 23.00217628479 31.8535995483398 20.926607131958 16.0044956207275 11.0205125808716 10.9404592514038 10.5101671218872 11.8609504699707 6.68425559997559 7.61366558074951 9.22314357757568 6.64511823654175 5.64064884185791 5.89063787460327 4.61350297927856 5.25216722488403 4.09174394607544 5.01144790649414 4.921715259552 5.09529399871826 5.00792789459229 4.8735179901123 4.61177110671997 5.27232837677002 21.0324668884277 3.49410772323608 7.12686157226562 5.88100862503052 5.66244316101074 14.2621259689331 20.1119403839111 23.5008869171143 13.7442264556885 11.8328981399536 9.01962852478027 3.75574684143066 5.2497615814209 16.13987159729 13.4380693435669 14.5282983779907 15.1270093917847 32.0643653869629 3.34209203720093 4.01178312301636 3.18020439147949 19.8440113067627 4.63302326202393 3.2240583896637 4.35077714920044 3.61546230316162 3.41128587722778 2.85364532470703 2.40952014923096 15.8997611999512 2.92191696166992 2.80009603500366 2.4986846446991 1.61977994441986 4.33885669708252 -0.12342794239521 -0.210510477423668 0.0326760858297348 5.71563005447388 -0.269267916679382 15.5059633255005 25.3273143768311 28.3614463806152 9.87502479553223 5.12165451049805 5.81741142272949 11.9556503295898 5.73573684692383 9.68912506103516 11.5326299667358 30.810188293457 15.0863552093506 6.20253896713257 3.32380867004395 16.8238697052002 3.2892165184021 3.90515232086182 4.42918348312378 5.04193496704102 41.7343559265137 24.7995300292969 13.3402786254883 9.6986198425293 9.59626388549805 8.5462646484375 6.87397384643555 5.62750148773193 4.58422660827637 4.51055383682251 4.68250703811646 4.57218551635742 4.96359539031982 6.04620695114136 5.78872299194336 5.67817211151123 5.85650396347046 5.84223508834839 5.55344200134277 5.63168478012085 5.50803184509277 4.61591196060181 4.86140012741089 5.71356821060181 6.38455867767334 6.33293104171753 6.28722667694092 6.56990623474121 6.32150173187256 6.36722230911255 5.836754322052 5.5542573928833 6.08531379699707 7.91170930862427 7.99277544021606 8.52023506164551 8.91431331634521 9.56202697753906 9.25023937225342 9.74371910095215 9.66476440429688 10.2518329620361 11.5386657714844 11.1099538803101 10.6718282699585 11.9423961639404 10.5665445327759 11.1374759674072 10.2055358886719 9.25812244415283 7.37732601165771 6.80283451080322 7.17292976379395 3.53054475784302 6.25930976867676 5.58917856216431 5.53922176361084 5.0831995010376 4.42609357833862 2.76396584510803 4.11738586425781
4.94785070419312 3.27595353126526 3.23536109924316 0.709475576877594 3.0569851398468 3.24245595932007 4.57138013839722 4.39890813827515 4.5337929725647 4.38928318023682 4.90733814239502 5.01909494400024 4.28174591064453 4.96270322799683 6.18678951263428 6.38108777999878 5.23570585250854 4.28399229049683 4.04507350921631 3.49964594841003 3.3465678691864 3.11937379837036 18.6465034484863 17.7150592803955 16.9673671722412 8.3033390045166 9.38032531738281 4.14211130142212 34.6730880737305 10.4142847061157 23.1570606231689 23.0369281768799 50.0556602478027 28.7795658111572 20.0904674530029 12.5592098236084 11.9177942276001 11.9170427322388 13.4236574172974 6.92282962799072 7.96432638168335 9.81407737731934 7.03666687011719 5.83034610748291 6.09192132949829 4.72218036651611 5.39590835571289 4.18494606018066 5.1636176109314 5.06896114349365 5.24202537536621 5.15074682235718 5.04456233978271 4.81063938140869 5.50734233856201 4.44203042984009 3.92526245117188 10.4254140853882 17.5427379608154 7.16036415100098 20.8605003356934 21.9879302978516 34.9416885375977 20.9572525024414 14.5801591873169 14.9358215332031 6.59736728668213 6.49875545501709 21.4857769012451 20.4450359344482 22.3229312896729 30.9942569732666 4.32704734802246 4.2194652557373 4.20893001556396 4.11395025253296 3.20992469787598 5.07329225540161 4.71795558929443 6.03658008575439 3.70827794075012 3.92661905288696 2.95402503013611 2.55147671699524 2.60044264793396 12.8882989883423 3.01250076293945 2.83738780021667 2.26277327537537 0.872627437114716 0.146532073616982 0.243818268179893 3.64631366729736 -0.148300811648369 10.3828506469727 -0.360349714756012 33.0430641174316 4.20359182357788 18.8630409240723 9.36414337158203 11.3329610824585 20.4384365081787 20.4736309051514 28.5954685211182 17.953784942627 5.07737922668457 24.9945793151855 15.4328746795654 7.9567699432373 3.11940836906433 10.6349277496338 4.44527673721313 5.27360153198242 5.13552618026733 5.04014539718628 15.1359548568726 16.1095676422119 11.6354951858521 10.7969312667847 9.50745391845703 7.69110584259033 6.55787801742554 5.26019668579102 4.79175519943237 4.96857166290283 4.88299560546875 5.28487539291382 6.435378074646 6.13884878158569 5.96209144592285 6.09571218490601 6.05440807342529 5.74822044372559 5.85134935379028 5.78526067733765 4.89783906936646 5.15878009796143 6.01102590560913 6.69393539428711 6.6625075340271 6.63928937911987 6.95672702789307 6.74674320220947 6.88936614990234 6.3055248260498 5.89350605010986 6.42072057723999 8.2553653717041 8.35757446289062 8.96707153320312 9.4746265411377 10.1711492538452 9.83275508880615 10.3174638748169 10.2637977600098 10.9360342025757 12.4126081466675 12.0458383560181 11.5365543365479 14.4678688049316 13.6238126754761 14.1995620727539 8.49098491668701 11.9610548019409 10.0642948150635 10.4158792495728 9.81846523284912 7.54447793960571 6.89717531204224 6.20939302444458 6.16495800018311 5.52235841751099 5.57943344116211 3.53987741470337 4.95473384857178
5.53914165496826 3.52793884277344 3.59797382354736 0.881091713905334 3.18917346000671 3.51297879219055 4.78816556930542 4.69220209121704 4.80074071884155 4.65622758865356 5.2073016166687 5.36758184432983 4.54726219177246 5.28563690185547 6.5776104927063 6.81722497940063 5.60624408721924 4.50273704528809 4.23090839385986 3.61962008476257 3.44908452033997 3.21559023857117 22.8679428100586 21.0368919372559 20.9496154785156 9.70698070526123 11.0935134887695 6.07114791870117 1.07447588443756 6.04372787475586 1.95066428184509 0.375592261552811 4.48663949966431 46.1966133117676 27.580738067627 14.9274425506592 13.2191667556763 14.1955976486206 15.8979043960571 7.20461177825928 8.34558868408203 10.4848957061768 7.47056436538696 6.02432918548584 6.31921195983887 4.87608337402344 5.60792446136475 4.34809446334839 5.42446660995483 5.35464382171631 5.51360893249512 5.37237596511841 5.28127813339233 5.06870126724243 5.80976963043213 5.82935810089111 5.60782814025879 20.1976642608643 32.6314353942871 7.80475902557373 20.6060161590576 24.0587997436523 50.3167343139648 27.1800098419189 18.0601921081543 18.6737022399902 15.7545118331909 19.4433517456055 31.9425315856934 38.5345191955566 40.8810424804688 4.64170551300049 5.11004447937012 4.82060575485229 19.7921562194824 4.30017518997192 5.23905038833618 6.77855062484741 5.84001922607422 7.26094818115234 4.14073514938354 4.13883543014526 3.25571465492249 3.02360892295837 2.95342040061951 3.27327346801758 4.44220447540283 11.2336378097534 2.45402574539185 1.42906129360199 0.305563628673553 0.509334683418274 0.201535895466805 -0.0811240151524544 -0.19028314948082 6.83930349349976 -0.20093834400177 8.55683135986328 6.10279178619385 9.12748146057129 7.37050580978394 35.0216407775879 10.5518264770508 4.04953765869141 17.2885608673096 33.9815902709961 12.9330015182495 3.94319367408752 14.062479019165 3.17893004417419 32.0292015075684 4.41691017150879 10.7812471389771 5.21501874923706 7.04947280883789 44.5212593078613 20.9975204467773 15.3225250244141 13.0013771057129 11.5748920440674 9.02694606781006 7.52749013900757 6.01157760620117 4.99553632736206 5.18817377090454 5.12103986740112 5.5419864654541 6.76428270339966 6.44927501678467 6.22721862792969 6.34800004959106 6.28765201568604 5.97992610931396 6.05400800704956 5.99232864379883 5.2208194732666 5.50010824203491 6.33455944061279 7.01050186157227 6.9895224571228 6.99541473388672 7.3386926651001 7.14226245880127 7.36486482620239 6.80069828033447 6.30713891983032 6.88702297210693 8.69892883300781 8.74460029602051 9.44420909881592 10.1460151672363 10.8308849334717 10.4738159179688 10.946551322937 10.940896987915 11.6824941635132 13.3273496627808 13.049033164978 16.2345714569092 20.5661029815674 18.8696575164795 19.7504844665527 8.76513862609863 13.2626333236694 12.8785638809204 13.486572265625 11.9030570983887 9.87527847290039 7.89339160919189 6.81170892715454 6.78626346588135 6.10543537139893 6.07031440734863 3.73442101478577 5.100417137146
6.25172996520996 3.89432048797607 4.08521556854248 1.40486586093903 3.40305066108704 3.72094011306763 5.0717339515686 5.01922845840454 5.09076595306396 4.95133209228516 5.55017232894897 5.74830055236816 4.84891939163208 5.6520094871521 7.05011701583862 7.3109884262085 6.00722074508667 4.83386468887329 4.45225143432617 3.7477867603302 3.55699133872986 3.30828666687012 29.2238216400146 26.8806762695312 27.051248550415 11.3924570083618 13.4897832870483 13.095458984375 3.33523607254028 13.7498579025269 2.38103723526001 1.26156628131866 6.69073390960693 13.1484050750732 44.5116119384766 18.7463474273682 14.9785585403442 18.1422786712646 20.3098068237305 7.58977317810059 8.7823486328125 11.3364295959473 7.89339065551758 6.21347570419312 6.56992626190186 5.05083751678467 5.85058498382568 4.52593040466309 5.71849155426025 5.73509168624878 5.89380884170532 5.78371667861938 5.55034971237183 5.34231948852539 6.10930776596069 6.24475336074829 7.28786849975586 7.16366004943848 6.00615119934082 8.27975654602051 12.6923122406006 51.0250434875488 40.9593124389648 36.4896850585938 23.1595840454102 24.2805118560791 24.6111698150635 36.5754127502441 52.9748802185059 7.51341104507446 4.19917488098145 5.09048223495483 5.21531677246094 11.6726417541504 4.30479097366333 4.41295385360718 6.35280513763428 8.4532356262207 6.70970821380615 8.58191776275635 4.93098449707031 4.39626741409302 3.79716229438782 3.30436515808105 3.23091721534729 3.32807302474976 5.83909320831299 2.85009860992432 3.43926501274109 2.06532645225525 5.36988353729248 0.61449921131134 0.566092014312744 0.236266583204269 0.127861306071281 -0.143583536148071 0.0922419205307961 0.0154068134725094 12.7895984649658 20.148998260498 14.1964426040649 2.33978366851807 3.2748486995697 4.16253089904785 4.16606283187866 3.95456004142761 4.02769470214844 3.98508882522583 3.35432076454163 3.31692886352539 3.51916074752808 4.62684774398804 4.55975961685181 5.45080137252808 5.43133449554443 5.13566493988037 34.7343673706055 22.8954105377197 16.37255859375 14.7551965713501 11.0503940582275 8.82617855072021 6.87723445892334 5.20613670349121 5.36881732940674 5.30730152130127 5.75897789001465 7.01368999481201 6.68952369689941 6.46931076049805 6.59671688079834 6.53484678268433 6.2230019569397 6.25703525543213 6.18494939804077 5.4833984375 5.79832792282104 6.64409399032593 7.3255729675293 7.31771564483643 7.34416770935059 7.72237062454224 7.53820514678955 7.83416748046875 7.34331750869751 6.82084178924561 7.50237703323364 9.24160575866699 9.13030433654785 9.89508438110352 10.8598918914795 11.5795392990112 11.1945905685425 11.6530904769897 11.7218341827393 12.5314903259277 14.3042879104614 20.3081283569336 32.6430702209473 39.1558380126953 31.2272052764893 35.6435966491699 29.2771835327148 14.6547021865845 14.7512731552124 15.6136589050293 15.0302896499634 11.3496646881104 8.72508239746094 7.42564821243286 7.37988471984863 6.63212442398071 6.60515928268433 6.01215744018555 7.07929039001465
7.27157497406006 4.25750970840454 4.28549242019653 1.0114518404007 3.48826694488525 3.93388628959656 5.39004850387573 5.37922954559326 5.4011402130127 5.29301595687866 5.93016815185547 6.19882154464722 5.20391941070557 6.06948375701904 7.59780645370483 7.86825656890869 6.44958305358887 5.17962312698364 4.69570875167847 3.88752341270447 3.64500737190247 3.38801836967468 39.4955596923828 36.5603675842285 36.8274536132812 13.8648433685303 17.3884925842285 23.284948348999 14.173677444458 23.6176738739014 7.98013877868652 5.85469579696655 19.1310863494873 10.0159730911255 12.6110515594482 25.5702571868896 17.2821006774902 25.4360942840576 28.5750045776367 8.15625476837158 9.32684326171875 12.4252576828003 8.50043487548828 6.45728874206543 6.84191608428955 5.21700954437256 6.06856155395508 4.67967844009399 6.01636075973511 6.15559005737305 6.32167673110962 6.24654483795166 5.81696510314941 5.59769105911255 6.40525484085083 6.69033145904541 7.87914705276489 9.66545295715332 29.8560886383057 8.32622528076172 32.5248680114746 26.4381675720215 0.446933746337891 52.699405670166 30.7869739532471 33.6753730773926 43.1813850402832 20.5730934143066 3.40570998191833 4.10997343063354 5.18250799179077 5.2079291343689 5.22070550918579 13.2910823822021 5.21107053756714 4.65333366394043 9.15061950683594 10.6104755401611 8.56879711151123 10.0361213684082 6.24552917480469 6.22344446182251 3.88140892982483 3.35289740562439 4.1838116645813 3.39827442169189 5.61590957641602 3.22685194015503 23.5233936309814 2.66707253456116 1.06802463531494 1.12388229370117 1.45936512947083 1.19895851612091 0.92193078994751 0.308598756790161 0.326086789369583 0.588043928146362 0.962160885334015 10.1989812850952 16.274169921875 2.90038967132568 3.53292942047119 4.37972974777222 4.48196840286255 4.23246479034424 4.57027292251587 4.42884588241577 3.59523725509644 3.38520812988281 3.98292708396912 4.76135587692261 5.10828399658203 5.565101146698 5.71308326721191 5.83590221405029 24.553316116333 41.0558662414551 22.1324558258057 19.88991355896 14.0536737442017 10.7443971633911 7.95916843414307 5.42132663726807 5.56087112426758 5.4885048866272 5.96424102783203 7.25720548629761 6.92920351028442 6.69912815093994 6.83858823776245 6.7675666809082 6.45326519012451 6.45191860198975 6.36697578430176 5.70924854278564 6.04209089279175 6.9142599105835 7.62461423873901 7.63226747512817 7.70034456253052 8.10125637054443 7.9422755241394 8.30155849456787 7.83292770385742 7.27212238311768 8.10328960418701 9.81841945648193 9.58457279205322 10.3851203918457 11.5521459579468 12.399338722229 12.0243368148804 12.4977827072144 13.2088375091553 13.4931325912476 21.0455379486084 32.4359588623047 11.9958877563477 18.9743175506592 25.7334251403809 22.259069442749 49.0280876159668 19.4073944091797 18.7971897125244 19.0550098419189 19.6809463500977 12.9175338745117 9.87338542938232 8.13844585418701 8.06751441955566 7.18163108825684 7.21656370162964 6.58866500854492 7.54786968231201
8.55810070037842 4.68338680267334 4.74395513534546 1.01469838619232 3.7006688117981 4.18118000030518 5.74013471603394 5.77264833450317 5.75413179397583 5.66644811630249 6.36567544937134 6.74768114089966 5.59302616119385 6.54617881774902 8.19886684417725 8.4980525970459 6.9701509475708 5.60200881958008 4.96460962295532 4.03604078292847 3.76696729660034 3.93117761611938 57.7180595397949 54.7799339294434 55.5864486694336 17.7598094940186 24.6983242034912 32.4200248718262 7.0701961517334 20.0797672271729 13.6848764419556 12.2018918991089 3.98212218284607 10.724928855896 17.485595703125 42.0943069458008 20.7291812896729 42.3654251098633 46.4438438415527 8.81764984130859 10.1001682281494 13.9577331542969 9.29960918426514 6.73307466506958 7.15625095367432 5.40435552597046 6.3442497253418 4.8813271522522 6.34830188751221 6.61109399795532 6.7978982925415 6.76759958267212 6.09265232086182 6.1066632270813 6.70216703414917 7.18910217285156 8.47899055480957 10.5296545028687 7.57137823104858 11.2986030578613 50.3902549743652 18.3712139129639 0.560027778148651 1.6958110332489 47.0888442993164 51.698314666748 8.67066287994385 3.59746694564819 5.39300680160522 5.70574140548706 5.54469394683838 5.4370288848877 13.0201253890991 4.4086446762085 5.4884672164917 4.94157361984253 10.2482624053955 14.5748672485352 16.7567501068115 14.502911567688 6.21032524108887 4.45601749420166 3.96524262428284 3.4244179725647 3.52453231811523 3.82120585441589 3.75503778457642 20.5951251983643 3.61129474639893 11.7631330490112 2.90136194229126 1.80020332336426 2.33604264259338 1.89441096782684 1.42264914512634 1.22025942802429 1.03338801860809 0.770000100135803 6.27881765365601 1.94920110702515 2.31655144691467 2.99824476242065 4.00291728973389 5.20023250579834 9.10937786102295 9.24927139282227 5.16777038574219 5.00243997573853 3.95152902603149 3.99626111984253 4.71268224716187 5.37599754333496 5.21980619430542 5.58925437927246 5.83384895324707 12.1559915542603 4.99360132217407 6.2110333442688 32.2413597106934 29.5791797637939 19.144401550293 13.8361682891846 9.45566654205322 5.86426544189453 6.08093404769897 5.66913175582886 6.17951917648315 7.51367425918579 7.17607164382935 6.93984889984131 7.09332704544067 7.01116847991943 6.68095684051514 6.65502071380615 6.55560159683228 5.94047260284424 6.27615547180176 7.16738748550415 7.90326070785522 7.94453954696655 8.05409622192383 8.46445846557617 8.3387508392334 8.75744152069092 8.28140258789062 7.68922996520996 8.7137975692749 10.5384740829468 10.6790990829468 11.0432462692261 12.4039726257324 13.2087841033936 12.9671401977539 13.4310359954834 23.7127876281738 15.571816444397 14.89976978302 13.0557746887207 12.1708221435547 12.3052806854248 10.3511095046997 11.221321105957 9.79110717773438 35.5431022644043 34.688606262207 27.853458404541 29.1127223968506 14.6920795440674 11.5308380126953 8.8872709274292 8.82025623321533 7.80609607696533 7.8689284324646 7.21059417724609 8.13232135772705
10.4825162887573 5.16432666778564 5.25004529953003 1.06693255901337 3.9792275428772 4.459312915802 6.13334655761719 6.22565031051636 6.16512680053711 6.09184312820435 6.88703441619873 7.36513996124268 6.04334735870361 7.08172988891602 8.9076623916626 9.26731777191162 7.60663604736328 6.09117937088013 5.26675796508789 4.24282217025757 3.91684722900391 3.4141092300415 0.445121437311172 22.0327243804932 3.39550280570984 24.4406852722168 41.5646095275879 51.0956954956055 51.6089286804199 2.00662636756897 24.1660118103027 13.4749441146851 6.01734685897827 0.434129863977432 1.1841287612915 8.65551948547363 26.0977210998535 1.56901776790619 1.50760400295258 9.55740165710449 11.1666221618652 16.4310321807861 10.5307397842407 7.09728527069092 7.57674074172974 5.67614936828613 6.69756031036377 5.15155744552612 6.74313402175903 7.12814903259277 7.29324722290039 7.31681776046753 6.36608076095581 6.84115886688232 7.0286431312561 7.77061605453491 9.17723751068115 11.5139179229736 12.2369337081909 15.3120946884155 3.33934688568115 22.2941493988037 1.07804155349731 5.5892767906189 1.98964154720306 2.21242475509644 3.8546450138092 8.44367790222168 5.87244844436646 5.78937435150146 5.74288749694824 12.5649738311768 14.0075950622559 6.11340856552124 5.93369960784912 5.20102977752686 15.4269409179688 23.901065826416 3.35686182975769 19.629186630249 10.6172399520874 4.55672693252563 4.00703477859497 4.19861650466919 3.83683013916016 4.22528982162476 4.10209226608276 4.07253217697144 3.96846342086792 14.4924716949463 3.23403692245483 2.76094317436218 16.7824935913086 2.19274258613586 1.95859348773956 1.68630945682526 1.69466698169708 1.68053507804871 1.07138168811798 1.6826411485672 2.63414239883423 4.74400615692139 4.1547703742981 5.28691625595093 5.55719423294067 5.63839101791382 5.84622573852539 5.33093023300171 5.39499711990356 4.93045043945312 5.67980241775513 6.09315204620361 6.17352294921875 6.39922046661377 6.38344287872314 6.31505966186523 5.73320341110229 6.51044368743896 35.8544654846191 49.9124603271484 28.6366100311279 18.950870513916 11.5843420028687 6.6665358543396 6.88584518432617 6.02778387069702 6.40604782104492 7.78512287139893 7.43472766876221 7.19075489044189 7.36155557632446 7.26487922668457 6.92434597015381 6.85990858078003 6.75708532333374 6.18688011169434 6.52874374389648 7.44327926635742 8.1959285736084 8.22957897186279 8.36491298675537 8.84334945678711 8.71702671051025 9.19057083129883 8.72254180908203 8.10347080230713 9.35938930511475 11.687313079834 13.3573589324951 11.9391059875488 13.5345487594604 14.1961059570312 13.9147415161133 14.4070482254028 12.5409908294678 13.9807596206665 16.2723865509033 14.3641710281372 13.7368268966675 14.9147500991821 12.0095090866089 15.1002511978149 12.1521577835083 15.260214805603 15.6730346679688 46.8997917175293 48.3736991882324 16.7856693267822 13.3188600540161 11.2071018218994 9.95252990722656 8.57781791687012 8.62324047088623 7.84801912307739 8.7449426651001
13.4370622634888 5.72927713394165 5.84993362426758 1.07962954044342 4.24997854232788 4.84114789962769 6.58875322341919 6.75484800338745 6.62672567367554 6.60354280471802 7.47822618484497 8.09635162353516 6.56289625167847 7.7206072807312 9.74383640289307 10.1570539474487 8.36798858642578 6.74343490600586 5.66926765441895 4.43331527709961 4.03341579437256 3.6050500869751 0.779427409172058 0.366453319787979 6.66958522796631 39.7712707519531 1.34202325344086 0.754929304122925 0.761456489562988 23.8383617401123 9.00597190856934 0.930817544460297 7.69978857040405 2.95997071266174 0.776173651218414 10.0642709732056 40.195369720459 3.62634444236755 3.56269764900208 10.7136478424072 12.5351066589355 20.025390625 12.4773597717285 7.59465837478638 8.11239337921143 6.02113437652588 7.13215112686157 5.447190284729 7.12006282806396 7.62004518508911 7.80514049530029 7.9394416809082 6.67517805099487 7.85993099212646 7.47854995727539 8.39048385620117 10.0177011489868 12.6737928390503 13.5996751785278 26.8822994232178 3.43571257591248 0.910103261470795 1.10296022891998 2.81168651580811 3.19209408760071 4.97447156906128 5.04542779922485 5.17720556259155 6.19041919708252 5.81737518310547 6.10975933074951 26.3110485076904 5.61490249633789 7.0530104637146 6.69987726211548 5.79200220108032 23.4500560760498 2.87082886695862 3.3872709274292 3.47300243377686 8.29106521606445 4.65331125259399 4.15410757064819 4.45545625686646 4.25506687164307 4.49179935455322 4.40459203720093 4.16863965988159 4.21060085296631 3.80386543273926 3.56002187728882 2.8423011302948 2.38957786560059 2.33614158630371 2.17078757286072 1.95821356773376 1.91709792613983 1.91260039806366 1.55621242523193 2.35024189949036 3.26951050758362 4.10415315628052 5.04306650161743 9.28482627868652 12.2878437042236 5.92245960235596 5.9174952507019 6.29778146743774 6.27899503707886 14.4311571121216 6.66513061523438 12.4666061401367 13.7322473526001 9.64725303649902 6.81711149215698 6.77820682525635 6.08500289916992 7.80273580551147 5.94435882568359 5.63749933242798 48.8251953125 28.1053276062012 14.7218532562256 7.70616674423218 7.9203634262085 6.6550931930542 6.74688291549683 8.07265377044678 7.7091007232666 7.45740175247192 7.64603996276855 7.5391902923584 7.18566560745239 7.08386039733887 6.9638843536377 6.45587921142578 6.81289339065552 7.71965551376343 8.48900413513184 8.54805946350098 8.71026039123535 9.22513389587402 9.1048583984375 9.62685966491699 9.15104961395264 8.50031661987305 10.0047874450684 14.8749876022339 17.1029605865479 13.3815803527832 15.6380453109741 16.6862163543701 15.0910749435425 15.5241775512695 23.6386947631836 17.6733303070068 17.8843955993652 16.9305953979492 16.7690277099609 16.2944622039795 12.7896595001221 16.6213817596436 13.9729413986206 20.2447319030762 21.9034996032715 16.9555988311768 15.5072994232178 27.4178600311279 16.6861839294434 17.7828598022461 13.8336534500122 9.42681884765625 9.50567054748535 8.55083179473877 9.70098114013672
19.4071521759033 6.4687671661377 6.62179136276245 1.22483515739441 4.47405862808228 5.32714462280273 7.10315990447998 7.36617469787598 7.18373203277588 7.18389749526978 8.16900253295898 8.99679851531982 7.21374559402466 8.58435344696045 10.8132019042969 11.2536039352417 9.32736968994141 7.59815406799316 6.11857509613037 4.69732522964478 4.27052927017212 3.78370714187622 1.08358788490295 1.643226146698 0.72977352142334 7.614089012146 3.28026390075684 3.22615718841553 1.24104964733124 0.51579338312149 0.6878502368927 1.11540949344635 20.6423320770264 14.5982637405396 1.86739432811737 17.8625450134277 31.0213584899902 3.68793845176697 3.70700287818909 12.455587387085 14.5187187194824 25.3784732818604 14.8959169387817 8.22671222686768 8.76312637329102 6.39787817001343 7.56670188903809 5.78610849380493 7.59205007553101 8.20986461639404 8.38109683990479 8.66306114196777 7.0062255859375 9.24910163879395 8.04325771331787 9.12294006347656 11.0462827682495 14.1323499679565 15.3475894927979 8.53107643127441 4.51242589950562 2.85662269592285 2.07084846496582 14.1531400680542 7.91488265991211 7.01838064193726 6.97612810134888 8.05546474456787 7.78197526931763 6.1758017539978 6.6194372177124 5.60578393936157 7.78827047348022 7.95517492294312 7.38573312759399 6.30230903625488 3.83333086967468 10.470067024231 3.60461616516113 3.56666469573975 3.9095733165741 4.84310913085938 4.23193454742432 4.53023862838745 4.7883939743042 4.99336004257202 4.59101581573486 4.73883104324341 18.8058547973633 3.89459252357483 4.15337419509888 4.07972383499146 3.59111642837524 2.75296378135681 2.51763248443604 2.06645941734314 2.13372278213501 2.16106772422791 2.07616472244263 2.83161854743958 3.91208600997925 13.016263961792 15.7776746749878 26.6466636657715 6.40655851364136 6.08505773544312 6.58636379241943 7.85581874847412 6.99628210067749 6.66989755630493 7.40640068054199 6.22423505783081 6.50485754013062 6.93157529830933 7.02548170089722 6.93884897232056 7.10833168029785 19.2233180999756 7.38901233673096 9.81811428070068 5.54105281829834 47.8625869750977 19.7209987640381 9.10912990570068 9.29620838165283 7.63721036911011 7.37733697891235 8.38188934326172 8.05411624908447 7.7461085319519 7.94590425491333 7.89142036437988 7.47398853302002 7.31820631027222 7.19237089157104 6.74364948272705 7.0817551612854 8.01986312866211 8.800124168396 8.88069152832031 9.07403373718262 9.62182903289795 9.5056734085083 10.1074638366699 9.61386966705322 8.98998641967773 10.6575260162354 19.5363845825195 22.2151679992676 15.6327924728394 20.4335060119629 21.4876155853271 16.3181228637695 16.794527053833 32.9650993347168 21.4283294677734 18.6435871124268 21.2119789123535 14.180718421936 19.0191040039062 16.4084453582764 19.2296676635742 17.1821384429932 20.7712345123291 23.7096557617188 20.9163417816162 20.2784519195557 17.7279262542725 31.0544319152832 33.2080039978027 21.0189437866211 10.2692785263062 12.9492845535278 9.31672382354736 12.4546222686768
35.3107757568359 7.60981035232544 7.71324110031128 1.57523202896118 4.73638200759888 5.82389259338379 7.72439241409302 8.12680625915527 7.87125825881958 7.88073396682739 9.04263687133789 10.2126836776733 8.13157844543457 9.71500778198242 12.19873046875 12.6845588684082 10.6673765182495 8.48007392883301 6.66704273223877 5.05969619750977 4.51551246643066 3.9885082244873 1.32137370109558 0.850156784057617 3.92059421539307 1.39169132709503 4.08481311798096 3.25026154518127 20.2538909912109 18.9674682617188 2.50800013542175 1.27832043170929 0.53049099445343 0.571503043174744 5.40596055984497 0.935467660427094 0.831611931324005 3.81021881103516 3.79277276992798 14.6966648101807 16.8348197937012 35.1035308837891 19.795431137085 8.96371841430664 9.45378589630127 6.77106809616089 8.08754634857178 6.19858264923096 8.1682071685791 8.93107795715332 8.97662734985352 9.3791389465332 7.28853225708008 10.9398612976074 8.68837642669678 9.96085834503174 12.2551851272583 15.9519348144531 17.5708332061768 14.2016077041626 6.77287149429321 6.47065019607544 4.56163167953491 7.45757913589478 8.93708038330078 7.8828763961792 7.7681565284729 8.77410793304443 15.4817295074463 6.49640369415283 11.6565132141113 6.78383159637451 10.6898174285889 8.82645511627197 8.17885112762451 6.66147041320801 5.0317907333374 3.00842118263245 4.7640209197998 4.39741516113281 4.3934178352356 4.90044641494751 4.34414672851562 4.71615028381348 4.93391752243042 5.45547103881836 4.93071603775024 5.058753490448 4.72590827941895 4.70865821838379 9.03359317779541 4.24860811233521 3.80191850662231 3.50769305229187 2.62777948379517 2.87189197540283 2.62354564666748 2.24601650238037 2.10001063346863 3.76544070243835 9.02186584472656 13.5894908905029 9.33779811859131 6.20781707763672 6.60463905334473 7.58956384658813 6.79985618591309 9.48247241973877 7.1888542175293 6.81403779983521 7.59190845489502 7.33189868927002 10.7595949172974 7.21708106994629 7.26523685455322 7.0366096496582 7.45929002761841 7.14265632629395 8.04361629486084 6.35804891586304 23.7771778106689 4.53313064575195 28.8841781616211 11.1410303115845 11.1864233016968 9.07947444915771 8.23992729187012 9.18270111083984 8.80861282348633 8.30687808990479 8.34841442108154 8.54999828338623 7.78809404373169 7.56912088394165 7.4106240272522 7.03645658493042 7.38667488098145 8.32241535186768 9.11895656585693 9.23488426208496 9.44233131408691 10.0407695770264 9.90456008911133 10.5682048797607 10.1036815643311 9.60626697540283 11.3872480392456 35.3324928283691 31.5108623504639 22.834846496582 29.3094863891602 30.7693576812744 18.1685619354248 19.0357398986816 16.6777515411377 21.7333393096924 18.7380561828613 17.7880954742432 20.0048408508301 21.5801734924316 18.9576778411865 22.5072803497314 42.8880462646484 34.6873741149902 36.2336578369141 27.6102275848389 43.8694648742676 27.5785121917725 15.5872745513916 9.32504844665527 37.3836250305176 15.1905517578125 19.5155258178711 12.2704105377197 16.6943588256836
2.72929358482361 9.56152629852295 9.40976524353027 1.10756838321686 4.96989440917969 6.24824142456055 8.53792858123779 9.09000587463379 8.84962368011475 8.76013660430908 10.1519145965576 11.915825843811 9.35109710693359 11.0893306732178 14.0253620147705 14.454327583313 12.6222162246704 9.65764617919922 7.3191180229187 5.4908766746521 4.81927490234375 4.20578861236572 1.56491148471832 1.14696669578552 0.898756504058838 2.32173371315002 3.06872034072876 3.31272768974304 35.6821517944336 1.31168949604034 3.52314829826355 1.96169483661652 0.783394336700439 0.896888077259064 7.7949800491333 5.46988964080811 9.38322353363037 3.9163384437561 4.0135760307312 17.2719802856445 20.5457973480225 54.7993392944336 28.0992622375488 9.80980205535889 10.370979309082 7.26036071777344 8.71074104309082 6.66239213943481 8.81847095489502 9.7519998550415 9.66477394104004 10.2301254272461 7.55222845077515 13.5114097595215 9.39536285400391 10.9191818237305 13.654501914978 18.174919128418 20.7958393096924 16.4190673828125 14.0912399291992 15.4990339279175 4.83969068527222 27.2381076812744 10.6429920196533 9.41555118560791 9.27131748199463 10.3896293640137 5.93174743652344 7.18442583084106 7.76571083068848 16.0577697753906 15.9720163345337 10.2025632858276 9.48935699462891 7.47323560714722 5.53034210205078 4.52829599380493 5.63931846618652 4.96421766281128 4.61506319046021 5.0647292137146 4.48137283325195 4.83632850646973 5.05082368850708 5.61057567596436 5.39277267456055 5.61604356765747 5.47069025039673 5.31763601303101 4.62543249130249 18.3994541168213 7.38109827041626 13.8571062088013 3.66984605789185 3.15192198753357 2.9623658657074 2.86964845657349 3.85003066062927 3.8645191192627 5.67215204238892 5.31286859512329 14.0294675827026 15.3820676803589 26.2224884033203 10.2421274185181 18.5646572113037 16.9240531921387 7.43498802185059 7.50394678115845 8.00989723205566 7.72418880462646 8.26136684417725 8.52744293212891 9.09878444671631 8.9948091506958 8.51571464538574 7.99709033966064 9.53036975860596 6.87940835952759 5.62959051132202 8.02940940856934 48.0599708557129 16.6175727844238 14.0016756057739 11.3698682785034 9.56014156341553 10.5203790664673 9.69754695892334 9.07294178009033 9.12639617919922 9.35933589935303 8.33895683288574 7.84851503372192 7.65303802490234 7.34964466094971 7.70890283584595 8.65174198150635 9.45017337799072 9.61977386474609 9.83567428588867 10.4625244140625 10.300705909729 11.0232782363892 10.9621334075928 10.4335193634033 12.1853284835815 19.3110427856445 50.2635307312012 39.4848327636719 48.030460357666 49.8750686645508 23.4822158813477 21.9148025512695 13.4157657623291 14.4517345428467 19.9314823150635 21.1095561981201 30.2875156402588 31.4518566131592 34.006893157959 22.9622478485107 21.0686817169189 18.5615482330322 21.1169242858887 30.8650455474854 29.5294132232666 33.8564033508301 21.2611827850342 11.5038690567017 10.2066516876221 27.9608478546143 34.9946174621582 17.9362468719482 24.0569553375244
-1.26883292198181 15.5145301818848 12.4812431335449 0.242864176630974 5.26094245910645 6.73401594161987 9.28227710723877 10.2743797302246 10.0949668884277 9.84568119049072 11.6150016784668 14.3368501663208 10.9063777923584 12.9351682662964 16.2062149047852 16.5522060394287 15.5036554336548 11.2184839248657 8.04910755157471 5.96591377258301 5.1831169128418 4.49437141418457 3.38040161132812 2.78043532371521 2.97315359115601 2.50654101371765 3.10886001586914 3.40551209449768 1.45589053630829 3.38720154762268 4.28410005569458 2.88252091407776 1.56070590019226 1.47231924533844 1.02242088317871 1.30053102970123 1.25424456596375 4.07325839996338 3.81137180328369 19.175407409668 24.0261688232422 10.530553817749 45.8016014099121 10.7493410110474 11.39599609375 7.8549656867981 9.44535446166992 7.19130420684814 9.51663684844971 10.6663846969604 10.3879795074463 11.1282796859741 7.80059766769409 18.2152423858643 10.2498416900635 12.0499334335327 15.1305675506592 21.0218544006348 25.5227642059326 19.9328804016113 17.3348693847656 22.5112247467041 19.813362121582 4.71071338653564 13.2809648513794 12.0122194290161 11.7596769332886 13.3588104248047 6.80918264389038 8.01082420349121 10.1884670257568 6.34892416000366 28.6134662628174 12.1209964752197 11.3575229644775 8.40168476104736 8.14024543762207 3.7924907207489 5.65736532211304 6.16746950149536 4.76750707626343 5.23776292800903 4.62805986404419 4.99145078659058 5.22142887115479 5.78342294692993 5.5748987197876 5.78823137283325 5.6074652671814 5.37735462188721 5.14395523071289 4.30303001403809 4.41839027404785 16.6320037841797 5.60945606231689 7.86859369277954 5.49045705795288 5.92656087875366 5.62073707580566 4.05874252319336 4.90780925750732 5.06552791595459 5.05794715881348 6.58413982391357 7.01711511611938 6.5587944984436 6.86313343048096 7.24321699142456 7.72209310531616 8.13848304748535 8.22489929199219 9.2372989654541 9.29298210144043 9.1693811416626 9.17906284332275 9.27142429351807 9.17278575897217 8.71522998809814 9.13446521759033 8.96604061126709 7.36941289901733 4.86302375793457 4.85114049911499 30.5646648406982 18.4617710113525 15.0828723907471 11.9983367919922 12.29407787323 10.7499990463257 9.96888732910156 10.0213203430176 10.2573118209839 9.06057739257812 8.17185211181641 7.89393615722656 7.7035083770752 8.06077003479004 8.99695682525635 9.84541416168213 10.036717414856 10.2391395568848 10.8852453231812 10.6907825469971 11.463583946228 12.2451410293579 12.3159837722778 12.9558744430542 11.1625156402588 10.0199565887451 15.7184000015259 14.7109031677246 14.8933057785034 36.356201171875 25.900857925415 23.0692691802979 23.9183483123779 24.3161201477051 30.1603927612305 20.2624454498291 24.9144439697266 21.7340660095215 25.3705654144287 18.3887367248535 19.4194564819336 16.2723445892334 22.2102222442627 19.5238342285156 20.9311199188232 39.3792381286621 16.7334575653076 13.5629625320435 10.4759893417358 9.71014213562012 32.0137252807617 41.0613594055176
1.59928035736084 11.9074945449829 18.9446868896484 0.276951372623444 5.67365646362305 7.50127983093262 10.2710256576538 11.692551612854 11.6891870498657 11.2373895645142 13.5861434936523 17.8830585479736 13.131157875061 15.3072052001953 18.9301166534424 20.8580474853516 20.2102355957031 13.3443450927734 8.92128276824951 6.53261661529541 5.60488319396973 4.86476516723633 3.61082220077515 2.96330666542053 6.21114587783813 5.23530626296997 3.2676637172699 3.54665160179138 2.11597871780396 3.58883738517761 4.55354976654053 4.10074424743652 2.83411741256714 1.03031766414642 1.20268702507019 8.96086120605469 2.23553729057312 4.28520822525024 3.83620500564575 24.4660263061523 29.3043422698975 1.55616796016693 2.49232172966003 11.9195966720581 12.7090492248535 8.56735610961914 10.3076858520508 7.68910455703735 10.0501756668091 11.5389223098755 11.0728931427002 12.2679109573364 8.09814739227295 31.0365600585938 11.1538343429565 13.0123987197876 17.47336769104 26.2692680358887 34.5244102478027 27.5160789489746 24.6162567138672 32.9117126464844 35.0975341796875 21.6883068084717 17.1135902404785 15.8665828704834 15.6414022445679 18.4727020263672 9.36234283447266 10.7534141540527 13.4147033691406 8.67890930175781 7.64302778244019 15.0148019790649 14.1821603775024 9.70699977874756 10.144570350647 8.32278537750244 8.92146110534668 8.27946090698242 4.93766689300537 5.38872289657593 4.77152442932129 5.15509796142578 5.39017868041992 5.98271703720093 5.7097864151001 5.8815016746521 5.74327611923218 5.58955860137939 5.29144811630249 5.08814001083374 4.54104709625244 3.76022338867188 17.1092433929443 28.7715187072754 17.1651973724365 13.7153568267822 9.60311031341553 6.08436346054077 7.51970815658569 5.65304613113403 6.13217830657959 7.16859149932861 8.16648864746094 7.21597146987915 7.08632135391235 8.00744915008545 8.26333141326904 9.33964252471924 9.47187232971191 10.1797351837158 11.3013534545898 11.371901512146 11.3003044128418 11.2363977432251 10.2014827728271 10.2980461120605 10.811749458313 8.1735725402832 8.30186176300049 5.87743473052979 5.75257635116577 11.2661924362183 26.5056667327881 22.1049652099609 15.8767347335815 14.6325168609619 12.0763149261475 11.047306060791 11.1002426147461 11.3351583480835 9.91187477111816 8.51380443572998 8.1531400680542 8.05854892730713 8.44589138031006 9.35971641540527 10.2580194473267 10.4525203704834 10.6277551651001 11.3026666641235 11.0941677093506 12.1575469970703 13.7562656402588 14.8614101409912 13.7437515258789 12.9704656600952 12.521333694458 14.069221496582 21.8429946899414 22.7371292114258 28.281135559082 25.5030345916748 23.558614730835 27.1738681793213 26.4903697967529 23.1962738037109 23.0017547607422 26.1914482116699 23.0681667327881 22.7006988525391 22.7218894958496 21.8680458068848 17.5904083251953 13.9480810165405 19.6578712463379 28.9468688964844 13.4867782592773 20.2024803161621 11.7423133850098 10.300950050354 16.4517078399658 9.46930122375488 9.24340438842773
