NCOLS 174
NROWS 32
XLLCORNER 353952
YLLCORNER 6701008
CELLSIZE 16 
NODATA_value -3.4e+38 
-4.54239702224731 -4.76932764053345 -5.32959079742432 -5.15863704681396 -2.94058728218079 -0.28319039940834 3.8348388671875 2.87777709960938 2.58981037139893 11.8702220916748 8.11642360687256 -3.99231028556824 -4.11854696273804 -1.97314286231995 -3.72368264198303 -4.58386182785034 -4.25087833404541 -2.38772463798523 -4.27267408370972 -4.25985383987427 -4.29714441299438 -4.19717073440552 4.0763726234436 -3.45129227638245 -2.72229599952698 -1.39955651760101 -3.08809280395508 -2.98267984390259 3.928307056427 -1.81850206851959 -3.76720476150513 -3.37670421600342 -1.77720880508423 -1.82956671714783 -1.25562882423401 -2.83615446090698 6.94533061981201 4.5833911895752 3.66097378730774 8.32804584503174 4.95736503601074 1.84272313117981 3.17186141014099 -1.44976091384888 -3.84350538253784 -3.25379753112793 -2.31494331359863 -0.742434680461884 3.13366317749023 -0.49793541431427 3.61380004882812 -0.740902364253998 10.3390436172485 2.77649021148682 -0.647035300731659 -0.489800840616226 11.0504875183105 -0.156232669949532 3.10439538955688 2.48480463027954 2.69733190536499 2.20756411552429 2.0103919506073 3.08081459999084 2.16887331008911 2.5514669418335 2.19206428527832 2.33871459960938 2.26600050926208 1.98744976520538 2.15738892555237 2.1502845287323 1.97660601139069 2.16626906394958 2.10800504684448 2.2652702331543 1.81477999687195 1.89199805259705 2.20254802703857 1.71266949176788 1.89710891246796 2.08353972434998 1.86279439926147 1.91049826145172 2.1673150062561 3.78440713882446 3.53630089759827 3.11108660697937 4.30469751358032 4.38511657714844 4.09235668182373 5.01794052124023 4.18341398239136 2.99410200119019 4.56945705413818 2.77254223823547 3.04008626937866 2.90589284896851 2.71372866630554 2.88242840766907 2.98265361785889 3.86509561538696 4.17442560195923 4.17865085601807 4.08268070220947 3.77010416984558 3.56038022041321 3.79356026649475 3.94713664054871 3.73583221435547 2.89908885955811 2.67645168304443 14.2345771789551 10.6716871261597 5.44696140289307 2.07389831542969 2.26690196990967 3.29582071304321 3.16352391242981 3.74191379547119 5.42341279983521 5.89512252807617 4.10418844223022 4.15156126022339 5.647216796875 4.18602275848389 4.28944826126099 3.54818177223206 3.22323846817017 3.35227036476135 3.50275731086731 2.72377181053162 2.79553818702698 2.76353883743286 3.17759084701538 2.28372025489807 2.06398177146912 2.07930850982666 2.11276912689209 2.10070180892944 2.3252866268158 4.95258855819702 5.57270431518555 4.90664434432983 3.33605670928955 3.0364818572998 2.52110481262207 3.00759363174438 3.05072236061096 3.94986581802368 3.55997085571289 3.42638850212097 4.37122678756714 5.07188606262207 6.45039176940918 7.1450662612915 7.06271123886108 7.3494029045105 7.2723536491394 6.76811838150024 7.02984666824341 6.61086654663086 6.31837511062622 5.42274522781372 5.40899753570557 5.074462890625 4.85981178283691 4.28816795349121 3.82841205596924 3.62524008750916 2.91218185424805 2.23764491081238 2.40577697753906 2.30239272117615
-3.7112283706665 -4.54762697219849 -4.48871517181396 -5.02768278121948 -4.65576791763306 -4.42127990722656 -4.33883047103882 7.94730997085571 -0.889910459518433 12.4756984710693 -2.89101767539978 2.82608604431152 -2.58666491508484 9.0893669128418 -3.77220988273621 -3.24294805526733 -4.20527696609497 -4.02971029281616 7.52313709259033 -3.29141783714294 -4.0417218208313 -4.39505529403687 8.7403507232666 0.232897147536278 1.14925479888916 0.218593806028366 1.92285537719727 10.3535871505737 3.04083323478699 4.8445348739624 -3.04781699180603 -1.76989459991455 -1.48460376262665 -1.1651474237442 -1.38262534141541 -2.94241333007812 4.23735761642456 7.99914884567261 3.91669154167175 5.33997535705566 1.35251402854919 5.77537488937378 4.53453588485718 0.314955145120621 -0.444895297288895 -1.93937587738037 -1.13081514835358 -0.39852973818779 -0.17141655087471 0.967585682868958 14.5942859649658 -0.529851734638214 2.58427143096924 9.50612449645996 4.38576364517212 1.07595944404602 3.36020398139954 3.03744721412659 3.61370968818665 3.48166561126709 2.55652260780334 2.23533797264099 3.39025688171387 2.40569615364075 2.61133193969727 2.7765417098999 2.59025955200195 2.23471975326538 2.43047285079956 2.34894442558289 2.34655404090881 2.13996148109436 1.91926765441895 2.29348921775818 2.27615118026733 2.00854349136353 1.93812775611877 1.91329181194305 2.30779600143433 1.97401034832001 1.98086547851562 2.18076229095459 1.93842124938965 1.68597316741943 3.92650175094604 3.65915393829346 2.6120502948761 3.19522023200989 4.56204032897949 4.25170993804932 4.21251726150513 5.13644456863403 2.90431976318359 4.72299909591675 2.87137961387634 3.12082886695862 3.00165987014771 2.79411053657532 2.73916339874268 2.94144606590271 3.0707643032074 4.15723752975464 4.28940391540527 4.22827577590942 3.87143993377686 3.65863418579102 3.41480422019958 4.04125928878784 3.81830787658691 3.6888427734375 3.15667724609375 2.8727548122406 5.29937601089478 16.3462219238281 21.6827011108398 2.34021544456482 2.41726756095886 8.92811012268066 4.05365133285522 5.61990261077881 4.35774326324463 6.09843730926514 11.5564746856689 4.17064428329468 5.8594765663147 4.52793884277344 4.15066814422607 3.63675951957703 3.44480776786804 3.1626455783844 3.57800650596619 2.76020812988281 2.843501329422 2.3890335559845 3.28805708885193 2.14137744903564 2.16692566871643 2.17759346961975 2.17759585380554 2.41929745674133 2.10852122306824 6.9405255317688 7.33871126174927 7.73076629638672 3.13684225082397 2.60445380210876 4.86248016357422 4.68490266799927 5.13172912597656 3.74439406394958 3.53645873069763 4.2816481590271 5.3098726272583 6.11208200454712 7.42557716369629 7.35753917694092 7.3426513671875 7.55778408050537 7.38547086715698 7.30206871032715 6.87512731552124 6.58419752120972 5.93053197860718 5.60626697540283 5.26756954193115 5.05498695373535 4.44337558746338 4.59667205810547 3.87087225914001 3.60558533668518 3.00198078155518 25.1199378967285 4.70444297790527 2.2856605052948
-4.06205606460571 -4.29573535919189 -4.16765737533569 -3.58569741249084 -4.35584735870361 -4.28179264068604 -4.29483366012573 9.30866622924805 8.09987449645996 7.62686014175415 -1.63873636722565 -2.41807508468628 -2.99946808815002 -2.34060168266296 -2.93163084983826 -3.19756984710693 -3.62000966072083 -3.8240053653717 -2.85600113868713 -3.64851403236389 -3.55507254600525 -4.09504127502441 -3.22173404693604 -3.03311443328857 -0.949731945991516 0.421897172927856 -1.73002707958221 17.3289527893066 5.92240571975708 -0.559702694416046 3.54155611991882 -1.30080616474152 -1.46525263786316 -0.804974913597107 12.4353256225586 1.95788979530334 9.77438735961914 9.21300888061523 8.6630392074585 8.19761943817139 22.6334552764893 1.98704767227173 9.39021873474121 2.8612117767334 2.9153995513916 7.02484750747681 9.29794502258301 0.727622628211975 2.77353739738464 6.04114484786987 -0.194644376635551 -0.82747220993042 -0.774778485298157 3.76230764389038 0.14593617618084 11.1165962219238 3.90676689147949 4.39739418029785 4.58358001708984 3.36025643348694 2.87204360961914 3.79765892028809 2.99968075752258 2.68595814704895 3.07507014274597 2.57573390007019 2.75623559951782 2.66080284118652 2.28975224494934 2.51463770866394 2.52542233467102 2.09830188751221 2.45850968360901 2.30254530906677 2.38895225524902 1.87215685844421 2.00036454200745 2.37962317466736 1.84750425815582 2.07212924957275 2.23840713500977 1.97621190547943 2.03889417648315 2.31948661804199 4.09326410293579 3.78556704521179 3.26713800430298 4.6225004196167 4.68743848800659 4.35814523696899 5.36078453063965 3.38102650642395 3.11236119270325 4.84066867828369 2.85864162445068 3.15436196327209 3.03674674034119 2.81074261665344 3.00860929489136 3.11594462394714 4.0363883972168 4.35766649246216 4.36289501190186 4.27156639099121 3.75220561027527 3.72120070457458 3.95215225219727 4.09974765777588 3.88182044029236 3.60202503204346 3.46597623825073 2.78376340866089 2.88651418685913 3.00145435333252 2.7267894744873 2.65329074859619 3.4544665813446 13.7379922866821 9.23362064361572 4.64947080612183 4.48867893218994 4.32147789001465 7.25134468078613 6.21683120727539 4.82519769668579 4.61861085891724 3.86111783981323 3.48044371604919 3.50094389915466 3.76533365249634 2.41802263259888 2.96734619140625 3.32108426094055 3.47274708747864 2.48855519294739 2.24311757087708 2.26033687591553 2.28630995750427 2.2819836139679 2.51188540458679 1.97263419628143 1.98730528354645 2.80923438072205 5.82810354232788 3.1503221988678 3.29591655731201 7.6063871383667 7.43717527389526 6.32789039611816 4.28361749649048 3.75162982940674 4.85429000854492 9.37439250946045 7.17979764938354 7.98382091522217 8.92821788787842 7.82141637802124 7.74779605865479 7.22067308425903 7.47366762161255 7.0311803817749 6.71191549301147 5.80138111114502 5.74364566802979 5.4034161567688 4.71872520446777 4.53628873825073 4.67503976821899 4.53929233551025 4.53345537185669 2.78234696388245 2.37515068054199 2.45670604705811 2.16531109809875
-3.38501334190369 -3.47541737556458 -3.21440649032593 -4.23775959014893 -3.34364032745361 -3.74237966537476 -5.02990055084229 -4.72363138198853 9.81652545928955 7.65312480926514 2.79390907287598 -3.48567986488342 3.7197003364563 -2.55905175209045 -2.6414737701416 -2.37178993225098 -3.20203518867493 0.00459784874692559 -2.82289266586304 0.917377889156342 -2.68563866615295 -2.38453054428101 -2.86771893501282 -3.1468186378479 -2.52414178848267 -2.88497805595398 -3.55219411849976 -3.08685302734375 -1.79349720478058 -1.67204070091248 1.09518241882324 2.06560039520264 0.523587822914124 -1.19312393665314 2.45912480354309 15.1172018051147 16.066650390625 11.4412994384766 7.87227153778076 5.72345781326294 7.67558145523071 22.8089427947998 15.4339332580566 6.41871881484985 2.38930201530457 10.5076160430908 15.8895444869995 3.02296471595764 0.0702008157968521 0.325754314661026 -0.223055139183998 -0.649369060993195 -0.16810354590416 7.19723701477051 7.27563953399658 6.16614437103271 3.83539175987244 5.18379545211792 5.7544584274292 3.54627084732056 3.08285880088806 4.23270130157471 2.99826169013977 3.42183041572571 2.33224439620972 3.08283710479736 2.6183774471283 2.8681058883667 2.72680878639221 2.75338840484619 2.50918340682983 2.64802265167236 2.47774648666382 2.53570365905762 2.158362865448 2.04022741317749 2.00090861320496 2.45415639877319 2.12023663520813 2.14048910140991 2.34593367576599 2.06465172767639 2.20326852798462 4.21407079696655 3.87026524543762 3.14267158508301 4.77474451065063 4.83851957321167 4.51039171218872 4.48440265655518 5.51567220687866 3.20111751556396 5.03854990005493 2.96540760993958 3.2151312828064 3.08219242095947 2.87479329109192 3.07120132446289 3.19226241111755 3.39634084701538 4.34376239776611 4.47321367263794 4.40979194641113 4.03212976455688 3.81729245185852 4.05555868148804 4.2103123664856 3.97721076011658 3.54289197921753 3.70949363708496 3.5378143787384 3.77083706855774 4.04097127914429 4.00922870635986 3.02917408943176 3.50799036026001 3.18710660934448 10.3074951171875 21.0268077850342 6.13273000717163 4.60100364685059 4.66656112670898 6.6418571472168 5.01316499710083 5.05512619018555 4.11101055145264 3.96722984313965 3.61312866210938 3.91670918464661 3.00775408744812 2.89112997055054 3.40260601043701 3.71750116348267 2.63065123558044 2.30729508399963 2.33379340171814 2.92181968688965 2.77443814277649 2.61649203300476 2.44599318504333 2.48128795623779 2.86246991157532 2.86992359161377 3.18709397315979 2.65910792350769 3.00753736495972 3.05427956581116 9.2109203338623 5.00635623931885 4.87214183807373 4.85378456115723 5.29274272918701 14.4801416397095 11.0559072494507 12.4715509414673 10.9655790328979 8.06665420532227 7.8620719909668 7.79012823104858 7.33614730834961 7.01716756820679 6.31282806396484 5.97828578948975 5.61825084686279 5.37039995193481 4.72574329376221 4.84056329727173 4.77082920074463 4.66070413589478 3.31413531303406 3.00824475288391 2.87602829933167 2.7725305557251 3.63608598709106
-3.14213705062866 -3.11070799827576 -3.18559575080872 -3.72197461128235 1.34013283252716 -4.01601934432983 -4.56453609466553 -0.913685083389282 3.80566620826721 1.64676630496979 1.44659686088562 -2.55004358291626 12.4575262069702 1.42199850082397 0.556379914283752 -3.10010504722595 -2.60544872283936 2.09981274604797 -2.88882780075073 -2.24772191047668 -2.55414319038391 8.56074714660645 -2.62446355819702 -1.95823132991791 -2.86091136932373 -2.80114960670471 -3.8890814781189 18.9322834014893 6.95288372039795 13.5931196212769 10.3166952133179 8.17379188537598 -1.17768085002899 1.70991384983063 13.1405363082886 11.7086515426636 19.0948219299316 11.752571105957 15.9641809463501 9.89914512634277 0.896017074584961 6.98069715499878 5.96793842315674 10.9885292053223 -0.608183145523071 0.0454510301351547 0.22732201218605 0.680993318557739 0.840027332305908 2.48709869384766 -0.27032932639122 -0.209109097719193 0.722486615180969 1.46665978431702 8.71154308319092 6.99858140945435 6.55853414535522 8.3066520690918 4.67707490921021 4.09631824493408 5.03723049163818 3.96177887916565 3.5109715461731 3.73330760002136 3.45511651039124 2.96145105361938 3.17776727676392 2.64907598495483 2.95421266555786 2.9822986125946 2.45495629310608 2.83005452156067 2.70451927185059 2.35391998291016 2.15900826454163 2.07283592224121 2.53345370292664 1.92083323001862 2.18777203559875 2.41345524787903 2.10834050178528 2.21777868270874 3.12106132507324 4.29895401000977 3.91404104232788 3.3210129737854 4.97831249237061 4.64222812652588 4.63013744354248 5.73171949386597 3.55936455726624 3.24825096130371 5.16594171524048 3.17445373535156 3.2529182434082 3.11921572685242 2.88088631629944 3.11742615699768 3.26399183273315 4.45945501327515 4.53290939331055 4.54384231567383 4.4490122795105 3.8978898525238 3.87079501152039 4.31421613693237 4.07919120788574 3.92363953590393 3.82158160209656 3.64959740638733 3.88782906532288 4.15488529205322 4.11665487289429 2.92120051383972 3.09355711936951 4.25017976760864 4.07929754257202 3.55524706840515 4.9264931678772 9.89998531341553 13.501935005188 4.72197771072388 6.93091106414795 5.43700981140137 4.90341424942017 4.23049831390381 3.82151246070862 3.48854064941406 4.05035400390625 2.59160113334656 3.0946831703186 3.47277641296387 3.88375496864319 2.94911456108093 2.51433920860291 3.00751447677612 2.87669014930725 2.50456070899963 2.79356837272644 2.59203100204468 2.58009481430054 3.53470158576965 2.91081142425537 3.36543273925781 3.55537176132202 3.36680245399475 3.36128902435303 11.7392797470093 6.93812417984009 4.861647605896 5.21682977676392 6.14155244827271 7.05511045455933 7.6561861038208 14.4484643936157 10.0780410766602 8.27967643737793 7.87689733505249 7.99310684204102 7.52341270446777 7.17870807647705 6.22134399414062 6.11620378494263 5.77296447753906 5.04008436203003 4.9995436668396 4.92947053909302 4.76769781112671 4.77191352844238 3.92069339752197 3.1625611782074 3.10408234596252 10.1723737716675 4.07078886032104
2.71713209152222 4.85533285140991 -2.84932827949524 -3.97231292724609 -3.53715777397156 -3.95642805099487 -4.21906328201294 -2.54988837242126 16.2330207824707 -1.85217726230621 0.424683570861816 -2.67778134346008 -2.39845538139343 15.347544670105 0.514621436595917 18.6745738983154 -2.41057062149048 -2.58756327629089 -0.860888183116913 -2.47969746589661 -2.09069895744324 12.00501537323 -1.72894096374512 -2.80253124237061 -2.64190316200256 -2.86552977561951 -3.04499745368958 0.935694932937622 2.20035982131958 6.13261032104492 16.9705924987793 3.5812029838562 -1.78658735752106 -2.06696462631226 0.775777399539948 22.6576385498047 20.1978626251221 10.8029308319092 12.0575370788574 11.5672369003296 0.752760767936707 15.3992538452148 4.35141086578369 20.7234630584717 28.0484580993652 1.86689567565918 3.71146512031555 2.243239402771 5.18062305450439 7.8119535446167 1.21733891963959 0.398367553949356 4.4973669052124 7.6402153968811 12.2770576477051 8.61565589904785 10.1877117156982 11.1191959381104 5.35025978088379 3.60165476799011 5.67997741699219 3.97778964042664 4.40254878997803 3.48983335494995 3.76691246032715 3.59369301795959 2.92693495750427 3.21310186386108 3.23530268669128 2.9378981590271 3.04636812210083 2.82252836227417 2.84378600120544 2.15202713012695 2.28077173233032 2.66234827041626 1.97206282615662 2.24078822135925 2.25836706161499 2.47180557250977 2.09922671318054 2.36040830612183 4.4914116859436 4.07088613510132 2.66995882987976 4.99206972122192 5.08713817596436 4.73358869552612 5.93738269805908 4.77227258682251 3.31084036827087 5.36929512023926 3.05328965187073 3.32648158073425 3.18883037567139 2.94872188568115 3.15922999382019 3.29142117500305 4.30486679077148 4.66444683074951 4.65971851348877 4.54319763183594 4.19581079483032 3.97264552116394 4.21151494979858 4.37520503997803 4.13186120986938 3.91805791854858 3.59677481651306 3.72587847709656 3.95052313804626 4.2255220413208 4.15466117858887 3.0885705947876 3.58019685745239 3.95295548439026 4.69577169418335 5.42496538162231 4.56685781478882 4.62838935852051 14.0082302093506 7.43941593170166 5.69497537612915 5.70294189453125 4.56522417068481 4.20140266418457 3.81496834754944 4.25419139862061 3.18211221694946 3.22873830795288 3.5939507484436 4.1444263458252 3.31634259223938 2.65119934082031 3.21302604675293 3.10070824623108 3.24342632293701 3.45962572097778 3.03546476364136 2.72473192214966 3.81101155281067 2.76776075363159 3.47253441810608 2.98955011367798 3.65899133682251 3.70633316040039 2.89750599861145 3.89218258857727 8.94475650787354 5.08335447311401 5.56920099258423 7.17217063903809 7.95624399185181 12.2095489501953 17.3874225616455 8.6463098526001 8.40101337432861 8.35279273986816 7.87157917022705 7.51259422302246 6.75163078308105 6.39949226379395 5.98372793197632 5.72318696975708 5.04951238632202 5.10467195510864 4.92161703109741 4.93121719360352 4.34489822387695 3.75853490829468 3.50302863121033 3.40753602981567 3.88081979751587 7.25323629379272
13.8114585876465 5.52971220016479 -3.17859053611755 -3.8756844997406 -0.0931585133075714 24.7762336730957 1.93084621429443 -3.70152616500854 1.48733961582184 2.14316201210022 3.89987730979919 1.58360981941223 -2.60636973381042 14.7452659606934 -2.83773708343506 3.43260145187378 -0.269969165325165 -2.4628312587738 -1.71238481998444 -0.878858029842377 -2.67366862297058 -1.94608449935913 -1.13014614582062 -2.26458239555359 -2.1597580909729 -3.57710790634155 -2.91657567024231 -1.48299407958984 4.36736392974854 -0.0221237652003765 -0.523914694786072 3.91416072845459 1.75915086269379 4.06576871871948 -3.79371690750122 3.45194673538208 13.5908823013306 23.9407424926758 26.3037357330322 1.16193497180939 1.58129727840424 0.246766313910484 -1.66115069389343 -0.00252978107891977 5.49141788482666 10.3375978469849 8.22636032104492 5.50712299346924 6.38916158676147 17.9395275115967 1.74891245365143 3.1070601940155 17.8911037445068 20.3182353973389 14.6920518875122 12.9982528686523 18.756856918335 7.44263219833374 6.20597410202026 6.88387537002563 4.43565464019775 4.62421226501465 4.95426416397095 4.42455291748047 3.64124727249146 3.92965841293335 3.61665678024292 3.45555949211121 3.48916268348694 2.87168431282043 3.23424005508423 3.04339671134949 2.53884387016296 2.39213633537292 2.28681015968323 2.78424787521362 2.34209179878235 2.32910180091858 2.54650902748108 2.12798452377319 2.10599780082703 3.24251484870911 4.60839557647705 4.17437505722046 3.41024279594421 5.24632978439331 4.87149429321289 4.85679721832275 6.07131385803223 3.35716223716736 5.56180334091187 3.19367551803589 3.26985216140747 3.35390186309814 3.21492147445679 2.99272060394287 3.19644045829773 3.36507153511047 4.63662099838257 4.77218580245972 4.724609375 4.28956985473633 4.08195066452026 3.78631544113159 4.4809422492981 4.23146152496338 4.07879209518433 3.97457814216614 3.85790610313416 4.1011004447937 4.38278865814209 4.3180947303772 2.98777270317078 3.09359550476074 3.54986262321472 4.6487865447998 4.34033107757568 5.30402517318726 6.08927869796753 4.84298276901245 5.41982316970825 7.7770209312439 6.17470026016235 5.5482177734375 4.70407152175903 4.35183143615723 3.81848359107971 4.40622758865356 3.2063090801239 3.7866542339325 3.59368777275085 4.38900661468506 3.09498953819275 3.4521849155426 3.92790985107422 3.99845695495605 4.0327615737915 4.06902980804443 3.93265700340271 3.36500930786133 3.94004273414612 3.61521315574646 3.60849618911743 3.89771604537964 3.93196034431458 3.92497706413269 4.45154571533203 3.56837725639343 9.52041149139404 5.55423545837402 6.74872827529907 8.1029748916626 8.57632255554199 7.44555854797363 9.03635501861572 8.75705337524414 8.72706508636475 8.23505020141602 7.86402034759521 7.17207384109497 6.10867691040039 6.55894613265991 6.14992618560791 5.40059661865234 5.2791633605957 5.20159530639648 5.09017515182495 4.67082643508911 4.13739490509033 4.03580856323242 4.38918018341064 4.21349811553955 3.64857769012451 16.927396774292
-2.49862337112427 11.7999362945557 -1.86908507347107 -3.16068959236145 -3.84030985832214 7.38884258270264 21.6633453369141 15.2262945175171 2.07798838615417 7.76891136169434 -0.726409614086151 -2.24843335151672 -2.20981788635254 17.6114368438721 3.86903238296509 1.86976861953735 3.09857416152954 -1.46657228469849 -1.65373361110687 -1.34235870838165 -1.31335663795471 -0.929981052875519 -1.43926227092743 -1.31428968906403 0.652537882328033 -1.06035149097443 3.90677285194397 9.23538398742676 1.16528189182281 5.4453763961792 2.03767991065979 0.697091519832611 0.168385103344917 -3.69368243217468 -0.217651069164276 4.07314348220825 12.8795309066772 20.9400482177734 32.4302024841309 2.05147624015808 20.6954879760742 3.98038411140442 -1.13565373420715 11.6822185516357 4.85570907592773 13.7249622344971 6.86834096908569 1.10022938251495 6.11185741424561 3.50449061393738 12.2915668487549 22.0029144287109 30.0731620788574 23.9566383361816 13.5808162689209 5.71589851379395 29.6290111541748 9.69411182403564 8.72418022155762 7.36916399002075 5.40184736251831 5.96850347518921 4.5136890411377 4.92496252059937 4.53096103668213 3.48021984100342 3.95246076583862 3.81199479103088 3.40801119804382 3.4866304397583 3.24234008789062 3.22784781455994 2.36283564567566 2.49308490753174 2.90944385528564 2.12832808494568 2.43917393684387 2.64544272422791 2.21004939079285 2.16304922103882 2.42391872406006 4.87877893447876 4.36841535568237 3.47458434104919 5.35345315933228 5.3916711807251 4.99241876602173 6.29704666137695 4.9361686706543 3.33987903594971 5.66675329208374 3.31747317314148 3.52463173866272 3.40783929824829 3.27230858802795 3.22369027137756 3.35918402671814 4.4390811920166 4.82826232910156 4.83209228515625 4.74215698242188 4.15044689178467 4.12821578979492 4.38537549972534 4.54539918899536 4.28257846832275 4.06135368347168 3.98769903182983 4.24780035018921 4.54645299911499 4.49954557418823 3.11696362495422 3.24387812614441 3.70089745521545 4.77734994888306 4.36702489852905 5.30427217483521 5.18537759780884 5.61964559555054 6.15651607513428 8.43994140625 6.57639980316162 6.47457313537598 5.14316606521606 4.50518846511841 4.10759544372559 4.65312004089355 3.41434097290039 3.91322827339172 3.80251288414001 4.75635814666748 3.48915982246399 3.54921507835388 4.03159809112549 4.12033891677856 4.16111421585083 4.19750690460205 4.06322002410889 4.11637210845947 4.26091051101685 3.28316855430603 3.79226517677307 3.25633072853088 3.98896384239197 4.17765188217163 3.90337181091309 7.24744749069214 3.60742092132568 5.50751447677612 6.25866413116455 8.15827560424805 8.84555721282959 7.54372024536133 9.25610828399658 9.34307384490967 8.79560470581055 9.04141998291016 8.50693416595459 8.11109066009521 7.01662158966064 6.86537408828735 6.4640941619873 6.12384462356567 5.3902416229248 5.39897298812866 5.19530773162842 5.20248746871948 4.27178430557251 3.96145844459534 4.53630113601685 4.62408351898193 4.11064767837524 4.23590517044067 24.3710956573486
-2.53854393959045 19.0133399963379 -1.4521609544754 -2.90160608291626 -3.066321849823 -3.95048475265503 -3.60655760765076 5.99000787734985 -3.03498768806458 -0.994413077831268 -2.34845542907715 1.01628017425537 -2.26556634902954 8.46167945861816 4.59268140792847 5.24979591369629 4.54621171951294 2.75895118713379 -1.7785313129425 -1.1644012928009 -1.40793740749359 -0.638021647930145 -1.1390198469162 -1.9494560956955 -3.43305969238281 -3.36080598831177 -3.15264177322388 -0.838102161884308 -0.896490633487701 -0.0539551340043545 3.85662078857422 -2.02790760993958 -3.44578695297241 -3.73128437995911 -3.8887734413147 -3.24998664855957 -3.83216118812561 10.3259248733521 2.03143978118896 5.30156230926514 10.6199388504028 2.69703221321106 7.21089601516724 13.1350984573364 14.493127822876 19.7823486328125 3.66735458374023 0.648896992206573 11.1926755905151 17.4870586395264 21.396541595459 5.77140283584595 1.35477983951569 9.85201454162598 8.21423816680908 1.81347119808197 15.1071643829346 11.8533735275269 10.5368432998657 6.82625341415405 7.34578132629395 4.45866918563843 5.9087929725647 4.72153186798096 5.00248908996582 4.44010448455811 4.18590974807739 3.70065593719482 3.36079812049866 3.73197221755981 3.48306465148926 2.88968658447266 2.71032047271729 2.49778819084167 3.03428649902344 2.54867506027222 2.51799035072327 2.73118710517883 2.26244044303894 1.75646162033081 5.28125190734863 4.65273761749268 2.77982354164124 3.5478458404541 5.64272975921631 5.19672155380249 5.17884683609009 6.47004747390747 3.15672039985657 5.83214569091797 3.09051585197449 3.40627241134644 3.4936466217041 3.64232635498047 3.36557126045227 3.20902228355408 3.40360617637634 4.77071666717529 4.91123867034912 4.87453651428223 4.42412233352661 4.21466684341431 4.48593235015869 4.64211177825928 4.38956594467163 4.02672243118286 4.09975576400757 4.03948831558228 4.31152629852295 4.61883306503296 4.58924198150635 3.3976423740387 3.86945915222168 4.21445369720459 4.88522720336914 5.46981048583984 5.26255559921265 5.20360803604126 5.3695387840271 5.57098960876465 8.77937889099121 7.13943958282471 6.34623527526855 5.28379821777344 4.54821300506592 4.44513988494873 4.80713844299316 3.41401505470276 3.98819828033447 3.78917407989502 5.03209161758423 3.24099469184875 3.98698472976685 4.22205543518066 4.21771240234375 4.27695178985596 4.42022323608398 4.24678802490234 4.41337203979492 4.69173288345337 4.14835929870605 3.4908013343811 4.27298736572266 4.30677795410156 4.37140703201294 5.29531383514404 14.1940584182739 8.26422500610352 5.82057332992554 7.84480237960815 10.8870725631714 9.36838436126709 9.54202842712402 9.80806350708008 9.45418548583984 9.46567440032959 8.9421558380127 8.56511402130127 7.64717483520508 7.1910228729248 6.76279401779175 6.42257404327393 5.65352916717529 5.57051753997803 5.4878134727478 5.37811613082886 4.73320436477661 4.1445951461792 4.2491888999939 4.6251745223999 4.72972631454468 4.72399616241455 3.57803821563721 4.08175992965698
-2.7189347743988 -2.44524264335632 -1.94056224822998 0.889720380306244 -2.41517996788025 -3.13514637947083 -3.24093794822693 -0.357190251350403 2.78409147262573 -2.02416253089905 6.56368207931519 5.88749933242798 -2.72443652153015 -2.18166494369507 -2.08399772644043 -1.9707692861557 -1.31409513950348 -1.6152800321579 9.49600505828857 3.64081621170044 8.81473159790039 -1.09682619571686 -0.979646444320679 -2.3376247882843 -3.25330877304077 -1.59541201591492 -1.14972054958344 -0.423385590314865 0.137660101056099 -0.727322399616241 6.41095066070557 -1.93807733058929 -2.69652724266052 -3.61902093887329 -3.1697838306427 -2.37850379943848 -3.88102197647095 20.0931396484375 5.54035377502441 14.1965675354004 7.32868909835815 1.24050033092499 19.4124774932861 3.2335467338562 1.19515800476074 4.14325618743896 20.4665718078613 12.6037254333496 19.3224220275879 8.65327167510986 1.30313694477081 35.7092704772949 1.52915477752686 12.811936378479 12.4604177474976 34.4146347045898 28.5492725372314 14.6787939071655 13.5029678344727 8.18047714233398 8.59693431854248 7.21969127655029 5.61139869689941 5.97935628890991 4.32508230209351 4.86930799484253 4.48945665359497 3.65939235687256 4.07342720031738 3.80113363265991 3.71359539031982 2.68471837043762 2.88562846183777 3.29536700248718 2.31805896759033 2.6386616230011 2.84850072860718 2.36509823799133 2.3184506893158 2.6416757106781 5.59180879592896 4.89997434616089 3.66588664054871 5.88191413879395 5.86659479141235 5.36481189727783 6.82770442962646 3.82300782203674 3.37782573699951 5.96906566619873 3.01069378852844 3.3816351890564 3.34873795509338 3.56546092033386 3.24068593978882 3.36321783065796 4.51384115219116 4.9372034072876 4.94053506851196 4.86118030548096 4.23163843154907 4.35137891769409 4.74619626998901 4.47867059707642 4.29072523117065 4.18064260482788 4.14818048477173 4.4381537437439 4.76192378997803 4.73315811157227 3.27592396736145 3.46421265602112 3.94287538528442 5.13699674606323 4.69371128082275 5.61674690246582 5.40407228469849 5.4743537902832 5.08937215805054 9.12452507019043 7.50790882110596 6.92855405807495 5.89381742477417 5.08955574035645 4.41532039642334 5.11315727233887 3.50606060028076 4.09672117233276 4.0331711769104 5.56093883514404 3.84421229362488 4.0391960144043 4.35230684280396 4.35820770263672 4.51719903945923 4.60921430587769 4.67217111587524 4.46666240692139 4.90591526031494 4.59943389892578 4.53097581863403 4.57690191268921 4.61770629882812 4.74224090576172 4.23878526687622 4.48068761825562 8.98057842254639 14.4010353088379 7.81866025924683 8.26483345031738 9.39638423919678 10.6469411849976 11.4883785247803 10.1105632781982 9.58225440979004 9.82004070281982 9.27932071685791 8.8591365814209 7.63087701797485 7.43914556503296 6.989098072052 6.11391592025757 5.79971790313721 5.68379163742065 5.47704887390137 5.49109029769897 4.66786813735962 4.39247179031372 4.7718334197998 4.89917707443237 4.97442483901978 5.52822399139404 5.96845006942749 3.98981332778931
-2.35151267051697 -1.93721413612366 -1.98561537265778 -1.78438329696655 -2.9426805973053 -3.04678916931152 -3.02483868598938 2.24353408813477 -0.944606184959412 -1.95755529403687 -2.25137591362 -1.75824499130249 5.45972299575806 -2.0183846950531 -1.93456137180328 -1.18546056747437 4.48836183547974 -1.04365420341492 0.188990220427513 4.93106031417847 10.4209117889404 -0.146012231707573 -1.07285809516907 -2.23352599143982 -2.63106894493103 -2.27190637588501 -0.320419490337372 -0.218743503093719 0.473600745201111 -1.834508061409 -1.23459506034851 -3.18508410453796 -3.47042560577393 -3.04811835289001 -2.7456750869751 -3.68645524978638 3.52711057662964 6.60508680343628 21.9913997650146 25.9780330657959 3.64116477966309 0.305750072002411 3.1961612701416 1.81350243091583 5.27439594268799 1.36812829971313 7.78674697875977 22.7762584686279 2.30155825614929 3.54182171821594 1.22705435752869 1.6707535982132 22.1162776947021 40.8158073425293 3.87960910797119 5.26813125610352 22.4149551391602 23.3776607513428 11.7536935806274 12.0510587692261 7.5176043510437 8.41670036315918 7.27684116363525 5.12453460693359 5.78930377960205 5.08221530914307 4.34172391891479 4.4256534576416 4.14285707473755 4.07026100158691 3.32850933074951 3.15132093429565 2.88881087303162 3.49233412742615 2.83737993240356 2.72038578987122 2.92226672172546 2.39470648765564 2.05671787261963 6.21882629394531 5.46460437774658 3.0364146232605 6.33725261688232 6.24075651168823 5.69531059265137 5.64108514785767 7.05811166763306 3.45706582069397 6.28492593765259 3.11039304733276 3.44323539733887 3.2461953163147 2.98821496963501 3.25285649299622 3.41576981544495 3.69120049476624 4.86797952651978 4.99539041519165 4.95137977600098 4.47576427459717 4.2657413482666 4.5753960609436 4.78122854232788 4.51209306716919 4.25661468505859 3.99751567840576 4.20905351638794 4.49218893051147 4.83479690551758 4.81661510467529 3.64560770988464 4.06262111663818 4.4669303894043 5.24727535247803 5.87030982971191 5.65043354034424 5.54034996032715 5.62177562713623 9.83721542358398 7.83147048950195 7.86605787277222 6.18692827224731 5.97987794876099 4.7140064239502 5.45583629608154 3.84076118469238 4.22288036346436 4.14666318893433 6.15685272216797 4.23033952713013 4.11967182159424 4.39918518066406 4.4999361038208 4.65231943130493 4.81439304351807 5.04130840301514 4.9387788772583 5.36161470413208 5.40198945999146 5.18534755706787 5.08393621444702 4.78452444076538 4.83408308029175 4.97319316864014 6.06567907333374 4.4246187210083 5.83165073394775 7.26625871658325 9.62451267242432 10.3656930923462 21.734354019165 10.2622442245483 15.211501121521 10.2802410125732 10.3708047866821 9.81568241119385 9.37510108947754 8.33815383911133 7.84090709686279 7.34735631942749 6.95223379135132 6.13158798217773 5.94980430603027 5.6828031539917 5.67844820022583 4.99332284927368 4.66991090774536 4.9327712059021 4.83014297485352 5.01203727722168 5.59811973571777 5.82345294952393 6.21171045303345 4.79262351989746
-1.34083235263824 -0.868193745613098 -1.18802225589752 -1.99167311191559 -2.42859697341919 -2.5244619846344 1.62630903720856 -1.32095980644226 5.92929029464722 -1.53189396858215 -1.58317947387695 -2.29350113868713 -1.94490230083466 -1.57197177410126 -1.5484311580658 -1.20136201381683 3.52645444869995 -0.131732702255249 -0.852466523647308 -0.27541646361351 2.91367530822754 -0.509220004081726 2.61611819267273 -1.987419962883 -1.70834517478943 -0.344276547431946 0.520007133483887 0.780247569084167 2.18810081481934 -0.980446338653564 -2.28977823257446 -3.18346977233887 -3.50387716293335 -2.72256445884705 -3.6647264957428 -2.7233612537384 -1.72361159324646 -2.10073852539062 -1.82045984268188 20.7552642822266 1.31423914432526 1.34871399402618 27.5838394165039 9.4252815246582 8.08039855957031 9.98242473602295 24.2403297424316 6.71276760101318 2.17972707748413 10.0599813461304 6.36987018585205 26.7434902191162 0.259626239538193 1.00937879085541 37.7204360961914 4.19996786117554 20.4191932678223 35.1604385375977 14.7155923843384 15.3097791671753 11.6566743850708 8.17339420318604 8.5269136428833 7.0498685836792 5.65217208862305 5.5915150642395 4.37200880050659 4.7377758026123 4.44521427154541 3.61861252784729 3.50623059272766 3.18210935592651 3.80655169487 2.64014887809753 2.98957657814026 3.15804958343506 2.51778960227966 2.42190098762512 4.15241718292236 6.60017251968384 5.79282712936401 4.0071325302124 6.77185201644897 6.095130443573 6.0046854019165 7.55707788467407 4.03413105010986 3.48495769500732 6.49380350112915 3.39454460144043 3.4518871307373 3.268315076828 2.94761776924133 3.25306415557861 3.45675587654114 4.99525451660156 5.06862878799438 5.04027986526489 4.91783761978149 4.23954439163208 4.23729181289673 4.78579139709473 4.54501152038574 4.43749618530273 4.30333042144775 4.34658718109131 4.66463041305542 5.00398826599121 4.95179080963135 3.68617534637451 3.85815954208374 4.15755176544189 5.43513870239258 5.01297616958618 6.00015926361084 5.78827524185181 5.83964109420776 5.90647077560425 10.5515336990356 8.52573394775391 7.48903131484985 6.22653436660767 5.66989755630493 4.88615846633911 5.69351291656494 3.75346374511719 4.31796169281006 4.49209499359131 6.58822393417358 4.24448871612549 4.33185863494873 4.57344627380371 4.59110927581787 4.95765686035156 5.18865966796875 5.29481983184814 5.55937719345093 5.71415758132935 5.39943695068359 5.32707500457764 5.14026403427124 5.19091320037842 5.40378379821777 4.73056411743164 6.16073751449585 4.85475921630859 6.42614412307739 8.87688541412354 9.96748733520508 9.58360290527344 10.0616817474365 12.1597585678101 20.6376113891602 10.8806943893433 10.7311019897461 10.1585102081299 9.71569728851318 8.3975658416748 8.10775566101074 7.60604906082153 6.65518283843994 6.18565559387207 6.05429601669312 5.90949296951294 5.35962772369385 4.89111137390137 4.63925743103027 5.03127670288086 5.19304370880127 5.40771055221558 6.01185989379883 6.48555946350098 6.41437149047852 5.90833568572998
-0.38126602768898 -1.32073271274567 -1.11287915706635 -2.31851625442505 -2.31055760383606 -2.48864102363586 -1.23610055446625 -1.25017035007477 -1.1912887096405 3.93762469291687 -1.46178078651428 -1.80363023281097 -1.577033162117 -1.16755163669586 -0.56760573387146 -0.815302491188049 0.447510033845901 0.431464403867722 0.314839422702789 0.274497896432877 -0.416069686412811 -0.863654017448425 0.641064047813416 -1.55187141895294 -1.32610273361206 0.686161279678345 0.420887410640717 0.710840344429016 -1.12807440757751 -0.497086346149445 -2.06050705909729 -2.41878294944763 -3.00812935829163 -2.61924338340759 -2.57124376296997 -1.65686178207397 -1.86720478534698 -1.95987021923065 -1.42489182949066 6.29561853408813 19.3883495330811 0.720219075679779 10.9434938430786 22.0031719207764 16.3530044555664 11.8408079147339 3.67709970474243 3.02095794677734 2.50842785835266 26.0886974334717 29.0420150756836 8.56803131103516 5.39615678787231 0.441222548484802 1.44341623783112 33.0722770690918 9.4332857131958 25.0022392272949 25.2235431671143 12.3479623794556 14.8909034729004 11.6493330001831 7.51110076904297 8.24090385437012 6.60046005249023 5.44505310058594 5.3405556678772 4.89689970016479 4.73826456069946 3.36127376556396 3.75391221046448 4.22545528411865 2.89523720741272 3.23933601379395 3.07579159736633 3.29724335670471 2.59695029258728 3.01612234115601 7.46165943145752 6.5305552482605 3.31928324699402 7.40444898605347 7.15199899673462 6.42276287078857 8.13919162750244 5.75058650970459 3.5842502117157 6.88565921783447 3.16460108757019 3.53330755233765 3.32831525802612 3.01094746589661 3.26621007919312 3.44512987136841 4.73105382919312 5.18481588363647 5.14869213104248 5.01445627212524 4.5180196762085 4.27401494979858 4.57734060287476 4.78477764129639 4.52865028381348 4.31342554092407 4.22281742095947 4.41453695297241 4.71440076828003 5.08477973937988 5.02838659286499 3.91135001182556 4.22175598144531 4.66500329971313 5.54880619049072 6.23008251190186 6.01416349411011 5.89179229736328 5.96493482589722 11.7498912811279 9.60399913787842 9.20029449462891 6.82512283325195 5.90035104751587 5.08570194244385 6.04012489318848 4.16249752044678 4.46166372299194 4.40614557266235 7.38340330123901 5.03006649017334 4.38473987579346 4.71906328201294 4.74692916870117 4.89001369476318 5.05134296417236 5.45249319076538 5.72378778457642 6.32947444915771 5.66697454452515 5.48964738845825 5.45217227935791 5.64096593856812 5.4624810218811 5.72281742095947 7.06795310974121 6.92038440704346 6.95880603790283 8.57308101654053 10.0100908279419 11.3038549423218 15.6026821136475 9.95165252685547 10.4084568023682 10.5937433242798 11.3689050674438 10.7570686340332 10.2807645797729 9.10447120666504 8.55008602142334 8.02335262298584 7.54153203964233 6.66583251953125 6.34877109527588 6.06691837310791 6.05254411697388 5.05275011062622 4.89026403427124 5.19833326339722 5.38009691238403 4.96037006378174 6.06894159317017 6.31819677352905 6.75043106079102 6.23519945144653 6.17929029464722
0.119721211493015 -0.590697646141052 -1.51919507980347 -1.91803455352783 -2.21385431289673 -2.10541462898254 -1.08217918872833 -1.22001504898071 -0.916191935539246 -0.31738755106926 -1.23692774772644 -1.43386268615723 -1.16345107555389 -1.03794825077057 0.592584729194641 0.696811437606812 2.56553792953491 2.23867106437683 0.659224569797516 0.0513388812541962 -0.253128618001938 -1.67390036582947 4.32521057128906 -1.10745453834534 0.448603510856628 0.936523377895355 1.20801675319672 3.14981722831726 -0.397627532482147 -1.47935402393341 -1.73869097232819 -1.88371670246124 -1.6850209236145 -2.44555449485779 -1.43520712852478 -1.1241409778595 -1.45299983024597 -0.840874135494232 -0.907168209552765 0.219241172075272 2.89565229415894 24.8850288391113 7.24552249908447 20.7082767486572 28.8683338165283 -0.0474418140947819 8.10512733459473 25.5851516723633 27.2233238220215 12.2339572906494 1.55143284797668 2.08145356178284 1.9172670841217 1.29496324062347 2.63024973869324 -0.129631161689758 36.2373504638672 25.320837020874 37.0649642944336 24.0680904388428 14.4334888458252 15.0002489089966 11.2712106704712 8.21998596191406 6.4814772605896 5.71231985092163 5.87582874298096 5.3579683303833 4.1647162437439 4.13802433013916 3.709068775177 4.47021102905273 3.57197999954224 3.3388557434082 3.56278848648071 2.7788028717041 2.65498828887939 8.79316711425781 7.61117267608643 3.58079266548157 4.36618232727051 7.87924480438232 7.06874895095825 6.94594383239746 8.60177326202393 3.76907420158386 7.39049386978149 3.22600197792053 3.49357175827026 3.55300402641296 3.345871925354 2.98615574836731 3.28819489479065 3.50606727600098 5.15471506118774 5.25205183029175 5.19178438186646 4.60773897171021 4.3320369720459 3.9592924118042 4.84273910522461 4.56899547576904 4.43722105026245 4.32496070861816 4.45886611938477 4.86958837509155 5.29387331008911 5.20839357376099 3.77065086364746 3.93887639045715 4.27031469345093 5.68596076965332 5.26482486724854 6.33927440643311 6.13336753845215 6.19644832611084 6.2284631729126 12.6141977310181 10.3576192855835 8.76874446868896 6.95314359664917 5.02377128601074 5.26960611343384 6.27608919143677 4.44970464706421 4.55021142959595 5.69833517074585 8.05347919464111 4.96781969070435 4.58742570877075 4.81776714324951 5.04535245895386 5.22863960266113 5.45368671417236 5.55750131607056 5.83353328704834 6.80580568313599 5.76701211929321 5.89189386367798 6.05122709274292 5.90080308914185 6.29141759872437 7.85671091079712 7.47519063949585 7.45228672027588 8.56396865844727 10.35280418396 12.0366744995117 11.5996360778809 11.5093107223511 12.5323905944824 11.9981803894043 11.4678316116333 10.731297492981 10.7831382751465 9.66251850128174 8.33598232269287 8.84629821777344 8.2988338470459 7.25683832168579 6.59738636016846 6.4591236114502 6.29192113876343 5.506103515625 5.05386018753052 4.90821409225464 5.49021196365356 5.50830030441284 5.89936923980713 6.56494808197021 7.08727359771729 6.98874139785767 6.44904565811157 6.3978910446167
-0.665852069854736 3.04284000396729 -1.1910012960434 -1.55162525177002 -1.36819052696228 -0.437721192836761 -0.822652876377106 -0.446393102407455 0.0219956543296576 3.67849063873291 -0.587474465370178 -0.331056714057922 1.94343543052673 1.69860506057739 0.965600669384003 2.86745953559875 3.15227580070496 3.5583758354187 3.17833137512207 1.35068547725677 0.801391422748566 -1.04771852493286 -0.74506014585495 12.3936443328857 1.23501408100128 0.921704471111298 1.09721088409424 -0.459821045398712 -0.099934920668602 -1.50036346912384 -1.03951108455658 -0.906169712543488 -1.40616142749786 -1.06414878368378 -0.489947527647018 13.6295461654663 0.545880675315857 5.18242931365967 1.04987919330597 7.51153564453125 0.750051081180573 17.3000259399414 36.0674209594727 6.79177093505859 12.2689218521118 28.4052829742432 37.9488258361816 14.3958797454834 2.44206643104553 6.78294897079468 12.5268030166626 16.9942398071289 7.32315063476562 6.70114612579346 7.8491325378418 3.56250715255737 1.97001004219055 0.455344200134277 32.0157699584961 36.2079658508301 24.3065929412842 13.6059608459473 14.7735176086426 9.69310569763184 7.10249757766724 7.01579809188843 6.33067035675049 5.77746438980103 3.85744714736938 4.40140581130981 4.90411949157715 3.25538849830627 3.68906354904175 3.88053393363953 2.99924612045288 2.82301354408264 3.41710090637207 9.85447216033936 8.50501918792725 4.71923446655273 8.96442222595215 8.386887550354 7.50178527832031 9.54902172088623 6.36483144760132 3.82095885276794 7.77774095535278 3.16068959236145 3.65732288360596 3.42780375480652 3.06456136703491 3.34140801429749 3.51815843582153 4.89151620864868 5.37807512283325 5.32102346420288 5.1725549697876 4.38656902313232 4.35833787918091 4.6594672203064 4.86358690261841 4.57856702804565 4.34458017349243 4.64846897125244 4.961585521698 5.4441819190979 5.42760133743286 3.88889908790588 3.97285413742065 4.37844085693359 5.86905097961426 5.4114089012146 6.5378303527832 6.31749534606934 6.19274234771729 6.30015707015991 14.5196866989136 12.6361637115479 9.83717441558838 7.85953760147095 6.53512716293335 5.41105222702026 6.53389310836792 4.78359889984131 4.76603889465332 6.6384449005127 9.37479591369629 6.12604141235352 4.70847654342651 4.97601270675659 5.02249908447266 5.37456893920898 5.62834596633911 5.72803783416748 6.01534461975098 7.69168901443481 5.9371337890625 6.08773756027222 6.2432222366333 6.09400796890259 6.9106616973877 5.62075805664062 8.45349788665771 8.43199634552002 8.68446826934814 10.0445156097412 11.9611902236938 12.9779653549194 13.1012163162231 13.0654106140137 12.3555927276611 11.6816701889038 12.1368246078491 11.657114982605 10.8096942901611 9.84836769104004 9.37027835845947 8.79463386535645 8.23267841339111 7.24954414367676 6.76050138473511 6.47416543960571 6.43412065505981 5.31327390670776 5.22801494598389 5.78360843658447 5.76291942596436 5.24054288864136 6.62512922286987 6.90782976150513 7.38532638549805 6.81907415390015 6.77679395675659 5.53284454345703
0.0551255233585835 -0.263104975223541 -0.393921256065369 -0.385667830705643 -0.661079287528992 0.283923417329788 -0.0641443431377411 0.357673019170761 -0.0240464769303799 -0.299097239971161 -0.213696673512459 -0.0744026899337769 4.01535415649414 2.62721061706543 2.29558348655701 3.64140009880066 3.69792747497559 4.13648843765259 4.07771635055542 2.38844299316406 0.184426560997963 0.0458814054727554 -0.722050249576569 1.49282455444336 1.82948195934296 2.48846864700317 1.63291585445404 1.38839197158813 -0.264324009418488 0.0539519600570202 1.4301563501358 0.533114492893219 1.63170409202576 -0.452868491411209 -0.36975833773613 5.98914384841919 0.357011884450912 18.5475387573242 16.6085395812988 39.347827911377 39.0747451782227 1.48504209518433 1.39174389839172 4.77394342422485 40.3806381225586 4.02017593383789 6.15918111801147 2.8773832321167 10.0371122360229 6.1353964805603 4.89118909835815 18.2022457122803 9.36974334716797 9.90096187591553 8.2630729675293 2.40166783332825 0.467001855373383 2.94849848747253 0.428073227405548 36.4977760314941 36.7513732910156 24.1740417480469 13.7535552978516 9.99548721313477 8.74562358856201 7.88673114776611 6.86606073379517 5.16217279434204 5.15091037750244 4.33165454864502 5.16949319839478 3.96570420265198 3.6587860584259 3.95176315307617 3.05831003189087 2.61391162872314 12.3508367538452 10.5985298156738 4.19151020050049 10.4965333938599 9.56843566894531 8.48902893066406 8.30275821685791 10.202335357666 4.08322477340698 8.66666889190674 3.38670492172241 3.75720357894897 3.53462648391724 3.14075398445129 3.05457305908203 3.3885178565979 3.60696721076965 5.3823561668396 5.47177267074585 5.37903642654419 4.73574781417847 4.45496225357056 4.75390243530273 4.95080709457397 4.62438917160034 4.31049680709839 4.3364691734314 4.65072202682495 4.9904146194458 5.5041356086731 5.5114574432373 4.29743242263794 4.48133420944214 4.90873336791992 5.97704458236694 6.72120332717896 6.52106046676636 6.37590169906616 6.48311758041382 16.9542217254639 15.7724914550781 13.5941381454468 8.79318237304688 7.92120409011841 5.31264448165894 5.56256103515625 6.73716497421265 5.11407661437988 5.07176780700684 10.8769845962524 7.04797697067261 5.29155397415161 5.2221827507019 5.20474624633789 5.3226203918457 6.34264135360718 5.91115951538086 6.20541048049927 6.13375616073608 8.38352870941162 6.74245929718018 6.18331241607666 6.77021217346191 6.82416391372681 7.41376638412476 9.50676345825195 9.37033557891846 9.18177795410156 9.9222936630249 12.0709915161133 13.742564201355 14.4490442276001 14.4211559295654 13.9748954772949 13.629508972168 13.8127565383911 12.7970724105835 12.1977615356445 10.6909656524658 9.99626731872559 9.37533187866211 8.73330116271973 7.70122814178467 7.05894804000854 6.87637090682983 6.68497657775879 5.84070205688477 5.32272148132324 5.69061422348022 6.24049854278564 5.88083744049072 6.49673175811768 7.2265625 7.80062532424927 7.65520477294922 7.07082891464233 7.02747869491577 5.74667692184448
2.64883375167847 0.394678324460983 0.191628023982048 -0.122323229908943 1.12100064754486 1.18368816375732 1.27551734447479 0.507707118988037 4.87670707702637 -0.00706115132197738 0.05459363758564 7.53568172454834 3.88707590103149 2.28090786933899 3.6042652130127 3.96212029457092 4.65768671035767 4.82317161560059 4.64255428314209 2.28973245620728 0.55523157119751 0.996546685695648 2.07985854148865 2.44193196296692 2.77525043487549 2.69919228553772 1.6886579990387 1.99042391777039 0.506945848464966 2.35130596160889 3.03518176078796 6.64076614379883 3.85511493682861 36.4179382324219 38.4623565673828 29.194314956665 25.6530666351318 30.0795955657959 1.68057906627655 1.10700714588165 3.126460313797 6.10196733474731 40.6684799194336 0.211292758584023 0.0105073433369398 0.161537036299706 3.33827972412109 6.68778276443481 3.41994094848633 1.60233080387115 5.86588478088379 11.985857963562 15.8862047195435 3.06432914733887 0.128010913729668 4.50801658630371 2.640212059021 0.330712348222733 0.619082152843475 0.638974606990814 34.8080825805664 36.441593170166 17.3049011230469 12.1630620956421 10.5321950912476 9.26409244537354 6.65621662139893 6.35995101928711 5.23098611831665 6.15385675430298 3.75161266326904 4.13830947875977 4.25915575027466 3.2113094329834 3.05694890022278 6.64015197753906 14.7230558395386 12.4890899658203 5.37170743942261 11.7183694839478 9.94962787628174 9.65376567840576 11.5952386856079 5.38646602630615 4.18320655822754 9.3068208694458 3.36618328094482 3.85634422302246 3.57958912849426 3.1306483745575 3.46885347366333 3.66827154159546 5.14984893798828 5.66275119781494 5.59849977493286 5.3779878616333 4.5071907043457 4.48485565185547 5.07354402542114 4.7202525138855 4.51851654052734 4.35738372802734 4.49032211303711 5.02122354507446 5.58310842514038 5.59036827087402 4.59665489196777 5.08688163757324 4.52390146255493 6.08024787902832 5.63486909866333 6.85053205490112 6.63373947143555 6.67943572998047 6.06777191162109 18.8687553405762 18.6944599151611 12.7615880966187 8.84136199951172 7.33849000930786 5.73986434936523 7.00249814987183 5.2336950302124 5.27557229995728 8.58269500732422 12.1125230789185 7.46849250793457 5.7838306427002 5.79657173156738 5.86977005004883 5.76248216629028 6.91423654556274 6.03420066833496 7.02173805236816 9.78738403320312 6.69429159164429 7.23013210296631 7.51886701583862 7.58161163330078 8.42257595062256 6.73742771148682 11.2091579437256 10.7624912261963 10.9824285507202 11.6332120895386 13.5744285583496 14.729754447937 15.2365674972534 15.1998624801636 15.0180931091309 16.7991905212402 15.0374164581299 13.6311359405518 13.0588846206665 11.0812501907349 10.4338998794556 9.78754901885986 8.56706237792969 7.39925146102905 7.19038772583008 6.8651237487793 6.86796712875366 5.59198236465454 5.98023223876953 6.60938024520874 6.56659364700317 6.92225646972656 7.70299530029297 8.31728839874268 8.1243953704834 7.51054048538208 7.46371412277222 6.11523866653442 5.99875354766846
1.1450377702713 1.08123350143433 0.724105358123779 1.40402340888977 1.834024310112 1.82784104347229 1.60499477386475 0.95898824930191 0.274285197257996 0.195834994316101 0.19527243077755 14.1550464630127 5.68623352050781 3.84318852424622 4.19811105728149 4.86571025848389 5.22261762619019 5.1209454536438 4.30727386474609 0.879616379737854 2.43407082557678 2.19621539115906 4.47213315963745 3.7695038318634 4.43885564804077 1.92607319355011 2.24607563018799 0.972108066082001 3.00720024108887 2.59369492530823 9.17834854125977 1.03630244731903 -0.381441056728363 -0.819187164306641 0.644147396087646 3.16660046577454 2.85624527931213 3.9741382598877 2.08583235740662 4.15496158599854 40.0351257324219 1.45161259174347 2.47009229660034 4.76738786697388 0.217668101191521 -0.124790631234646 0.0385343991219997 1.23971307277679 1.79897570610046 0.262430995702744 3.21723937988281 0.649642705917358 3.83251547813416 0.647415220737457 0.153172612190247 3.43969488143921 2.81676054000854 1.14364218711853 2.556396484375 4.1013822555542 2.84755396842957 32.9500732421875 19.5214252471924 15.2339067459106 13.1044073104858 10.2678241729736 6.87968301773071 7.56987524032593 7.71361684799194 4.68988275527954 5.08115720748901 4.30653238296509 4.46371269226074 3.2771623134613 4.46003103256226 22.2053470611572 19.0482501983643 5.08409309387207 14.6991853713989 12.544225692749 11.1078062057495 13.5996036529541 7.7669792175293 4.44901132583618 10.5810232162476 3.64869260787964 4.09187173843384 3.79863524436951 3.3174307346344 3.58990383148193 3.79058980941772 4.18666505813599 5.74518489837646 5.81059885025024 5.72989225387573 4.94970512390137 4.63119840621948 4.93498563766479 5.14534759521484 4.77595663070679 4.44223690032959 4.2046685218811 4.51343774795532 5.0703182220459 5.6319146156311 5.61845064163208 4.21140956878662 4.71083498001099 5.11248064041138 6.08775186538696 6.90628004074097 6.65091943740845 6.60918474197388 6.74282121658325 22.6929798126221 26.8824062347412 19.7679176330566 11.160740852356 8.11865139007568 5.96476936340332 7.35615921020508 5.63642835617065 5.7749981880188 5.62482118606567 14.4765224456787 9.41142463684082 6.59513711929321 6.61927843093872 6.86724615097046 6.67327880859375 7.96646642684937 6.96113395690918 6.53685188293457 11.6983232498169 6.49394607543945 8.13637065887451 6.76894283294678 8.05476760864258 8.13470077514648 9.17729663848877 12.8745908737183 12.8660116195679 12.3439455032349 12.8584442138672 13.951265335083 15.5630493164062 16.6694984436035 21.0357856750488 23.4877815246582 26.0299644470215 23.4683284759521 16.5400066375732 16.7586498260498 16.1194953918457 11.2035760879517 10.5160579681396 9.73122119903564 8.57967853546143 7.63525819778442 7.29203176498413 7.18368291854858 6.24796915054321 6.61923837661743 7.29412460327148 7.14007759094238 6.2628870010376 7.75617933273315 8.09805583953857 8.67239093780518 8.00530052185059 7.95465421676636 6.50764560699463 6.13068056106567 6.1363730430603
1.35253620147705 1.30256927013397 1.1845874786377 2.43957257270813 1.99225807189941 2.11202120780945 2.02404546737671 0.699980974197388 0.517321169376373 0.224550291895866 -0.368447870016098 7.91938400268555 4.04690742492676 4.4400486946106 4.58554983139038 5.2400107383728 5.51984357833862 5.3455376625061 2.47603440284729 2.42483687400818 2.82517838478088 4.12121915817261 4.97463083267212 4.94946050643921 3.79591631889343 2.5576446056366 1.74750328063965 1.25178444385529 3.53630518913269 4.23196506500244 11.3726491928101 8.94132518768311 0.585949718952179 5.75926351547241 2.87117648124695 2.54396271705627 4.09170484542847 2.89817571640015 29.8719596862793 2.03969931602478 1.97578251361847 0.823978781700134 0.233231514692307 8.37001705169678 4.47262668609619 1.2811199426651 0.038982268422842 -0.0859425216913223 -0.181143581867218 -0.0596327297389507 1.34145927429199 0.0643564760684967 0.0722103118896484 0.250634700059891 0.197134777903557 0.593782484531403 0.41786977648735 0.704646706581116 0.728451788425446 7.81150436401367 11.0952596664429 40.6117477416992 30.199520111084 20.1289958953857 16.4052715301514 12.2918872833252 10.3189373016357 7.82680797576904 9.08981895446777 6.53044939041138 5.4312481880188 5.52842235565186 3.76084637641907 3.39871883392334 8.92387962341309 31.7553310394287 27.3271675109863 6.39126062393188 17.5918121337891 14.3376636505127 13.6158647537231 15.327446937561 5.52201414108276 12.3061437606812 3.82972764968872 4.39834308624268 4.20688199996948 3.92404079437256 3.39261102676392 3.70949006080627 3.86205053329468 6.03943204879761 6.07370948791504 6.02706623077393 5.77725267410278 4.7769570350647 4.73412704467773 5.32038068771362 4.94229888916016 4.71573400497437 4.49222946166992 4.68132591247559 5.19630765914917 5.86394691467285 5.84771680831909 3.804447889328 4.00723457336426 4.5403528213501 6.31842708587646 5.66818189620972 6.96155738830566 6.72331476211548 6.76102066040039 6.88295650482178 26.7919673919678 36.5608749389648 17.8473434448242 10.757360458374 6.05016851425171 6.03940773010254 7.485755443573 6.00571441650391 6.35343217849731 13.5433416366577 17.2038326263428 10.1904706954956 7.47557783126831 7.38321399688721 7.66839551925659 9.35725212097168 8.16643047332764 7.63079643249512 10.2440423965454 13.2325134277344 8.30381870269775 8.38393020629883 8.92427825927734 9.04127788543701 10.5737819671631 14.365532875061 16.5454654693604 15.9286193847656 17.2478694915771 15.3997650146484 16.9814586639404 18.3770523071289 18.3280391693115 31.1874752044678 34.3972473144531 37.5639877319336 34.4906349182129 25.9300079345703 24.9769477844238 12.7354793548584 11.7487192153931 11.0320711135864 9.65605163574219 8.24475860595703 7.77575826644897 7.52839803695679 6.70890474319458 6.10655117034912 7.25677919387817 7.92387771606445 6.52889966964722 7.67878437042236 8.57580757141113 9.28370571136475 9.03146076202393 8.34665298461914 8.29640197753906 6.79598379135132 6.38679170608521 5.88979196548462
1.51783168315887 1.46248972415924 2.84283638000488 2.53997707366943 2.48203420639038 2.38572120666504 0.955818653106689 0.904037594795227 0.694524228572845 0.291360646486282 3.39831519126892 10.8348817825317 4.17471504211426 4.65026044845581 5.49895811080933 5.85990190505981 5.63113403320312 4.78866910934448 2.63216376304626 3.13128328323364 4.14399909973145 5.32062005996704 4.49956607818604 5.21186208724976 2.42223405838013 2.76484608650208 1.67090737819672 4.04972457885742 3.50556230545044 15.3632612228394 8.66450595855713 1.84866607189178 20.6033935546875 9.53328323364258 0.948041975498199 0.0320468097925186 40.7344627380371 12.1731929779053 2.21657609939575 3.1066267490387 0.783671021461487 1.45341777801514 0.24322897195816 0.800560414791107 0.173488184809685 0.291286110877991 0.640203416347504 0.402555465698242 0.0713237151503563 0.202221363782883 0.113781072199345 0.220197901129723 0.444142073392868 0.232166200876236 0.599134624004364 0.582821011543274 0.711810231208801 1.56085968017578 0.590443551540375 0.233937054872513 -0.105988517403603 12.8227272033691 37.1634902954102 30.9899272918701 20.4350395202637 12.4821701049805 13.3407897949219 12.1404399871826 7.15788125991821 7.65040588378906 7.11116790771484 4.82461643218994 4.28103065490723 6.24649095535278 -0.27059331536293 0.260479509830475 7.32569122314453 26.2853126525879 21.4905433654785 16.5609664916992 19.2093200683594 9.21553230285645 5.05998373031616 13.8363351821899 3.92824244499207 4.57289028167725 4.15525197982788 3.6159782409668 3.93727350234985 4.15852642059326 5.80362510681152 6.4122576713562 6.34061908721924 6.07975435256958 5.33499336242676 4.99766492843628 5.27290868759155 5.44744205474854 5.04017496109009 4.80153799057007 4.49937200546265 4.81334686279297 5.37744331359863 6.03041458129883 5.97251558303833 4.01004791259766 4.51718521118164 5.30041885375977 6.40866231918335 7.16026926040649 6.87108612060547 6.6838493347168 6.85122776031494 37.1375350952148 4.09495878219604 37.8680038452148 14.8663654327393 9.38155555725098 6.24411344528198 7.84053039550781 4.83077573776245 5.53737592697144 6.64867067337036 19.2980518341064 15.9943675994873 7.72827959060669 7.91518497467041 8.68887424468994 9.90754890441895 10.1422920227051 8.90353298187256 8.76400470733643 16.7139492034912 9.73502254486084 9.84276580810547 7.50170993804932 9.28124713897705 12.0290250778198 9.73731422424316 18.5349540710449 20.0992736816406 19.4435405731201 26.1151371002197 17.2644233703613 22.1009902954102 20.757303237915 15.7627305984497 14.5289735794067 13.5304927825928 14.422215461731 37.0569801330566 37.5003204345703 36.3788948059082 14.3897018432617 11.9677581787109 10.9646100997925 9.67736625671387 8.30636978149414 7.94220352172852 7.76521730422974 6.55215454101562 8.06568717956543 8.90043067932129 8.52334499359131 7.15407466888428 8.63082981109619 8.98364639282227 9.70798492431641 8.94635486602783 8.90195846557617 7.33241081237793 6.71562147140503 6.54376411437988 6.24525165557861
1.61307263374329 1.61696815490723 2.96154165267944 2.50507760047913 2.66981220245361 2.58919596672058 1.27317583560944 1.10126399993896 0.995696306228638 0.932576060295105 2.4125394821167 3.2774064540863 4.79301500320435 4.98431777954102 5.73173189163208 6.06876611709595 6.08228874206543 3.91182398796082 3.44044923782349 3.98001217842102 6.13376379013062 5.54698657989502 5.53429365158081 4.28895854949951 2.97008657455444 1.95964121818542 4.59386301040649 3.95037293434143 5.21797132492065 19.1923332214355 14.3835830688477 14.097731590271 21.0910663604736 3.82360816001892 40.5719413757324 1.54363250732422 3.5971360206604 2.79371738433838 2.73442816734314 2.34838175773621 0.996768832206726 4.43808650970459 5.96465826034546 4.18405199050903 0.643790423870087 1.18224310874939 0.585376262664795 0.26875713467598 0.607409000396729 2.01113772392273 2.36472296714783 7.93367338180542 3.56795191764832 1.34463882446289 2.44317317008972 0.753392279148102 0.850262820720673 0.700192928314209 4.69835996627808 0.472834318876266 0.166631281375885 0.791764378547668 14.1269683837891 39.1574516296387 31.3591117858887 22.1312294006348 13.7094421386719 15.5367774963379 10.3525447845459 8.10620212554932 8.22530269622803 5.63128757476807 5.90505075454712 12.1596946716309 12.2265853881836 12.4646921157837 7.79150152206421 36.7481727600098 30.6300849914551 24.173095703125 22.8106727600098 7.74874639511108 17.3033466339111 4.14294624328613 4.92837333679199 4.55104970932007 4.2675724029541 3.69643020629883 4.05057668685913 4.32277917861938 6.65673494338989 6.62453746795654 6.53829860687256 5.58694648742676 5.25092315673828 4.64975643157959 5.70386505126953 5.26497793197632 5.18505573272705 4.83138704299927 5.16206884384155 5.67151212692261 6.28682565689087 6.2031364440918 4.04378986358643 4.45044326782227 4.61299180984497 6.71399450302124 5.98336124420166 7.26385021209717 6.94080114364624 6.93863916397095 6.97883701324463 48.5752983093262 3.66403388977051 34.332649230957 14.3304023742676 6.63710594177246 6.37008428573608 8.04858684539795 4.87103796005249 5.41861963272095 3.96824240684509 23.5701541900635 14.9027948379517 8.30012226104736 8.34568691253662 9.59190082550049 11.763331413269 10.4764432907104 9.62064361572266 16.9850807189941 19.2934970855713 11.1179351806641 8.25954914093018 10.197958946228 10.35764503479 13.1273241043091 19.7519817352295 29.5909862518311 29.1433258056641 12.1590423583984 17.7163562774658 17.5243396759033 19.3934516906738 19.2651767730713 17.1735229492188 16.0862903594971 15.6505308151245 14.1450366973877 12.9889278411865 10.948935508728 22.2456607818604 15.4734306335449 12.5906000137329 11.0415420532227 9.2936315536499 8.45767784118652 8.17099285125732 7.44115734100342 6.89718866348267 9.2585391998291 9.68942642211914 8.11107635498047 8.73325252532959 9.72206401824951 10.4797639846802 10.0833511352539 9.34199619293213 9.32083415985107 7.63946723937988 6.82036590576172 6.28738355636597 6.61333322525024
1.7721700668335 3.17820119857788 2.89139747619629 2.91075873374939 2.83927631378174 1.58638346195221 1.47389364242554 1.34430742263794 1.22236812114716 5.49131774902344 4.49330568313599 5.46318531036377 5.33658170700073 6.03630018234253 6.46822357177734 6.34449863433838 5.6955189704895 5.59428310394287 4.09409618377686 6.42006397247314 7.1540789604187 4.97105646133423 5.76850414276123 2.70901679992676 3.0969660282135 1.98164439201355 5.02020597457886 5.8418607711792 29.5305480957031 13.3346881866455 28.5279407501221 -0.557981252670288 40.9537086486816 0.567914247512817 3.39916515350342 4.28468799591064 3.12640523910522 2.79730820655823 2.61552262306213 1.13754999637604 4.08104133605957 4.81184864044189 19.0949230194092 16.0883846282959 4.51959419250488 3.30349946022034 0.787150800228119 2.7552707195282 3.43871855735779 3.21230387687683 3.09411573410034 1.38165283203125 1.94211626052856 1.45449328422546 1.2371838092804 0.768862426280975 0.868147850036621 0.751629412174225 4.87764883041382 4.8786473274231 6.50947761535645 0.153798952698708 0.184780851006508 12.5824279785156 31.9460620880127 33.3669471740723 25.1459178924561 12.5093765258789 13.2793874740601 11.3628978729248 7.3118462562561 6.60674667358398 7.4122052192688 17.934549331665 12.5032367706299 14.3694868087769 -0.708219707012177 13.6812620162964 34.5674247741699 34.025390625 11.0139904022217 5.8220157623291 20.6387748718262 4.05885791778564 5.20043087005615 4.51355218887329 3.88548898696899 4.25702428817749 4.51965856552124 6.3659782409668 7.05433177947998 6.96457672119141 6.56634712219238 5.38035106658936 5.35572671890259 5.64238786697388 5.82104110717773 5.62550067901611 5.28154611587524 5.62901639938354 6.12608003616333 6.7541561126709 6.61803483963013 3.83948183059692 4.04337024688721 4.65112543106079 6.80749988555908 6.35456848144531 7.62585926055908 7.19989824295044 6.89636898040771 6.95999097824097 3.67493605613708 4.14127635955811 7.6535005569458 28.1581954956055 12.2318248748779 6.7492561340332 8.75941848754883 4.58872699737549 4.76738882064819 6.14960813522339 3.0499484539032 8.27090167999268 7.76632070541382 8.46044063568115 9.33118438720703 7.42516613006592 12.4064512252808 11.878719329834 10.4069023132324 26.7584419250488 11.9686088562012 11.6027736663818 11.3733406066895 11.3687105178833 15.4995603561401 12.3559923171997 31.2085838317871 33.4752502441406 35.660945892334 17.7229061126709 19.0651588439941 21.692554473877 23.273323059082 22.9217357635498 23.0646533966064 18.8099899291992 19.132345199585 17.2946815490723 14.5854005813599 19.2875213623047 32.8494338989258 18.9184093475342 12.4943351745605 11.0456285476685 9.14672088623047 8.70099067687988 8.53879737854004 8.10694599151611 11.1055822372437 11.3069286346436 10.5116405487061 8.54967212677002 9.81269454956055 10.2453022003174 11.0581474304199 10.0798740386963 10.048303604126 8.33610534667969 7.19572591781616 6.98648023605347 6.66152858734131 6.79520082473755
1.93697440624237 3.30380630493164 2.8160994052887 3.03948593139648 2.96518707275391 1.72251200675964 1.70887470245361 1.61730873584747 6.65062284469604 5.47915506362915 4.87455558776855 6.40298938751221 6.09785985946655 6.55895233154297 6.84083604812622 6.5658130645752 4.9024829864502 7.09071636199951 5.95841121673584 9.22231483459473 5.28515911102295 6.1295051574707 4.7425389289856 3.30043792724609 2.42660093307495 5.70678901672363 4.82200002670288 6.33231973648071 42.1738357543945 27.6079597473145 41.0120658874512 0.671125590801239 -0.373430401086807 3.77315926551819 16.098482131958 7.68013715744019 3.44493174552917 3.22362875938416 2.56229400634766 1.02768838405609 0.276357531547546 1.74518990516663 4.72732877731323 12.2266082763672 8.48732662200928 3.87866687774658 4.50869512557983 4.95448970794678 3.70593762397766 4.28564071655273 6.1267728805542 7.11183929443359 3.13046717643738 1.60841143131256 1.30651438236237 1.48556590080261 2.2068350315094 1.2671571969986 11.5785102844238 13.7168684005737 0.723946869373322 1.99758529663086 0.380776822566986 8.45640277862549 0.999525725841522 34.127140045166 37.2984580993652 22.0279216766357 14.2078924179077 14.3937187194824 9.45740127563477 2.93260860443115 0.138297691941261 0.0103203766047955 1.5570877790451 9.33919334411621 1.28993737697601 0.50990104675293 2.84372329711914 44.9432411193848 15.4074382781982 30.0778503417969 4.46556901931763 5.6923885345459 4.77333116531372 4.09268474578857 3.94334554672241 4.33834505081177 4.6334023475647 7.32826089859009 7.27333116531372 7.19631052017212 6.00646495819092 5.63860988616943 5.87775611877441 6.06181335449219 5.59768629074097 5.87912368774414 5.51741743087769 5.81720018386841 6.39227199554443 7.09950971603394 6.91689682006836 4.11301565170288 4.67937660217285 5.43965768814087 6.96243238449097 8.13289260864258 7.63343000411987 7.23505592346191 7.27325057983398 7.15239667892456 5.23678588867188 3.64266729354858 4.14364242553711 27.1126327514648 7.71235132217407 9.62218761444092 4.60594081878662 4.63948202133179 4.71042776107788 5.80866146087646 3.63812875747681 5.08471393585205 6.22083473205566 7.28906297683716 8.17231369018555 13.9084329605103 9.90852832794189 11.5890598297119 6.62826347351074 35.2706336975098 13.5483865737915 9.0959005355835 11.6734323501587 11.9076166152954 17.5472812652588 31.9346904754639 8.09194087982178 10.0416355133057 15.041802406311 28.4668083190918 22.7774562835693 25.221981048584 22.2656517028809 19.8695945739746 19.2805099487305 19.2230949401855 17.1056785583496 15.7636117935181 13.4721050262451 15.8063440322876 28.7147159576416 21.5253620147705 12.0580768585205 10.5860157012939 9.41397476196289 9.97127914428711 9.58094596862793 12.3311071395874 13.5548133850098 12.2527256011963 11.1933736801147 10.1415910720825 11.2600040435791 12.1127729415894 11.5013866424561 10.63205909729 10.5622243881226 8.67451190948486 7.49572896957397 6.92976999282837 7.09514045715332 7.19563579559326
3.5195689201355 3.22105646133423 3.28833341598511 3.17609095573425 1.90553045272827 1.9054673910141 1.94234251976013 1.96695137023926 7.44243288040161 5.97303771972656 7.17253637313843 6.92093372344971 7.60273170471191 7.73407363891602 7.14269304275513 5.72767162322998 2.90468454360962 6.57908296585083 11.9860782623291 11.3435192108154 6.52372407913208 5.03089427947998 3.00369548797607 3.65288257598877 2.501051902771 6.31144523620605 7.22492599487305 -1.5263364315033 25.9102745056152 -0.111986324191093 -0.353587180376053 9.58061981201172 3.47680044174194 2.18101739883423 4.37042140960693 4.74867153167725 4.59085273742676 3.49672222137451 1.39540576934814 0.324705123901367 0.0280199963599443 0.265839576721191 1.13917303085327 11.7233285903931 13.2858409881592 2.81116414070129 5.2342643737793 6.28422737121582 6.57173299789429 7.06477117538452 3.71051740646362 11.2393989562988 1.87396359443665 1.44191551208496 2.53897881507874 2.95159506797791 1.55417382717133 0.677536249160767 0.586025297641754 0.120890110731125 0.398346096277237 1.22773277759552 3.19583582878113 4.23954725265503 0.837723731994629 0.451373547315598 31.9321880340576 33.3261604309082 23.9207935333252 13.2111558914185 11.945122718811 2.33430767059326 8.0617504119873 18.6673698425293 18.9582576751709 18.393871307373 38.4819564819336 10.5014972686768 -0.475272715091705 10.4521474838257 7.06323528289795 41.480354309082 6.19065189361572 5.2368745803833 4.91728162765503 4.16662979125977 4.5579571723938 4.8308892250061 6.87127256393433 7.66487455368042 7.61921501159668 7.18070793151855 5.80799627304077 5.77380752563477 6.33595132827759 5.84260320663452 6.3814058303833 5.96772861480713 6.3458399772644 7.05046272277832 7.86655569076538 7.72023725509644 3.97349262237549 4.14647340774536 4.79335260391235 7.16485834121704 6.58581209182739 8.34045791625977 7.82842874526978 7.72877836227417 6.65876436233521 7.28312969207764 5.89622402191162 4.25278091430664 4.03566551208496 22.1107711791992 7.38239049911499 10.2315006256104 3.98030591011047 4.61955308914185 4.60237455368042 4.82560062408447 4.50570726394653 4.72988796234131 5.09583806991577 5.16450309753418 6.37033748626709 13.6819591522217 10.2140140533447 11.5755605697632 5.49773406982422 13.7849435806274 12.9963283538818 13.8224029541016 13.8420314788818 23.7282657623291 17.9648761749268 7.81627702713013 4.48546361923218 14.0415010452271 18.0335159301758 23.1530780792236 28.4824695587158 27.1698551177979 22.1410827636719 21.6777801513672 21.9296436309814 20.2739753723145 17.2890243530273 16.202356338501 12.604546546936 20.6268081665039 25.4082489013672 14.2331237792969 11.5484323501587 10.4028987884521 11.863917350769 11.3106851577759 10.9161434173584 16.3766975402832 16.0533199310303 14.4695863723755 11.7104959487915 12.4768657684326 13.4482860565186 12.6376514434814 11.6557941436768 11.5822334289551 9.4820671081543 8.06196689605713 7.39418792724609 7.42356538772583 7.24914741516113 7.41115045547485
3.44691300392151 3.52314424514771 3.24304008483887 3.31564998626709 2.1360125541687 2.22901272773743 2.24058628082275 8.70535850524902 7.2541561126709 8.46383666992188 8.05454349517822 10.3942451477051 8.89323806762695 8.40909862518311 8.10470390319824 3.21767663955688 3.40541911125183 8.10454559326172 17.0973339080811 11.7488832473755 6.98708057403564 3.69658088684082 4.31627607345581 3.13729548454285 7.41537046432495 6.05407619476318 7.93079662322998 2.7404317855835 -0.012183390557766 -0.343115955591202 -0.963348031044006 1.69929146766663 0.245428428053856 5.62917184829712 13.0191965103149 4.71248435974121 4.3356409072876 4.31036615371704 1.54839718341827 1.45546329021454 0.867568135261536 1.21683645248413 0.716786980628967 0.743964374065399 5.63406038284302 7.22013759613037 9.01414680480957 8.13613605499268 8.32174491882324 7.1403660774231 1.8461856842041 7.53801918029785 1.91739130020142 2.54335594177246 2.76726961135864 4.65983915328979 5.16929769515991 1.43030595779419 1.14822769165039 1.82649517059326 0.344710737466812 0.501611113548279 0.615007877349854 7.63193893432617 1.37916135787964 2.03438496589661 0.812909543514252 35.1572227478027 35.7778587341309 20.6577301025391 10.325644493103 13.3571186065674 2.99286508560181 7.6621994972229 28.7103462219238 -1.28687477111816 34.2424430847168 8.87956237792969 11.5854434967041 7.87410116195679 -1.94071412086487 4.8265700340271 6.65890026092529 5.14986276626587 4.32187986373901 4.80722045898438 5.15418195724487 5.73509645462036 8.00819683074951 7.87128686904907 7.8111515045166 6.46351337432861 6.12346935272217 6.34245491027832 6.51340055465698 5.98591232299805 6.59030532836914 6.13372611999512 6.62503147125244 7.44021606445312 8.35133457183838 8.21111869812012 4.57781457901001 5.00940942764282 5.72259855270386 7.36328172683716 8.63911819458008 8.47359561920166 7.94360303878784 7.94217395782471 7.71381282806396 6.4428563117981 5.70337009429932 4.30790376663208 4.44425487518311 11.8183250427246 11.9417610168457 4.26117467880249 4.67143106460571 4.64337730407715 4.19431734085083 4.03543472290039 4.57790994644165 5.11293458938599 5.21098804473877 5.35457992553711 5.2028865814209 6.03767919540405 6.55290508270264 13.3627510070801 9.87517738342285 17.4248466491699 10.9292116165161 16.9841003417969 15.3451881408691 31.5736484527588 3.32092714309692 14.0610771179199 24.322021484375 27.4888973236084 28.9937801361084 30.7894687652588 25.9210395812988 27.9868125915527 27.0776309967041 27.5947322845459 25.9479579925537 22.2204704284668 18.8976631164551 15.3914451599121 13.8151121139526 11.9143381118774 32.0290184020996 14.152515411377 11.958514213562 13.7090740203857 13.4804630279541 14.0047435760498 17.9903793334961 17.7096405029297 16.6389503479004 17.7083988189697 12.5814352035522 13.3747987747192 14.3995141983032 12.9565773010254 12.8277835845947 10.7727975845337 8.90784645080566 8.39950847625732 7.4827446937561 7.64137649536133 7.77893018722534 7.43717527389526
3.39927363395691 3.71133065223694 3.55767250061035 2.35491919517517 2.39692854881287 2.49016189575195 2.54459166526794 9.51181888580322 7.78943824768066 9.39025974273682 9.24492454528809 12.7025537490845 9.68972206115723 12.7736101150513 14.5386562347412 3.34005188941956 6.9255108833313 4.50092601776123 17.13893699646 6.79558324813843 5.48577737808228 5.09615993499756 3.69024229049683 8.83584594726562 7.04002094268799 9.22388458251953 3.26008486747742 -0.427259862422943 0.276023328304291 1.78058683872223 1.8035980463028 4.11184978485107 2.61295437812805 5.1316556930542 8.74739646911621 4.96431016921997 5.11735200881958 2.9815628528595 3.86627840995789 3.38774824142456 1.28380286693573 1.5975501537323 1.18233036994934 1.36941075325012 1.66434693336487 10.1818647384644 12.4161329269409 8.74929237365723 14.1358251571655 5.73147630691528 2.41791963577271 7.45256805419922 3.30331325531006 2.96420979499817 4.64071559906006 1.85505604743958 1.52344143390656 5.07803964614868 0.980269193649292 6.05084753036499 0.623309195041656 1.13051927089691 2.34123301506042 8.75619220733643 3.10682106018066 4.65029335021973 0.690782010555267 0.468578934669495 33.6090660095215 31.8410377502441 23.2918529510498 14.947322845459 12.838565826416 -0.169633105397224 -0.230138212442398 -0.915378153324127 25.2264423370361 21.8696689605713 20.8338050842285 9.31830978393555 5.13804960250854 7.87366151809692 5.81286334991455 5.36282968521118 4.45441293716431 4.94352769851685 5.31870460510254 8.66806221008301 8.45692729949951 8.33948516845703 7.75166130065918 6.19133567810059 6.25772142410278 6.86665916442871 6.30527687072754 7.38720893859863 6.81263017654419 7.38772010803223 8.30254459381104 9.42985248565674 9.28669261932373 4.38286256790161 4.8359055519104 5.29504203796387 7.85582160949707 7.05386304855347 8.90472221374512 8.69414043426514 8.71054553985596 8.30268669128418 6.87732553482056 6.42068243026733 5.34759473800659 4.51259326934814 5.06710433959961 12.5949935913086 13.9776601791382 3.6498544216156 4.79290151596069 4.35809946060181 4.04937982559204 4.55119228363037 4.74545621871948 5.10700082778931 5.43482255935669 5.62011623382568 5.90888404846191 6.05371809005737 6.41650676727295 14.1859893798828 6.09300136566162 19.9288921356201 19.4372062683105 20.4843273162842 4.54205513000488 6.26208734512329 8.05091381072998 22.3790893554688 36.4283218383789 37.5736351013184 36.3742065429688 37.4400024414062 37.7281074523926 34.9345283508301 32.1660499572754 33.4478530883789 27.9410362243652 19.8683738708496 18.5595970153809 14.2645444869995 14.2124223709106 12.8528118133545 21.8904647827148 15.0183439254761 12.3825950622559 17.0346984863281 16.3065319061279 16.885368347168 30.0268592834473 23.9921226501465 27.0611362457275 18.4008617401123 15.0761003494263 16.2370681762695 14.9780616760254 13.8748025894165 13.7672700881958 11.2677154541016 9.56450653076172 7.93866491317749 7.99894428253174 7.80713272094727 8.01384353637695 7.68321943283081
3.97943091392517 3.79207324981689 2.62004947662354 2.62364816665649 2.70896291732788 2.73222780227661 11.1678848266602 9.11018657684326 10.5794839859009 10.1244554519653 21.9529495239258 11.2990884780884 10.8420057296753 6.29556846618652 3.54916977882385 3.47077441215515 2.61977553367615 5.4433913230896 5.96724939346313 7.1859302520752 5.92251110076904 6.83955478668213 4.18718576431274 10.1148986816406 10.9678354263306 3.62192630767822 3.56427240371704 0.173532053828239 1.09989023208618 2.27114343643188 1.84049022197723 8.41856861114502 6.32740926742554 12.2637748718262 6.45214080810547 5.18991422653198 5.9914927482605 5.20119094848633 4.80667448043823 4.72674512863159 4.17169094085693 2.82262778282166 3.53577208518982 2.15072798728943 0.337745785713196 0.277732729911804 9.95214176177979 10.3996868133545 11.8429727554321 2.63149237632751 2.25959968566895 4.57783603668213 3.29609060287476 4.13764762878418 7.16482162475586 1.82683861255646 1.5494157075882 1.62211453914642 0.501884341239929 0.271718710660934 1.58896613121033 4.56470584869385 3.92507314682007 12.474534034729 4.91079568862915 3.59121108055115 4.11736345291138 0.524982333183289 0.437884032726288 28.4609451293945 35.1225280761719 22.8295192718506 14.065372467041 9.5869197845459 3.05185031890869 -0.306068629026413 -1.27891647815704 27.0599269866943 15.4460096359253 6.26862812042236 5.36067008972168 9.67168235778809 5.91242599487305 4.75207471847534 5.28045463562012 5.7096266746521 8.20309543609619 9.18007278442383 9.06413173675537 8.33087348937988 6.97758865356445 6.64712572097778 6.88745450973511 7.00124406814575 8.52786827087402 7.90218162536621 8.52925777435303 9.60632419586182 10.8839883804321 10.7559366226196 4.80581045150757 5.4979305267334 5.56327772140503 6.79301118850708 8.22885036468506 9.44311237335205 9.05802917480469 8.66415882110596 8.9787540435791 8.69967651367188 6.91759347915649 6.24500465393066 5.72040176391602 5.06510543823242 7.22113943099976 20.3556861877441 4.56363677978516 4.83723211288452 4.87569427490234 4.30127334594727 4.64348077774048 4.71639156341553 5.23413181304932 5.30108976364136 5.765784740448 6.09511375427246 6.18355369567871 6.61838674545288 6.27147626876831 6.4303994178772 6.06451177597046 8.63508796691895 11.3226642608643 24.2625942230225 6.39820432662964 3.57852745056152 4.22139549255371 20.8871212005615 28.9195518493652 31.8024044036865 34.050724029541 35.1457099914551 35.4997940063477 30.9817676544189 33.0791244506836 31.4222354888916 40.9992446899414 22.0986404418945 25.4839038848877 15.0534982681274 17.854549407959 14.7866640090942 16.1759185791016 17.8108081817627 24.585147857666 20.3353881835938 25.2696762084961 32.1334381103516 14.390528678894 23.8898620605469 38.6827850341797 13.4924583435059 16.310302734375 17.6165161132812 15.6231918334961 15.5149097442627 13.3428735733032 10.8229360580444 9.59528064727783 8.43175888061523 8.26311588287354 8.43583011627197 8.07299900054932 7.72680568695068
4.18276596069336 3.96173286437988 2.98416972160339 2.87473464012146 2.98136210441589 13.3316307067871 10.6114025115967 9.92423152923584 11.5192413330078 18.1466827392578 33.0153198242188 12.7050323486328 8.3607873916626 5.55728197097778 5.11525297164917 4.0930438041687 6.05550384521484 7.50341987609863 7.41119241714478 5.56915807723999 5.49511766433716 5.77351379394531 12.8698120117188 9.65796661376953 12.5331897735596 4.07719945907593 3.82548213005066 -0.0247543212026358 5.21005058288574 -0.626923799514771 0.367707401514053 5.70607376098633 6.58323669433594 13.1979551315308 6.8731164932251 4.86159706115723 4.22878217697144 5.62558507919312 7.85060024261475 6.9102931022644 5.85430479049683 4.31317043304443 2.15935444831848 6.77718687057495 0.325519889593124 0.439519912004471 0.555286943912506 0.593565821647644 8.20597648620605 2.94298243522644 4.49690008163452 7.01281881332397 5.35458278656006 12.4870109558105 2.08746933937073 2.49357271194458 1.7189838886261 1.53328323364258 0.501958966255188 9.78978729248047 1.34632742404938 9.67365837097168 1.8038877248764 7.59280633926392 15.9494314193726 9.50995349884033 2.38831186294556 0.567635774612427 1.11483085155487 0.256145745515823 37.2936973571777 34.2920532226562 11.9631071090698 12.0752620697021 7.48098134994507 6.47311305999756 -1.34647297859192 16.5365467071533 20.426794052124 7.2639102935791 15.0620460510254 6.98520994186401 5.32833242416382 5.08738851547241 5.55517435073853 6.01060199737549 10.0525970458984 9.65515232086182 9.51281070709229 7.5052809715271 7.16378116607666 6.03468465805054 7.40493535995483 6.76064872741699 9.31239700317383 8.60816669464111 9.39073181152344 10.6186494827271 12.0830631256104 11.9311218261719 6.14124298095703 5.12902212142944 5.93517827987671 8.91768074035645 8.1273307800293 9.87987518310547 9.4499340057373 9.41467189788818 9.18215084075928 7.82348871231079 6.88653373718262 6.42583608627319 5.99664783477783 5.54900074005127 14.5087890625 29.3458385467529 4.08310890197754 5.04255628585815 4.55554485321045 4.23655319213867 4.71322011947632 4.93907594680786 5.28698253631592 5.60504674911499 5.80224418640137 6.36111354827881 6.77258825302124 6.63733816146851 6.67447805404663 6.2312445640564 6.45413494110107 6.18113040924072 5.29594945907593 11.9234800338745 11.7975635528564 14.0800752639771 8.93398284912109 6.18957614898682 22.8312740325928 32.1565246582031 40.6215629577637 41.5389442443848 31.4920635223389 32.7338447570801 33.0976943969727 30.910306930542 29.2701416015625 28.0385570526123 17.6920051574707 16.2909412384033 15.4947032928467 16.6743354797363 26.4277858734131 21.4969520568848 34.6240348815918 28.5979595184326 35.1345748901367 5.87045001983643 25.1488037109375 7.65837001800537 28.717378616333 16.7151775360107 19.4481315612793 18.2375297546387 16.9254837036133 16.8398170471191 13.8726100921631 11.7901020050049 9.79380226135254 8.73628902435303 8.50693511962891 8.73337841033936 8.34711647033691 7.41525077819824
4.27863359451294 3.64313149452209 3.52719593048096 3.55947756767273 3.55702686309814 15.2544136047363 11.9607400894165 13.3060913085938 13.7583045959473 8.18041133880615 15.3948383331299 14.6360368728638 10.9342355728149 5.28225088119507 5.29678678512573 4.25959920883179 8.23881721496582 6.53818941116333 7.71919727325439 3.10553193092346 5.94031524658203 4.52688503265381 14.9813804626465 15.7569246292114 4.84843158721924 4.2296462059021 5.31738042831421 -0.239694982767105 -0.534046232700348 -0.358680099248886 1.52598965167999 8.89467430114746 6.47467184066772 13.9005012512207 8.79254150390625 7.46597576141357 6.26214790344238 9.41008567810059 11.1880283355713 8.75303649902344 5.13728666305542 5.2891263961792 3.42339444160461 2.95235514640808 3.63353967666626 2.33643245697021 2.15606164932251 1.57225561141968 3.98031616210938 2.52042722702026 4.8546929359436 12.9387245178223 12.667387008667 16.384786605835 1.97716867923737 1.79448449611664 1.87196218967438 4.86346960067749 0.421940118074417 1.81580996513367 3.36122131347656 12.2649183273315 1.98140847682953 1.53550112247467 6.28323888778687 16.5863132476807 1.52507698535919 4.08545637130737 0.775980949401855 0.0721890330314636 0.643093407154083 36.3835067749023 22.0750198364258 14.0832099914551 10.1832828521729 17.2280540466309 0.310661494731903 1.56150102615356 9.077956199646 5.50081586837769 17.4416637420654 7.70289516448975 5.89388418197632 6.29833126068115 6.75052356719971 9.51232147216797 10.744607925415 10.5462217330933 9.54001045227051 7.45250034332275 7.49208498001099 7.59537410736084 7.7088189125061 11.6220331192017 10.6504468917847 11.6096096038818 13.2057762145996 15.0471353530884 14.7699823379517 5.73525333404541 6.66254854202271 6.39854669570923 9.72964859008789 9.01764583587646 10.6684713363647 10.2471466064453 9.63708972930908 9.84971809387207 9.54616451263428 7.81585836410522 7.24724292755127 6.59175729751587 5.5482931137085 4.20588302612305 3.99975061416626 3.90318322181702 5.08082628250122 5.15726470947266 4.50821495056152 4.86540222167969 4.94114017486572 5.51531648635864 5.59005784988403 6.02503442764282 6.3947114944458 6.46897792816162 6.88500499725342 6.92183399200439 6.64639902114868 6.78289651870728 6.93715000152588 5.87835502624512 6.72149658203125 6.61078262329102 8.25098133087158 11.537145614624 2.06848311424255 4.16947221755981 21.157341003418 26.0743312835693 38.9444885253906 45.501522064209 28.3586044311523 33.0949745178223 46.4838447570801 47.5898742675781 31.5094470977783 20.6866512298584 18.9810752868652 20.147985458374 25.4341487884521 17.3018321990967 36.4640045166016 9.12629699707031 40.795238494873 8.64065074920654 4.97748804092407 5.31187343597412 18.8029956817627 10.785101890564 26.7753028869629 23.7703533172607 21.3064918518066 18.789400100708 19.4326190948486 16.0870056152344 13.7409515380859 11.8364315032959 10.4004726409912 9.04345512390137 9.28587055206299 8.85300350189209 8.40057754516602 7.39203071594238
4.4917573928833 4.23149967193604 4.3014760017395 4.31450223922729 19.5966701507568 14.3940334320068 15.6665134429932 14.5077028274536 11.5196914672852 18.1393508911133 17.5088176727295 13.1981105804443 6.85177421569824 6.3377480506897 5.01724720001221 9.28757095336914 7.23425817489624 8.39865016937256 6.0041971206665 7.44569396972656 3.84987807273865 20.4520511627197 13.3675384521484 18.6384582519531 5.08673095703125 4.45243072509766 5.73874855041504 0.194191932678223 -0.0856221318244934 1.19757771492004 9.68692970275879 7.18062591552734 6.49015045166016 6.29245042800903 7.6822509765625 6.88725900650024 13.5549297332764 11.1693525314331 12.5523920059204 7.02172470092773 3.39968872070312 3.82460808753967 4.1881365776062 3.74752163887024 4.09175157546997 3.04485106468201 3.25131893157959 6.03805637359619 3.45233988761902 2.3298122882843 1.46485817432404 4.56755256652832 1.27393043041229 2.12247776985168 2.11161637306213 2.14921069145203 1.68244481086731 1.82082760334015 1.96161043643951 3.09781765937805 1.12297713756561 4.8301043510437 1.10010290145874 0.591453313827515 0.715999186038971 13.0321788787842 2.02664542198181 4.35588836669922 1.7073769569397 1.45370149612427 0.5151606798172 3.76983189582825 33.6844711303711 20.3551368713379 2.28344058990479 6.93075704574585 20.1967926025391 1.64067435264587 11.0292530059814 4.03832387924194 9.7474889755249 6.88122701644897 7.33846235275269 7.95788431167603 9.05919933319092 12.3182764053345 11.4869241714478 11.3253507614136 8.65745830535889 8.36564350128174 8.26233196258545 8.35051155090332 7.67628288269043 13.9112482070923 12.6940383911133 13.8907918930054 15.8005428314209 18.0275363922119 17.7389488220215 8.1693868637085 6.60338020324707 7.77218437194824 10.2892694473267 11.6561737060547 11.1329612731934 10.4442510604858 10.6937570571899 10.200457572937 8.54319286346436 7.75206661224365 7.5192756652832 7.00444412231445 11.4755764007568 18.7049884796143 6.78147411346436 5.4233717918396 5.48741769790649 4.66617298126221 4.48797464370728 4.9583945274353 5.74870586395264 5.92855262756348 5.95902585983276 6.1443943977356 6.75704860687256 7.18964052200317 7.02584838867188 7.05113649368286 7.06401109695435 7.25717210769653 6.49184322357178 5.27022361755371 4.84127998352051 4.15414094924927 4.47041320800781 17.7584838867188 3.9492769241333 0.477220445871353 16.5623512268066 3.16996502876282 7.0715765953064 23.3739795684814 11.7072143554688 11.3671245574951 12.6654357910156 36.8740196228027 35.6615142822266 31.5313949584961 22.5827121734619 19.2522640228271 19.0916156768799 10.8284463882446 10.2994737625122 8.38621997833252 6.85262155532837 6.57705974578857 6.2977728843689 5.07200050354004 10.4401578903198 13.7101411819458 25.9974021911621 27.7496204376221 21.388090133667 22.5485534667969 19.984354019165 16.281192779541 13.7431049346924 12.1522035598755 9.61643505096436 9.88767051696777 9.45680236816406 8.92408466339111 7.74490404129028 7.64998149871826
5.30098533630371 5.08001947402954 5.24603843688965 5.05472230911255 22.989782333374 16.5802841186523 18.821662902832 20.4513549804688 22.2677326202393 20.5816268920898 19.8527774810791 8.30771541595459 7.16269683837891 6.88408422470093 8.10231399536133 9.90161609649658 9.32620143890381 6.51694536209106 3.16004133224487 9.91215038299561 4.34206438064575 29.5086784362793 26.6699562072754 5.82476472854614 4.82883501052856 6.32593965530396 4.67326307296753 4.56154680252075 4.7906928062439 4.18264055252075 9.68598556518555 9.01323318481445 7.77876615524292 5.88206434249878 3.62034392356873 6.96877241134644 6.5361795425415 17.5184955596924 17.5898742675781 5.71416854858398 5.41193342208862 5.8565936088562 4.87992334365845 3.81053996086121 4.10677194595337 3.97093939781189 4.22478199005127 6.04040193557739 6.48963260650635 5.8467230796814 1.2767368555069 2.03423571586609 2.79924201965332 2.49756693840027 2.67773938179016 2.55099034309387 1.92752516269684 2.30169582366943 2.26275157928467 5.20982837677002 0.673471450805664 0.619719803333282 0.610332429409027 0.698484063148499 1.72422122955322 6.79913091659546 4.61209678649902 4.22442054748535 1.46242332458496 2.17441296577454 2.15201687812805 0.485418021678925 37.1892471313477 31.4175186157227 13.4127912521362 7.04610824584961 30.9504985809326 19.0080318450928 11.4848699569702 13.379412651062 11.7590312957764 8.31943130493164 8.33096408843994 8.97072982788086 14.6026582717896 13.3116683959961 13.0553150177002 11.4298696517944 8.69357585906982 8.98645305633545 9.11893272399902 8.40403747558594 21.3367710113525 19.4476680755615 21.0862007141113 23.8721199035645 27.0900249481201 26.6054286956787 8.30968856811523 9.69775295257568 7.76037311553955 11.4004163742065 10.9865789413452 12.3333253860474 11.7963485717773 11.6624145507812 11.3997001647949 10.7053241729736 8.55573654174805 8.06252670288086 7.53763580322266 7.55552625656128 12.0051927566528 29.0469055175781 4.36758422851562 6.21774625778198 5.7906699180603 4.77710294723511 5.18947982788086 5.55719137191772 5.94347047805786 6.09955453872681 6.4725079536438 6.85860204696655 6.91393852233887 7.38243770599365 7.41572237014771 7.03978729248047 7.06990051269531 7.41111326217651 6.19553804397583 5.03350257873535 4.31918287277222 3.7107400894165 4.39859342575073 18.0289154052734 1.42964458465576 -0.0262268055230379 10.0452518463135 4.52616739273071 12.8440895080566 16.8644542694092 6.42341041564941 18.6088771820068 19.9342613220215 29.2079067230225 31.2625045776367 34.571964263916 28.7354011535645 26.0361671447754 17.953592300415 12.9089517593384 10.8528785705566 9.3530387878418 7.7956748008728 5.6758017539978 6.04151725769043 6.72431135177612 12.5565433502197 18.8397254943848 27.1852531433105 26.4232940673828 29.0645027160645 25.0293655395508 20.8234424591064 18.1819801330566 15.567361831665 10.414083480835 10.0092449188232 10.3088989257812 9.84391403198242 8.72355937957764 8.09637546539307 6.82669401168823
7.08173561096191 6.19213771820068 5.00978994369507 33.0325736999512 21.3627090454102 20.2634258270264 25.3493309020996 29.4306793212891 26.6168651580811 24.9924945831299 17.7301845550537 8.67450141906738 8.2321949005127 6.44011497497559 11.4401683807373 8.6664867401123 9.88910865783691 3.43280458450317 3.29132127761841 3.76013994216919 -1.24694693088531 26.0012950897217 37.1713066101074 5.94920015335083 6.75506925582886 5.40582609176636 5.57803201675415 5.59461545944214 1.76724755764008 11.5561628341675 9.23692035675049 7.95355033874512 7.22127676010132 2.85209035873413 2.70658421516418 5.85047245025635 0.919092953205109 1.89843571186066 17.9946823120117 7.64837455749512 7.0773983001709 6.89975214004517 5.45586633682251 6.16231060028076 5.21821022033691 4.58808708190918 7.84694671630859 3.77591991424561 3.82866740226746 2.59484052658081 8.7495756149292 7.60432577133179 2.81104469299316 3.18835258483887 2.15839624404907 2.33476901054382 3.86289000511169 2.89734101295471 1.39942753314972 4.6403489112854 2.53696131706238 2.96045780181885 0.858780026435852 0.911096274852753 6.63900136947632 5.84784746170044 3.44966197013855 2.27257800102234 2.14280676841736 5.04948711395264 1.68156266212463 0.0990182086825371 5.09915924072266 24.1508941650391 15.005464553833 -1.08423519134521 8.55331325531006 28.8839912414551 21.7757759094238 18.5290355682373 10.3932542800903 10.5307292938232 11.4774465560913 13.9864053726196 16.5182247161865 15.5675210952759 13.2463274002075 10.5961437225342 10.3889007568359 9.87741947174072 9.72142887115479 9.00913524627686 30.7173938751221 28.3102264404297 30.5327033996582 33.755485534668 37.6587867736816 37.312686920166 14.4695501327515 7.6514630317688 11.1359043121338 12.8124542236328 13.7062854766846 13.1284103393555 12.0687856674194 13.3705787658691 11.6125526428223 9.56929779052734 8.57529640197754 8.37995719909668 7.84915161132812 5.49141645431519 4.89470386505127 11.8026247024536 7.84731292724609 6.62064695358276 5.2481951713562 5.04947233200073 5.64684200286865 6.34544944763184 6.52990484237671 6.57987976074219 6.65322208404541 7.29714345932007 7.76831722259521 7.61041879653931 7.63985443115234 7.59291172027588 7.88333797454834 7.23911619186401 5.67699861526489 8.52162456512451 4.63497447967529 4.83205938339233 2.00734734535217 6.2116904258728 1.52704858779907 -1.25600504875183 -0.0674396231770515 -1.07357609272003 6.43485593795776 15.6157331466675 -0.0423617251217365 0.990399122238159 7.47489976882935 12.209132194519 17.6922454833984 31.9816513061523 31.3343505859375 24.5222911834717 18.9639549255371 15.3561782836914 9.81549835205078 8.76134204864502 9.1665620803833 8.55644416809082 7.81606721878052 6.33151292800903 14.2010307312012 23.1892585754395 35.2040214538574 34.6523780822754 32.6968727111816 29.8091011047363 22.4720191955566 19.2368907928467 15.6551237106323 11.7475938796997 11.0710468292236 10.5719995498657 9.923095703125 8.64346027374268 7.27481555938721 7.5268497467041
