NCOLS 174
NROWS 31
XLLCORNER 354000
YLLCORNER 6701104
CELLSIZE 16 
NODATA_value -3.4e+38 
4.61881160736084 8.76218223571777 14.5751895904541 12.8651361465454 25.4693717956543 4.54708528518677 11.9251432418823 12.6945133209229 -0.321096122264862 10.2023239135742 -0.450908064842224 -0.163722306489944 2.10374140739441 -0.294467002153397 1.77216112613678 9.81997108459473 10.2910203933716 3.39603638648987 -0.0800730288028717 0.220803290605545 11.9731092453003 9.43490505218506 -1.53600680828094 4.89111614227295 -1.74819052219391 9.37297916412354 -1.55242002010345 -1.51905417442322 -1.2169007062912 0.536596059799194 4.74798393249512 3.98439025878906 1.35313546657562 7.40585613250732 7.766282081604 15.4267492294312 -0.236536920070648 2.85364127159119 4.14226770401001 11.7813997268677 9.2117395401001 7.45300388336182 6.15683078765869 4.84481382369995 10.1539478302002 24.9881706237793 -2.00304436683655 -2.83220553398132 -2.52756357192993 13.3367509841919 -1.33451962471008 -1.98298478126526 5.53313446044922 1.49115765094757 10.3654937744141 0.163317412137985 12.8713531494141 8.88465785980225 8.19486045837402 -1.698526263237 0.82636433839798 1.04972362518311 0.329949140548706 -0.813297986984253 -0.625374674797058 -0.605291128158569 -0.583528459072113 -0.816242218017578 -0.708466529846191 -0.624913990497589 -0.59578537940979 -0.555866897106171 -0.517235815525055 -0.721531093120575 -0.748428106307983 0.305565774440765 0.335847020149231 0.475849837064743 0.525378465652466 0.716216087341309 1.12319231033325 1.28671622276306 1.73097670078278 3.18711948394775 4.025719165802 2.19449639320374 18.4557266235352 1.58454573154449 2.86924505233765 5.33770418167114 6.43836641311646 8.80953121185303 5.78403043746948 9.93415832519531 1.40460658073425 1.04257237911224 1.12070322036743 1.2932003736496 1.32838809490204 2.27884745597839 2.46601319313049 1.88051152229309 2.06294369697571 2.26414179801941 2.94820642471313 3.2174026966095 3.61038947105408 4.42752313613892 5.33237361907959 6.01309442520142 4.858802318573 9.55119228363037 2.90576004981995 7.80443334579468 10.9119806289673 20.0350494384766 1.93391501903534 18.8384799957275 1.74425888061523 2.56740832328796 2.69630002975464 6.79254007339478 1.9189110994339 3.28623652458191 3.41692638397217 3.08722424507141 4.16999816894531 4.36869382858276 5.36100292205811 5.65741205215454 5.89432239532471 6.26474380493164 6.394850730896 5.13659715652466 5.36991357803345 5.87173366546631 6.46857881546021 3.13877129554749 3.35793423652649 3.39054870605469 2.92467045783997 1.88332843780518 1.26413869857788 0.383924514055252 0.342039167881012 0.261617064476013 2.09266781806946 2.13383364677429 1.86071491241455 2.04366898536682 2.13889956474304 2.18955254554749 2.44693660736084 2.85362672805786 5.00152111053467 5.46752643585205 6.01061868667603 3.96200466156006 4.42987537384033 6.41079664230347 10.7137327194214 16.0295810699463 22.1604099273682 40.0091972351074 9.69620800018311 4.13897848129272 5.82726860046387 11.2905149459839 7.07890892028809 25.3906955718994 55.0527496337891 7.96414184570312 9.98828029632568 10.5144338607788
10.5788621902466 1.51664519309998 2.5030722618103 11.8960876464844 8.61766910552979 26.5273971557617 6.89697933197021 19.605411529541 2.54205775260925 4.05336856842041 7.05807495117188 7.87062072753906 16.8014736175537 -0.758294105529785 -0.188022539019585 2.90268921852112 9.16294574737549 -0.119719043374062 3.1204822063446 2.87671065330505 23.7970066070557 2.07735800743103 9.71449375152588 -0.188148677349091 4.15458869934082 9.65086460113525 5.37751770019531 0.931337177753448 -2.02734661102295 -1.65601670742035 -1.10597050189972 -0.923263013362885 1.33840250968933 -0.600820660591125 -0.511720538139343 0.772721469402313 2.95765995979309 3.54545021057129 7.70090961456299 8.77050971984863 14.2758846282959 24.1591720581055 3.62132477760315 17.1711101531982 9.05619812011719 47.3949203491211 10.8317213058472 -3.45431804656982 -4.3643536567688 -2.79976105690002 -0.415040582418442 -1.44200551509857 0.15527418255806 3.77236366271973 5.00957155227661 5.74550724029541 -0.683006107807159 3.35770893096924 0.334124654531479 0.663935124874115 1.00686657428741 1.14218413829803 0.06239228323102 -0.554811775684357 -0.861160218715668 -0.854420125484467 -0.774850964546204 -0.700841307640076 -0.657438933849335 -0.6182941198349 -0.566851496696472 -0.757375538349152 -0.774789392948151 -0.74563729763031 -0.755201935768127 0.401586413383484 0.431710034608841 0.83309680223465 0.897730112075806 0.977630734443665 1.10379648208618 1.54648053646088 2.03884482383728 1.80441176891327 3.66778707504272 6.46824645996094 2.42863392829895 3.38615083694458 8.02011394500732 2.22052121162415 2.83368325233459 3.19359827041626 4.49297904968262 3.0276026725769 3.83985280990601 1.03580045700073 0.983122289180756 1.84708797931671 1.99702203273773 1.46386384963989 1.62301802635193 1.8614776134491 2.43584108352661 2.62494993209839 3.15292596817017 3.78310632705688 4.13063812255859 4.54168176651001 3.81297278404236 15.9019269943237 2.44692635536194 2.84266042709351 4.68442583084106 9.44760799407959 8.2763786315918 9.05548000335693 21.970386505127 1.92383503913879 14.0951461791992 1.51049327850342 1.49282562732697 2.33719444274902 2.61253428459167 2.81637573242188 3.72051978111267 4.51221799850464 4.72621822357178 4.95614385604858 5.13290596008301 5.4265193939209 5.53387832641602 4.33828353881836 4.46835327148438 4.78937387466431 4.7018895149231 2.56214332580566 2.81018853187561 2.98028016090393 1.88404202461243 1.4126181602478 0.447020322084427 0.34167891740799 0.302706807851791 0.227565795183182 1.99035000801086 2.03093814849854 1.76452386379242 1.93989634513855 2.02878713607788 2.07501292228699 2.04940986633301 2.30644416809082 4.15306186676025 4.46845579147339 3.03301668167114 3.35997891426086 3.50791764259338 4.6738018989563 7.70448398590088 9.59631538391113 11.3922271728516 14.7413148880005 24.7858600616455 15.9636487960815 5.52110481262207 18.9966945648193 6.75187301635742 7.65297937393188 12.3031558990479 12.4429454803467 50.646183013916 10.4475584030151 11.7272720336914 17.8479404449463
7.84042358398438 6.01265811920166 0.0632886961102486 4.33784818649292 14.9325275421143 15.0342025756836 15.5819368362427 17.395149230957 1.23378944396973 1.15254378318787 1.98123025894165 7.40737009048462 -0.288886547088623 5.75548696517944 11.2064914703369 4.09601831436157 3.24100232124329 4.2372350692749 14.5678358078003 3.40055584907532 1.35907089710236 4.15557050704956 1.49160575866699 4.4157133102417 17.8904838562012 5.83270978927612 -0.27543306350708 -1.58621227741241 -1.27354419231415 -1.22149968147278 -0.902475714683533 -0.664213299751282 -0.83332633972168 1.28676068782806 -0.757567167282104 1.0109201669693 6.00720167160034 7.14856147766113 20.422887802124 4.10982179641724 12.0170783996582 3.86721968650818 3.48848414421082 4.11360025405884 9.58094310760498 21.4553375244141 27.5693550109863 3.40975737571716 -2.44991874694824 -3.03059959411621 -1.80606365203857 -0.336012154817581 2.05018305778503 3.69366645812988 9.45199108123779 -0.778312802314758 -1.71836936473846 0.0785793587565422 0.338448524475098 0.672471821308136 1.17014062404633 0.776358902454376 0.0861261263489723 -0.20067723095417 -0.453060239553452 -0.669792473316193 -0.715622305870056 -0.7105992436409 -0.900772869586945 -0.839616537094116 -0.811993360519409 -0.765208423137665 -0.788857817649841 -0.752103924751282 0.12046267837286 0.7469322681427 0.7882359623909 0.842845857143402 1.16310286521912 1.24250793457031 1.39398455619812 1.50456941127777 1.46407127380371 1.63994371891022 2.05043578147888 2.20677924156189 2.41041541099548 2.22610068321228 1.48981297016144 2.47777462005615 9.33250045776367 0.722406089305878 1.73431408405304 0.904042303562164 0.852107584476471 1.50721049308777 1.58846545219421 1.13302838802338 1.27549731731415 1.44524729251862 2.02877187728882 2.18318605422974 2.57126951217651 3.10326075553894 3.35837769508362 2.7140040397644 2.97409200668335 5.20465469360352 21.3159446716309 1.42595660686493 4.12994384765625 3.99139881134033 1.85262644290924 5.48606538772583 6.28293037414551 8.79947471618652 6.42104578018188 13.1804685592651 14.7498741149902 1.76402723789215 2.33636736869812 2.27420568466187 3.37824153900146 4.0435357093811 4.21289825439453 4.33358192443848 4.54392862319946 4.76165819168091 4.86081838607788 3.72510647773743 3.78178405761719 4.027419090271 4.126624584198 2.14487767219543 2.44268393516541 2.5748016834259 1.59413933753967 0.79548841714859 0.26885974407196 0.251318156719208 0.265293061733246 0.203984767198563 1.89851808547974 1.93484497070312 1.68006205558777 1.85009956359863 1.92838323116302 1.96863174438477 1.93850469589233 1.79103028774261 3.55244994163513 3.76648473739624 2.35690116882324 2.53337502479553 3.33863353729248 5.55618333816528 6.06332969665527 6.94845628738403 7.79980325698853 8.85444450378418 10.5300588607788 13.823187828064 19.3730792999268 11.31432056427 16.177038192749 8.31553936004639 14.3700304031372 35.1486511230469 8.19022941589355 21.1869163513184 45.9951858520508 9.82655334472656 9.75167846679688 12.223557472229
10.3230504989624 2.0383882522583 2.14794397354126 3.34518790245056 7.13692092895508 7.88648080825806 9.74957656860352 11.522780418396 3.8077449798584 18.8167057037354 -0.600798666477203 -0.096471793949604 2.45669460296631 5.83097362518311 3.07974076271057 5.40177536010742 1.775310754776 18.322114944458 0.00429610209539533 13.7644748687744 0.034335620701313 15.0515146255493 5.66981935501099 6.86199951171875 8.16995143890381 6.1774787902832 -1.48316442966461 12.1926574707031 -1.70467305183411 -1.38932287693024 -1.08437395095825 1.99340832233429 -1.01481807231903 -0.513027191162109 1.47399437427521 3.61068296432495 3.71598339080811 18.5265846252441 7.94362926483154 31.3398456573486 18.4422550201416 -2.14571046829224 0.020343067124486 7.4635181427002 8.0389461517334 11.0355558395386 3.21906447410583 -3.22114706039429 -2.97925591468811 -2.93495535850525 -1.63917136192322 6.04396820068359 -2.22995710372925 11.6087980270386 -1.46924436092377 -0.103714197874069 0.074264332652092 0.270201772451401 0.375402301549911 0.619943261146545 1.05329298973083 0.652137339115143 0.427275240421295 0.278841882944107 -0.0805729553103447 -0.382021218538284 -0.24150039255619 -0.783797264099121 -0.944524526596069 -0.891410768032074 -0.862044453620911 -0.795279562473297 -0.668782413005829 0.688457548618317 0.720864474773407 0.762739300727844 1.04748678207397 1.14646399021149 1.21204817295074 1.28891110420227 1.24180376529694 1.36010801792145 1.77594423294067 1.91605973243713 1.53200316429138 1.15172708034515 1.11731779575348 1.19515800476074 2.94318199157715 4.81373071670532 0.871295928955078 0.778461635112762 1.21875333786011 1.29655146598816 1.35066080093384 0.909719586372375 0.986888408660889 1.1162987947464 1.65276920795441 1.80209267139435 2.14183712005615 2.62631511688232 2.7973644733429 2.18955731391907 2.37548089027405 3.03661131858826 7.13851356506348 10.0172290802002 18.1356887817383 3.11038637161255 1.78160619735718 2.07972598075867 2.6197612285614 4.76890897750854 3.53361988067627 5.94676494598389 6.3719596862793 6.11257839202881 23.0368957519531 4.61686897277832 2.03080153465271 2.64333987236023 3.81897187232971 3.87945532798767 4.04198455810547 4.14685010910034 3.11963033676147 3.28183698654175 3.39119863510132 3.52829504013062 2.22901248931885 2.04878425598145 2.14494395256042 2.25970077514648 0.95273745059967 0.737735986709595 1.77274250984192 0.185180515050888 0.174919620156288 0.134349331259727 1.07787215709686 1.18723559379578 1.59910976886749 1.63225483894348 1.83907282352448 1.8750969171524 1.84026896953583 1.70269024372101 3.08545804023743 3.2594428062439 2.06413817405701 2.366455078125 2.76495671272278 4.59988927841187 4.9572172164917 5.41895246505737 5.95705080032349 6.44891452789307 7.62534046173096 8.52848052978516 9.74267768859863 8.32171821594238 9.92929744720459 20.7214508056641 7.88874053955078 12.672384262085 16.9299468994141 10.1131935119629 10.7792711257935 11.2163553237915 52.0753021240234 8.84005355834961 11.1678905487061 10.0519304275513
5.95458364486694 8.78531742095947 0.393060505390167 4.98994016647339 0.328187555074692 3.34277582168579 6.25037622451782 16.0771236419678 24.5993785858154 14.8271398544312 15.7400074005127 1.07354497909546 2.20951581001282 3.63983106613159 16.3123435974121 7.17376518249512 17.7539939880371 19.9825973510742 3.58845019340515 2.37773871421814 3.55740165710449 4.5015549659729 16.7853240966797 3.04502415657043 5.65957641601562 4.96268129348755 5.20574474334717 0.49156579375267 -1.04254329204559 0.248851224780083 1.81164300441742 -0.353077471256256 -0.29343169927597 0.0674414858222008 2.71368670463562 3.27470588684082 7.28357744216919 20.745584487915 17.76194190979 18.1913661956787 18.7714328765869 0.580824196338654 1.79544711112976 -3.07738351821899 -2.63849925994873 0.947836756706238 9.91612911224365 7.05686473846436 -2.44452571868896 0.927768528461456 6.65281772613525 -2.4580295085907 -2.24384140968323 -2.1096248626709 -0.0835972800850868 0.159233465790749 0.193028718233109 0.301312625408173 0.359348237514496 0.629285991191864 0.853745579719543 0.770098209381104 0.731434166431427 0.585280954837799 0.282751619815826 0.430030286312103 0.292489290237427 -0.14258673787117 -0.959724128246307 -0.933984935283661 -0.905148565769196 0.569894909858704 0.644273817539215 0.706357002258301 0.982764542102814 1.05949819087982 1.10330975055695 1.01388323307037 1.0869756937027 1.15725159645081 1.53002572059631 1.66600179672241 1.32292819023132 0.947820246219635 0.986711919307709 1.05086314678192 1.08098971843719 1.5882785320282 0.571769058704376 0.627309262752533 1.01886427402496 1.10352420806885 0.713605642318726 0.750665962696075 0.817066431045532 1.31883525848389 1.39228546619415 1.48398721218109 1.76468074321747 2.20580220222473 2.36808037757874 1.83637833595276 1.96362066268921 2.0615394115448 4.06139802932739 4.96679067611694 6.02862691879272 11.1690692901611 7.55336570739746 1.672034740448 1.75361788272858 5.36059141159058 1.462606549263 2.08930802345276 5.14430999755859 5.57074451446533 4.63026237487793 4.76860094070435 12.7964153289795 7.32738399505615 2.75339102745056 3.51391744613647 3.66322016716003 3.74180030822754 2.76914238929749 2.75853061676025 3.0686309337616 3.19121837615967 1.52171957492828 1.84001410007477 1.92125523090363 0.9898322224617 0.790910482406616 0.635564208030701 0.553209781646729 0.702353298664093 0.634635210037231 0.0945640131831169 0.110616624355316 0.350756078958511 0.859171748161316 1.54070019721985 1.57086730003357 1.71710109710693 1.75184607505798 2.61998105049133 2.74308466911316 2.8747980594635 1.75338876247406 1.9546309709549 2.5740966796875 3.94136142730713 4.18851613998413 4.41361904144287 4.56503057479858 5.46363973617554 5.97425842285156 6.56050062179565 6.46402025222778 6.54237794876099 7.11518239974976 7.55683994293213 9.0662727355957 20.1168937683105 8.03234577178955 9.31219005584717 9.5616455078125 13.9742441177368 19.0265007019043 8.51755523681641 28.0800304412842 12.4729080200195 10.5610971450806 24.9340724945068
5.06145668029785 2.54660511016846 0.348432272672653 7.48880910873413 0.952327787876129 3.31743240356445 8.08353137969971 16.0929126739502 10.5008583068848 13.9172124862671 23.3146667480469 2.35623526573181 2.54300403594971 6.64417886734009 7.68013715744019 6.9529242515564 8.64443492889404 8.64631366729736 2.91687059402466 3.82995676994324 4.53385257720947 6.12248086929321 5.83233118057251 3.74703121185303 5.09078979492188 11.1381139755249 6.81652975082397 0.620123445987701 6.25157880783081 6.46089887619019 6.93385124206543 8.30964279174805 2.47531843185425 3.26223754882812 4.77307605743408 7.98838567733765 13.2317218780518 30.8590927124023 11.3845872879028 27.5808582305908 23.5405960083008 -1.47761678695679 0.770558714866638 -0.0409310087561607 -0.903347194194794 1.70889818668365 -2.29036378860474 12.6880493164062 -2.73878192901611 3.34758996963501 1.98214387893677 -2.4665949344635 -2.48520612716675 25.3874988555908 -2.22986245155334 0.391300529241562 0.294427841901779 0.353519350290298 0.482944011688232 0.625773727893829 0.660377442836761 0.49487116932869 0.628632426261902 0.520719826221466 0.314951837062836 0.286948472261429 0.49835005402565 -0.156032308936119 -0.826723337173462 -0.57499486207962 0.474647283554077 0.563518226146698 0.874390065670013 0.98233026266098 1.03531229496002 0.945568740367889 0.99007773399353 1.28004765510559 1.35207712650299 1.44843649864197 0.707427203655243 0.737127363681793 0.83006352186203 0.914101362228394 0.668578326702118 0.727826297283173 0.446784496307373 0.458910197019577 0.816941916942596 0.878531754016876 0.546662926673889 0.616274058818817 0.698591530323029 1.14746367931366 1.19939374923706 1.40834486484528 1.76586306095123 1.86288440227509 1.99389946460724 1.53481900691986 1.64784467220306 1.69515347480774 2.78044080734253 3.14822006225586 3.35860896110535 4.13226652145386 18.5793609619141 4.89132261276245 1.48338568210602 13.2425670623779 6.44227123260498 2.18172860145569 1.62460470199585 1.73444223403931 2.97969651222229 1.99187457561493 2.40627098083496 6.24733018875122 8.31098651885986 2.59063720703125 2.64800477027893 3.4013466835022 2.49577260017395 2.47754502296448 2.80284667015076 2.89630722999573 1.34358298778534 1.65873372554779 1.72133898735046 0.853660881519318 0.680064797401428 0.301461428403854 0.229420721530914 0.278011053800583 0.329155802726746 1.31295597553253 0.0537620410323143 1.55881083011627 0.0964064076542854 1.04865109920502 1.49909102916718 1.52954995632172 1.34991574287415 2.36194086074829 2.46539974212646 1.49066722393036 1.56113886833191 2.26381540298462 2.75348305702209 3.43449425697327 3.62404537200928 3.7339038848877 4.08942317962646 4.54521322250366 4.88326549530029 5.2338924407959 5.40809011459351 6.13402128219604 6.62672472000122 7.06226110458374 7.28748798370361 7.85301065444946 9.15198230743408 9.20592880249023 27.9493026733398 7.68013525009155 20.7624397277832 7.58017253875732 7.99544095993042 8.35729598999023 8.68706798553467 10.5996198654175 25.4990749359131 9.18401336669922
6.28473472595215 0.239970669150352 0.950050711631775 1.69932079315186 2.11880660057068 2.16541910171509 7.12304782867432 9.19993209838867 17.0527191162109 19.5206394195557 18.7081661224365 19.2807922363281 6.32065105438232 5.38702869415283 8.07038307189941 18.461332321167 38.1639938354492 17.4314098358154 2.61851119995117 7.5629301071167 8.5633659362793 6.00186920166016 4.47387742996216 5.77965116500854 6.08018350601196 8.73260688781738 5.85321855545044 4.55529165267944 5.43341207504272 3.42489075660706 1.88145232200623 8.71597576141357 2.19556140899658 5.08856582641602 14.8944988250732 8.97276306152344 30.0412731170654 7.531165599823 17.1104106903076 20.9323139190674 11.6308250427246 12.1687994003296 5.3545503616333 0.474190264940262 -2.45822262763977 0.762183904647827 3.47600436210632 27.1848659515381 -2.50922608375549 -0.870519816875458 2.33303499221802 4.24069166183472 5.06987619400024 0.327594220638275 0.777690410614014 0.864757835865021 0.472699761390686 0.442412734031677 0.459001988172531 0.378040313720703 0.276400327682495 0.383224666118622 0.403035581111908 0.341812700033188 0.271248430013657 -0.0431119576096535 0.275164276361465 0.128871396183968 -0.507067978382111 -0.242137774825096 0.248259395360947 0.825933456420898 0.898517191410065 0.846803486347198 0.918151080608368 1.19564199447632 1.23608934879303 0.899364411830902 0.488675802946091 0.578666388988495 0.668212652206421 0.488991588354111 0.530908286571503 0.592245578765869 0.330442637205124 0.3462293446064 0.659275650978088 0.711354970932007 0.375006079673767 0.432254135608673 0.503369748592377 0.958682656288147 1.03618311882019 1.22906184196472 1.54262101650238 1.61244320869446 1.17310655117035 1.25229072570801 1.4126969575882 1.82765913009644 2.04789280891418 2.57157254219055 2.71140766143799 2.57292413711548 5.65853691101074 7.98341226577759 20.523229598999 1.09725999832153 6.8030104637146 1.42710292339325 3.69567275047302 19.3120212554932 1.43833875656128 1.8164736032486 4.03432655334473 2.57755470275879 6.91213083267212 2.39514565467834 7.17323684692383 3.1379714012146 2.2804741859436 2.49709415435791 2.56893825531006 2.65219259262085 1.21250867843628 1.50588691234589 1.55293774604797 0.670107364654541 0.443528354167938 0.193822294473648 0.163001343607903 0.176229879260063 0.160317033529282 0.425072580575943 0.493086516857147 0.399755597114563 4.45072460174561 0.481698602437973 0.576182425022125 0.623344361782074 1.07841396331787 2.15916657447815 2.23771905899048 1.34571385383606 1.39805150032043 2.14487409591675 2.9147367477417 3.04875159263611 3.4334728717804 3.77152514457703 3.8591365814209 3.95782589912415 4.13420152664185 4.92553377151489 5.06713914871216 5.74695348739624 6.22801733016968 6.61126279830933 7.03748178482056 7.29236555099487 7.94967222213745 8.29882717132568 9.62604713439941 13.3781089782715 29.3399562835693 8.92405319213867 7.96216011047363 7.56841707229614 32.8572311401367 12.6300916671753 8.47131252288818 16.293270111084 29.7152404785156 10.5765247344971
13.1601037979126 3.28345465660095 17.814115524292 -0.129768937826157 1.42103433609009 3.07240700721741 9.55525684356689 11.3807325363159 33.7161636352539 5.44921016693115 11.3075351715088 14.7554817199707 5.5025053024292 10.9458408355713 9.04349327087402 35.8405113220215 19.8639488220215 24.4384136199951 3.11997771263123 8.92383193969727 3.68205666542053 2.31733465194702 2.57103037834167 1.00420129299164 2.72461485862732 1.55570328235626 2.51676487922668 4.89358854293823 1.7106386423111 2.05248045921326 5.92727041244507 18.175594329834 5.78623342514038 8.12033939361572 11.1485109329224 18.5894412994385 10.509428024292 24.86887550354 4.93989849090576 11.1251754760742 13.218729019165 13.9397087097168 15.77317237854 6.10958957672119 5.11194562911987 11.634934425354 3.71969556808472 11.0034284591675 -2.59628295898438 -2.50066232681274 1.61406683921814 -2.02103137969971 0.725048124790192 0.838723540306091 1.09949815273285 1.0504287481308 1.00592601299286 1.03296780586243 0.195029437541962 0.259951412677765 0.251447707414627 0.267073959112167 0.251253724098206 0.0680981799960136 -0.0213696546852589 -0.0196896512061357 0.0619768649339676 -0.059429369866848 -0.184495612978935 -0.48128542304039 0.373194694519043 0.71201229095459 0.783137798309326 1.06197130680084 1.12740874290466 0.825626969337463 0.410307794809341 0.462803065776825 0.518759608268738 0.323266714811325 0.394745647907257 0.191675901412964 0.192858248949051 0.430254280567169 0.497531771659851 0.55259644985199 0.258008003234863 0.296815901994705 0.355820149183273 0.768931567668915 0.830251097679138 0.99715918302536 1.30013990402222 1.38997340202332 0.995831489562988 1.06129086017609 1.22501718997955 1.35669541358948 2.07173371315002 2.20682787895203 2.33832859992981 1.83435654640198 3.15183758735657 4.07945537567139 6.25722742080688 9.00463485717773 6.47448921203613 28.3729000091553 5.11142921447754 0.918520748615265 1.06972908973694 11.2195482254028 2.22385430335999 10.3116416931152 2.39445853233337 3.32594609260559 2.50243425369263 5.87949323654175 1.57823812961578 2.32334756851196 2.38999247550964 1.40749394893646 1.34586191177368 1.38524413108826 1.42595410346985 0.488968908786774 0.434983551502228 0.329741507768631 1.47832584381104 0.102370746433735 0.0810599997639656 0.179752811789513 0.299009293317795 0.289971709251404 1.58133554458618 1.76672255992889 12.0658140182495 0.545537173748016 0.571048140525818 1.58196687698364 1.91146075725555 1.14045488834381 1.27240824699402 2.03736162185669 2.63077139854431 2.73376774787903 3.24760770797729 3.5751359462738 3.65298748016357 3.81252217292786 4.54064226150513 4.67681217193604 4.78433799743652 5.40984010696411 5.86232423782349 6.22846651077271 6.58969259262085 6.75439405441284 7.2475414276123 7.55127191543579 7.19902372360229 7.79021883010864 10.1715908050537 14.2495145797729 14.2155256271362 16.4334201812744 32.9894142150879 7.18320894241333 7.74836301803589 8.06420040130615 9.12958812713623 8.85000038146973 11.2615566253662 12.272310256958
8.82185554504395 16.779857635498 21.5308647155762 0.641483902931213 1.25782835483551 6.10199308395386 8.17432975769043 28.2329730987549 7.41773414611816 12.1782007217407 15.8324251174927 7.61759281158447 10.1062955856323 13.9795436859131 24.4369258880615 22.8925437927246 30.6005687713623 21.6999263763428 29.2432250976562 13.7316551208496 1.08950364589691 0.96402382850647 11.8783483505249 -1.06855952739716 -0.424327909946442 1.32212972640991 1.34727203845978 9.59796524047852 8.40834426879883 9.96300411224365 4.79924726486206 4.45777082443237 6.44998788833618 7.82185029983521 6.37219524383545 13.3273334503174 2.22308158874512 4.75838184356689 8.890212059021 7.21343231201172 7.92398929595947 2.09665369987488 1.97127985954285 2.29206490516663 16.0166988372803 -1.29323542118073 8.16584396362305 1.81938648223877 -2.14838457107544 -2.18953108787537 -1.22719442844391 -0.788743436336517 1.40178465843201 1.48718464374542 1.5858428478241 1.67023921012878 1.81923019886017 0.783181488513947 0.208180651068687 0.189577117562294 0.202829137444496 0.338397830724716 0.240489542484283 -0.0952918007969856 -0.20670074224472 -0.0956715792417526 -0.186436325311661 -0.295097798109055 -0.325178146362305 -0.474022746086121 -0.161749511957169 0.941651582717896 0.991134583950043 0.464202493429184 0.324329763650894 0.395718187093735 0.432990789413452 0.213471844792366 0.265594035387039 0.0176232382655144 0.0460335910320282 0.235614582896233 0.301126569509506 0.0577825382351875 0.0998487323522568 0.213182151317596 0.565461099147797 0.625595390796661 0.674159526824951 0.817377924919128 1.09379923343658 1.15150713920593 0.77765953540802 0.992654740810394 1.05996561050415 1.11807870864868 1.75658011436462 1.88079214096069 1.17053961753845 1.38322627544403 2.05392599105835 2.71514940261841 3.49987959861755 4.26940393447876 4.34667062759399 9.54811954498291 13.1138582229614 15.4821310043335 13.4100379943848 4.52273368835449 6.20032119750977 2.80780792236328 25.8817577362061 1.7280787229538 2.38762545585632 10.2819004058838 2.97361946105957 1.88622343540192 1.93063282966614 0.991535902023315 1.26377630233765 1.29666006565094 0.588957071304321 0.454628229141235 0.371827334165573 0.31021049618721 0.547873735427856 0.0718465894460678 0.0473717749118805 0.337325483560562 0.101985320448875 0.209936767816544 0.970301151275635 1.026606798172 3.85024499893188 5.06105422973633 5.15461874008179 4.47118043899536 11.1284637451172 0.688250720500946 0.976592600345612 7.07384586334229 2.13140273094177 2.25403809547424 3.04208064079285 3.34753751754761 3.4256546497345 9.95594596862793 4.02651405334473 4.42575407028198 4.98074388504028 5.41175508499146 5.75410747528076 5.88316869735718 6.1837944984436 6.33968687057495 6.67132759094238 6.88023471832275 6.72747278213501 7.01943969726562 7.40400838851929 7.81339168548584 7.87191438674927 8.45711231231689 11.72194480896 33.6700897216797 7.09920597076416 8.81444072723389 8.58191204071045 11.9124383926392 13.5533208847046 18.998441696167 15.2726640701294 24.3212985992432
14.2229375839233 25.0088176727295 1.2704029083252 1.70394277572632 3.39639234542847 4.71981048583984 11.8191900253296 24.3774833679199 7.65729761123657 9.34212589263916 8.06285381317139 11.5225944519043 11.9591588973999 16.5188770294189 25.8784427642822 14.0105762481689 19.5597629547119 19.5992488861084 24.4652290344238 8.22840976715088 19.01123046875 7.50355434417725 2.3503520488739 0.0278357211500406 7.79590511322021 1.54055511951447 3.24727463722229 7.7889289855957 22.9555797576904 3.88966012001038 4.89344215393066 15.4024505615234 2.50000214576721 5.71342515945435 5.61166620254517 3.82826638221741 7.4935359954834 0.571001768112183 1.49526512622833 0.63739401102066 16.1426372528076 3.04864048957825 -1.59701025485992 5.42554759979248 4.77604722976685 7.15939617156982 27.6267719268799 -2.00383353233337 -2.14068746566772 -1.70256924629211 -1.35837614536285 1.35337054729462 1.9869110584259 2.0750584602356 1.98631918430328 2.32325339317322 1.97816109657288 1.1405234336853 0.532875895500183 0.261492401361465 0.150433361530304 0.320205509662628 0.261449635028839 -0.235830560326576 -0.22172512114048 -0.223549410700798 -0.204758062958717 -0.428332060575485 -0.416200011968613 0.322802305221558 0.354046672582626 0.222107008099556 0.246488869190216 0.0824476480484009 0.11204195022583 0.13188661634922 0.173235148191452 -0.081569142639637 -0.0620367825031281 0.0875834971666336 0.115883029997349 -0.142530202865601 -0.0840120986104012 0.0799500346183777 0.38671749830246 0.44430011510849 0.588080823421478 0.857268333435059 0.910817503929138 0.971463680267334 0.62425822019577 0.832518696784973 0.878631412982941 0.703102469444275 1.51108622550964 1.59524416923523 0.820877373218536 1.14437794685364 1.71290159225464 1.92689323425293 2.25094723701477 2.58511853218079 2.89636659622192 5.53342342376709 6.62414598464966 7.74145936965942 6.41505861282349 2.74852538108826 2.60771942138672 2.32770538330078 8.56469821929932 12.0394535064697 20.9611701965332 7.20621156692505 1.02885222434998 1.7998788356781 1.83423411846161 0.917694330215454 1.17965042591095 1.2127799987793 0.550300657749176 0.418747633695602 0.214130058884621 0.163965076208115 0.26562637090683 0.529302418231964 0.393508344888687 0.235981702804565 0.0650845468044281 0.665025651454926 0.620527327060699 0.743572175502777 2.24066472053528 2.93301892280579 2.68190336227417 2.54454350471497 3.52183246612549 4.75990056991577 1.66380679607391 3.1523232460022 4.5655083656311 5.96490526199341 2.80893635749817 3.10734677314758 3.16646695137024 3.34902477264404 4.01045942306519 17.2561054229736 4.23409986495972 4.75202226638794 5.0411229133606 5.40608978271484 5.81534433364868 6.01168918609619 6.19237041473389 6.37446689605713 6.27950143814087 6.44464063644409 6.90934276580811 7.06919622421265 6.95804834365845 6.84273195266724 7.14871978759766 12.2513694763184 17.0100421905518 11.2646112442017 21.1116104125977 8.40722179412842 10.300238609314 12.454662322998 13.6451187133789 14.3958406448364 18.3666343688965 19.2004432678223
10.9694633483887 7.20106601715088 2.75133013725281 3.20365381240845 3.51925444602966 7.12587308883667 10.5743532180786 30.0847492218018 6.1215991973877 8.49182033538818 10.6430330276489 9.80431365966797 15.2710123062134 13.0036611557007 13.8863325119019 17.1937217712402 16.2707920074463 16.2349796295166 11.6162786483765 23.4587516784668 1.08767282962799 2.17869329452515 0.415634840726852 0.654849648475647 0.790977716445923 2.28267431259155 4.11059188842773 15.4300546646118 4.29292726516724 19.7562065124512 13.1841201782227 -0.742094039916992 0.249067008495331 0.2375677973032 -0.292824506759644 -0.21046707034111 9.87197780609131 -1.82755732536316 5.33488941192627 1.2336642742157 16.7991485595703 12.180230140686 5.80612802505493 10.7948322296143 10.8330078125 17.0286674499512 18.3655872344971 4.17757225036621 -1.68002307415009 -0.657448053359985 0.185763776302338 1.98777449131012 2.51690793037415 2.4405529499054 2.44987058639526 2.28671884536743 1.76767718791962 1.3981397151947 1.11050879955292 0.666711747646332 0.445647209882736 0.174237295985222 0.0584702417254448 -0.312548995018005 -0.431219458580017 -0.310076922178268 -0.267155408859253 0.287916958332062 0.307449668645859 -0.589740991592407 -0.281090974807739 -0.262512177228928 -0.211203590035439 -0.158189982175827 -0.140387400984764 -0.159769132733345 -0.14264278113842 -0.028118496760726 0.00256037386134267 -0.246542736887932 -0.219986945390701 -0.0506582371890545 0.19273379445076 0.256102740764618 0.386480093002319 0.648793816566467 0.719718813896179 0.414235293865204 0.464211970567703 0.697229862213135 0.739405810832977 0.526637852191925 1.25543475151062 1.34375 0.510388731956482 0.941070854663849 1.22259819507599 1.37928426265717 1.45622575283051 1.8691189289093 2.05106973648071 3.65795564651489 4.39378929138184 5.00810146331787 4.207594871521 2.0832781791687 2.1198091506958 2.09000134468079 4.77279376983643 5.57440614700317 5.48585844039917 7.53779983520508 11.0270805358887 2.26340556144714 21.6977062225342 0.187640219926834 0.583394944667816 1.13532280921936 0.449429035186768 0.322835326194763 0.368866086006165 0.114879265427589 0.24586509168148 0.263853520154953 0.227822676301003 0.264430820941925 0.424123108386993 0.452558398246765 0.496329605579376 0.886187374591827 1.57382225990295 1.80364239215851 1.93259871006012 1.56884717941284 2.02892208099365 2.46817278862 1.18489480018616 1.96218240261078 2.29116225242615 2.10106873512268 2.45514416694641 2.34582948684692 21.334379196167 2.78413796424866 3.61311626434326 4.58503150939941 9.69298267364502 4.51199865341187 4.81769037246704 4.95470952987671 5.07155323028564 5.24601745605469 5.75928640365601 5.66356086730957 5.92253065109253 6.06035995483398 6.43480062484741 6.62427186965942 6.49009084701538 6.19837999343872 6.46194744110107 7.28723669052124 8.76453876495361 7.92084217071533 8.25777339935303 10.1970624923706 18.7848930358887 10.1510667800903 11.044059753418 12.0454587936401 12.3040761947632 12.8715038299561 14.4765977859497 16.7768840789795
5.11798429489136 9.61060523986816 17.8834457397461 4.04228639602661 4.04544734954834 10.5509929656982 15.8838310241699 15.3283767700195 23.2816162109375 6.17721939086914 17.1987285614014 7.67167377471924 12.6525297164917 17.8712673187256 13.7053861618042 16.7906913757324 47.7537841796875 5.48246049880981 16.3043613433838 25.4724979400635 4.8047342300415 7.27752304077148 1.11120367050171 1.38794386386871 1.95646798610687 2.84237909317017 3.17849230766296 4.38786220550537 26.4022903442383 12.0208625793457 22.8727512359619 -2.11811804771423 -2.01848196983337 -1.94553697109222 2.86118102073669 20.5729160308838 -0.929682016372681 -1.96739876270294 -0.506208181381226 0.902521193027496 -0.831743240356445 3.45421767234802 6.5395712852478 8.88678741455078 11.8077068328857 3.81747269630432 17.3438472747803 -0.911158621311188 -0.65773594379425 1.41432368755341 1.80443966388702 2.06555080413818 2.11784744262695 2.34243988990784 3.0041663646698 1.67641484737396 1.29936754703522 1.17094051837921 1.11830711364746 1.0204244852066 0.512247204780579 -0.0345103405416012 -0.18291825056076 -0.383722543716431 -0.295073688030243 0.258074253797531 0.281397998332977 -0.261663436889648 -0.511963665485382 -0.636461138725281 -0.502955198287964 -0.257023423910141 -0.221064180135727 -0.20985446870327 -0.111591450870037 0.0194113962352276 -0.0888106152415276 -0.335836887359619 -0.316254317760468 -0.138745337724686 0.060292687267065 0.0970285087823868 0.197831586003304 0.445651829242706 0.500398099422455 0.220110163092613 0.280401825904846 0.544113755226135 0.594162821769714 0.994853675365448 1.05308985710144 1.11576986312866 0.327866733074188 0.725626885890961 0.807216465473175 0.929195761680603 1.01825761795044 1.34347152709961 2.365966796875 2.91817593574524 3.21249938011169 3.55385208129883 2.97211742401123 1.94308531284332 1.99341773986816 1.96031260490417 3.26506328582764 3.67968034744263 3.35719537734985 4.43981742858887 4.79850387573242 1.56233489513397 4.08705711364746 6.72325325012207 6.29625463485718 17.8875560760498 -0.233684495091438 0.34989258646965 0.130136325955391 0.114207804203033 0.163141548633575 0.171616524457932 0.177784621715546 0.200426444411278 0.22168006002903 0.400317817926407 0.463398396968842 1.17329323291779 1.3312783241272 1.3723738193512 1.46223294734955 1.49912011623383 1.48163843154907 1.64837229251862 1.08796525001526 1.81362080574036 1.85339605808258 1.775599360466 1.84767842292786 1.93126499652863 7.21589851379395 10.0846939086914 6.00712966918945 12.0924921035767 3.87069535255432 4.4842791557312 12.4315748214722 5.01826763153076 4.64037036895752 27.57080078125 4.2735390663147 5.46055269241333 5.5773754119873 5.70746612548828 6.05541610717773 6.20889520645142 6.07134342193604 5.73296022415161 5.89217376708984 6.52506494522095 6.78860855102539 7.2290940284729 7.50512170791626 8.59548664093018 9.34522342681885 9.99499225616455 11.5489740371704 11.6742753982544 12.2322874069214 10.6365280151367 12.064281463623 22.8683128356934 13.1363525390625 13.3120002746582
17.4068965911865 2.55899310112 3.66185116767883 5.338538646698 7.23423910140991 7.36321544647217 10.8829145431519 12.4474773406982 5.93761396408081 5.97186613082886 9.16887092590332 10.7462224960327 12.899169921875 13.8914337158203 23.5338668823242 30.4269428253174 15.9822111129761 12.8764820098877 15.588020324707 9.76039695739746 14.8744735717773 9.17966175079346 1.24524533748627 1.50301277637482 2.31252789497375 1.99521100521088 7.44617509841919 10.9641046524048 22.9473934173584 23.0763683319092 0.0758806243538857 1.31045746803284 -3.67085218429565 -2.95819544792175 -2.83779978752136 14.7103128433228 -1.95357763767242 8.64085006713867 15.6917591094971 -0.793539643287659 1.51316893100739 2.59981608390808 5.162428855896 20.549991607666 1.45521104335785 -1.17190945148468 -0.74654096364975 1.13989269733429 1.3536125421524 14.2372674942017 2.29000496864319 12.0296230316162 -0.633081436157227 3.30382823944092 3.28534936904907 2.3085560798645 1.14712727069855 0.932402610778809 0.925467550754547 0.92561411857605 0.566417932510376 -0.113543711602688 -0.306824088096619 -0.291621774435043 -0.367402762174606 -0.293090999126434 -0.321653306484222 -0.210305064916611 -0.0336181856691837 -0.384233355522156 -0.778197824954987 -0.683653831481934 -0.149675518274307 -0.131220251321793 -0.302082806825638 -0.198744043707848 -0.315264701843262 -0.0534059852361679 -0.0405226908624172 -0.0204148013144732 0.0648441314697266 0.282743185758591 0.325085520744324 0.0561231225728989 0.320330649614334 0.365226179361343 0.409732073545456 0.778297960758209 0.842576861381531 0.123193815350533 0.500786304473877 0.543035626411438 0.581632137298584 0.523562788963318 0.548955976963043 0.869911372661591 1.69877910614014 2.17309546470642 2.42607998847961 1.99517858028412 1.22068333625793 1.81338334083557 1.84758758544922 2.16195583343506 2.37211990356445 2.62744235992432 2.27049565315247 3.23654985427856 3.53667330741882 2.13021445274353 2.52364015579224 2.53515648841858 1.28847444057465 2.40452265739441 4.39559698104858 0.125133037567139 0.0866415351629257 0.144635781645775 0.320892602205276 0.0505772829055786 0.122765630483627 0.0649622455239296 0.106047868728638 0.344969749450684 0.44660547375679 1.01817905902863 1.08280789852142 1.35018706321716 1.38822948932648 1.4060423374176 1.17484843730927 1.28154838085175 1.02105510234833 1.71700084209442 1.76301252841949 1.67653822898865 1.75427770614624 1.91512787342072 4.11115741729736 4.87862777709961 2.76363825798035 5.72811317443848 8.59482383728027 16.5542163848877 4.08520698547363 5.08296537399292 5.23700666427612 10.6109313964844 31.4267807006836 4.15821504592896 5.22485113143921 5.61730766296387 5.74354362487793 5.8838038444519 5.73467922210693 5.26524925231934 5.87791442871094 6.04474258422852 6.26405143737793 6.62216281890869 6.84632015228271 7.76755523681641 8.50538444519043 9.47447299957275 9.89840984344482 10.3672704696655 10.1920528411865 10.7105922698975 12.3105211257935 9.57054328918457 27.6365795135498 11.0597496032715 12.9742803573608 16.2279224395752
16.3720874786377 2.98551869392395 3.49363398551941 4.62081146240234 5.89314365386963 5.90555477142334 31.9850921630859 5.61465167999268 15.1068897247314 6.09145498275757 7.88616991043091 10.4585647583008 16.1920127868652 18.9104423522949 23.8038787841797 11.0001764297485 10.6521129608154 7.20225811004639 10.1730527877808 20.3767147064209 6.80424976348877 1.14100623130798 0.730879127979279 0.466861218214035 2.86871790885925 4.84840965270996 10.356822013855 26.4498825073242 16.8674221038818 6.53997564315796 7.34795999526978 -3.53527688980103 0.863718569278717 -3.88602113723755 -3.65060114860535 -1.95512902736664 -1.65722179412842 7.75407552719116 16.9674377441406 -1.68154513835907 1.05571842193604 0.840175986289978 6.48518466949463 13.7040576934814 -1.47217845916748 0.815809190273285 0.936704277992249 38.3206176757812 3.61579370498657 -1.52241206169128 -0.976364731788635 14.6912775039673 -1.08107721805573 1.54744100570679 3.48581337928772 3.26747179031372 1.5235652923584 0.852716445922852 0.70003217458725 0.738012611865997 0.552750051021576 -0.11534807831049 -0.45469942688942 -0.41553008556366 -0.379693776369095 -0.238058313727379 -0.189089521765709 -0.145653009414673 -0.0102327540516853 0.143064841628075 -0.1879792958498 -0.179967164993286 -0.389300107955933 -0.37827605009079 -0.203798323869705 -0.0791798755526543 -0.0784337967634201 -0.0125675480812788 0.146657228469849 0.163682416081429 0.200053125619888 -0.0819058790802956 0.194565191864967 0.233340442180634 -0.0290973465889692 0.559080004692078 0.610067009925842 -0.0530041754245758 0.293674558401108 0.33907088637352 0.196885585784912 0.34169664978981 0.15460579097271 0.465391844511032 1.10983097553253 1.53283452987671 1.7188868522644 1.42622482776642 0.774740397930145 0.873119115829468 1.47933292388916 1.69486057758331 1.73255777359009 1.77124965190887 2.08361983299255 2.3035626411438 2.52662682533264 1.48891294002533 2.06362533569336 2.19932341575623 2.3067421913147 1.37815582752228 1.44992339611053 -0.222624287009239 -0.199847728013992 -0.13302019238472 -0.0536858476698399 0.0103441728278995 0.0571866370737553 0.297902852296829 0.40485954284668 0.255121320486069 0.408659398555756 0.811440169811249 0.889420926570892 1.28413426876068 1.31803417205811 0.951056182384491 1.03968143463135 0.808828413486481 0.986533761024475 1.62842404842377 1.66390538215637 1.57727468013763 1.68954348564148 1.81965982913971 2.98248052597046 3.36794924736023 2.38628125190735 3.51513671875 4.17694330215454 6.34722900390625 8.73490047454834 4.61430978775024 9.77903175354004 5.23053121566772 11.7963352203369 16.6439895629883 4.8208179473877 5.2123761177063 5.43495178222656 5.2978367805481 4.76691961288452 4.90882873535156 5.4872727394104 5.64450788497925 5.93483877182007 6.13702917098999 6.34178447723389 7.07301950454712 7.66810417175293 8.53907585144043 8.91592788696289 8.82647228240967 9.18233203887939 9.45380687713623 9.90230464935303 10.4079256057739 41.6560096740723 9.27387237548828 9.90674018859863 10.8505258560181 10.5852031707764 14.5700626373291
30.6245498657227 6.11599683761597 5.79667043685913 4.91617202758789 5.11387348175049 31.9308624267578 5.97319746017456 16.2061996459961 6.24083805084229 6.23991632461548 10.5548543930054 12.0645866394043 10.5428676605225 10.6190090179443 13.6439962387085 17.5050067901611 10.1509084701538 32.2672119140625 10.656397819519 27.0221252441406 3.25443577766418 2.49865961074829 2.40986251831055 3.13386201858521 6.20739698410034 10.1491870880127 12.5741748809814 24.2291679382324 12.8578405380249 13.9653911590576 4.62661027908325 3.89697074890137 12.8282403945923 -3.89508700370789 -1.96667301654816 -2.54194116592407 1.69653475284576 6.08792591094971 3.86202454566956 -1.86860334873199 -1.62585234642029 -1.59411013126373 11.5692930221558 -0.0635879337787628 0.739737212657928 27.3043384552002 20.7641506195068 -1.57065391540527 44.9867134094238 -0.736681580543518 6.38473415374756 -0.412556171417236 3.90596556663513 4.43682956695557 4.13769292831421 3.19750785827637 2.57999801635742 1.23807954788208 0.669970035552979 0.578928112983704 0.426572740077972 0.402236878871918 -0.483939737081528 -0.472080737352371 -0.374587059020996 -0.214514181017876 -0.0963038727641106 -0.0412064790725708 0.0139837451279163 -0.0138187995180488 -0.0344241484999657 -0.383372783660889 -0.40047213435173 -0.114925645291805 -0.103455998003483 -0.0472468622028828 0.118126392364502 0.188826724886894 -0.167368739843369 -0.164763376116753 0.0952923521399498 0.122747138142586 -0.138408213853836 0.415634870529175 0.449089676141739 -0.191008701920509 0.122009642422199 0.161767899990082 -0.0647359117865562 -0.0250491760671139 0.139269724488258 0.290826231241226 0.624326109886169 0.987927854061127 1.12500667572021 0.883354604244232 0.510758936405182 0.427826136350632 0.262316554784775 1.1818163394928 1.28968846797943 1.0280727148056 1.52863574028015 1.63934087753296 1.03990650177002 1.21724879741669 1.40388000011444 1.59102821350098 1.143679022789 1.34111893177032 1.42325520515442 1.09488749504089 0.88915091753006 0.237497970461845 -0.264764398336411 -0.239134520292282 -0.167504772543907 -0.0813552215695381 0.159051358699799 0.252819985151291 0.26667708158493 0.71218466758728 0.757010281085968 1.20303702354431 1.2301299571991 0.846733748912811 0.897670984268188 0.913346111774445 1.50974869728088 1.54685199260712 1.58351635932922 1.49679517745972 1.61823499202728 2.19370603561401 2.40134358406067 2.61599683761597 2.16191148757935 2.59288048744202 3.05559468269348 3.90145683288574 4.69064998626709 19.0823554992676 3.84777140617371 4.30919408798218 8.26151466369629 18.8869686126709 4.32893514633179 4.66328525543213 5.06718301773071 5.05715227127075 4.50528001785278 4.5965781211853 5.14265298843384 5.28458213806152 5.55781126022339 5.70854139328003 5.75358915328979 6.51113080978394 7.08563375473022 7.80285453796387 8.0797176361084 8.02977275848389 8.3443717956543 8.5184154510498 8.4841251373291 9.86305809020996 15.9325227737427 21.9916133880615 20.9706840515137 45.8237953186035 9.30746269226074 13.7632303237915 9.30309391021729 9.75837135314941
10.7336559295654 7.11631345748901 4.57710266113281 4.78190517425537 13.9253234863281 18.1260051727295 14.4074506759644 5.30621337890625 6.86568737030029 10.0225801467896 8.15102291107178 8.37096214294434 9.42912006378174 24.2895355224609 7.3215537071228 13.9229650497437 10.9561414718628 17.1221904754639 20.5714645385742 15.9745502471924 17.7154960632324 3.3390588760376 4.84440088272095 5.74840545654297 9.89730167388916 20.1301040649414 10.1610155105591 30.7733421325684 9.30042552947998 4.99004602432251 5.80163383483887 17.1190509796143 -3.51774740219116 -3.34399747848511 -2.72690153121948 -2.28318166732788 0.0294220931828022 30.4917240142822 -2.53581500053406 -1.75344097614288 2.57011723518372 14.4097080230713 -1.14192378520966 7.7692437171936 35.7475395202637 4.19279193878174 3.68427038192749 -0.432908266782761 -0.642247974872589 14.6434173583984 44.4606781005859 -1.25215578079224 -1.3545469045639 0.226273417472839 4.00734996795654 3.66893577575684 2.74261498451233 1.94359040260315 0.943792104721069 0.45953893661499 0.423799335956573 0.195697814226151 -0.204727217555046 -0.45574688911438 -0.367478102445602 -0.235510587692261 -0.0568421669304371 0.0650370344519615 -0.124249950051308 -0.0950148552656174 0.163186445832253 0.226815730333328 0.1416305154562 -0.091569297015667 0.0688635185360909 0.0801829099655151 -0.100799828767776 0.104993551969528 0.148242101073265 0.0432872176170349 0.261600941419601 0.294889599084854 0.326978027820587 -0.272644340991974 0.00803533755242825 0.0335463136434555 -0.172948405146599 0.011174188926816 -0.155498668551445 0.259309887886047 0.583224058151245 0.657340109348297 0.718319654464722 0.470542103052139 0.240675553679466 0.159977898001671 -0.0089601231738925 0.668489217758179 0.81961452960968 0.59021258354187 1.10773241519928 1.18506801128387 0.916447997093201 0.830072402954102 0.886995434761047 0.534602582454681 0.762259960174561 0.907048583030701 1.02172744274139 0.769969940185547 0.825895428657532 0.90750527381897 0.683655858039856 0.16274930536747 -0.263473957777023 -0.241936251521111 -0.202301949262619 -0.113135702908039 0.412137180566788 0.573335707187653 0.670433223247528 1.14935433864594 1.16708183288574 0.677715718746185 0.707877933979034 0.86901068687439 1.43248999118805 1.46468341350555 1.38089108467102 1.41589713096619 1.54286122322083 1.8312736749649 1.96935760974884 1.78360176086426 2.06317210197449 2.19893217086792 2.61556506156921 2.96311163902283 3.59236311912537 6.4813232421875 8.97976398468018 18.6849231719971 3.58928370475769 3.60629153251648 4.10049962997437 8.17275428771973 4.83716201782227 9.39435291290283 3.92660093307495 4.32610082626343 4.81535387039185 4.96132946014404 5.22238159179688 5.36080598831177 5.85623407363892 6.3614354133606 6.59960651397705 7.1842474937439 7.43306970596313 7.40624141693115 7.64769458770752 7.71824073791504 7.81924819946289 8.93202495574951 9.58279705047607 11.4341583251953 10.9792547225952 18.2257957458496 24.8763446807861 25.4855098724365 18.926851272583 38.6753883361816 9.63616752624512 11.3398532867432
13.0181341171265 13.2478017807007 5.91623020172119 6.82799243927002 10.8756542205811 20.4242420196533 9.44401836395264 6.33402013778687 6.4323353767395 7.31533575057983 8.16196250915527 11.8908061981201 8.65289974212646 21.730167388916 20.0646591186523 7.82771348953247 9.07219123840332 17.2666683197021 7.4621376991272 12.8752288818359 7.18289613723755 6.98303985595703 6.96915245056152 9.60664749145508 13.5726003646851 16.1174030303955 19.4080944061279 29.9842319488525 12.6000261306763 5.06800413131714 15.8640775680542 0.642196655273438 -3.35639905929565 1.51657605171204 -2.95609951019287 -2.59487104415894 14.8679504394531 1.09288620948792 -1.81765139102936 4.18810796737671 9.49833297729492 3.05038666725159 9.91891670227051 36.8509826660156 4.03941917419434 -0.514608800411224 5.62697410583496 -0.498412817716599 50.8309669494629 -1.81454694271088 -1.45484828948975 42.6399345397949 -1.04714608192444 -0.374857068061829 4.43071508407593 3.28817987442017 3.10743141174316 2.24244856834412 1.15720677375793 0.934601187705994 0.408506691455841 0.125297576189041 -0.00375660392455757 -0.416139006614685 -0.388274639844894 -0.275492131710052 -0.15863524377346 -0.00730649195611477 0.176177337765694 -0.00759851234033704 0.0454441905021667 0.444499790668488 0.63269567489624 0.448365449905396 -0.223914071917534 -0.22174334526062 -0.240994974970818 -0.0321975089609623 0.203694313764572 0.210189029574394 -0.34413555264473 -0.108519516885281 -0.0868808627128601 -0.0744611248373985 -0.280438393354416 -0.255583912134171 -0.236092239618301 0.0530207864940166 0.299446731805801 0.343294709920883 0.158430546522141 0.0579397976398468 -0.00783443544059992 -0.217333644628525 0.221507102251053 0.260378301143646 0.328544586896896 0.0535949282348156 0.564071178436279 0.71554172039032 -0.128301918506622 0.522822439670563 0.584725022315979 0.410050243139267 0.36098900437355 0.405793428421021 0.0275117009878159 0.198730483651161 0.223814204335213 0.342796236276627 0.451059639453888 0.393043905496597 0.725463926792145 -0.165686264634132 -0.270747601985931 -0.242301791906357 0.0503135062754154 0.147709965705872 0.285982131958008 0.376145124435425 0.537559747695923 0.651049911975861 0.665524899959564 0.804863750934601 1.34287106990814 1.3842214345932 1.31076157093048 1.24739360809326 1.49190557003021 1.56763744354248 1.66720283031464 1.69657146930695 1.96381711959839 2.09544038772583 2.21082997322083 2.57215118408203 2.61456656455994 3.82275819778442 4.5892596244812 6.35133457183838 8.83531379699707 14.9569606781006 3.52190113067627 3.75617170333862 3.98897171020508 25.5580883026123 3.24359607696533 3.75370740890503 4.00229644775391 4.65656852722168 4.86769437789917 5.00940704345703 5.44936466217041 5.9338846206665 6.45670986175537 6.64675807952881 6.8552188873291 6.85528421401978 7.07023000717163 7.09485530853271 7.29543495178223 8.13285064697266 8.50960922241211 8.84330940246582 9.33362865447998 10.9771537780762 13.1696062088013 13.1700925827026 15.6795320510864 22.6791687011719 30.4178771972656 22.9907970428467 27.2341136932373 35.1890258789062
5.72683095932007 9.11520576477051 5.65029573440552 8.77264595031738 6.62892389297485 10.6674203872681 15.1190891265869 16.556978225708 6.46456670761108 7.26756191253662 13.3449687957764 8.42409133911133 12.0778455734253 20.1107482910156 20.0450687408447 7.9506196975708 15.9510917663574 5.48035001754761 4.29327774047852 6.17296028137207 6.08856678009033 7.52385330200195 8.46521472930908 10.6119003295898 10.8821239471436 14.038763999939 24.3000164031982 26.998083114624 24.9575042724609 13.2672719955444 10.3360557556152 -1.6471471786499 3.10780119895935 -2.30601954460144 -1.84610414505005 -2.2568507194519 0.363075256347656 26.512170791626 -1.84208583831787 1.965167760849 4.80899858474731 11.2160301208496 41.5403633117676 -1.02762532234192 5.11357021331787 -1.41590344905853 21.2228775024414 42.3410911560059 4.33877420425415 7.94572401046753 -1.72758078575134 -1.0488942861557 46.3836364746094 -1.36782467365265 4.45036315917969 3.08708715438843 2.74008560180664 2.69210338592529 1.64156866073608 1.2325633764267 0.758735001087189 0.236647129058838 0.207691475749016 -0.109255574643612 -0.440325647592545 -0.318470567464828 -0.152803480625153 -0.024352015927434 0.127123266458511 0.441276133060455 0.142989099025726 0.290881603956223 0.981170058250427 0.77366316318512 0.188813060522079 -0.293845117092133 0.149130135774612 0.151719972491264 -0.411944836378098 -0.107438750565052 -0.0528929680585861 -0.364457905292511 -0.359142035245895 -0.345306485891342 -0.335889041423798 -0.101174578070641 0.143074154853821 0.158267185091972 -0.044514138251543 -0.0910554230213165 -0.161018595099449 -0.337237894535065 0.0217985417693853 0.0367964245378971 -0.234823286533356 0.130147278308868 0.176742792129517 0.239003360271454 -0.543050646781921 0.020469781011343 0.146709799766541 0.00996246188879013 0.311767727136612 0.156258627772331 -0.156848073005676 -0.357210129499435 -0.221200495958328 -0.166945949196815 -0.0625959187746048 0.0171022191643715 0.237839475274086 0.347679674625397 0.624213635921478 -0.0929314717650414 -0.0777111276984215 -0.0542243458330631 0.000555434788111597 0.0141837662085891 0.205156520009041 0.36864110827446 0.157403826713562 0.754059553146362 1.27578508853912 1.30140149593353 1.21806013584137 1.18134081363678 1.41627371311188 1.44422137737274 1.4448504447937 1.3855048418045 1.6511744260788 1.68259358406067 1.95985269546509 2.08709502220154 2.34085392951965 2.75823855400085 3.12410449981689 3.83405661582947 4.59695959091187 6.33664751052856 8.69568634033203 12.3185529708862 3.34579277038574 10.6348924636841 10.7633686065674 9.50493621826172 34.7182083129883 3.5324764251709 3.83203601837158 4.30189323425293 5.07769536972046 5.53577852249146 5.99205875396729 6.1708459854126 6.18970966339111 6.36728048324585 6.42565584182739 6.61027097702026 6.80522680282593 7.49063158035278 7.95523452758789 8.19556903839111 8.57391452789307 8.8704833984375 8.9505672454834 9.40067863464355 10.6388006210327 13.8849124908447 16.5035095214844 17.9569797515869 24.220085144043 21.1382904052734 22.821849822998 14.6241855621338
12.855149269104 6.42083692550659 6.26790475845337 6.1436562538147 6.03433990478516 6.33861494064331 8.94475746154785 11.4483528137207 7.24630260467529 8.54324340820312 11.2699174880981 15.1138124465942 17.6050033569336 30.921745300293 45.6063385009766 8.58822536468506 4.28269338607788 4.12423467636108 5.36122703552246 12.2070331573486 7.39746856689453 8.0433464050293 8.90063381195068 10.8561906814575 13.0642051696777 16.2658863067627 16.6568965911865 20.570930480957 20.5102558135986 18.7487621307373 10.3185472488403 11.0402879714966 5.0677752494812 0.59019947052002 11.4631462097168 -1.8548721075058 0.0293860230594873 -1.37731540203094 7.42610311508179 0.291528046131134 14.4398670196533 45.2269744873047 -1.57071650028229 6.63100528717041 12.9071979522705 38.1773109436035 18.7290649414062 -0.466905504465103 0.153435960412025 0.117711313068867 0.531230092048645 19.9776954650879 -1.74376130104065 21.7318859100342 -0.476489871740341 3.39499640464783 2.22857737541199 2.30185747146606 2.6623067855835 1.53767776489258 1.10617566108704 0.520249485969543 0.298268347978592 0.219125062227249 -0.400453060865402 -0.301128208637238 -0.151294276118279 -0.038235392421484 0.0402569249272346 0.438516914844513 0.559374749660492 0.84057205915451 0.662061750888824 0.661269545555115 0.146712139248848 0.340153098106384 0.0950078442692757 -0.203864276409149 -0.200615912675858 -0.395851701498032 -0.0759516581892967 -0.0604061707854271 -0.22306914627552 -0.216224640607834 -0.0145688354969025 0.0122508341446519 -0.168927699327469 -0.188752770423889 -0.267318844795227 -0.452245980501175 -0.153811693191528 -0.120101869106293 -0.399512887001038 -0.0600171498954296 -0.0364959575235844 -0.621167719364166 -0.342071264982224 -0.304490506649017 -0.241331681609154 -0.379295229911804 -0.262533992528915 -0.152764484286308 -0.448628067970276 0.410050243139267 -0.438488304615021 -0.399225980043411 -0.388833850622177 -0.377950638532639 -0.361223489046097 -0.337407797574997 -0.230161547660828 0.167626023292542 0.393658578395844 0.618476927280426 -0.149139493703842 -0.177782088518143 -0.0818745046854019 0.0139620676636696 -0.144760549068451 0.233881577849388 0.344206571578979 1.11314678192139 1.13684511184692 1.10010266304016 1.32191908359528 1.36779534816742 1.27244853973389 1.24875867366791 1.32765400409698 1.44638609886169 1.86493372917175 1.90301692485809 1.97571837902069 2.16551375389099 2.37086200714111 2.96300435066223 3.07753157615662 3.69797325134277 4.51416015625 4.68649005889893 5.65246057510376 7.26708459854126 8.69266223907471 5.14148092269897 16.362340927124 7.59045934677124 3.80123853683472 7.34701013565063 14.0506010055542 4.82551574707031 5.17180299758911 5.66040325164795 5.77821063995361 5.94158411026001 6.03464937210083 6.18478631973267 6.70043468475342 7.0229549407959 7.41809034347534 7.71475744247437 7.94729042053223 8.201584815979 8.36783409118652 8.65847587585449 9.18339443206787 9.95039463043213 11.2499294281006 12.2827558517456 13.8692264556885 17.3695125579834 20.5602684020996 37.102108001709 22.2463111877441 27.0241107940674
13.4340963363647 6.46109771728516 11.4418802261353 5.62335109710693 6.13819122314453 6.9480881690979 9.47223663330078 12.6270895004272 15.6786479949951 14.6166982650757 13.9947805404663 14.5160713195801 23.6694431304932 32.0636940002441 33.3969802856445 34.9907455444336 12.3979005813599 8.73804378509521 6.68495464324951 7.06802129745483 21.2366580963135 8.43747806549072 12.5810499191284 9.90851879119873 11.3330230712891 13.1040363311768 15.3530550003052 16.3461933135986 11.8240385055542 10.7955827713013 10.4606342315674 12.2718887329102 10.3390607833862 15.1485052108765 14.5852098464966 6.12528800964355 18.4522476196289 -1.80444777011871 8.17617893218994 35.3353080749512 5.82928037643433 4.33105659484863 9.16714763641357 34.8192977905273 21.4706745147705 0.830284357070923 4.88217830657959 8.2835636138916 9.74483776092529 10.9881391525269 14.704776763916 16.0882205963135 1.79013168811798 5.04978609085083 -1.70167529582977 3.46031832695007 2.28190588951111 2.31282997131348 2.62371826171875 3.23409795761108 1.35754990577698 0.883600056171417 0.885641098022461 0.184851601719856 -0.130237817764282 -0.0876585766673088 0.00260913232341409 -0.0479479171335697 0.159279599785805 0.126412943005562 0.723210334777832 1.22233641147614 0.724603474140167 0.0508439131081104 0.127095952630043 0.54393994808197 0.0982590019702911 -0.0783558785915375 -0.219480231404305 -0.432062745094299 -0.256027519702911 -0.0693263858556747 -0.00139335857238621 -0.109489098191261 -0.274975597858429 -0.154047712683678 -0.335317492485046 -0.525747776031494 -0.287416875362396 -0.27722230553627 -0.506099343299866 0.16802217066288 -0.208355069160461 -0.622096478939056 -0.0479205958545208 -0.450305104255676 -0.668015360832214 -0.639960885047913 -0.601498603820801 -0.52529639005661 -0.59721040725708 -0.551998555660248 -0.52360987663269 -0.497255742549896 -0.481416463851929 -0.471184104681015 -0.438216328620911 -0.416060775518417 -0.401265770196915 -0.107793919742107 -0.180529817938805 -0.176573529839516 0.258725821971893 -0.239284813404083 -0.0753779262304306 -0.201929569244385 -0.308432906866074 -0.0762731060385704 0.035431619733572 0.13595262169838 0.0990877449512482 0.998736619949341 1.22707319259644 1.27936196327209 1.08277821540833 1.18230497837067 1.20929205417633 1.0812224149704 1.77654731273651 1.81229197978973 1.63686180114746 1.99609935283661 2.08470439910889 2.60586833953857 2.74488019943237 2.61228728294373 2.8027172088623 3.05652666091919 3.01657247543335 5.13960981369019 5.85138273239136 4.25783634185791 7.29028511047363 9.84657382965088 10.2614736557007 4.28640270233154 9.15279197692871 4.63070678710938 4.82014751434326 5.07582378387451 6.42211866378784 5.26025533676147 5.68842172622681 5.81823635101318 6.23494482040405 6.53375911712646 6.91642189025879 7.16002082824707 7.37586164474487 7.55216503143311 7.79402446746826 8.25194835662842 8.74127006530762 9.00106048583984 9.57447242736816 9.89622020721436 10.5274085998535 12.5214653015137 14.1262340545654 13.8645181655884 20.4218978881836 32.7125091552734 24.9053478240967 45.8854293823242
12.9055280685425 13.5220308303833 8.37418842315674 6.12904834747314 16.8700313568115 6.70923042297363 10.1465444564819 11.3068428039551 11.6774282455444 13.215311050415 14.965877532959 18.420295715332 20.6301498413086 21.5462703704834 25.3463726043701 31.6780586242676 14.1780738830566 13.1647500991821 17.3958721160889 7.2431960105896 8.03683948516846 16.8450889587402 11.2061777114868 12.4400205612183 19.1682567596436 15.9886322021484 15.0022974014282 31.7031345367432 13.2221765518188 26.0473880767822 2.62519526481628 2.99526691436768 14.3751964569092 3.18668580055237 21.0874004364014 28.230598449707 5.7977089881897 45.4117050170898 -1.18850100040436 0.269228607416153 1.56109130382538 48.0788269042969 0.195454627275467 5.01375913619995 -0.433674782514572 9.04778289794922 3.57630181312561 2.29789710044861 8.26122188568115 5.31543684005737 8.93468952178955 14.8654813766479 2.46721029281616 -1.86464738845825 11.9463109970093 -1.87813770771027 2.6732120513916 2.41592645645142 2.80025386810303 3.12940239906311 3.57789921760559 1.41535711288452 1.24644947052002 0.463117718696594 0.215901255607605 0.826354622840881 0.924672663211823 0.584616601467133 0.229356527328491 0.249887719750404 0.300006479024887 0.840080380439758 0.969848871231079 0.212786734104156 -0.0122806802392006 0.298544853925705 0.0872214511036873 0.190151765942574 -0.192337408661842 -0.194040298461914 -0.176495984196663 -0.307443052530289 -0.0602695681154728 0.0789296180009842 -0.570481061935425 -0.28340956568718 -0.319308042526245 -0.376052975654602 -0.559552311897278 -0.157312527298927 -0.201749294996262 0.369726657867432 -0.603966176509857 -0.413383185863495 -0.200533539056778 -0.332804054021835 -0.484645009040833 -0.79168027639389 -0.766552329063416 -0.731799304485321 -0.677665054798126 -0.63155859708786 -0.597997188568115 -0.562326848506927 -0.529050290584564 1.77080452442169 -0.524090468883514 0.0336318463087082 -0.285178303718567 -0.0799268186092377 -0.149649098515511 -0.284906089305878 -0.281110167503357 -0.276976108551025 -0.157640367746353 -0.278245538473129 -0.244279339909554 -0.161997675895691 -0.220598995685577 -0.119750119745731 0.653392493724823 0.850569903850555 0.909650325775146 0.974267542362213 1.00733542442322 1.05136382579803 1.17276036739349 1.24619746208191 1.52061605453491 1.79963910579681 2.21022653579712 2.31476831436157 2.42312502861023 2.09015917778015 2.28683423995972 2.34374189376831 3.64051151275635 3.95041012763977 4.37858009338379 3.1979763507843 5.19698572158813 5.89155530929565 5.27242803573608 4.18225574493408 4.54169511795044 6.32757902145386 7.43742656707764 5.15708065032959 5.1189227104187 5.32794284820557 5.37092971801758 5.49201631546021 5.84774398803711 6.12035894393921 6.50572347640991 6.70710897445679 6.87921333312988 7.08645629882812 7.28003549575806 7.67084646224976 8.12054920196533 8.57975387573242 8.86063861846924 9.14559650421143 9.25203418731689 9.75479793548584 10.7069711685181 10.5074262619019 12.5085954666138 17.4718017578125 20.7212352752686 30.5866470336914 30.4972267150879 31.7198696136475
12.6221342086792 12.2117309570312 12.6904726028442 25.4446086883545 7.32095909118652 8.93997859954834 9.39605617523193 10.2236299514771 10.8214702606201 12.4075660705566 13.8980112075806 14.79332447052 14.2966680526733 14.9041385650635 19.8410110473633 32.8638534545898 10.8856840133667 15.854998588562 17.7293739318848 10.396505355835 8.95865440368652 9.61477565765381 13.1941452026367 15.0169372558594 17.4326934814453 15.0411930084229 19.4816226959229 20.3979797363281 27.3918933868408 26.8869438171387 14.1109304428101 19.8816814422607 13.3915395736694 15.8994054794312 50.7967834472656 -1.6782054901123 -1.62702238559723 2.77280831336975 1.21709024906158 50.3316688537598 0.591022610664368 -0.621234893798828 1.51365482807159 -0.857890486717224 8.36686706542969 1.80431628227234 0.811959564685822 -0.570806622505188 2.72600436210632 19.1661758422852 6.80707836151123 -0.415778517723083 1.71351206302643 7.25321483612061 -1.83096241950989 3.21910262107849 -1.88675153255463 2.68444657325745 2.65993404388428 3.18377900123596 3.12017440795898 2.90359330177307 1.32417583465576 0.952529728412628 0.933074414730072 1.3688645362854 1.70414865016937 1.56955361366272 0.919838190078735 0.17317208647728 0.573402583599091 0.369590073823929 0.588727951049805 0.580395936965942 0.139362901449203 -0.12909035384655 -0.113012164831161 0.317122459411621 -0.246259480714798 -0.364222496747971 -0.35674187541008 -0.414624065160751 -0.194618657231331 0.181054055690765 0.26917576789856 -0.1880754083395 -0.402736842632294 -0.386263012886047 -0.376336693763733 -0.139690756797791 0.216652572154999 0.487636417150497 -0.289160430431366 -0.168049499392509 -0.406047940254211 -0.154156997799873 -0.172502741217613 -0.863843679428101 -0.844391047954559 -0.819786667823792 -0.766179025173187 -0.7295081615448 -0.692948043346405 -0.64583420753479 -0.581659555435181 0.69059431552887 -0.421512931585312 -0.371564894914627 -0.385931432247162 0.434651225805283 -0.373093098402023 0.00805962271988392 -0.377755641937256 -0.360073357820511 -0.350253939628601 -0.431913107633591 -0.392480194568634 -0.32971465587616 0.293686211109161 0.389709681272507 0.363124132156372 0.471416860818863 0.604512751102448 0.821891069412231 0.912681519985199 1.16662096977234 1.20253396034241 1.61918210983276 1.99596810340881 2.08076882362366 1.68451523780823 1.71943926811218 1.78885281085968 1.64474856853485 3.05473852157593 3.27069067955017 2.3722128868103 3.68210124969482 4.01801919937134 4.42772102355957 3.62665748596191 3.97740626335144 4.3233904838562 4.60964870452881 4.70622158050537 4.74724721908569 4.84908962249756 5.00516128540039 5.1086802482605 5.20877265930176 5.48499250411987 6.00559902191162 6.15026950836182 6.31381750106812 6.55087089538574 6.69277667999268 6.85002756118774 7.18370246887207 7.6019115447998 7.98892545700073 8.212646484375 8.27084636688232 8.54551315307617 8.83120346069336 9.44740867614746 9.73365116119385 10.0306196212769 12.5709142684937 14.1891460418701 19.0730094909668 22.5508251190186 35.2995185852051 26.5926895141602 8.73345470428467
7.74060440063477 12.9109725952148 17.8910732269287 23.1997928619385 7.29252195358276 8.58123397827148 8.9780387878418 9.57918739318848 10.5614051818848 11.0392904281616 10.0196208953857 9.68079376220703 11.3887748718262 12.006308555603 17.5811672210693 30.9400825500488 8.9949312210083 17.3087844848633 21.2644100189209 18.5553798675537 11.5747566223145 10.9017581939697 11.7730464935303 10.947078704834 11.9668569564819 13.6309127807617 16.2528266906738 16.4070110321045 50.7122917175293 3.79783797264099 1.16916608810425 4.19383335113525 9.96943378448486 10.312403678894 10.7851753234863 0.503329217433929 0.857558369636536 50.2904968261719 0.0201907027512789 1.58735311031342 5.45941495895386 7.46039819717407 -0.0468230880796909 4.66713285446167 0.269420623779297 0.989361107349396 -1.26138758659363 0.243132889270782 1.16779220104218 4.34761428833008 0.161402404308319 -0.216510608792305 1.63885962963104 2.0915322303772 2.25969934463501 0.833445608615875 5.55224895477295 -1.85519826412201 2.63587403297424 2.68152904510498 3.02204537391663 2.77122497558594 1.95682275295258 1.45016801357269 1.67863953113556 1.76969730854034 2.05690169334412 2.42856192588806 2.18906164169312 0.917270660400391 0.495203703641891 0.543926239013672 0.115211471915245 0.406853884458542 0.161615505814552 -0.275888949632645 0.0111058875918388 0.0167612843215466 -0.280568271875381 -0.45971292257309 -0.614457607269287 -0.446297585964203 -0.414567410945892 -0.0155318500474095 0.197378024458885 0.134745717048645 -0.390530496835709 -0.664475321769714 -0.432861834764481 -0.230572283267975 0.159744054079056 0.678315401077271 0.181764379143715 -0.0553928166627884 -0.526893258094788 -0.0105594722554088 -0.0322248302400112 -0.329634964466095 -0.914232194423676 -0.891540288925171 -0.83955043554306 -0.813102900981903 -0.786268353462219 -0.587449431419373 -0.523687064647675 2.11515426635742 -0.368347018957138 0.0364185646176338 -0.589712381362915 -0.603004217147827 2.4312481880188 -0.563976049423218 -0.491745918989182 -0.546745657920837 -0.520172894001007 -0.0186809804290533 0.0201770775020123 0.102482534945011 0.0987797528505325 0.175926119089127 0.239341646432877 0.432030916213989 0.590593695640564 0.778741061687469 0.918757975101471 1.44949626922607 1.7875189781189 1.84982299804688 1.59346199035645 1.62803936004639 1.51226055622101 1.43979072570801 2.59856677055359 2.76157140731812 2.13182044029236 3.06549954414368 3.28402924537659 2.90741181373596 2.96444511413574 3.78971934318542 4.12190532684326 4.38380146026611 4.4731068611145 4.51539850234985 4.61099243164062 4.77265787124634 4.86683511734009 5.06506252288818 5.30384969711304 5.68619108200073 5.81755495071411 5.96743059158325 6.21387767791748 6.34827280044556 6.55291748046875 6.8009729385376 7.15424156188965 7.49090623855591 7.68510055541992 7.70805978775024 7.92202234268188 8.18026542663574 8.78466701507568 9.04983901977539 8.98067760467529 9.79138469696045 10.7594404220581 13.7415590286255 15.4864101409912 13.9661149978638 20.9083862304688 28.251895904541 16.180456161499 31.6502265930176
11.5457572937012 11.20592212677 14.8416137695312 8.12242126464844 8.53053951263428 10.3411703109741 20.1626071929932 5.58849573135376 6.49282312393188 7.15209102630615 8.17823505401611 8.15501976013184 9.43980312347412 11.0048322677612 14.7122955322266 9.63227272033691 11.5650644302368 10.790433883667 10.3288097381592 9.55422878265381 9.67686939239502 9.12756729125977 9.56216812133789 10.067569732666 11.5981483459473 11.9113292694092 22.7766227722168 30.6481075286865 46.5234870910645 3.09813976287842 7.37834501266479 7.70960712432861 5.62629222869873 2.41152238845825 0.172276124358177 50.9237098693848 1.09454131126404 -0.0260871071368456 0.170492544770241 1.96652412414551 8.36381721496582 7.56448078155518 8.09034824371338 -0.0226270500570536 -0.566408455371857 -0.499154716730118 -0.293455988168716 7.18911123275757 -0.156492903828621 -0.256771773099899 2.51184177398682 0.00764754833653569 0.588117122650146 -0.971138060092926 3.02316188812256 -0.107538484036922 -1.44054937362671 -1.64705169200897 2.71742653846741 2.51828289031982 2.56698346138 2.57638478279114 3.13806247711182 1.69579017162323 1.995152592659 2.33433222770691 2.39341950416565 2.88857793807983 2.90788531303406 2.19649577140808 1.29609417915344 0.211926147341728 0.334388613700867 -0.0221707932651043 -0.055283535271883 -0.282712906599045 0.00260913232341409 -0.37133851647377 -0.154197975993156 -0.501700937747955 -0.497476160526276 -0.660754323005676 -0.413410514593124 -0.23964262008667 0.044874332845211 -0.0460218042135239 1.46218991279602 -0.857178866863251 -0.210054695606232 -0.290097385644913 0.084188848733902 0.600652158260345 0.484959185123444 0.209453642368317 -0.282002568244934 0.198962613940239 0.0224849823862314 -0.208415478467941 -0.941765189170837 -0.938067317008972 -0.728086650371552 -0.704172134399414 -0.691849529743195 -0.679186582565308 -0.658428430557251 1.92523813247681 -0.427739471197128 -0.629759073257446 0.688982605934143 -0.700340628623962 -0.181737065315247 -0.698886632919312 -0.677946329116821 -0.238748073577881 -0.206667423248291 -0.452538520097733 -0.157384023070335 -0.10954424738884 -0.113745629787445 0.0603993237018585 0.273846179246902 0.379208743572235 1.02399384975433 1.16511464118958 1.50400042533875 1.61978125572205 1.21977591514587 1.25287389755249 1.2365186214447 1.05755746364594 2.24042582511902 3.38079023361206 1.93252444267273 2.49315738677979 2.66934847831726 2.17443108558655 2.23125982284546 3.38872742652893 3.74607253074646 4.17658758163452 4.25874900817871 4.30491542816162 4.38992309570312 4.26734924316406 4.14343023300171 4.79777860641479 5.02416610717773 5.40802335739136 5.518150806427 5.66558361053467 5.89842128753662 6.03211879730225 6.25110673904419 6.61624908447266 6.78842353820801 7.05426454544067 7.2262167930603 7.23400211334229 7.45277452468872 7.6367564201355 8.22287464141846 8.43412590026855 8.13030433654785 8.1957311630249 9.78451728820801 10.7188386917114 11.7640724182129 10.601414680481 12.7180967330933 15.1857023239136 14.2326774597168 16.1555976867676 16.9605350494385 48.5706253051758
9.60367298126221 7.66843461990356 7.9409818649292 8.24422264099121 12.6804800033569 15.3301639556885 6.09698724746704 6.17769622802734 6.07322692871094 6.48152542114258 7.02109527587891 7.86202955245972 8.03271579742432 7.87997961044312 8.394850730896 8.63381958007812 8.98104476928711 8.33303737640381 7.99615049362183 7.93825101852417 7.83642148971558 8.31137466430664 9.07929229736328 9.17003345489502 14.3180484771729 17.1317329406738 19.479621887207 45.9692192077637 3.98091411590576 14.2744836807251 29.3353118896484 7.7923731803894 -0.0283031780272722 39.6482238769531 22.0060348510742 0.876493155956268 9.4503059387207 1.56138741970062 2.73919677734375 0.742746710777283 3.07972168922424 2.8296639919281 5.54400777816772 6.29079723358154 7.73715209960938 0.824642956256866 2.91063213348389 1.01059317588806 1.10804712772369 4.37286758422852 0.262119978666306 -0.646840214729309 4.52385711669922 1.0152382850647 6.4800009727478 3.32949161529541 -0.548939168453217 -1.96408653259277 -1.53221869468689 2.53974199295044 2.53369283676147 2.62111496925354 2.23803210258484 2.87852215766907 2.08734035491943 2.59873056411743 2.78659296035767 2.74807643890381 3.17498350143433 3.2266628742218 41.6217956542969 -1.48579633235931 -1.4259946346283 -0.165467709302902 -0.143884465098381 0.00271841534413397 -0.439705282449722 -0.535330295562744 -0.458145678043365 -0.49266305565834 -0.497737437486649 -0.486185073852539 -0.663786053657532 -0.354222744703293 0.0583517141640186 0.263966530561447 0.134322255849838 -0.299186885356903 0.141056776046753 -0.325596421957016 0.0969749316573143 0.433285266160965 0.494848549365997 0.389137208461761 0.143570274114609 0.488469630479813 0.133748516440392 -0.372171759605408 -0.812362313270569 -0.787100851535797 -0.588878154754639 0.00952128320932388 -0.796186506748199 -0.76455545425415 0.432247161865234 2.83615756034851 0.294883996248245 -0.148788511753082 -0.800242364406586 0.251062482595444 42.1456298828125 -1.95809638500214 -0.411547273397446 -0.617025434970856 -0.351018041372299 -0.321311980485916 -0.338103920221329 -0.318844527006149 -0.14717298746109 7.60146236419678 0.263704001903534 0.880311369895935 1.0072432756424 1.16698014736176 0.967972218990326 1.03050816059113 0.999963343143463 1.73098623752594 1.86352014541626 1.99668288230896 1.53279054164886 2.04840803146362 2.04930424690247 1.86302888393402 1.91284966468811 1.71331346035004 2.56503748893738 2.97325038909912 3.50987768173218 3.68969821929932 3.9838719367981 4.06264162063599 40.6604766845703 6.4686393737793 6.85742616653442 3.83060097694397 4.05433464050293 5.37604856491089 5.61195278167725 5.72571086883545 5.92363786697388 6.2699761390686 6.52069616317749 6.66906452178955 6.81953382492065 6.8902416229248 7.04337692260742 7.20439291000366 7.74036502838135 7.93374347686768 7.64485883712769 7.65307331085205 8.06548595428467 8.65693283081055 7.8325891494751 8.47091770172119 9.06898307800293 10.8922233581543 11.6830883026123 12.2873077392578 13.5599222183228 20.2925796508789 27.405252456665 28.1003875732422
7.35153532028198 7.62404823303223 9.24321365356445 10.5315408706665 9.68078327178955 9.08627510070801 30.8737525939941 5.08171319961548 6.27529191970825 6.43589925765991 6.50941610336304 6.95985984802246 7.05541133880615 7.23025369644165 7.80712985992432 7.28657817840576 7.0182638168335 6.87861251831055 6.81421899795532 6.87839651107788 6.96007013320923 5.50578641891479 10.3464441299438 11.7694435119629 12.353364944458 18.4712047576904 25.3661041259766 16.7112579345703 22.3923416137695 19.2168617248535 6.00637578964233 50.9949150085449 0.522945582866669 2.53704833984375 2.25703096389771 3.26540279388428 6.68683385848999 0.615204632282257 2.93924331665039 6.31927633285522 4.6685619354248 3.44305372238159 3.63156008720398 4.4350757598877 1.81819152832031 2.74159002304077 7.62410068511963 7.65192842483521 14.7795124053955 10.8753690719604 6.92262601852417 21.334623336792 4.52278709411621 2.41236543655396 2.53546071052551 5.83791971206665 4.79851388931274 -1.91253697872162 -1.79425585269928 -1.56671738624573 2.46118211746216 2.54549288749695 2.67949080467224 2.39209032058716 3.19922375679016 2.40312838554382 2.97024440765381 2.98348999023438 17.5948600769043 23.0641136169434 13.0889739990234 -0.926338911056519 -0.353512436151505 -0.952154636383057 -0.454949349164963 -0.262919455766678 -0.246513664722443 -0.5553018450737 -0.551729679107666 -0.544564187526703 -0.618517875671387 -0.65908420085907 -0.535893678665161 -0.453118294477463 -0.42243954539299 -0.535714626312256 -0.195165067911148 0.327367395162582 0.371051669120789 -0.142941907048225 0.262400358915329 0.168814465403557 0.350220412015915 0.361776649951935 0.295717239379883 0.441918134689331 -0.176860362291336 0.209235087037086 0.0346973575651646 -0.305880278348923 -0.740911304950714 -0.872635424137115 -1.00192666053772 -0.797657370567322 2.26339840888977 2.30938792228699 0.846198916435242 1.5807056427002 13.8999662399292 19.7843418121338 43.5487785339355 -1.9535847902298 -0.526852965354919 -0.494846642017365 -0.51873517036438 -0.495931684970856 -0.131603851914406 -0.364688158035278 12.6143388748169 -0.0463903248310089 0.113062858581543 -0.0954434052109718 0.264214396476746 0.341549187898636 0.529940903186798 1.23085200786591 1.34157252311707 0.922547817230225 1.57341861724854 2.10205793380737 1.65887057781219 1.34863126277924 1.1934380531311 1.3379054069519 1.61806201934814 1.76029276847839 2.51678252220154 33.6294212341309 2.34098529815674 22.4831581115723 5.16357040405273 8.21782684326172 10.6389389038086 12.930380821228 8.95849704742432 3.74999618530273 3.86245703697205 4.10814905166626 4.35648155212402 5.94734477996826 6.1768479347229 6.31018304824829 6.29355096817017 6.53698968887329 6.67699193954468 7.15958595275879 7.3211236000061 7.48354387283325 7.20656394958496 7.19348382949829 7.15020799636841 7.34430694580078 7.28486299514771 7.60505390167236 7.92096614837646 9.27841758728027 9.89590072631836 10.2335338592529 11.3093490600586 12.2806043624878 14.6170082092285 15.1628198623657 17.9989356994629 21.297737121582
7.05812740325928 7.89475011825562 6.72737741470337 7.09733247756958 14.4459085464478 18.5259704589844 7.47309160232544 6.87079477310181 6.22164297103882 6.24556589126587 6.23173427581787 6.11479330062866 5.66301250457764 5.69235181808472 5.5982551574707 5.99809455871582 5.98259973526001 5.80519866943359 5.88179016113281 7.41841554641724 8.11694431304932 8.90972232818604 9.35616970062256 11.2206783294678 13.4508495330811 8.44826030731201 12.8793163299561 51.7272415161133 0.491860210895538 50.6784400939941 0.608440518379211 2.05669450759888 2.21474075317383 3.93756246566772 2.16574430465698 1.85284042358398 1.04768621921539 1.58061301708221 1.86124074459076 8.24373626708984 7.5466775894165 6.70180177688599 5.6211051940918 4.80598306655884 4.06937122344971 3.98668003082275 5.37081718444824 4.96852350234985 3.3202109336853 7.21019983291626 8.40114307403564 19.7938747406006 1.85979926586151 1.52975749969482 1.26740908622742 8.75430393218994 5.83276796340942 20.6009540557861 -1.98618018627167 -1.88811349868774 -1.58320558071136 2.39098310470581 2.57338619232178 2.64070844650269 2.73349547386169 3.00240921974182 11.6384468078613 13.4320955276489 18.0983257293701 3.17116761207581 10.6828765869141 -1.35281586647034 45.5541915893555 -1.93594932556152 -1.83551549911499 -0.603616118431091 -0.520910501480103 -0.78967010974884 -0.771663546562195 -0.760474920272827 -0.753016889095306 -0.760770082473755 -0.701630234718323 -0.633480548858643 -0.500749409198761 -0.57425844669342 -0.362559527158737 0.3201003074646 0.886214673519135 0.165836527943611 0.521989583969116 0.0528110079467297 0.157285198569298 -0.0045489058829844 -0.160112872719765 0.0587396062910557 1.05597794055939 0.706601858139038 0.246581971645355 0.0349159240722656 -0.464510977268219 -0.913676917552948 -0.888006210327148 -0.843391239643097 3.76823687553406 2.70263934135437 7.86908388137817 9.07566356658936 55.8603477478027 -2.72796368598938 -1.89304542541504 -1.86417007446289 -0.700419425964355 -0.685224235057831 -0.510419905185699 -0.10614101588726 1.5271862745285 2.36259841918945 34.6277770996094 -1.61247324943542 -0.84402996301651 -0.456864297389984 -0.574868679046631 2.26950860023499 0.466181844472885 0.529749512672424 1.01337552070618 1.13518822193146 0.862825632095337 1.34961426258087 1.55930233001709 1.0338100194931 0.823673009872437 1.28285980224609 1.8451771736145 12.3215913772583 7.60315895080566 19.0212516784668 2.72423934936523 6.74994707107544 10.5045499801636 14.9647760391235 16.8707332611084 22.0585079193115 9.84567070007324 9.91145038604736 11.2435989379883 4.52446126937866 5.18120861053467 5.97541666030884 5.96048498153687 6.20725154876709 6.33812952041626 6.79215717315674 6.93999910354614 6.68325281143188 6.68962621688843 6.78584098815918 6.73764324188232 6.68513298034668 6.85372734069824 6.94726657867432 7.45243215560913 8.08654975891113 8.51067924499512 8.78563404083252 9.64842319488525 10.2532062530518 11.4042644500732 12.2731294631958 13.1756687164307 14.6270112991333 13.7021732330322 14.9664478302002
5.84628629684448 5.8070240020752 9.72411823272705 11.4710474014282 6.23635816574097 6.33529186248779 6.16956329345703 6.27975273132324 6.12142276763916 5.68703079223633 5.06833839416504 4.79551601409912 4.47411727905273 4.6028470993042 4.4630274772644 4.92911148071289 5.05021238327026 6.13101100921631 6.62707710266113 6.97930717468262 6.6596245765686 7.96034908294678 9.08563423156738 6.46025323867798 8.80457305908203 22.0764980316162 29.7919063568115 50.8181915283203 0.429097235202789 0.377176016569138 1.10666191577911 10.4301748275757 3.88602495193481 3.7052435874939 4.05290794372559 10.5353221893311 0.536852300167084 0.501377820968628 0.415271788835526 0.782845556735992 5.50214767456055 4.32663583755493 6.22973537445068 3.16698408126831 3.51976895332336 3.59115886688232 3.46579074859619 5.90940618515015 7.09685850143433 11.2857494354248 11.1490697860718 7.8697681427002 7.13221645355225 5.42063474655151 3.0581419467926 9.16284561157227 22.4727058410645 1.44365513324738 7.60037803649902 -1.94669044017792 5.05764770507812 -1.670823097229 2.62954139709473 2.78069925308228 9.06723785400391 10.039324760437 8.45425701141357 20.0775737762451 28.5479335784912 2.54966187477112 7.29127168655396 16.3792037963867 43.525463104248 -2.0224461555481 -1.72629404067993 -2.13576650619507 -0.831788241863251 -0.828781545162201 -0.911883592605591 -0.896566808223724 -0.885155618190765 -0.800764441490173 -0.13198633491993 -0.613409519195557 -0.624459981918335 -0.587216973304749 -0.291168451309204 0.0165427178144455 1.03597211837769 0.695688903331757 0.780205249786377 -0.00870166067034006 -0.0554337985813618 -0.676929235458374 -0.248945161700249 0.921695470809937 0.567105770111084 0.313516199588776 0.679312467575073 0.448980122804642 0.0591494180262089 -0.963194668292999 -1.05384421348572 -0.279462337493896 5.95711803436279 6.21501731872559 24.9157752990723 32.5911865234375 21.5112342834473 26.138916015625 -2.05609154701233 -1.65506839752197 -0.70504492521286 -0.22378334403038 -0.18502601981163 0.0359267890453339 9.22771072387695 13.5640649795532 15.0865669250488 -1.21905708312988 -0.866557359695435 -0.000643682724330574 0.10812745988369 0.0937397032976151 0.755009114742279 0.252889066934586 19.9753189086914 -0.40590500831604 0.8803830742836 1.3026477098465 1.69410336017609 0.546673238277435 0.567013204097748 3.29633736610413 44.9571914672852 0.0211254395544529 0.235686644911766 0.657119274139404 4.46759510040283 5.56597280502319 25.9682559967041 3.04305195808411 12.7772569656372 4.69209814071655 3.34006667137146 3.57629752159119 4.28188514709473 4.50826168060303 4.5316915512085 5.90280675888062 6.02451801300049 6.43673229217529 6.57645750045776 6.34364891052246 6.29140567779541 6.25438165664673 6.17349100112915 6.31316041946411 6.45808601379395 6.406982421875 6.90091276168823 7.25791072845459 7.53128385543823 7.58692407608032 8.39811038970947 8.84255123138428 9.91603851318359 10.4991464614868 11.1615400314331 11.3546838760376 11.6607618331909 12.8829736709595 13.6694116592407 13.8159484863281
7.11066055297852 7.99532222747803 5.89842510223389 6.06768560409546 5.99066257476807 6.11839151382446 6.03655767440796 5.6637749671936 5.04197692871094 4.61181783676147 4.21982192993164 3.90608382225037 3.25075936317444 3.61564707756042 4.07908535003662 5.05366230010986 5.50216007232666 5.85106801986694 5.63921642303467 6.21417856216431 6.84575700759888 6.21883392333984 6.99779081344604 52.1679649353027 0.254919737577438 51.1783561706543 0.300658941268921 2.20913553237915 3.15558528900146 12.2324495315552 0.401197761297226 0.751955389976501 6.47768592834473 14.9853010177612 9.20061492919922 4.86202383041382 0.634949386119843 -0.0131583660840988 0.0706325471401215 1.43540632724762 2.58378553390503 2.52701568603516 2.70178246498108 2.52851319313049 2.26129722595215 3.45958876609802 4.24165964126587 5.61009120941162 8.96041870117188 7.94955635070801 4.60845565795898 3.95798683166504 3.47837376594543 13.7804841995239 2.8205189704895 4.9344654083252 1.84345817565918 2.1541588306427 0.0437541827559471 -1.78984212875366 2.75908398628235 8.81346321105957 1.05367541313171 8.16575813293457 7.02301931381226 8.65721130371094 17.375171661377 35.1888847351074 7.1063346862793 15.7211380004883 22.5973205566406 26.706916809082 23.205924987793 21.7321319580078 54.3700866699219 -2.64857196807861 -1.39563453197479 -0.682549476623535 -0.562297761440277 -1.03661513328552 -0.944284439086914 -0.867969751358032 -0.289119452238083 -0.0582341738045216 -0.483880072832108 -0.627833187580109 -0.601032674312592 -0.208593055605888 0.487786650657654 0.990756809711456 0.851784765720367 -0.0770581513643265 -0.424666076898575 -0.200205683708191 0.51402622461319 -0.00435766065493226 0.130415409803391 0.0522099509835243 0.953556597232819 0.845311164855957 0.763706505298615 3.16531014442444 3.64824724197388 4.37085056304932 15.8800621032715 18.2066860198975 9.7803258895874 15.3947563171387 20.379077911377 28.8656406402588 -1.72722613811493 -1.23956108093262 -0.291881799697876 -0.244579270482063 4.46440029144287 5.52559089660645 1.99719858169556 3.23424172401428 0.795283496379852 -0.341271340847015 -0.297386676073074 0.00525924563407898 -0.261456310749054 0.076768547296524 0.491429835557938 2.24357795715332 36.9651145935059 -1.17019629478455 -0.243062034249306 -0.336522161960602 0.89320707321167 0.993563950061798 14.0202760696411 46.1367683410645 -0.0876418277621269 -0.033721350133419 0.870822072029114 0.944403946399689 1.07622444629669 10.5863361358643 13.1805906295776 16.2027435302734 2.30984568595886 2.30738854408264 3.41918873786926 3.64979243278503 4.40369510650635 3.86891579627991 4.8844895362854 5.46640491485596 6.24715375900269 6.0148024559021 5.95823383331299 5.92407417297363 5.85166358947754 5.9762544631958 5.87222194671631 5.99877405166626 6.23827171325684 6.63282299041748 6.88119173049927 7.1787691116333 7.52288341522217 8.41367149353027 8.79254150390625 9.20446586608887 9.64986896514893 9.88090801239014 10.2935762405396 11.2788772583008 11.8823614120483 11.730320930481 12.8876676559448 13.6575489044189
5.52194452285767 5.48916435241699 5.63801956176758 5.65012168884277 5.43793535232544 5.54969930648804 5.05378580093384 5.10575151443481 5.58622455596924 3.89378809928894 3.22519278526306 3.14656853675842 2.77398777008057 3.59082126617432 4.18535137176514 4.74372863769531 4.57006740570068 5.0136251449585 4.86574268341064 5.17714595794678 5.80890464782715 22.1625137329102 30.016788482666 21.5085277557373 49.2906227111816 0.811833143234253 6.78009939193726 0.469687879085541 11.1056652069092 0.313723355531693 1.72185695171356 4.23697662353516 6.39424085617065 7.44432544708252 23.490909576416 3.11841297149658 5.76919269561768 0.486436039209366 3.35070753097534 2.32589530944824 0.458327114582062 7.77469110488892 1.51201272010803 1.9167320728302 3.01544690132141 5.11011743545532 6.01491975784302 3.0813262462616 9.53733062744141 8.54281806945801 1.93320739269257 5.83950424194336 11.0196552276611 11.3423156738281 9.94765377044678 11.4609727859497 4.50602960586548 3.42170333862305 -1.84992921352386 1.78240203857422 15.2697639465332 0.95269775390625 5.22090196609497 -1.64973831176758 11.4829387664795 14.7162437438965 19.3536682128906 11.8922634124756 31.9854145050049 10.6177091598511 14.8747625350952 49.7628936767578 4.98012685775757 37.7114486694336 -1.82665586471558 -1.6843273639679 48.6037902832031 -2.80200600624084 -0.770153045654297 -1.09125757217407 -1.0107421875 -0.932880520820618 -0.621386229991913 0.0293288305401802 -0.120320431888103 -0.113230727612972 -0.41713958978653 -0.183307990431786 0.0721540823578835 0.596144735813141 0.00669358531013131 0.177147224545479 0.867176532745361 -0.148214772343636 -0.240680783987045 -0.457271456718445 -0.0842298343777657 -0.0960159003734589 1.00603806972504 2.59144449234009 2.72047758102417 3.69136667251587 10.1923341751099 12.0305271148682 7.16215038299561 9.74600791931152 11.0109462738037 10.8352680206299 14.1605224609375 27.1479835510254 -1.19329643249512 -1.07330620288849 2.12571668624878 2.67845773696899 0.116423286497593 0.308037132024765 -0.511084258556366 -0.507492780685425 0.16515351831913 -0.479391515254974 -0.460586279630661 0.2956762611866 11.4366655349731 -1.36109435558319 7.16314077377319 11.8594408035278 -0.42075115442276 0.374564975500107 -0.380215167999268 -0.0149468798190355 6.88416862487793 15.168737411499 46.9658317565918 -1.01971781253815 6.9207501411438 16.626184463501 10.2276391983032 3.84279990196228 40.2540092468262 0.483841806650162 4.61074924468994 13.9813652038574 15.8166351318359 8.62701225280762 2.24700140953064 3.03182029724121 3.87417960166931 7.51340579986572 4.00628757476807 5.13816738128662 5.63649129867554 5.6034836769104 5.53931283950806 5.65941190719604 5.57527589797974 17.5999050140381 5.42775726318359 6.07335376739502 6.29967737197876 6.48257970809937 6.82226228713989 7.64108228683472 7.9588041305542 8.15116119384766 8.503737449646 8.81380271911621 9.55655574798584 9.99868869781494 10.4839773178101 10.2699499130249 11.2788324356079 11.8842611312866 12.2829074859619 12.9209146499634
5.30972623825073 5.3178825378418 5.08837938308716 4.68420457839966 4.46143484115601 4.31633377075195 5.03856086730957 7.03681993484497 3.40904426574707 3.11440873146057 3.45666408538818 3.44090533256531 3.4541597366333 15.5661497116089 2.64437580108643 3.32711744308472 3.51701736450195 4.21599578857422 6.70434045791626 13.3112449645996 15.9905662536621 12.930591583252 20.5005416870117 47.5386810302734 3.25321245193481 4.77172899246216 8.58322525024414 4.0861759185791 2.37988567352295 2.59800386428833 0.614597797393799 11.5001497268677 5.70521879196167 10.9928979873657 5.41529989242554 10.046688079834 9.6828498840332 1.90038919448853 3.67413210868835 0.70134562253952 2.1049964427948 1.38281345367432 1.64078795909882 1.79961454868317 2.28213787078857 7.10551261901855 3.00132608413696 2.3737621307373 11.0948781967163 6.34169006347656 3.26420497894287 4.48880004882812 5.19909286499023 5.70557451248169 11.3523893356323 8.32285785675049 10.5031337738037 0.637689650058746 4.01418781280518 2.13864398002625 12.8569259643555 3.51481604576111 14.6692705154419 3.67662763595581 2.80642294883728 9.72032833099365 13.707423210144 18.1039237976074 11.4671974182129 46.9213180541992 10.3206653594971 13.8833618164062 -2.27582383155823 28.3345985412598 12.5818748474121 27.207555770874 -1.17966651916504 -1.1614488363266 -1.09957706928253 -0.925997376441956 -1.0250152349472 -0.934148907661438 -0.651503682136536 -0.105662904679775 -0.0865247696638107 0.314622670412064 0.108545236289501 0.030790489166975 -0.331738591194153 -0.252674371004105 0.0916747227311134 1.15271210670471 0.195165067911148 -0.256253331899643 -0.165413066744804 -0.633337616920471 -0.296905666589737 2.116614818573 2.28729772567749 7.14751195907593 7.74252319335938 8.47979259490967 4.4253134727478 6.53417825698853 7.85319089889526 7.54057502746582 8.09933376312256 10.3179302215576 14.2476682662964 10.8483934402466 -1.41424262523651 -0.0847882330417633 -0.664734899997711 -0.493880152702332 -0.59818971157074 0.0289326794445515 0.0159689821302891 -0.600240409374237 0.129950955510139 -0.318952888250351 2.09667897224426 2.94368648529053 3.64923977851868 3.92145228385925 1.16251623630524 -1.05514681339264 12.5426683425903 -0.949098467826843 2.8276252746582 7.13592481613159 34.5579299926758 5.16075277328491 9.94191455841064 -0.159264832735062 0.887892305850983 1.40188944339752 9.68702030181885 13.9377470016479 8.0410099029541 7.39522361755371 22.1471862792969 3.61694192886353 14.519998550415 14.5562982559204 1.87752366065979 2.41279149055481 3.12879014015198 3.61522245407104 3.67507553100586 4.07672595977783 5.21938323974609 5.33638286590576 5.27617311477661 5.38939332962036 7.61412715911865 21.175443649292 5.128005027771 5.89138269424438 6.19857692718506 6.97921895980835 7.2384786605835 7.45919132232666 7.76710224151611 8.0404052734375 8.64735984802246 8.99566268920898 8.97108745574951 9.54771137237549 9.98130130767822 10.471004486084 10.9272003173828 11.4428253173828 11.89866065979 12.5663366317749
