ncols         196
nrows         64
xllcorner     353680
yllcorner     6699568
cellsize      16
NODATA_value  -9999
-9999 -9999 -9999 -9999 -9999 -9999 -9999 -9999 -9999 -9999 -9999 -9999 -9999 -9999 -9999 -9999 -9999 -9999 -9999 -9999 -9999 -9999 -9999 -9999 -9999 -9999 -9999 -9999 -9999 -9999 -9999 -9999 -9999 -9999 -9999 -9999 -9999 -9999 -9999 -9999 -9999 -9999 -9999 -9999 -9999 -9999 -9999 -9999 -9999 -9999 -9999 -9999 -9999 -9999 -9999 -9999 -9999 -9999 -9999 -9999 -9999 -9999 -9999 -9999 -9999 -9999 -9999 -9999 -9999 -9999 -9999 -9999 45.69819 45.50673 45.62341 45.78133 44.95516 44.00523 43.18345 42.90086 42.80133 42.79069 42.8061 42.79836 42.81069 42.78249 42.8595 42.91861 43.02931 43.36564 43.53341 43.61731 43.71892 43.68139 43.32775 43.31997 43.48906 43.9937 46.72003 50.14261 54.34398 57.24775 58.42705 59.55513 60.28678 60.52798 61.55467 62.45681 62.58919 62.89184 63.094 62.5098 61.95122 61.72017 61.91597 63.06142 65.06855 67.27958 68.60735 69.42738 70.37358 71.48819 72.92499 75.40819 79.8998 82.49663 83.54039 83.27725 83.01567 83.19989 81.98392 80.98086 79.77489 77.59897 74.98491 73.32939 70.9443 70.49942 70.21983 70.80994 71.68044 73.16836 76.71659 79.28325 79.01743 79.55453 80.54862 82.34266 85.0668 87.35149 88.37688 88.71353 88.154 87.21819 87.00586 85.15157 82.02256 78.52916 74.6642 71.25758 69.43667 67.44836 65.7033 64.71469 63.56963 62.42963 61.32948 60.33011 59.46135 58.72639 58.11117 57.81967 57.57031 57.30273 57.15719 57.49425 57.97381 57.85823 56.97873 55.41203 53.55013 51.81203 50.23177 48.57323 46.9278 45.73294 44.90886 44.32445 43.82145 -9999 -9999 -9999 -9999 -9999 -9999 -9999
-9999 -9999 -9999 -9999 -9999 -9999 -9999 -9999 -9999 -9999 -9999 -9999 -9999 -9999 -9999 -9999 -9999 -9999 -9999 -9999 -9999 -9999 -9999 -9999 -9999 -9999 -9999 -9999 -9999 -9999 -9999 -9999 -9999 -9999 -9999 -9999 -9999 -9999 -9999 -9999 -9999 -9999 -9999 -9999 -9999 -9999 -9999 -9999 -9999 -9999 -9999 -9999 -9999 -9999 -9999 -9999 -9999 -9999 -9999 -9999 -9999 -9999 -9999 -9999 -9999 -9999 -9999 -9999 -9999 -9999 -9999 -9999 -9999 -9999 -9999 46.78981 46.01397 45.10373 43.88308 43.12319 42.93619 42.81008 42.90367 42.95773 43.12074 43.24864 43.16373 43.42625 43.53719 43.63783 43.7395 43.80761 43.83184 43.80555 43.64917 43.37419 43.4975 43.79225 46.42161 48.9858 50.94261 52.83002 53.94395 54.75177 55.51791 56.34525 57.1883 58.01958 58.27684 58.64483 59.39281 59.95116 59.89238 60.11486 60.67058 62.11813 64.68208 67.58673 68.67645 69.6824 70.71664 71.73761 73.01543 74.99748 78.22531 80.07517 80.31028 80.04052 79.19099 78.91342 78.80772 78.67219 78.3203 76.76929 75.00595 71.80258 69.6437 69.23678 69.096 69.10609 70.07295 71.62081 74.48645 76.17894 77.10405 77.11039 77.73542 80.10509 82.75297 85.01453 85.97658 86.26894 85.20086 84.94269 84.06472 82.47852 79.89664 76.85387 72.85301 70.2067 68.56947 66.63042 64.865 63.68974 62.49044 61.35489 60.24055 59.26287 58.52909 57.73384 57.00478 56.55248 56.27209 56.00192 55.83595 56.194 56.85969 56.99633 56.22939 54.98195 53.27206 51.6517 50.19437 48.89228 47.40545 46.1902 45.15589 44.3435 43.7641 43.39995 -9999 -9999 -9999 -9999 -9999 -9999
-9999 -9999 -9999 -9999 -9999 -9999 -9999 -9999 -9999 -9999 -9999 -9999 -9999 -9999 -9999 -9999 -9999 -9999 -9999 -9999 -9999 -9999 -9999 -9999 -9999 -9999 -9999 -9999 -9999 -9999 -9999 -9999 -9999 -9999 -9999 -9999 -9999 -9999 -9999 -9999 -9999 -9999 -9999 -9999 -9999 -9999 -9999 -9999 -9999 -9999 -9999 -9999 -9999 -9999 -9999 -9999 -9999 -9999 -9999 -9999 -9999 -9999 -9999 -9999 -9999 -9999 -9999 -9999 -9999 -9999 -9999 -9999 -9999 -9999 -9999 -9999 46.41459 45.65575 44.49375 43.40267 43.05906 42.94653 42.99384 43.28806 43.8681 44.12253 44.21203 44.01694 43.74755 43.82794 43.87677 43.94398 43.98603 43.94938 43.85444 43.56983 43.54424 43.78 45.81952 48.86813 49.61719 50.03902 50.57663 51.0878 52.27611 53.51317 54.19524 54.97577 55.349 55.79213 56.62592 57.54586 58.15622 58.97659 59.78611 61.22625 63.93978 67.23624 69.04148 70.88389 72.19501 73.05913 73.96195 74.89113 76.6787 77.23053 77.14961 76.56226 75.63937 75.00692 75.38214 76.06563 77.00105 75.771 74.50064 70.98183 68.93625 68.26905 67.97039 67.94248 68.71626 69.88386 73.06371 74.73353 75.25732 74.80988 73.75027 75.2785 78.19974 79.86972 81.57856 82.29936 81.89452 80.81731 80.35742 78.67925 76.85947 73.28983 70.40122 69.56936 68.59663 66.05975 64.10231 62.75689 61.50884 60.26936 59.31125 58.44648 57.68433 56.93139 56.1247 55.5668 55.18134 54.908 54.72845 54.91867 55.47102 55.89211 55.44024 54.38283 52.92559 51.38573 49.96211 48.68161 47.57195 46.53899 45.59025 44.67658 43.87981 43.33608 42.99078 -9999 -9999 -9999 -9999 -9999
-9999 -9999 -9999 -9999 -9999 -9999 -9999 -9999 -9999 -9999 -9999 -9999 -9999 -9999 -9999 -9999 -9999 -9999 -9999 -9999 -9999 -9999 -9999 -9999 -9999 -9999 -9999 -9999 -9999 -9999 -9999 -9999 -9999 -9999 -9999 -9999 -9999 -9999 -9999 -9999 -9999 -9999 -9999 -9999 -9999 -9999 -9999 -9999 -9999 -9999 -9999 -9999 -9999 -9999 -9999 -9999 -9999 -9999 -9999 -9999 -9999 -9999 -9999 -9999 -9999 -9999 -9999 -9999 -9999 -9999 -9999 -9999 -9999 -9999 -9999 -9999 46.50365 45.89897 44.71197 43.6327 43.2895 43.22278 43.17811 43.58947 44.32436 44.33052 44.8798 45.06145 44.67889 43.97881 44.03417 44.08846 44.13353 44.1008 44.01537 43.8398 43.68516 43.94912 44.18159 46.73275 48.19773 47.99933 48.27588 48.60392 49.85558 51.94403 53.06263 53.63558 54.1035 54.5484 55.19423 56.13103 57.13966 58.04669 59.07933 60.52867 62.83275 66.35567 69.70208 75.59323 77.28055 77.9762 77.33578 76.28635 75.70187 75.72051 75.77187 74.09469 72.72698 71.72075 71.85953 72.06648 73.70238 73.8604 73.01292 70.3447 68.69827 67.89134 67.27235 66.95822 67.10659 68.26686 70.38554 72.85023 73.44138 71.97202 70.58765 70.37868 72.14981 74.1352 76.06584 77.64313 77.78194 76.10513 74.81902 74.07767 72.39969 70.3205 68.88469 68.27377 67.21948 65.11282 63.12458 61.8317 60.5885 59.5055 58.66703 57.90597 57.1792 56.41609 55.52033 54.7708 54.32359 53.937 53.77447 53.75563 53.93044 54.24886 54.31361 53.59103 52.38983 51.10761 49.77583 48.39806 47.42745 46.683 45.90333 45.03442 44.08088 43.29697 42.92133 -9999 -9999 -9999 -9999 -9999
-9999 -9999 -9999 -9999 -9999 -9999 -9999 -9999 -9999 -9999 -9999 -9999 -9999 -9999 -9999 -9999 -9999 -9999 -9999 -9999 -9999 -9999 -9999 -9999 -9999 -9999 -9999 -9999 -9999 -9999 -9999 -9999 -9999 -9999 -9999 -9999 -9999 -9999 -9999 -9999 -9999 -9999 -9999 -9999 -9999 -9999 -9999 -9999 -9999 -9999 -9999 -9999 -9999 -9999 -9999 -9999 -9999 -9999 -9999 -9999 -9999 -9999 -9999 -9999 -9999 -9999 -9999 -9999 -9999 -9999 -9999 -9999 -9999 -9999 -9999 -9999 46.36208 45.84983 44.56662 43.83167 43.555 43.35361 43.4665 43.87666 44.99398 46.19031 47.05722 47.02515 46.5115 44.59361 44.19601 44.20813 44.22769 44.24538 44.20792 44.05058 43.76778 43.98125 44.14703 44.56872 45.36764 46.0548 46.74109 46.91356 47.85372 49.50005 51.43708 52.33433 52.91325 53.55805 54.54384 55.65897 56.63023 57.69714 58.81467 60.40567 62.81278 66.0663 69.73628 77.82797 80.96756 82.1495 80.90045 77.66989 74.99809 74.3893 74.72945 73.66038 70.99584 69.43517 68.99644 69.18731 70.49645 70.60924 70.27094 69.11131 68.39091 67.78942 66.75595 66.17948 66.09002 66.7541 68.45834 70.02834 69.88625 68.94469 68.08089 67.89635 68.26739 69.17484 70.74539 73.1889 73.79269 72.25233 70.32109 69.37531 68.85117 67.93314 67.19825 66.14444 64.8168 63.58433 62.11406 60.71898 59.76667 58.90008 58.23713 57.57169 56.8922 56.06961 55.09156 54.17934 53.64494 53.33581 53.01524 52.83059 52.80288 52.7678 52.83802 52.58272 51.84747 50.81883 49.67306 48.41436 47.37791 46.67467 45.84344 45.03709 44.10111 43.34103 42.91874 -9999 -9999 -9999 -9999 -9999
-9999 -9999 -9999 -9999 -9999 -9999 -9999 -9999 -9999 -9999 -9999 -9999 -9999 -9999 -9999 -9999 -9999 -9999 -9999 -9999 -9999 -9999 -9999 -9999 -9999 -9999 -9999 -9999 -9999 -9999 -9999 -9999 -9999 -9999 -9999 -9999 -9999 -9999 -9999 -9999 -9999 -9999 -9999 -9999 -9999 -9999 -9999 -9999 -9999 -9999 -9999 -9999 -9999 -9999 -9999 -9999 -9999 -9999 -9999 -9999 -9999 -9999 -9999 -9999 -9999 -9999 -9999 -9999 -9999 -9999 -9999 -9999 -9999 -9999 -9999 -9999 -9999 45.68391 44.85047 44.00556 43.66764 43.68891 43.7888 44.25489 45.27897 46.38041 47.37917 48.01966 47.64695 44.98508 44.28795 44.31749 44.34595 44.39906 44.31067 44.15356 43.90075 43.96592 44.25053 44.56963 45.12341 45.6653 46.04475 46.80812 48.4068 50.43423 50.76348 51.62508 52.86694 53.19142 54.31126 55.43933 56.43984 57.56837 58.53683 59.86825 63.18388 66.78356 69.35175 76.31783 81.03364 81.78551 81.96602 78.70933 74.73427 72.83089 72.36167 71.71 69.70116 68.07744 67.52454 67.5027 68.77872 69.24805 68.58894 68.19424 68.33078 68.26445 67.01594 65.80886 65.42108 65.42586 67.34753 68.79409 68.0396 66.57886 66.41148 65.79877 65.88586 66.65378 67.76091 69.38517 70.34336 69.05913 67.81023 67.05678 66.60322 66.07283 65.49247 64.70515 63.36342 62.23124 61.11828 59.72823 58.61803 57.98945 57.68086 57.1596 56.48872 55.66805 54.68839 53.7305 53.1287 52.79753 52.41977 52.15075 52.09578 51.80463 51.72216 51.5958 51.31217 50.58184 49.58239 48.47703 47.44683 46.6345 45.80233 44.96055 44.15681 43.48406 43.00003 42.70639 -9999 -9999 -9999 -9999
-9999 -9999 -9999 -9999 -9999 -9999 -9999 -9999 -9999 -9999 -9999 -9999 -9999 -9999 -9999 -9999 -9999 -9999 -9999 -9999 -9999 -9999 -9999 -9999 -9999 -9999 -9999 -9999 -9999 -9999 -9999 -9999 -9999 -9999 -9999 -9999 -9999 -9999 -9999 -9999 -9999 -9999 -9999 -9999 -9999 -9999 -9999 -9999 -9999 -9999 -9999 -9999 -9999 -9999 -9999 -9999 -9999 -9999 -9999 -9999 -9999 -9999 -9999 -9999 -9999 -9999 -9999 -9999 -9999 -9999 -9999 -9999 -9999 -9999 -9999 -9999 -9999 45.76788 45.48689 44.78001 44.1882 43.99811 44.13744 44.75422 45.64349 46.56709 47.50436 48.06934 47.707 45.10525 44.3412 44.43997 44.49864 44.49414 44.42484 44.32514 44.13585 43.95916 44.2165 44.48133 44.96731 45.31281 45.67319 46.85314 49.97631 52.79467 53.2547 53.61342 54.69627 54.76313 55.06644 55.69664 56.63786 57.8119 58.73748 59.86042 62.6602 67.02431 68.92058 70.88128 74.70679 75.9464 77.25614 77.09056 74.35983 71.67335 70.36734 69.06447 68.05364 67.24358 66.95503 66.92033 67.74342 68.4362 67.97932 67.89024 68.9638 68.57122 66.96492 65.64525 64.7613 64.27484 64.73117 65.78028 65.06998 64.02952 63.90016 63.4772 63.8008 64.21228 65.68159 66.52911 66.83545 65.81502 65.16636 64.97902 64.79392 64.39256 64.16417 63.32528 62.0128 60.95113 59.83505 58.62778 57.49591 56.7293 56.43217 56.10815 55.57537 54.92911 54.09595 53.13251 52.51091 52.16244 51.90569 51.74908 51.70077 51.40433 51.24708 51.13484 50.90161 50.29072 49.22297 48.15447 47.24656 46.48927 45.8278 45.08337 44.44447 43.83027 43.16108 42.7518 -9999 -9999 -9999 -9999
-9999 -9999 -9999 -9999 -9999 -9999 -9999 -9999 -9999 -9999 -9999 -9999 -9999 -9999 -9999 -9999 -9999 -9999 -9999 -9999 -9999 -9999 -9999 -9999 -9999 -9999 -9999 -9999 -9999 -9999 -9999 -9999 -9999 -9999 -9999 -9999 -9999 -9999 -9999 -9999 -9999 -9999 -9999 -9999 -9999 -9999 -9999 -9999 -9999 -9999 -9999 -9999 -9999 -9999 -9999 -9999 -9999 -9999 -9999 -9999 -9999 -9999 -9999 -9999 -9999 -9999 -9999 -9999 -9999 -9999 -9999 -9999 -9999 -9999 -9999 -9999 -9999 -9999 46.43431 46.13003 45.0698 44.49236 44.57055 45.17141 46.17202 47.17691 47.87758 48.14509 47.28042 44.90758 44.47545 44.49508 44.55772 44.60664 44.52989 44.42551 44.29783 44.0767 44.18008 44.44431 44.73719 45.05248 45.28214 47.78381 51.90041 54.46244 55.42133 55.78645 56.36189 56.0285 55.92487 56.18884 57.09355 58.23108 59.28173 60.32333 61.83041 64.64977 66.57781 67.39052 68.1742 69.53372 71.38049 73.02211 72.87502 70.7578 69.19922 68.28291 67.46394 66.73977 66.441 66.63164 66.94109 67.55521 67.866 67.12901 68.11382 67.71331 66.42095 65.60572 64.43829 63.15052 62.30851 62.14708 61.74105 61.18195 60.98714 60.15158 60.6508 61.23256 63.43792 64.16281 63.48777 63.17601 63.17702 63.43676 63.31061 63.05403 62.85116 61.75101 60.52552 59.26561 58.16622 57.27362 56.25569 55.25595 54.68397 54.42011 54.04063 53.46475 52.92548 52.24275 51.72894 51.56541 51.50103 51.36508 51.44322 51.29789 51.17961 51.02036 50.74861 50.11383 49.07486 48.08966 47.12487 46.31283 45.61752 45.14001 44.66806 44.08784 43.36908 42.8692 -9999 -9999 -9999 -9999
-9999 -9999 -9999 -9999 -9999 -9999 -9999 -9999 -9999 -9999 -9999 -9999 -9999 -9999 -9999 -9999 -9999 -9999 -9999 -9999 -9999 -9999 -9999 -9999 -9999 -9999 -9999 -9999 -9999 -9999 -9999 -9999 -9999 -9999 -9999 -9999 -9999 -9999 -9999 -9999 -9999 -9999 -9999 -9999 -9999 -9999 -9999 -9999 -9999 -9999 -9999 -9999 -9999 -9999 -9999 -9999 -9999 -9999 -9999 -9999 -9999 -9999 -9999 -9999 -9999 -9999 -9999 -9999 -9999 -9999 -9999 -9999 -9999 -9999 -9999 -9999 -9999 -9999 -9999 47.07536 46.09189 45.22064 45.09827 45.70488 46.98292 48.2772 48.793 48.48694 46.61187 44.58009 44.53312 44.54585 44.59847 44.63405 44.58911 44.49894 44.41192 44.27455 44.16395 44.37426 44.58164 44.80827 45.07797 49.68516 54.23828 57.59435 59.4091 59.38194 58.49302 57.67545 57.16256 57.07162 57.74053 58.74394 60.08775 61.225 61.86133 62.51941 63.48373 64.4809 65.75575 67.30737 68.79339 70.16058 70.2868 69.80461 68.83103 68.33175 67.36589 66.49117 66.0137 66.05092 65.953 65.97273 66.40286 65.62158 65.43956 65.68349 65.58604 64.8727 64.15878 61.71522 60.52122 59.47237 58.61328 58.21695 58.02384 57.27637 56.98008 58.50358 59.84692 60.90233 61.62005 61.74567 61.65203 61.8048 62.05312 62.48689 61.69617 60.24775 59.00195 57.79384 56.73997 55.77845 54.84689 53.79766 52.87847 52.45638 51.9667 51.57995 51.42184 51.15392 50.9922 51.15076 51.13987 51.18456 51.29653 51.26241 51.18464 51.17035 51.06501 50.61781 49.69817 48.61097 47.54752 46.51916 45.71212 45.14127 44.71367 44.12033 43.58675 43.14633 -9999 -9999 -9999 -9999
-9999 -9999 -9999 -9999 -9999 -9999 -9999 -9999 -9999 -9999 -9999 -9999 -9999 -9999 -9999 -9999 -9999 -9999 -9999 -9999 -9999 -9999 -9999 -9999 -9999 -9999 -9999 -9999 -9999 -9999 -9999 -9999 -9999 -9999 -9999 -9999 -9999 -9999 -9999 -9999 -9999 -9999 -9999 -9999 -9999 -9999 -9999 -9999 -9999 -9999 -9999 -9999 -9999 -9999 -9999 -9999 -9999 -9999 -9999 -9999 -9999 -9999 -9999 -9999 -9999 -9999 -9999 -9999 -9999 -9999 -9999 -9999 -9999 -9999 -9999 -9999 -9999 -9999 -9999 48.17834 47.73145 46.845 45.99163 46.36661 47.87278 49.07884 49.39675 48.90344 46.56986 44.576 44.56061 44.58455 44.63664 44.68392 44.71253 44.64883 44.50055 44.36328 44.19144 44.2745 44.51891 44.65067 46.43814 55.36197 62.28359 63.79578 65.48625 65.05135 62.60226 60.95638 59.8045 58.79676 58.95356 59.66417 60.7602 61.81736 62.04733 62.06588 62.27861 62.79861 63.57622 64.89748 66.40466 67.78711 68.64678 68.69461 68.38594 68.56161 67.95174 66.8035 65.42738 64.60708 64.48664 64.18628 64.03019 63.64627 63.36134 63.38778 64.09589 63.26072 61.98595 60.6685 58.97056 57.51884 56.30895 55.1945 54.55225 54.271 53.91342 55.2087 56.88676 57.60283 58.91248 59.44975 59.47084 59.82608 61.03255 63.03805 62.23603 59.44586 58.01344 56.73602 55.53373 54.54153 53.58323 52.71119 51.62738 50.70763 50.31914 50.10075 50.18134 50.28428 50.64345 50.82778 50.95556 51.0517 51.14667 51.34122 51.43362 51.7903 52.04436 51.90175 51.36974 50.42934 49.35597 47.8852 46.51164 45.45798 44.79509 44.31538 43.80603 43.33791 -9999 -9999 -9999 -9999
-9999 -9999 -9999 -9999 -9999 -9999 -9999 -9999 -9999 -9999 -9999 -9999 -9999 -9999 -9999 -9999 -9999 -9999 -9999 -9999 -9999 -9999 -9999 -9999 -9999 -9999 -9999 -9999 -9999 -9999 -9999 -9999 -9999 -9999 -9999 -9999 -9999 -9999 -9999 -9999 -9999 -9999 -9999 -9999 -9999 -9999 -9999 -9999 -9999 -9999 -9999 -9999 -9999 -9999 -9999 -9999 -9999 -9999 -9999 -9999 -9999 -9999 -9999 -9999 -9999 -9999 -9999 -9999 -9999 -9999 -9999 -9999 -9999 -9999 -9999 -9999 -9999 -9999 -9999 -9999 50.30433 49.12984 47.66281 47.06125 48.39861 49.62645 49.74424 49.3048 47.46695 44.8005 44.59541 44.62663 44.68042 44.73261 44.73144 44.72811 44.63192 44.48227 44.31123 44.27355 44.41737 44.53114 45.9398 55.27274 66.08917 69.90408 71.37357 70.90578 70.25467 66.64886 64.71728 63.27221 61.36377 60.9123 61.32159 61.88723 61.91014 61.93711 62.05122 62.1392 62.44525 63.2016 65.03208 67.28694 68.08385 68.08376 68.05448 68.6172 68.9324 67.35683 65.22346 63.26003 62.61022 62.26794 61.80781 61.5693 61.40958 61.1957 61.3604 61.63778 60.40506 59.62309 58.118 56.0962 54.24559 53.22213 52.45164 51.95045 51.97211 52.3553 53.50878 55.30894 56.57917 56.907 57.26548 58.10078 59.99981 62.64269 62.54116 59.72675 57.41305 55.8462 54.62231 53.4925 52.6881 51.89288 50.87774 49.85044 49.47453 49.48164 49.55198 49.97497 50.40702 50.7022 50.85458 50.95592 51.12544 51.45916 52.03061 53.07366 53.84455 53.79153 53.52336 52.96028 52.56183 51.52455 48.75909 46.82464 45.46609 44.59331 44.11517 43.72866 43.54236 -9999 -9999 -9999
-9999 -9999 -9999 -9999 -9999 -9999 -9999 -9999 -9999 -9999 -9999 -9999 -9999 -9999 -9999 -9999 -9999 -9999 -9999 -9999 -9999 -9999 -9999 -9999 -9999 -9999 -9999 -9999 -9999 -9999 -9999 -9999 -9999 -9999 -9999 -9999 -9999 -9999 -9999 -9999 -9999 -9999 -9999 -9999 -9999 -9999 -9999 -9999 -9999 -9999 -9999 -9999 -9999 -9999 -9999 -9999 -9999 -9999 -9999 -9999 -9999 -9999 -9999 -9999 -9999 -9999 -9999 -9999 -9999 -9999 -9999 -9999 -9999 -9999 -9999 -9999 -9999 -9999 -9999 -9999 51.97553 50.77881 49.19381 47.90762 48.66736 49.9053 50.03798 49.4977 47.96647 45.76405 44.69055 44.71281 44.74453 44.79514 44.82156 44.80117 44.67876 44.5675 44.41277 44.32525 44.37042 44.48481 44.93442 52.91972 66.04716 72.68086 75.17647 74.78481 73.99796 71.77952 69.33731 67.7295 65.48129 63.47277 62.49886 62.29044 62.02216 61.95705 61.928 61.94228 62.07217 62.59119 64.73286 69.28101 68.78375 68.20583 68.08604 68.29261 68.23476 66.83904 64.91508 62.07539 60.79525 60.32944 59.78791 59.42225 59.0351 58.64261 58.41903 58.18347 58.26339 57.82991 56.77669 55.0743 52.99114 51.43303 50.67455 50.45795 50.45127 50.38197 51.30302 52.92553 54.26867 54.72776 55.22733 56.13163 58.69264 60.79301 61.00472 59.22494 56.91748 55.27417 53.8765 52.70313 51.67581 50.90091 50.05481 49.36958 49.15348 49.13894 49.30995 49.86294 50.46784 50.732 50.85897 50.92469 51.09986 51.46911 52.52547 55.79117 56.51556 56.25663 55.9668 55.77039 55.67911 56.63814 55.62976 50.11619 47.44797 45.61984 44.65936 44.21431 43.99577 -9999 -9999 -9999
-9999 -9999 -9999 -9999 -9999 -9999 -9999 -9999 -9999 -9999 -9999 -9999 -9999 -9999 -9999 -9999 -9999 -9999 -9999 -9999 -9999 -9999 -9999 -9999 -9999 -9999 -9999 -9999 -9999 -9999 -9999 -9999 -9999 -9999 -9999 -9999 -9999 -9999 -9999 -9999 -9999 -9999 -9999 -9999 -9999 -9999 -9999 -9999 -9999 -9999 -9999 -9999 -9999 -9999 -9999 -9999 -9999 -9999 -9999 -9999 -9999 -9999 -9999 -9999 -9999 -9999 -9999 -9999 -9999 -9999 -9999 -9999 -9999 -9999 -9999 -9999 -9999 -9999 -9999 -9999 -9999 51.74231 49.80861 48.57347 48.75355 49.43549 49.54297 49.07833 47.87595 46.50288 45.09342 44.87892 44.87828 44.87514 44.86342 44.82506 44.74638 44.65167 44.50225 44.38031 44.37481 44.42035 44.57059 48.77262 63.29044 71.99122 76.15533 76.96429 76.0453 74.80673 73.40334 70.37303 68.54134 66.40212 64.51804 63.42728 62.59234 62.1947 61.99381 61.90263 61.95772 62.26952 63.83227 68.13319 70.46963 69.73135 69.05386 67.68586 66.44483 64.4838 62.59214 60.83992 59.28333 58.3718 57.86239 57.37262 56.68617 56.13022 55.73606 55.56105 55.53967 55.33625 54.86435 53.80067 52.09183 50.32208 49.39175 49.17776 49.23537 49.34406 50.26169 51.33648 52.19117 52.8102 53.3917 54.03592 55.80292 57.79153 58.52877 58.14467 56.70133 54.97575 53.47427 52.09127 50.83287 49.84864 49.29799 49.05394 48.94308 48.99672 49.11259 49.84584 50.91053 51.06344 50.90714 50.96191 51.05553 51.41652 53.16486 59.72567 61.20675 59.84909 58.76647 58.3201 58.12276 58.30423 58.43783 55.97656 51.17627 48.12575 45.75469 44.7927 44.4772 -9999 -9999 -9999
-9999 -9999 -9999 -9999 -9999 -9999 -9999 -9999 -9999 -9999 -9999 -9999 -9999 -9999 -9999 -9999 -9999 -9999 -9999 -9999 -9999 -9999 -9999 -9999 -9999 -9999 -9999 -9999 -9999 -9999 -9999 -9999 -9999 -9999 -9999 -9999 -9999 -9999 -9999 -9999 -9999 -9999 -9999 -9999 -9999 -9999 -9999 -9999 -9999 -9999 -9999 -9999 -9999 -9999 -9999 -9999 -9999 -9999 -9999 -9999 -9999 -9999 -9999 -9999 -9999 -9999 -9999 -9999 -9999 -9999 -9999 -9999 -9999 -9999 -9999 -9999 -9999 -9999 -9999 -9999 -9999 50.30616 49.38375 49.09372 48.89769 48.62751 48.25262 47.81711 47.10259 46.11435 45.19894 45.02998 44.94584 44.94072 44.93274 44.87597 44.79595 44.71712 44.59236 44.43824 44.37823 44.42753 44.48044 46.82056 58.78628 69.26044 74.43142 76.82483 77.02676 77.24155 75.90409 72.62369 69.94369 67.77323 66.2182 65.22267 65.70005 64.66895 63.25361 62.18822 61.89736 62.22 63.42752 65.62154 68.52117 71.04131 70.61756 67.93027 65.29553 63.04277 61.49859 60.0064 58.53069 57.01688 55.84358 55.03984 54.36772 53.74286 53.15169 52.94309 52.84639 52.66636 52.40752 52.05273 51.01327 49.48463 48.55628 48.31289 48.31458 48.62341 49.58658 50.57456 51.08206 51.21091 51.5772 52.07151 52.90266 54.23219 55.60984 56.72383 56.3821 55.01966 53.22789 51.55233 50.06469 49.32516 49.02787 48.86339 48.83022 48.82395 48.90102 49.57861 50.96751 51.52909 51.1977 50.95869 51.01559 51.39384 53.2993 57.67756 61.5573 61.8728 61.07239 60.19523 59.59385 59.46261 59.19795 58.58169 54.85487 51.39281 48.03112 45.68687 44.93959 -9999 -9999 -9999
-9999 -9999 -9999 -9999 -9999 -9999 -9999 -9999 -9999 -9999 -9999 -9999 -9999 -9999 -9999 -9999 -9999 -9999 -9999 -9999 -9999 -9999 -9999 -9999 -9999 -9999 -9999 -9999 -9999 -9999 -9999 -9999 -9999 -9999 -9999 -9999 -9999 -9999 -9999 -9999 -9999 -9999 -9999 -9999 -9999 -9999 -9999 -9999 -9999 -9999 -9999 -9999 -9999 -9999 -9999 -9999 -9999 -9999 -9999 -9999 -9999 -9999 -9999 -9999 -9999 -9999 -9999 -9999 -9999 -9999 -9999 -9999 -9999 -9999 -9999 -9999 -9999 -9999 -9999 -9999 -9999 48.98122 48.80472 49.08225 48.90422 48.22469 47.4012 46.58036 45.98716 45.35797 45.10088 45.05691 45.01912 45.0295 45.01395 45.01583 44.92578 44.75897 44.63187 44.50136 44.40813 44.4293 44.50434 45.47005 54.4157 65.82978 71.95872 75.80923 77.07147 78.26789 77.11443 74.59819 70.3488 67.92338 66.53487 66.05351 66.7011 66.68711 64.61543 62.83206 61.84348 62.09295 63.15108 65.53288 68.20025 72.34031 71.66192 68.10586 64.70156 62.1949 61.01735 59.90517 59.01505 57.75067 56.30111 54.71939 53.12206 51.83795 51.11292 50.6442 50.40073 50.11747 49.97103 49.9242 49.54927 48.69536 47.91272 47.72011 47.78627 47.91803 48.64134 49.7462 50.05928 50.06772 50.12269 50.53442 51.17692 51.91706 53.06176 54.45061 55.10078 54.42069 53.0803 51.12269 49.55798 49.01792 48.81202 48.72659 48.65286 48.65237 48.6327 48.93951 49.9245 51.09139 51.32975 50.91281 50.8498 51.14556 52.25917 54.52742 58.07908 59.35403 59.93798 59.86106 59.33038 59.20645 59.0407 58.63331 56.60264 53.60456 50.03086 47.06987 45.67173 -9999 -9999 -9999
-9999 -9999 -9999 -9999 -9999 -9999 -9999 -9999 -9999 -9999 -9999 -9999 -9999 -9999 -9999 -9999 -9999 -9999 -9999 -9999 -9999 -9999 -9999 -9999 -9999 -9999 -9999 -9999 -9999 -9999 -9999 -9999 -9999 -9999 -9999 -9999 -9999 -9999 -9999 -9999 -9999 -9999 -9999 -9999 -9999 -9999 -9999 -9999 -9999 -9999 -9999 -9999 -9999 -9999 -9999 -9999 -9999 -9999 -9999 -9999 -9999 -9999 -9999 -9999 -9999 -9999 -9999 -9999 -9999 -9999 -9999 -9999 -9999 -9999 -9999 -9999 -9999 -9999 -9999 -9999 -9999 48.37992 48.13274 48.44241 48.53119 47.76428 46.70102 45.61922 45.21008 45.10981 45.06287 45.07486 45.09336 45.08311 45.00756 44.985 45.01767 44.89917 44.72097 44.54626 44.46578 44.46378 44.54873 44.88189 50.49775 63.04374 69.80721 73.81033 75.34814 77.66931 76.63988 76.13718 71.28617 68.66064 66.73889 65.57333 65.13609 64.52586 63.68255 62.57383 61.57327 61.63472 62.51809 64.79362 67.916 72.17827 71.28517 67.78709 64.40838 61.78452 60.69005 60.09805 59.50141 58.2447 56.92933 55.47264 53.42748 51.31231 49.84919 49.06073 48.4931 48.07622 47.92389 47.87969 47.81072 47.5625 47.32534 47.32088 47.47451 47.14122 47.13545 48.17845 48.82595 48.89848 48.937 49.23358 49.6373 50.36405 51.1047 52.09819 53.16192 53.29734 52.70072 51.19234 49.51715 48.86026 48.60603 48.44269 48.41516 48.42566 48.42591 48.47153 48.85536 49.60384 50.0815 50.04789 50.26166 50.4337 50.93962 51.69527 54.26474 55.64092 55.63137 56.70144 57.43636 57.09622 57.06086 57.45898 57.1255 54.45995 51.17056 48.31745 46.43155 45.37572 -9999 -9999
-9999 -9999 -9999 -9999 -9999 -9999 -9999 -9999 -9999 -9999 -9999 -9999 -9999 -9999 -9999 -9999 -9999 -9999 -9999 -9999 -9999 -9999 -9999 -9999 -9999 -9999 -9999 -9999 -9999 -9999 -9999 -9999 -9999 -9999 -9999 -9999 -9999 -9999 -9999 -9999 -9999 -9999 -9999 -9999 -9999 -9999 -9999 -9999 -9999 -9999 -9999 -9999 -9999 -9999 -9999 -9999 -9999 -9999 -9999 -9999 -9999 -9999 -9999 -9999 -9999 -9999 -9999 -9999 -9999 -9999 -9999 -9999 -9999 -9999 -9999 -9999 -9999 -9999 -9999 -9999 -9999 48.08977 47.60389 47.48858 47.47391 46.95089 45.98977 45.23081 45.13645 45.10211 45.10624 45.13225 45.12545 45.09673 45.06395 45.04416 44.99405 44.99603 44.8978 44.67294 44.54037 44.52483 44.53892 44.65126 46.69003 58.34766 67.23847 71.56754 73.06776 74.67058 74.77148 75.14095 72.3938 68.90514 66.40539 64.71183 63.54278 62.23867 61.85631 61.69567 60.85772 59.99325 61.47717 63.61063 66.9809 71.16672 70.88475 67.43094 64.31532 61.66154 60.47441 60.21903 59.56255 58.27174 56.7655 55.16526 53.30158 51.22731 49.41541 48.39564 47.47353 46.96472 46.72348 46.61283 46.63611 46.76237 46.75277 46.84336 46.92735 46.66422 46.53581 46.91342 47.38606 47.65831 47.85545 48.13842 48.47356 49.06606 49.70591 50.39014 51.28719 51.79459 51.7295 50.85477 49.54676 48.78688 48.3798 48.26419 48.23208 48.24665 48.19181 48.09442 48.07631 48.31364 48.6876 49.0535 49.36737 49.39345 49.71009 50.12292 50.98319 51.92812 52.5568 53.78472 54.96264 55.42922 55.45009 55.7156 55.91837 54.4588 51.9557 49.45834 47.40009 46.31731 -9999 -9999
-9999 -9999 -9999 -9999 -9999 -9999 -9999 -9999 -9999 -9999 -9999 -9999 -9999 -9999 -9999 -9999 -9999 -9999 -9999 -9999 -9999 -9999 -9999 -9999 -9999 -9999 -9999 -9999 -9999 -9999 -9999 -9999 -9999 -9999 -9999 -9999 -9999 -9999 -9999 -9999 -9999 -9999 -9999 -9999 -9999 -9999 -9999 -9999 -9999 -9999 -9999 -9999 -9999 -9999 -9999 -9999 -9999 -9999 -9999 -9999 -9999 -9999 -9999 -9999 -9999 -9999 -9999 -9999 -9999 -9999 -9999 -9999 -9999 -9999 -9999 -9999 -9999 -9999 -9999 -9999 48.64124 48.06666 47.18708 46.55545 46.21177 45.69361 45.44014 45.16916 45.13739 45.13922 45.16412 45.16517 45.12139 45.09431 45.06305 45.07855 45.04202 44.98998 44.98513 44.85105 44.63485 44.55645 44.55834 44.62911 44.90662 51.79944 63.1741 68.28812 70.24448 70.34809 70.80925 71.35997 69.77159 67.61259 64.89472 63.07455 61.45664 59.751 58.53671 58.69147 58.93766 58.17791 57.45136 61.30208 65.78869 69.24089 70.094 67.58411 63.96206 61.43013 60.35299 60.15386 59.5829 57.90903 56.43406 54.69437 52.92931 51.12056 49.14174 47.7787 46.99303 46.5105 46.3125 46.24934 46.26937 46.31808 46.35194 46.36944 46.40638 46.29634 46.20244 46.30425 46.488 46.72023 46.96294 47.21413 47.5678 47.96523 48.56351 48.99012 49.34874 49.78384 50.17045 50.19638 49.80039 49.11619 48.3562 48.06622 48.06014 48.05831 47.88217 47.68278 47.52683 47.57048 47.75602 48.03115 48.36094 48.60564 48.82858 48.94078 49.24035 49.78542 50.56945 51.88178 53.38558 54.03214 54.32412 54.5977 54.74708 54.42842 52.54576 50.26072 48.20225 47.0833 -9999 -9999
-9999 -9999 -9999 -9999 -9999 -9999 -9999 -9999 -9999 -9999 -9999 -9999 -9999 -9999 -9999 -9999 -9999 -9999 -9999 -9999 -9999 -9999 -9999 -9999 -9999 -9999 -9999 -9999 -9999 -9999 -9999 -9999 -9999 -9999 -9999 -9999 -9999 -9999 -9999 -9999 -9999 -9999 -9999 -9999 -9999 -9999 -9999 -9999 -9999 -9999 -9999 -9999 -9999 -9999 -9999 -9999 -9999 -9999 -9999 -9999 -9999 -9999 -9999 -9999 -9999 -9999 -9999 -9999 -9999 -9999 -9999 -9999 -9999 -9999 -9999 -9999 -9999 -9999 -9999 -9999 50.10803 48.39836 46.83015 45.82745 45.42513 45.20386 45.17416 45.16866 45.15685 45.17056 45.18784 45.15161 45.11897 45.11374 45.18828 45.14208 45.06978 45.05074 45.00177 44.95808 44.82652 44.65902 44.59459 44.6698 44.76501 47.55964 56.37806 62.39939 64.67269 64.55211 64.20892 64.88936 65.23324 64.16074 62.32678 60.24524 58.38087 56.88644 55.24225 55.03823 53.93166 53.05387 53.19725 58.68061 64.13062 67.43681 68.11588 66.51764 63.23031 61.126 60.40913 60.10738 59.07603 57.48734 55.71452 54.18417 52.53208 50.84669 48.92065 47.23634 46.49416 46.20997 46.13049 46.07666 46.04152 46.11637 46.14786 46.16025 46.13309 46.12223 46.08428 46.12097 46.18625 46.28865 46.38652 46.58825 46.79644 47.11511 47.57789 47.86298 48.07103 48.49894 49.02934 49.653 49.89613 49.50645 48.81395 47.99495 47.84575 47.65784 47.45892 47.27866 47.22114 47.2448 47.3054 47.35991 47.66127 47.87894 48.34526 48.58872 48.77534 49.05798 49.58405 50.5123 51.8313 52.46758 53.07197 53.65538 53.56166 53.18033 52.47263 50.52195 48.65648 47.40192 -9999 -9999
-9999 -9999 -9999 -9999 -9999 -9999 -9999 -9999 -9999 -9999 -9999 -9999 -9999 -9999 -9999 -9999 -9999 -9999 -9999 -9999 -9999 -9999 -9999 -9999 -9999 -9999 -9999 -9999 -9999 -9999 -9999 -9999 -9999 -9999 -9999 -9999 -9999 -9999 -9999 -9999 -9999 -9999 -9999 -9999 -9999 -9999 -9999 -9999 -9999 -9999 -9999 -9999 -9999 -9999 -9999 -9999 -9999 -9999 -9999 -9999 -9999 -9999 -9999 -9999 -9999 -9999 -9999 -9999 -9999 -9999 -9999 -9999 -9999 -9999 -9999 -9999 -9999 -9999 -9999 53.33367 51.96267 49.46155 47.14537 45.93288 45.21981 45.18117 45.17045 45.18464 45.17735 45.15017 45.17158 45.15699 45.1498 45.18539 45.19249 45.15948 45.1208 45.09552 45.07001 45.05389 44.99694 44.8404 44.66789 44.6735 44.72978 45.67539 50.30536 54.18672 57.28661 58.52423 58.99117 58.93025 59.43891 59.43811 58.36134 56.5238 54.55177 53.05592 50.79384 49.92627 48.64425 47.46311 49.53008 56.59797 61.63828 63.70005 62.97595 62.3956 60.95589 59.87389 60.45811 59.98388 58.38564 56.72334 55.05323 53.38722 51.88961 50.26431 48.5913 47.01541 46.20394 46.01601 45.97814 45.92947 45.88619 45.95019 45.97292 45.98836 46.01005 45.97778 46.00238 46.0243 46.09444 46.14772 46.15059 46.15608 46.24153 46.63789 46.87256 47.07347 47.33392 47.69698 48.17158 48.68586 49.20283 49.39286 49.10131 48.42223 47.66292 47.36225 47.44189 47.36661 47.27756 47.3128 47.34094 47.36113 47.47305 47.62767 47.86939 48.43148 48.59306 48.72741 48.93225 49.45231 50.30134 51.12108 51.9024 52.65559 52.6217 52.03264 51.43286 50.04076 48.44511 47.23356 -9999 -9999
-9999 -9999 -9999 -9999 -9999 -9999 -9999 -9999 -9999 -9999 -9999 -9999 -9999 -9999 -9999 -9999 -9999 -9999 -9999 -9999 -9999 -9999 -9999 -9999 -9999 -9999 -9999 -9999 -9999 -9999 -9999 -9999 -9999 -9999 -9999 -9999 -9999 -9999 -9999 -9999 -9999 -9999 -9999 -9999 -9999 -9999 -9999 -9999 -9999 -9999 -9999 -9999 -9999 -9999 -9999 -9999 -9999 -9999 -9999 -9999 -9999 -9999 -9999 -9999 -9999 -9999 -9999 -9999 -9999 -9999 -9999 -9999 -9999 -9999 -9999 -9999 -9999 -9999 -9999 55.49424 54.274 51.71984 48.08533 46.16284 45.18576 45.19002 45.17062 45.17939 45.18547 45.15512 45.15319 45.145 45.19765 45.2152 45.21 45.23045 45.21312 45.16706 45.13345 45.09355 45.12986 45.04006 44.83883 44.68595 44.73138 44.90341 46.38792 49.22461 53.2712 54.73338 54.94692 55.58047 55.52147 55.08066 54.12177 52.76833 50.24486 48.2432 46.86602 46.00367 45.50972 45.56867 46.65795 53.53905 55.55766 56.18125 56.02562 57.09375 57.87906 57.87919 58.76725 58.93034 57.73288 56.04045 54.37428 52.54137 51.07927 49.54536 48.18098 46.84484 46.08702 45.89217 45.8537 45.80186 45.77156 45.83456 45.8329 45.86922 45.88848 45.92999 45.90202 45.9495 45.99709 45.96706 45.95417 46.11519 46.20191 46.31252 46.5175 46.68694 46.89202 47.14542 47.4815 47.82833 48.31017 48.74088 48.96308 48.67225 47.99025 47.42222 47.36966 47.32541 47.27689 47.27744 47.26595 47.26394 47.42059 47.47261 47.67255 47.86234 48.16728 48.53942 48.74795 48.96286 49.37678 49.98811 50.62811 51.32945 51.60697 51.15909 50.57203 49.44172 48.17097 47.05664 46.30352 -9999
-9999 -9999 -9999 -9999 -9999 -9999 -9999 -9999 -9999 -9999 -9999 -9999 -9999 -9999 -9999 -9999 -9999 -9999 -9999 -9999 -9999 -9999 -9999 -9999 -9999 -9999 -9999 -9999 -9999 -9999 -9999 -9999 -9999 -9999 -9999 -9999 -9999 -9999 -9999 -9999 -9999 -9999 -9999 -9999 -9999 -9999 -9999 -9999 -9999 -9999 -9999 -9999 -9999 -9999 -9999 -9999 -9999 -9999 -9999 -9999 -9999 -9999 -9999 -9999 -9999 -9999 -9999 -9999 -9999 -9999 -9999 -9999 -9999 -9999 -9999 -9999 -9999 -9999 -9999 56.16003 55.01817 53.37481 49.69949 46.43798 45.22734 45.22264 45.1671 45.20017 45.17697 45.17583 45.1669 45.17819 45.28769 45.30578 45.35475 45.33698 45.21242 45.23781 45.22691 45.14344 45.19466 45.14419 45.00205 44.78417 44.68301 44.83905 45.08975 47.84861 50.89655 52.34172 52.72076 53.0312 52.33474 51.16613 50.09611 48.95187 46.8428 45.57101 45.3072 45.24137 45.26269 45.28383 45.3727 45.97517 46.73594 48.09128 51.64389 53.89845 54.11411 54.82895 55.63458 56.38711 56.23111 55.119 53.53698 51.95037 50.25989 48.93683 47.76366 46.65033 45.96278 45.80825 45.76358 45.69751 45.6762 45.73383 45.71784 45.777 45.83111 45.82366 45.86444 45.85897 45.81731 45.93664 45.91778 45.97575 46.08925 46.17841 46.30753 46.52169 46.77175 46.93358 47.15099 47.37789 47.61336 47.89235 48.20961 48.27081 48.09884 47.7025 47.54839 47.54573 47.42767 47.47114 47.45108 47.47195 47.51194 47.55789 47.63083 47.78249 47.79183 48.23727 48.65253 48.87292 49.02208 49.23503 49.5993 50.09727 50.49561 50.35938 49.95089 49.13272 48.03053 47.06363 46.52114 -9999
-9999 -9999 -9999 -9999 -9999 -9999 -9999 -9999 -9999 -9999 -9999 -9999 -9999 -9999 -9999 -9999 -9999 -9999 -9999 -9999 -9999 -9999 -9999 -9999 -9999 -9999 -9999 -9999 -9999 -9999 -9999 -9999 -9999 -9999 -9999 -9999 -9999 -9999 -9999 -9999 -9999 -9999 -9999 -9999 -9999 -9999 -9999 -9999 -9999 -9999 -9999 -9999 -9999 -9999 -9999 -9999 -9999 -9999 -9999 -9999 -9999 -9999 -9999 -9999 -9999 -9999 -9999 -9999 -9999 -9999 -9999 -9999 -9999 -9999 -9999 -9999 -9999 -9999 58.43747 56.28386 54.61917 53.15042 50.73005 47.21651 45.36049 45.23147 45.18595 45.2117 45.17941 45.20494 45.19081 45.216 45.32811 45.36684 45.39255 45.38911 45.34402 45.3189 45.20239 45.17574 45.18966 45.18005 45.12492 44.94156 44.76466 44.78303 44.85681 45.39611 47.93872 50.04592 50.94347 50.24658 49.1447 48.17414 46.8263 45.94697 45.31113 45.23162 45.23825 45.24436 45.2477 45.32045 45.36026 45.28644 45.30583 45.50866 48.62917 51.33578 50.42403 51.04872 52.34831 53.48763 53.85524 53.42492 52.39692 51.05083 49.75277 48.34274 47.3735 46.4132 45.83056 45.69135 45.67011 45.58653 45.58138 45.61259 45.64778 45.69192 45.72028 45.75091 45.7455 45.79642 45.90016 45.88419 45.90584 45.92817 46.0428 46.15895 46.22822 46.33191 46.6937 46.89694 47.14852 47.41581 47.70269 47.99783 48.24155 48.55923 48.71566 48.55027 48.27792 47.88095 47.6397 47.63652 47.67233 47.70555 47.64701 47.69603 47.64908 47.64833 47.93766 48.16781 48.37286 48.77286 48.97966 49.02525 49.12334 49.3608 49.58776 49.69678 49.49166 48.85728 47.90445 47.13833 46.78675 -9999
-9999 -9999 -9999 -9999 -9999 -9999 -9999 -9999 -9999 -9999 -9999 -9999 -9999 -9999 -9999 -9999 -9999 -9999 -9999 -9999 -9999 -9999 -9999 -9999 -9999 -9999 -9999 -9999 -9999 -9999 -9999 -9999 -9999 -9999 -9999 -9999 -9999 -9999 -9999 -9999 -9999 -9999 -9999 -9999 -9999 -9999 -9999 -9999 -9999 -9999 -9999 -9999 -9999 -9999 -9999 -9999 -9999 -9999 -9999 -9999 -9999 -9999 -9999 -9999 -9999 -9999 -9999 -9999 -9999 -9999 -9999 -9999 -9999 -9999 -9999 -9999 -9999 -9999 59.69155 56.61856 54.80153 53.40136 51.11366 47.84034 45.60199 45.23139 45.20891 45.20034 45.17211 45.20059 45.28545 45.26715 45.32312 45.32362 45.37088 45.3604 45.38351 45.31011 45.28341 45.21902 45.1792 45.21399 45.16901 45.10811 45.01333 44.94162 44.86975 44.85639 45.19658 46.58233 47.67578 47.11056 46.41189 45.93259 45.23295 45.126 45.17387 45.16127 45.15906 45.17287 45.16753 45.22406 45.25492 45.26437 45.28567 45.33691 45.38609 46.33881 46.69178 48.10806 49.49199 50.35294 50.65836 50.90401 50.77636 50.11972 49.18391 48.02706 46.92642 46.05072 45.72391 45.54802 45.53297 45.52362 45.47684 45.52013 45.57224 45.65666 45.62127 45.66778 45.8442 45.8632 45.89789 45.98273 46.01036 46.09544 46.16978 46.22033 46.38506 46.52519 46.72653 46.95424 47.19831 47.42822 47.68798 47.92903 48.16002 48.40231 48.54097 48.53955 48.45459 48.26191 48.07325 48.04636 48.11184 48.11488 48.15219 48.13608 48.07888 48.3119 49.06644 49.55867 49.26414 48.99364 49.01413 49.09855 49.19345 49.21774 49.28314 49.3189 49.23141 48.73912 47.98611 47.40961 47.12242 -9999
-9999 -9999 -9999 -9999 -9999 -9999 -9999 -9999 -9999 -9999 -9999 -9999 -9999 -9999 -9999 -9999 -9999 -9999 -9999 -9999 -9999 -9999 -9999 -9999 -9999 -9999 -9999 -9999 -9999 -9999 -9999 -9999 -9999 -9999 -9999 -9999 -9999 -9999 -9999 -9999 -9999 -9999 -9999 -9999 -9999 -9999 -9999 -9999 -9999 -9999 -9999 -9999 -9999 -9999 -9999 -9999 -9999 -9999 -9999 -9999 -9999 -9999 -9999 -9999 -9999 -9999 -9999 -9999 -9999 -9999 -9999 -9999 -9999 -9999 -9999 -9999 -9999 -9999 -9999 56.271 54.37405 52.98906 50.72108 47.80223 45.73369 45.24006 45.20969 45.20156 45.17403 45.2145 45.23614 45.26423 45.34694 45.40333 45.33264 45.35492 45.3953 45.31026 45.28819 45.25758 45.20777 45.18675 45.1858 45.17413 45.13113 45.062 45.01352 44.93887 44.92091 44.95267 45.11023 45.19025 45.06683 45.05661 45.04869 45.05411 45.11428 45.12897 45.12295 45.15314 45.17216 45.19684 45.21305 45.24076 45.24755 45.28262 45.32683 45.36828 45.43225 45.63787 47.07866 47.87319 48.03752 48.35283 48.78067 48.81374 48.43314 47.68178 46.77259 45.8807 45.58566 45.46291 45.44056 45.41626 45.40792 45.44805 45.47392 45.51427 45.67375 45.81758 45.85891 45.9722 46.00308 46.06695 46.20444 46.26708 46.34447 46.49909 46.78194 47.00798 47.15444 47.30209 47.39731 47.67048 48.0588 48.22123 48.33574 48.47111 48.53853 48.56184 48.64805 48.63987 48.60627 48.60019 48.70895 48.86497 49.12062 49.21366 49.54078 51.28561 56.09111 55.43259 52.44487 50.37367 49.55317 49.32469 49.31913 49.41295 49.42361 49.40055 49.3415 48.94448 48.33905 47.8762 47.61031 -9999
-9999 -9999 -9999 -9999 -9999 -9999 -9999 -9999 -9999 -9999 -9999 -9999 -9999 -9999 -9999 -9999 -9999 -9999 -9999 -9999 -9999 -9999 -9999 -9999 -9999 -9999 -9999 -9999 -9999 -9999 -9999 -9999 -9999 -9999 -9999 -9999 -9999 -9999 -9999 -9999 -9999 -9999 -9999 -9999 -9999 -9999 -9999 -9999 -9999 -9999 -9999 -9999 -9999 -9999 -9999 -9999 -9999 -9999 -9999 -9999 -9999 -9999 -9999 -9999 -9999 -9999 -9999 -9999 -9999 -9999 -9999 -9999 -9999 -9999 -9999 -9999 -9999 -9999 -9999 55.70734 53.53139 51.88617 49.73822 47.27167 45.5836 45.31644 45.22388 45.20695 45.20461 45.21088 45.21358 45.24852 45.34897 45.37051 45.37692 45.38781 45.37258 45.32077 45.28183 45.25856 45.23306 45.19609 45.19176 45.20781 45.18278 45.16151 45.09027 45.06119 44.99358 44.96691 45.0052 44.97359 45.01748 44.99852 45.03172 45.0455 45.10344 45.11687 45.12094 45.15489 45.15294 45.18784 45.18666 45.20927 45.23248 45.24044 45.24677 45.27742 45.34614 45.24669 45.40413 46.20026 46.35042 46.41644 46.86687 47.39241 47.39761 47.03881 46.47984 45.98194 45.51967 45.39655 45.31263 45.29445 45.41092 45.4307 45.47401 45.56876 45.75042 45.90525 46.02161 46.02508 46.166 46.23081 46.31914 46.46048 46.67823 47.00889 47.43645 47.82412 48.01311 48.06026 48.14178 48.27706 48.70595 48.9035 48.92455 49.15495 49.00614 48.88233 48.85089 48.93974 49.01331 49.15955 49.15392 49.7513 50.61556 51.28469 53.50462 58.48644 64.57043 65.99514 60.70808 54.60756 51.67164 50.50489 50.04084 49.90628 49.82469 49.75539 49.68825 49.48416 49.11339 48.69075 48.36128 48.12941
-9999 -9999 -9999 -9999 -9999 -9999 -9999 -9999 -9999 -9999 -9999 -9999 -9999 -9999 -9999 -9999 -9999 -9999 -9999 -9999 -9999 -9999 -9999 -9999 -9999 -9999 -9999 -9999 -9999 -9999 -9999 -9999 -9999 -9999 -9999 -9999 -9999 -9999 -9999 -9999 -9999 -9999 -9999 -9999 -9999 -9999 -9999 -9999 -9999 -9999 -9999 -9999 -9999 -9999 -9999 -9999 -9999 -9999 -9999 -9999 -9999 -9999 -9999 -9999 -9999 -9999 -9999 -9999 -9999 -9999 -9999 -9999 -9999 -9999 -9999 -9999 -9999 -9999 -9999 54.63866 52.70894 50.718 48.47336 46.43486 45.35249 45.29723 45.23722 45.23236 45.23297 45.22559 45.20941 45.25864 45.29194 45.35092 45.4018 45.4188 45.37548 45.32686 45.28637 45.2742 45.2693 45.28555 45.23208 45.25067 45.2217 45.17539 45.14476 45.17384 45.12369 45.04645 45.02309 45.01036 45.05117 45.01547 45.04152 45.05961 45.08902 45.10428 45.11581 45.13412 45.14212 45.16399 45.1677 45.1945 45.19484 45.19131 45.17709 45.17445 45.21409 45.20659 45.17772 45.1842 45.20808 45.23492 45.3643 45.81684 46.16445 46.16961 46.08403 45.831 45.75995 45.33547 45.26222 45.32851 45.36469 45.43927 45.49541 45.65662 45.85822 46.05687 46.17306 46.26949 46.34558 46.47726 46.6002 46.89414 47.32433 47.78581 48.23747 48.82344 49.26308 49.29602 49.26617 49.22631 49.83727 50.10644 50.04519 50.80642 50.48349 49.85181 49.8172 49.86687 50.2775 50.65697 51.01852 51.99239 53.88612 56.37198 59.80828 64.80144 69.53636 72.32795 71.29713 62.79753 55.20448 52.86086 51.8007 51.26477 50.67 50.45863 50.32695 50.14402 49.85467 49.4996 49.18647 -9999
-9999 -9999 -9999 -9999 -9999 -9999 -9999 -9999 -9999 -9999 -9999 -9999 -9999 -9999 -9999 -9999 -9999 -9999 -9999 -9999 -9999 -9999 -9999 -9999 -9999 -9999 -9999 -9999 -9999 -9999 -9999 -9999 -9999 -9999 -9999 -9999 -9999 -9999 -9999 -9999 -9999 -9999 -9999 -9999 -9999 -9999 -9999 -9999 -9999 -9999 -9999 -9999 -9999 -9999 -9999 -9999 -9999 -9999 -9999 -9999 -9999 -9999 -9999 -9999 -9999 -9999 -9999 -9999 -9999 -9999 -9999 -9999 -9999 -9999 -9999 -9999 -9999 -9999 -9999 53.80205 52.21235 49.98834 47.42712 45.71883 45.27264 45.28584 45.21906 45.26458 45.2625 45.25998 45.24353 45.26191 45.26966 45.27689 45.35375 45.36036 45.34403 45.32831 45.29958 45.28095 45.268 45.29658 45.30178 45.23366 45.19513 45.18969 45.15477 45.20433 45.16636 45.18972 45.14816 45.09608 45.09335 45.12039 45.0873 45.07333 45.10106 45.08886 45.12053 45.14645 45.14381 45.14028 45.14797 45.15708 45.16558 45.15409 45.13123 45.14265 45.15458 45.16277 45.16708 45.16617 45.16378 45.16333 45.16637 45.21037 45.24964 45.38983 45.51131 45.5167 45.53923 45.69078 45.35785 45.36256 45.31825 45.50558 45.61488 45.73573 45.9787 46.31294 46.61239 46.80016 46.96273 47.04666 47.32278 47.68391 48.152 48.7863 49.3742 49.95969 50.66373 50.98245 50.9507 50.67745 51.01712 51.60884 51.78505 51.81155 51.59181 51.85414 52.20061 52.43837 53.02397 54.32003 55.66611 56.68075 59.62694 62.67178 66.40841 71.02303 73.50246 76.53875 77.83379 72.94709 60.486 56.452 54.3542 53.17675 52.39475 51.73794 51.18489 50.8884 50.60548 50.19267 -9999 -9999
-9999 -9999 -9999 -9999 -9999 -9999 -9999 -9999 -9999 -9999 -9999 -9999 -9999 -9999 -9999 -9999 -9999 -9999 -9999 -9999 -9999 -9999 -9999 -9999 -9999 -9999 -9999 -9999 -9999 -9999 -9999 -9999 -9999 -9999 -9999 -9999 -9999 -9999 -9999 -9999 -9999 -9999 -9999 -9999 -9999 -9999 -9999 -9999 -9999 -9999 -9999 -9999 -9999 -9999 -9999 -9999 -9999 -9999 -9999 -9999 -9999 -9999 -9999 -9999 -9999 -9999 -9999 -9999 -9999 -9999 -9999 -9999 -9999 -9999 -9999 -9999 -9999 -9999 54.3908 53.37098 51.71134 49.44745 46.87694 45.45444 45.26987 45.34892 45.24734 45.24455 45.2638 45.27422 45.26566 45.26711 45.26102 45.30074 45.30595 45.35559 45.3595 45.36442 45.33139 45.31305 45.29572 45.29058 45.30894 45.30285 45.24014 45.16169 45.1593 45.19205 45.16275 45.18766 45.19961 45.2338 45.2045 45.22303 45.1557 45.17059 45.1252 45.11077 45.12283 45.12165 45.1251 45.12534 45.13702 45.14724 45.13761 45.14161 45.15366 45.14294 45.14499 45.17331 45.15813 45.18644 45.2058 45.19727 45.26395 45.23681 45.21781 45.23891 45.27645 45.3056 45.34464 45.53255 45.66411 45.40347 45.61702 45.69547 45.85142 46.00031 46.31394 46.79853 47.26405 47.6107 47.99062 48.15023 48.31442 48.78255 49.31633 49.9462 50.60192 51.24533 52.05903 52.71089 52.95477 52.86036 52.85413 52.7148 53.17214 53.0242 53.41475 54.04388 55.33619 56.23428 58.45644 62.08481 64.94646 66.90063 67.97932 68.60139 73.07601 76.49841 78.28146 80.57565 81.82825 77.60873 66.77919 60.63614 57.83716 56.01926 55.02042 53.8575 52.82766 51.93725 -9999 -9999 -9999 -9999
-9999 -9999 -9999 -9999 -9999 -9999 -9999 -9999 -9999 -9999 -9999 -9999 -9999 -9999 -9999 -9999 -9999 -9999 -9999 -9999 -9999 -9999 -9999 -9999 -9999 -9999 -9999 -9999 -9999 -9999 -9999 -9999 -9999 -9999 -9999 -9999 -9999 -9999 -9999 -9999 -9999 -9999 -9999 -9999 -9999 -9999 -9999 -9999 -9999 -9999 -9999 -9999 -9999 -9999 -9999 -9999 -9999 -9999 -9999 -9999 -9999 -9999 -9999 -9999 -9999 -9999 -9999 -9999 -9999 -9999 -9999 -9999 -9999 -9999 -9999 -9999 -9999 -9999 55.0955 53.37209 51.11761 48.70069 46.56086 45.37001 45.26777 45.31328 45.27187 45.25931 45.27423 45.28434 45.274 45.27516 45.30542 45.36078 45.38594 45.40367 45.39522 45.38791 45.36408 45.37742 45.35044 45.27397 45.32314 45.37064 45.32998 45.19753 45.16289 45.19241 45.18486 45.23653 45.25586 45.25992 45.22075 45.19364 45.20286 45.22784 45.21914 45.17305 45.15081 45.15744 45.17792 45.14476 45.13863 45.13734 45.14697 45.13803 45.15256 45.14409 45.13875 45.15273 45.16108 45.16241 45.22163 45.2372 45.21941 45.22244 45.24808 45.27033 45.24692 45.24308 45.38136 45.60938 45.81431 45.94058 46.46389 46.07687 46.26353 46.63351 47.00459 47.56069 48.02056 48.44191 48.91014 49.34523 49.623 50.08348 50.69903 51.35522 51.94041 52.5402 53.36111 54.33322 55.02117 55.49806 56.05433 55.14919 55.95767 58.82014 62.56734 63.64245 62.13155 63.43097 67.44746 69.64367 72.31172 74.17489 75.62834 76.01991 78.98061 81.54883 82.89751 83.82714 83.12353 78.16852 70.01187 64.4065 61.89611 59.60173 58.32581 56.76895 54.9387 -9999 -9999 -9999 -9999 -9999
-9999 -9999 -9999 -9999 -9999 -9999 -9999 -9999 -9999 -9999 -9999 -9999 -9999 -9999 -9999 -9999 -9999 -9999 -9999 -9999 -9999 -9999 -9999 -9999 -9999 -9999 -9999 -9999 -9999 -9999 -9999 -9999 -9999 -9999 -9999 -9999 -9999 -9999 -9999 -9999 -9999 -9999 -9999 -9999 -9999 -9999 -9999 -9999 -9999 -9999 -9999 -9999 -9999 -9999 -9999 -9999 -9999 -9999 -9999 -9999 -9999 -9999 -9999 -9999 -9999 -9999 -9999 -9999 -9999 -9999 -9999 -9999 -9999 -9999 -9999 -9999 -9999 -9999 55.74977 53.70616 50.61453 48.10853 46.19234 45.3477 45.30441 45.27512 45.30153 45.27947 45.26805 45.29206 45.2827 45.29422 45.34201 45.47136 45.5472 45.50656 45.42592 45.40327 45.38869 45.39727 45.37683 45.34505 45.29347 45.36626 45.3763 45.27619 45.20155 45.20708 45.19091 45.2422 45.30561 45.27036 45.24814 45.24186 45.23737 45.24336 45.25453 45.22615 45.20717 45.17147 45.18344 45.1795 45.19456 45.19111 45.20619 45.17845 45.17672 45.19128 45.18858 45.19402 45.23403 45.23097 45.29953 45.24431 45.2151 45.2245 45.23933 45.25348 45.2773 45.28777 45.54963 45.97058 46.34358 46.58506 46.55701 46.84981 47.2593 47.69761 48.0867 48.5143 48.9818 49.37405 49.84772 50.36247 50.84184 51.30088 51.99814 52.76913 53.24933 53.8332 54.58239 55.84517 57.22808 58.79716 60.85073 64.5341 67.81171 68.08028 69.49661 71.48241 72.52308 73.62151 76.05713 77.98394 78.48722 81.14808 82.88722 82.14468 83.02377 85.60948 85.92836 84.97598 82.64669 76.48804 70.27873 66.48036 64.40376 62.57547 61.76522 59.97633 -9999 -9999 -9999 -9999 -9999 -9999
-9999 -9999 -9999 -9999 -9999 -9999 -9999 -9999 -9999 -9999 -9999 -9999 -9999 -9999 -9999 -9999 -9999 -9999 -9999 -9999 -9999 -9999 -9999 -9999 -9999 -9999 -9999 -9999 -9999 -9999 -9999 -9999 -9999 -9999 -9999 -9999 -9999 -9999 -9999 -9999 -9999 -9999 -9999 -9999 -9999 -9999 -9999 -9999 -9999 -9999 -9999 -9999 -9999 -9999 -9999 -9999 -9999 -9999 -9999 -9999 -9999 -9999 -9999 -9999 -9999 -9999 -9999 -9999 -9999 -9999 -9999 -9999 -9999 -9999 -9999 -9999 53.85466 54.18227 54.80392 52.91805 49.84141 47.61623 46.18894 45.39656 45.31694 45.30625 45.28056 45.34348 45.31109 45.31287 45.32108 45.34335 45.33173 45.45837 45.55798 45.56501 45.46255 45.39969 45.3872 45.40109 45.40817 45.37539 45.35633 45.33852 45.35067 45.32642 45.22484 45.2153 45.20808 45.22823 45.26111 45.2563 45.26278 45.27664 45.28319 45.33278 45.31298 45.29898 45.25219 45.25626 45.21744 45.22163 45.21952 45.22045 45.22623 45.40316 45.64487 45.29608 45.30487 45.28698 45.29708 45.30098 45.3267 45.32083 45.3217 45.28678 45.34195 45.35816 45.31169 45.40817 45.8342 46.37681 46.8972 47.41544 47.76747 47.97466 48.55364 49.13217 49.47405 49.85647 50.17076 50.46548 50.83508 51.38337 51.94941 52.5015 53.12945 53.99039 54.69041 55.22847 56.04823 57.17983 59.55117 61.64542 64.7862 71.65537 76.1292 76.80959 75.43755 77.49937 79.21564 79.92425 82.28119 85.53886 85.32291 85.84244 86.37494 85.87956 85.88053 86.63792 86.31572 83.97427 79.20023 74.75564 72.10088 68.91116 66.38563 63.81289 -9999 -9999 -9999 -9999 -9999 -9999 -9999 -9999
-9999 -9999 -9999 -9999 -9999 -9999 -9999 -9999 -9999 -9999 -9999 -9999 -9999 -9999 -9999 -9999 -9999 -9999 -9999 -9999 -9999 -9999 -9999 -9999 -9999 -9999 -9999 -9999 -9999 -9999 -9999 -9999 -9999 -9999 -9999 -9999 -9999 -9999 -9999 -9999 -9999 -9999 -9999 -9999 -9999 -9999 -9999 -9999 -9999 -9999 -9999 -9999 -9999 -9999 -9999 -9999 -9999 -9999 -9999 -9999 -9999 -9999 -9999 -9999 -9999 -9999 -9999 -9999 -9999 -9999 -9999 -9999 -9999 -9999 -9999 54.04763 53.78808 53.5905 53.47147 52.35223 49.63892 47.69261 46.62161 45.85162 45.49395 45.34813 45.32834 45.39056 45.36916 45.3428 45.40431 45.37042 45.3692 45.3948 45.47184 45.42012 45.43856 45.43378 45.44386 45.41511 45.43925 45.40414 45.39584 45.37659 45.36924 45.36655 45.33692 45.22669 45.22963 45.24859 45.25522 45.26023 45.25883 45.25558 45.26694 45.28247 45.31356 45.31112 45.31998 45.27381 45.24405 45.24635 45.26085 45.26444 45.25158 47.07305 47.24711 45.39217 45.36473 45.33039 45.34423 45.34655 45.3452 45.36637 45.36283 45.35886 45.41444 45.41747 45.37234 45.62572 46.26659 46.90577 47.48613 48.07472 48.7013 49.32836 49.88608 50.49258 50.84058 51.14798 51.52898 51.64816 51.96395 52.49334 53.1193 53.71528 54.29145 55.05386 56.14265 57.24355 58.29795 59.64295 61.47669 63.97747 67.44514 71.91785 79.48533 81.94183 81.75787 82.39161 82.97917 83.62791 85.42119 88.3467 89.00127 89.4996 89.16476 88.31168 87.46556 86.59267 85.01072 81.16937 78.01456 78.1005 77.31025 72.56117 67.75356 -9999 -9999 -9999 -9999 -9999 -9999 -9999 -9999 -9999
-9999 -9999 -9999 -9999 -9999 -9999 -9999 -9999 -9999 -9999 -9999 -9999 -9999 -9999 -9999 -9999 -9999 -9999 -9999 -9999 -9999 -9999 -9999 -9999 -9999 -9999 -9999 -9999 -9999 -9999 -9999 -9999 -9999 -9999 -9999 -9999 -9999 -9999 -9999 -9999 -9999 -9999 -9999 -9999 -9999 -9999 -9999 -9999 -9999 -9999 -9999 -9999 -9999 -9999 -9999 -9999 -9999 -9999 -9999 -9999 -9999 -9999 -9999 -9999 -9999 -9999 -9999 -9999 -9999 -9999 -9999 -9999 -9999 -9999 -9999 54.21202 53.89853 53.5032 53.04908 51.95067 49.91908 48.125 47.17012 46.60299 46.41991 46.33408 46.43425 46.65128 46.24275 45.93269 45.75242 45.55376 45.46325 45.45936 45.47877 45.49577 45.48898 45.44453 45.41061 45.44414 45.51309 45.44858 45.43048 45.39733 45.38123 45.43134 45.35708 45.30186 45.2844 45.2383 45.25097 45.26806 45.25611 45.26314 45.25925 45.29058 45.31963 45.33106 45.35555 45.30519 45.27374 45.26728 45.25144 45.26181 45.52991 47.95227 48.33484 45.6111 45.36767 45.35634 45.37092 45.37683 45.37419 45.39891 45.38955 45.39495 45.44103 45.42098 45.41766 46.08022 47.00639 47.66905 48.31889 48.94983 49.70837 50.67064 51.40117 51.70148 52.03016 52.39972 52.64291 52.88577 53.15895 53.66158 54.26206 54.80369 55.38102 56.11645 57.17402 58.80178 60.88026 62.76339 64.86006 67.30579 70.79366 74.48663 79.53344 83.96866 85.55527 86.55482 86.80341 87.16753 88.28775 90.10332 91.39014 91.91949 91.07915 89.04501 87.32098 85.58934 82.26031 78.34 76.42191 76.96712 78.17378 72.36447 -9999 -9999 -9999 -9999 -9999 -9999 -9999 -9999 -9999 -9999
-9999 -9999 -9999 -9999 -9999 -9999 -9999 -9999 -9999 -9999 -9999 -9999 -9999 -9999 -9999 -9999 -9999 -9999 -9999 -9999 -9999 -9999 -9999 -9999 -9999 -9999 -9999 -9999 -9999 -9999 -9999 -9999 -9999 -9999 -9999 -9999 -9999 -9999 -9999 -9999 -9999 -9999 -9999 -9999 -9999 -9999 -9999 -9999 -9999 -9999 -9999 -9999 -9999 -9999 -9999 -9999 -9999 -9999 -9999 -9999 -9999 -9999 -9999 -9999 -9999 -9999 -9999 -9999 -9999 -9999 -9999 -9999 -9999 -9999 -9999 54.65819 54.32442 54.05022 53.48772 52.25733 50.43998 48.77402 47.95216 47.61692 47.80695 48.44556 48.94447 49.02931 48.47509 47.94223 47.40237 46.97236 46.76039 45.78517 45.49788 45.52951 45.50389 45.45123 45.43656 45.47019 45.44873 45.48756 45.5058 45.4145 45.41955 45.39775 45.3518 45.35439 45.35755 45.30667 45.25883 45.26674 45.26994 45.2653 45.28835 45.3022 45.28853 45.30727 45.32333 45.31398 45.28164 45.29092 45.2598 45.27723 46.45339 48.66978 47.91609 45.58295 45.40719 45.38842 45.40099 45.40602 45.43516 45.43194 45.43372 45.43656 45.45535 45.47806 45.63502 46.6738 47.73825 48.60508 49.25733 49.99889 50.75017 51.60262 52.23505 52.91117 53.14644 53.43531 53.6208 53.96939 54.33685 54.72389 55.22076 55.82238 56.48361 57.29916 58.40275 60.19876 62.93719 65.16663 68.05714 71.48389 73.49694 77.21334 81.2045 85.10545 87.53644 88.21619 88.68124 89.31344 90.11456 -9999 -9999 -9999 -9999 -9999 -9999 -9999 -9999 -9999 -9999 -9999 -9999 -9999 -9999 -9999 -9999 -9999 -9999 -9999 -9999 -9999 -9999 -9999
-9999 -9999 -9999 -9999 -9999 -9999 -9999 -9999 -9999 -9999 -9999 -9999 -9999 -9999 -9999 -9999 -9999 -9999 -9999 -9999 -9999 -9999 -9999 -9999 -9999 -9999 -9999 -9999 -9999 -9999 -9999 -9999 -9999 -9999 -9999 -9999 -9999 -9999 -9999 -9999 -9999 -9999 -9999 -9999 -9999 -9999 -9999 -9999 -9999 -9999 -9999 -9999 -9999 -9999 -9999 -9999 -9999 -9999 -9999 -9999 -9999 -9999 -9999 -9999 -9999 -9999 -9999 -9999 -9999 -9999 -9999 -9999 -9999 -9999 -9999 56.65363 55.67925 55.24076 54.75194 53.08317 51.20844 49.71888 49.03838 48.75611 49.40076 50.546 51.22626 51.09837 50.64617 50.10794 49.32906 48.59106 48.08712 46.46708 45.53058 45.54348 45.60617 45.52934 45.49992 45.491 45.44912 45.4933 45.50011 45.4795 45.52227 45.41839 45.34447 45.31636 45.35437 45.37125 45.3607 45.29167 45.28716 45.29133 45.31 45.30136 45.29998 45.31403 45.31289 45.32366 45.32153 45.29478 45.29689 45.54331 47.711 49.02983 47.19088 45.5975 45.53788 45.50803 45.49695 45.46069 45.45872 45.46631 45.48131 45.479 45.53461 45.74551 46.16965 47.30969 48.44005 49.3825 50.26337 51.10506 51.90489 52.55344 53.14772 53.72256 54.12367 54.16583 54.44256 54.87613 55.28975 55.63383 56.15236 56.83789 57.58097 58.52377 60.01698 62.00517 64.31715 66.74672 70.42359 74.56067 79.24292 81.15478 83.70924 86.55892 87.94521 88.23923 -9999 -9999 -9999 -9999 -9999 -9999 -9999 -9999 -9999 -9999 -9999 -9999 -9999 -9999 -9999 -9999 -9999 -9999 -9999 -9999 -9999 -9999 -9999 -9999 -9999 -9999
-9999 -9999 -9999 -9999 -9999 -9999 -9999 -9999 -9999 -9999 -9999 -9999 -9999 -9999 -9999 -9999 -9999 -9999 -9999 -9999 -9999 -9999 -9999 -9999 -9999 -9999 -9999 -9999 -9999 -9999 -9999 -9999 -9999 -9999 -9999 -9999 -9999 -9999 -9999 -9999 -9999 -9999 -9999 -9999 -9999 -9999 -9999 -9999 -9999 -9999 -9999 -9999 -9999 -9999 -9999 -9999 -9999 -9999 -9999 -9999 -9999 -9999 -9999 -9999 -9999 -9999 -9999 -9999 -9999 -9999 -9999 -9999 -9999 -9999 -9999 60.67085 58.6203 56.86775 55.9063 54.16563 52.19525 50.84345 50.33058 50.62138 51.69765 52.81404 53.19858 52.75216 52.30941 51.72972 51.02916 50.11128 48.43706 46.00625 45.60983 45.58075 45.63381 45.53972 45.49397 45.48469 45.45733 45.45997 45.4673 45.50847 45.51108 45.46261 45.45281 45.37363 45.32883 45.37591 45.40261 45.38198 45.28651 45.29256 45.32014 45.34056 45.37667 45.37938 45.34328 45.33066 45.35384 45.44933 45.72987 46.94567 49.08913 49.88642 48.14651 46.50034 45.99406 45.74119 45.7207 45.62259 45.60236 45.57838 45.51345 45.61367 45.91456 46.18856 46.61465 47.71203 49.03624 50.16269 51.14089 52.15483 53.0088 53.58133 54.01712 54.44765 54.81686 55.21119 55.3682 55.78747 56.23341 56.56589 57.06247 57.86409 58.67403 59.75924 61.37111 63.55375 65.79188 68.18919 72.30773 77.7093 82.80598 85.08311 86.19376 87.58911 87.45247 87.59206 -9999 -9999 -9999 -9999 -9999 -9999 -9999 -9999 -9999 -9999 -9999 -9999 -9999 -9999 -9999 -9999 -9999 -9999 -9999 -9999 -9999 -9999 -9999 -9999 -9999 -9999
-9999 -9999 -9999 -9999 -9999 -9999 -9999 -9999 -9999 -9999 -9999 -9999 -9999 -9999 -9999 -9999 -9999 -9999 -9999 -9999 -9999 -9999 -9999 -9999 -9999 -9999 -9999 -9999 -9999 -9999 -9999 -9999 -9999 -9999 -9999 -9999 -9999 -9999 -9999 -9999 -9999 -9999 -9999 -9999 -9999 -9999 -9999 -9999 -9999 -9999 -9999 -9999 -9999 -9999 -9999 -9999 -9999 -9999 -9999 -9999 -9999 -9999 -9999 -9999 -9999 -9999 -9999 -9999 -9999 -9999 -9999 -9999 -9999 -9999 -9999 65.25861 63.04251 59.5074 56.9458 55.36535 53.56323 51.96786 52.114 53.49625 55.10011 55.664 55.31042 54.76991 54.08088 52.89552 52.05664 50.97689 48.24553 45.7494 45.59159 45.51919 45.51408 45.49653 45.48358 45.47609 45.47609 45.47408 45.46844 45.53039 45.51798 45.51869 45.53992 45.47327 45.40339 45.34208 45.34653 45.33625 45.29991 45.30153 45.323 45.39616 45.4305 45.41978 45.36389 45.66353 46.72186 47.84248 48.5392 49.81934 51.76884 52.16969 50.38561 48.67764 48.15297 46.8597 46.87417 46.0308 45.70703 45.70528 45.80499 46.12494 46.55935 46.82445 47.17299 48.10926 49.52264 50.9603 51.99958 52.93187 53.73627 54.43274 54.90342 55.34528 55.6623 56.33736 56.60345 56.84308 57.35794 57.57549 58.03953 58.90441 59.85358 61.23358 62.66491 64.77525 67.31272 69.66621 74.21275 81.66357 85.22969 87.24536 88.29644 87.79622 86.73706 -9999 -9999 -9999 -9999 -9999 -9999 -9999 -9999 -9999 -9999 -9999 -9999 -9999 -9999 -9999 -9999 -9999 -9999 -9999 -9999 -9999 -9999 -9999 -9999 -9999 -9999 -9999
-9999 -9999 -9999 -9999 -9999 -9999 -9999 -9999 -9999 -9999 -9999 -9999 -9999 -9999 -9999 -9999 -9999 -9999 -9999 -9999 -9999 -9999 -9999 -9999 -9999 -9999 -9999 -9999 -9999 -9999 -9999 -9999 -9999 -9999 -9999 -9999 -9999 -9999 -9999 -9999 -9999 -9999 -9999 -9999 -9999 -9999 -9999 -9999 -9999 -9999 -9999 -9999 -9999 -9999 -9999 -9999 -9999 -9999 -9999 -9999 -9999 -9999 -9999 -9999 -9999 -9999 -9999 -9999 -9999 -9999 -9999 -9999 -9999 -9999 -9999 66.9627 63.65145 61.25914 58.41491 55.89906 54.56983 53.24664 54.51361 57.62872 58.60939 57.83114 56.91556 56.0907 55.63706 54.34186 52.87186 51.08781 48.28128 45.84219 45.59362 45.57569 45.5262 45.5069 45.48945 45.50689 45.49088 45.48836 45.46853 45.53636 45.55784 45.59592 45.60431 45.58373 45.47856 45.42355 45.39153 45.36863 45.33417 45.33325 45.33633 45.4327 45.49694 45.40699 45.8425 48.22522 50.63217 52.05647 52.41312 53.50106 55.20186 55.71781 53.84606 52.86592 53.66809 52.7525 50.92799 50.27784 47.69024 47.07833 46.7393 46.88535 47.25911 47.47953 47.91903 48.70338 50.04953 51.44567 52.77147 53.67561 54.41511 55.22166 55.82827 56.26825 57.03034 57.94627 58.6047 58.62055 58.68231 58.96642 59.23339 60.11036 61.41586 62.67653 63.95485 66.18337 68.86473 72.13581 76.92587 82.08331 86.38017 88.80406 88.87289 87.26236 -9999 -9999 -9999 -9999 -9999 -9999 -9999 -9999 -9999 -9999 -9999 -9999 -9999 -9999 -9999 -9999 -9999 -9999 -9999 -9999 -9999 -9999 -9999 -9999 -9999 -9999 -9999 -9999
-9999 -9999 -9999 -9999 -9999 -9999 -9999 -9999 -9999 -9999 -9999 -9999 -9999 -9999 -9999 -9999 -9999 -9999 -9999 -9999 -9999 -9999 -9999 -9999 -9999 -9999 -9999 -9999 -9999 -9999 -9999 -9999 -9999 -9999 -9999 -9999 -9999 -9999 -9999 -9999 -9999 -9999 -9999 -9999 -9999 -9999 -9999 -9999 -9999 -9999 -9999 -9999 -9999 -9999 -9999 -9999 -9999 -9999 -9999 -9999 -9999 -9999 -9999 -9999 -9999 -9999 -9999 -9999 -9999 -9999 -9999 -9999 -9999 -9999 65.46881 66.08208 63.62516 61.6575 59.01767 56.96766 55.37999 54.40088 56.56648 61.03484 61.81831 60.17638 58.7352 57.52573 56.86047 56.07119 54.52637 51.7733 48.39513 45.91905 45.59703 45.62976 45.57089 45.52522 45.54167 45.50894 45.4972 45.49252 45.48131 45.55028 45.63305 45.66181 45.63258 45.63814 45.58461 45.54208 45.51472 45.46847 45.45967 45.43206 45.43052 45.42889 45.4222 45.67527 48.23965 52.09481 55.0252 56.96189 56.34248 57.62342 60.14045 62.19245 62.19819 61.13948 63.69628 68.81375 69.72489 66.31892 58.71738 52.08558 49.63978 48.44289 48.05651 48.27 48.526 49.43511 50.6938 52.00575 53.32348 54.35684 55.16241 55.91597 56.64013 57.32672 58.1347 59.55581 60.33297 60.38178 60.45491 60.48824 61.09502 61.83327 62.95731 64.24758 65.91925 68.1083 70.46189 74.67533 79.10372 83.4918 87.55399 89.01659 87.88258 -9999 -9999 -9999 -9999 -9999 -9999 -9999 -9999 -9999 -9999 -9999 -9999 -9999 -9999 -9999 -9999 -9999 -9999 -9999 -9999 -9999 -9999 -9999 -9999 -9999 -9999 -9999 -9999 -9999
-9999 -9999 -9999 -9999 -9999 -9999 -9999 -9999 -9999 -9999 -9999 -9999 -9999 -9999 -9999 -9999 -9999 -9999 -9999 -9999 -9999 -9999 -9999 -9999 -9999 -9999 -9999 -9999 -9999 -9999 -9999 -9999 -9999 -9999 -9999 -9999 -9999 -9999 -9999 -9999 -9999 -9999 -9999 -9999 -9999 -9999 -9999 -9999 -9999 -9999 -9999 -9999 -9999 -9999 -9999 -9999 -9999 -9999 -9999 -9999 -9999 -9999 -9999 -9999 -9999 -9999 -9999 61.28798 -9999 -9999 -9999 -9999 -9999 62.79716 63.17545 63.60972 63.0969 61.81419 59.66748 57.73459 56.02266 55.91139 58.81073 63.34978 64.54088 63.49792 61.8077 60.07328 58.68584 57.45641 55.89634 52.97075 49.25201 46.01508 45.58138 45.63136 45.60015 45.53031 45.56489 45.5227 45.51291 45.49986 45.48466 45.57125 45.68786 45.67337 45.6762 45.65689 45.62678 45.60361 45.58231 45.56108 45.51745 45.53519 45.55533 45.48584 45.64066 47.5977 51.87423 57.82426 61.14552 62.17169 60.53414 62.15225 65.09557 68.27827 70.35328 71.21389 74.98859 80.51627 83.48097 79.00346 67.92226 59.85684 55.21225 51.86847 50.03733 49.6285 49.40594 50.11378 51.48069 52.77061 54.08428 55.15039 56.00489 56.78664 57.65064 58.49341 59.35344 60.44286 61.57417 61.78283 62.16541 62.47544 63.08617 64.13322 65.22079 66.65741 68.62209 70.48045 73.20319 77.60908 81.81757 85.46845 87.97683 88.01519 -9999 -9999 -9999 -9999 -9999 -9999 -9999 -9999 -9999 -9999 -9999 -9999 -9999 -9999 -9999 -9999 -9999 -9999 -9999 -9999 -9999 -9999 -9999 -9999 -9999 -9999 -9999 -9999 -9999 -9999
-9999 -9999 -9999 -9999 -9999 -9999 -9999 -9999 -9999 -9999 -9999 -9999 -9999 -9999 -9999 -9999 -9999 -9999 -9999 -9999 -9999 -9999 -9999 -9999 -9999 -9999 -9999 -9999 -9999 -9999 -9999 -9999 -9999 -9999 -9999 -9999 -9999 -9999 -9999 -9999 -9999 -9999 -9999 -9999 -9999 -9999 -9999 -9999 -9999 -9999 -9999 -9999 -9999 -9999 -9999 -9999 -9999 -9999 -9999 -9999 -9999 -9999 -9999 -9999 -9999 -9999 -9999 61.10395 60.90675 -9999 -9999 -9999 61.09449 61.23648 61.34683 61.5973 61.59234 61.12914 60.17976 58.05686 56.90994 58.00039 61.34698 65.4071 66.39101 66.42654 65.85897 64.18185 62.54309 60.0388 57.38572 54.16438 50.31009 46.79155 45.65106 45.63119 45.63055 45.58495 45.55528 45.53296 45.52277 45.51138 45.48797 45.56017 45.70925 45.69486 45.69869 45.68183 45.67641 45.59639 45.58569 45.57034 45.53098 45.52267 45.51413 45.57087 47.52958 51.08569 55.83823 64.32083 67.20077 66.8986 65.14261 66.65971 69.94334 73.37733 78.70648 81.07716 81.74264 85.43124 87.74709 88.12257 79.71004 66.96948 59.11023 55.5122 53.09417 51.61644 51.17703 51.26919 52.52269 53.7677 55.00733 56.14694 56.9925 58.07156 59.12114 59.84358 60.51522 61.69822 62.73039 62.87989 63.39064 64.54034 65.65199 67.00347 68.17939 69.42558 72.03533 75.66433 78.26163 81.35355 84.58072 86.87827 87.3792 -9999 -9999 -9999 -9999 -9999 -9999 -9999 -9999 -9999 -9999 -9999 -9999 -9999 -9999 -9999 -9999 -9999 -9999 -9999 -9999 -9999 -9999 -9999 -9999 -9999 -9999 -9999 -9999 -9999 -9999 -9999
-9999 -9999 -9999 -9999 -9999 -9999 -9999 -9999 -9999 -9999 -9999 -9999 -9999 -9999 -9999 -9999 -9999 -9999 -9999 -9999 -9999 -9999 -9999 -9999 -9999 -9999 -9999 -9999 -9999 -9999 -9999 -9999 -9999 -9999 -9999 -9999 -9999 -9999 -9999 -9999 -9999 -9999 -9999 -9999 -9999 -9999 -9999 -9999 -9999 -9999 -9999 -9999 -9999 -9999 -9999 -9999 -9999 -9999 -9999 -9999 -9999 -9999 -9999 -9999 62.32733 61.65842 61.11959 60.78258 60.68716 -9999 -9999 -9999 60.43128 60.14159 60.21247 60.46124 60.87614 60.46809 59.1393 58.14041 58.18891 59.95898 63.25698 66.64816 67.84909 68.37202 68.47689 68.08706 66.24208 62.9514 59.857 55.15112 51.00805 47.42542 45.66503 45.61905 45.62898 45.60963 45.54344 45.56525 45.52531 45.52369 45.5068 45.54547 45.64516 45.68744 45.66965 45.68908 45.69655 45.61811 45.60226 45.59881 45.58591 45.51984 45.51958 46.11397 50.12597 54.43739 60.96453 70.68069 71.22981 69.52895 68.88087 70.53472 75.54352 80.20725 84.05302 87.02587 88.15546 90.39461 94.1909 94.84259 90.41728 83.48922 70.69991 60.09623 56.52144 53.99875 52.94692 53.14959 54.83008 55.3963 56.7808 58.08266 59.05888 60.24706 61.21039 61.52406 62.00789 62.96231 63.83467 64.65466 65.51422 66.78328 68.06149 69.48275 70.70856 74.09872 79.32253 82.30367 83.59733 85.19919 86.68114 87.49133 -9999 -9999 -9999 -9999 -9999 -9999 -9999 -9999 -9999 -9999 -9999 -9999 -9999 -9999 -9999 -9999 -9999 -9999 -9999 -9999 -9999 -9999 -9999 -9999 -9999 -9999 -9999 -9999 -9999 -9999 -9999 -9999
-9999 -9999 -9999 -9999 -9999 -9999 -9999 -9999 -9999 -9999 -9999 -9999 -9999 -9999 -9999 -9999 -9999 -9999 -9999 -9999 -9999 -9999 -9999 -9999 -9999 -9999 -9999 -9999 -9999 -9999 -9999 -9999 -9999 -9999 -9999 -9999 -9999 -9999 -9999 -9999 -9999 -9999 -9999 -9999 -9999 -9999 -9999 -9999 -9999 -9999 -9999 -9999 -9999 -9999 -9999 -9999 -9999 -9999 -9999 -9999 -9999 -9999 -9999 -9999 60.9369 60.82827 60.55762 60.23236 60.17194 60.45502 60.71555 60.60069 59.67861 59.42788 59.5875 59.94938 60.50659 60.30008 58.73376 58.42119 59.30336 61.6707 65.09106 68.00992 69.09456 69.49542 69.85681 70.01661 68.2326 64.819 61.00686 55.68997 51.24855 47.52977 45.67661 45.62831 45.68091 45.59809 45.52967 45.55055 45.55331 45.52414 45.51052 45.53044 45.64369 45.65361 45.69581 45.72012 45.68972 45.67311 45.64734 45.62641 45.62158 45.5578 45.53431 46.729 52.54253 56.74152 66.3624 74.20305 76.60683 73.98837 72.402 74.10778 79.55552 84.62628 87.5673 92.01566 94.07173 95.59811 97.33852 97.64169 94.95587 91.87302 85.75671 71.01789 59.68741 56.89077 55.50584 55.77914 57.80897 58.84484 59.4702 61.01858 62.34969 63.1537 63.77855 64.10599 64.43039 65.13403 65.98102 66.79737 67.92228 69.08434 70.67004 72.53786 74.96777 80.21655 86.47741 87.22778 87.76248 88.74232 88.55209 -9999 -9999 -9999 -9999 -9999 -9999 -9999 -9999 -9999 -9999 -9999 -9999 -9999 -9999 -9999 -9999 -9999 -9999 -9999 -9999 -9999 -9999 -9999 -9999 -9999 -9999 -9999 -9999 -9999 -9999 -9999 -9999 -9999
-9999 -9999 -9999 -9999 -9999 -9999 -9999 -9999 -9999 -9999 -9999 -9999 -9999 -9999 -9999 -9999 -9999 -9999 -9999 -9999 -9999 -9999 -9999 -9999 -9999 -9999 -9999 -9999 -9999 -9999 -9999 -9999 -9999 -9999 -9999 -9999 -9999 -9999 -9999 -9999 -9999 -9999 -9999 -9999 -9999 -9999 -9999 -9999 -9999 -9999 -9999 -9999 -9999 -9999 -9999 -9999 -9999 -9999 -9999 -9999 -9999 -9999 -9999 -9999 60.09747 60.27616 60.15784 59.76008 59.55297 59.77364 60.00278 59.8853 59.36995 59.35176 59.42266 59.6018 60.20548 59.98217 58.65706 58.68145 60.21058 63.91478 66.74133 69.58099 70.68169 70.80531 71.04895 70.95867 69.59148 67.44904 64.16756 56.72461 51.28764 47.62928 45.70506 45.61891 45.61089 45.55297 45.5416 45.56366 45.55767 45.53289 45.51202 45.52855 45.61089 45.64074 45.63925 45.6618 45.68808 45.64352 45.63661 45.64686 45.66183 45.66642 45.57673 46.93928 53.96486 59.48716 66.04986 75.14237 79.47163 79.22842 76.80713 77.25316 80.26841 85.28526 89.62643 93.47155 98.17769 98.77657 99.42739 100.0265 98.26398 96.95394 91.93886 84.23166 66.94045 61.36656 58.88297 58.9413 61.75137 63.8112 64.46483 65.0062 65.75783 66.25304 66.289 66.82897 67.29895 68.08245 68.91752 69.21158 69.95283 71.50492 74.70233 76.82977 80.27808 85.34196 89.65945 90.80714 90.22731 89.6665 88.68597 -9999 -9999 -9999 -9999 -9999 -9999 -9999 -9999 -9999 -9999 -9999 -9999 -9999 -9999 -9999 -9999 -9999 -9999 -9999 -9999 -9999 -9999 -9999 -9999 -9999 -9999 -9999 -9999 -9999 -9999 -9999 -9999 -9999
-9999 -9999 -9999 -9999 -9999 -9999 -9999 -9999 -9999 -9999 -9999 -9999 -9999 -9999 -9999 -9999 -9999 -9999 -9999 -9999 -9999 -9999 -9999 -9999 -9999 -9999 -9999 -9999 -9999 -9999 -9999 -9999 -9999 -9999 -9999 -9999 -9999 -9999 -9999 -9999 -9999 -9999 -9999 -9999 -9999 -9999 -9999 -9999 -9999 -9999 -9999 -9999 -9999 -9999 -9999 -9999 -9999 -9999 -9999 -9999 -9999 -9999 -9999 -9999 59.34861 59.88688 60.02134 59.79515 59.36361 59.40739 59.47753 59.41787 59.31134 59.27386 59.26722 59.32058 59.61545 59.3722 58.73094 58.88458 60.90324 65.51762 67.52808 69.02284 70.4044 71.54559 72.17741 72.21495 71.62934 70.32276 66.58708 56.68951 51.08628 47.19751 45.69437 45.62917 45.60003 45.56783 45.56322 45.56263 45.59203 45.57265 45.52814 45.55175 45.61722 45.61828 45.61994 45.62978 45.68514 45.66613 45.66092 45.71426 45.68499 45.59397 45.64742 47.50981 53.44583 59.48406 66.64292 73.65623 79.69913 81.37747 80.97559 81.32037 82.3866 84.26366 87.0126 90.35947 98.13397 99.89931 99.95922 100.1276 99.0273 97.37038 95.42001 88.71674 73.95737 66.96556 63.29005 62.66159 64.89346 68.39963 71.28086 70.72501 69.58678 69.19044 68.90971 69.38647 69.99453 71.18961 71.68067 72.11073 72.68523 75.03292 78.03408 82.03702 86.12692 88.94572 91.84776 91.16055 89.64928 89.08042 -9999 -9999 -9999 -9999 -9999 -9999 -9999 -9999 -9999 -9999 -9999 -9999 -9999 -9999 -9999 -9999 -9999 -9999 -9999 -9999 -9999 -9999 -9999 -9999 -9999 -9999 -9999 -9999 -9999 -9999 -9999 -9999 -9999 -9999
-9999 -9999 -9999 -9999 -9999 -9999 -9999 -9999 -9999 -9999 -9999 -9999 -9999 -9999 -9999 -9999 -9999 -9999 -9999 -9999 -9999 -9999 -9999 -9999 -9999 -9999 -9999 -9999 -9999 -9999 -9999 -9999 -9999 -9999 -9999 -9999 -9999 -9999 -9999 -9999 -9999 -9999 -9999 -9999 -9999 -9999 -9999 -9999 -9999 -9999 -9999 -9999 -9999 -9999 -9999 -9999 -9999 -9999 -9999 -9999 -9999 -9999 -9999 -9999 -9999 59.33339 59.51695 59.56609 59.33114 59.31133 59.31883 59.20626 59.19695 59.15494 59.05933 59.11867 59.13983 59.01092 58.88826 59.16252 60.92574 65.09129 67.01455 68.24031 69.43828 70.51952 71.60745 72.40237 72.13873 69.49764 65.17092 56.03255 50.28839 46.43128 45.74428 45.61964 45.59844 45.59725 45.56225 45.57917 45.6233 45.601 45.5712 45.55984 45.61084 45.63763 45.64255 45.66566 45.69689 45.68699 45.6935 45.7132 45.64839 45.62122 46.09089 49.0387 53.63369 58.92847 65.68992 73.5341 78.55415 81.60796 81.74751 82.57647 84.41408 85.26325 86.80576 89.50534 97.6563 99.98975 98.99899 98.26403 98.38159 97.6563 94.80327 88.86175 78.47664 72.18681 68.43067 66.72849 67.62728 72.2712 78.79875 78.14963 75.26595 73.61874 72.83841 72.709 73.15576 74.06097 75.21426 76.00131 77.20572 79.01665 82.01646 87.52839 90.07116 92.08498 91.18158 89.58881 88.92475 -9999 -9999 -9999 -9999 -9999 -9999 -9999 -9999 -9999 -9999 -9999 -9999 -9999 -9999 -9999 -9999 -9999 -9999 -9999 -9999 -9999 -9999 -9999 -9999 -9999 -9999 -9999 -9999 -9999 -9999 -9999 -9999 -9999 -9999 -9999
-9999 -9999 -9999 -9999 -9999 -9999 -9999 -9999 -9999 -9999 -9999 -9999 -9999 -9999 -9999 -9999 -9999 -9999 -9999 -9999 -9999 -9999 -9999 -9999 -9999 -9999 -9999 -9999 -9999 -9999 -9999 -9999 -9999 -9999 -9999 -9999 -9999 -9999 -9999 -9999 -9999 -9999 -9999 -9999 -9999 -9999 -9999 -9999 -9999 -9999 -9999 -9999 -9999 -9999 -9999 -9999 -9999 -9999 -9999 -9999 -9999 -9999 -9999 -9999 -9999 -9999 59.25297 59.26086 59.29455 59.2153 59.24734 59.27312 59.42286 59.36245 59.42102 59.53767 59.79308 59.44402 59.12417 59.44211 60.60239 63.27974 65.32767 66.36514 66.89281 68.12853 70.10353 71.22711 69.7055 65.66803 61.19014 54.87381 49.96017 46.40128 45.67352 45.60291 45.60967 45.59297 45.58544 45.59411 45.59005 45.60211 45.59988 45.59891 45.60769 45.629 45.69922 45.70244 45.72725 45.75909 45.79958 45.77306 45.63178 45.87413 47.97102 51.62958 56.13059 61.23542 67.18128 73.83606 78.94028 81.19442 81.49556 82.49776 84.44713 85.80475 87.37522 90.22188 97.19397 99.52084 98.69125 98.71935 99.02634 98.74619 97.1287 89.98567 82.61616 77.04752 72.33725 70.63611 70.61783 74.10298 81.93649 83.79516 81.64892 79.78735 78.07764 77.52463 77.94144 78.35377 79.13034 79.22117 80.60244 81.99654 85.10747 90.04872 92.54248 92.14536 89.5192 88.13374 -9999 -9999 -9999 -9999 -9999 -9999 -9999 -9999 -9999 -9999 -9999 -9999 -9999 -9999 -9999 -9999 -9999 -9999 -9999 -9999 -9999 -9999 -9999 -9999 -9999 -9999 -9999 -9999 -9999 -9999 -9999 -9999 -9999 -9999 -9999 -9999
-9999 -9999 -9999 -9999 -9999 -9999 -9999 -9999 -9999 -9999 -9999 -9999 -9999 -9999 -9999 -9999 -9999 -9999 -9999 -9999 -9999 -9999 -9999 -9999 -9999 -9999 -9999 -9999 -9999 -9999 -9999 -9999 -9999 -9999 -9999 -9999 -9999 -9999 -9999 -9999 -9999 -9999 -9999 -9999 -9999 -9999 -9999 -9999 -9999 -9999 -9999 -9999 -9999 -9999 -9999 -9999 -9999 -9999 -9999 -9999 -9999 -9999 -9999 -9999 -9999 -9999 59.21241 59.26923 59.34234 59.34528 59.48625 59.72825 60.32519 60.16444 60.26373 60.4957 60.86961 60.56181 59.86556 60.25851 60.75681 61.5293 62.69464 64.00101 65.11166 66.8235 68.60458 69.49405 68.22414 63.39933 58.42934 53.71759 49.65652 46.54844 45.73673 45.61963 45.61192 45.61308 45.60106 45.62522 45.61728 45.6128 45.62145 45.63006 45.66828 45.70492 45.75927 45.75816 45.77664 45.80845 45.83364 45.72049 45.64339 46.61628 49.95472 53.77641 58.82742 65.69444 70.6438 75.60903 79.141 81.28489 81.89292 82.95663 85.05492 86.69722 88.66709 93.29868 98.21886 100.0524 101.0872 102.2299 101.9685 102.3825 100.238 93.44797 86.56336 80.03328 75.87202 74.04406 73.7448 75.64173 81.3552 85.14832 85.41311 84.83604 84.1123 82.35152 82.4956 82.25033 81.86179 81.47974 82.53019 83.89625 87.46986 91.50908 92.99506 91.00475 88.60861 -9999 -9999 -9999 -9999 -9999 -9999 -9999 -9999 -9999 -9999 -9999 -9999 -9999 -9999 -9999 -9999 -9999 -9999 -9999 -9999 -9999 -9999 -9999 -9999 -9999 -9999 -9999 -9999 -9999 -9999 -9999 -9999 -9999 -9999 -9999 -9999 -9999
-9999 -9999 -9999 -9999 -9999 -9999 -9999 -9999 -9999 -9999 -9999 -9999 -9999 -9999 -9999 -9999 -9999 -9999 -9999 -9999 -9999 -9999 -9999 -9999 -9999 -9999 -9999 -9999 -9999 -9999 -9999 -9999 -9999 -9999 -9999 -9999 -9999 -9999 -9999 -9999 -9999 -9999 -9999 -9999 -9999 -9999 -9999 -9999 -9999 -9999 -9999 -9999 -9999 -9999 -9999 -9999 -9999 -9999 -9999 -9999 -9999 -9999 -9999 -9999 -9999 -9999 -9999 59.43311 59.48853 59.52508 59.92233 60.80784 61.08931 61.347 61.52122 61.4935 61.84462 61.65355 60.81631 60.26339 59.92486 59.83645 60.70301 62.15036 63.36084 64.26928 65.84961 66.09503 64.95673 60.23983 55.75848 52.19638 49.19375 46.41584 45.74298 45.64148 45.60949 45.60859 45.63409 45.59933 45.6321 45.62955 45.62431 45.62197 45.62247 45.66891 45.7009 45.74072 45.74083 45.7513 45.71842 45.67072 45.66525 46.5694 50.23242 54.18991 60.02124 66.998 71.34883 75.927 79.2999 82.23403 83.21616 85.18716 88.04533 90.57474 93.66075 99.45044 102.3401 102.636 103.4884 105.5699 106.0665 105.8487 103.6841 97.1732 90.36206 82.87913 78.75309 77.45673 76.99245 78.34972 82.04923 85.43922 86.82064 86.87533 87.08898 86.61993 86.03536 84.83231 83.80217 83.29716 83.77561 85.23323 89.18394 92.6022 92.67513 90.59183 88.59053 -9999 -9999 -9999 -9999 -9999 -9999 -9999 -9999 -9999 -9999 -9999 -9999 -9999 -9999 -9999 -9999 -9999 -9999 -9999 -9999 -9999 -9999 -9999 -9999 -9999 -9999 -9999 -9999 -9999 -9999 -9999 -9999 -9999 -9999 -9999 -9999 -9999
-9999 -9999 -9999 -9999 -9999 -9999 -9999 -9999 -9999 -9999 -9999 -9999 -9999 -9999 -9999 -9999 -9999 -9999 -9999 -9999 -9999 -9999 -9999 -9999 -9999 -9999 -9999 -9999 -9999 -9999 -9999 -9999 -9999 -9999 -9999 -9999 -9999 -9999 -9999 -9999 -9999 -9999 -9999 -9999 -9999 -9999 -9999 -9999 -9999 -9999 -9999 -9999 -9999 -9999 -9999 -9999 -9999 -9999 -9999 -9999 -9999 -9999 -9999 -9999 -9999 -9999 -9999 59.83451 59.82447 60.02722 60.43364 61.21241 61.49411 62.12138 62.96135 63.10715 63.30633 62.94216 61.22389 59.7835 58.87836 58.3536 58.83181 60.05519 60.56137 60.87341 61.60914 61.07827 59.66122 57.0142 53.36792 50.62777 48.20641 45.98347 45.72987 45.64342 45.60958 45.61764 45.64906 45.7803 45.80267 45.64161 45.61494 45.62326 45.63353 45.66277 45.67881 45.68161 45.69372 45.68653 45.68836 45.68948 45.70163 46.37767 49.61475 54.01656 58.93294 65.65363 71.24512 76.32089 80.60025 84.4734 87.04895 90.31459 93.0741 96.74789 100.4651 102.7537 105.2624 106.4132 107.0791 108.1909 108.5242 108.2287 106.6136 99.9888 93.86786 86.41011 81.74184 80.17352 80.32984 81.54427 84.04269 86.77976 87.90944 88.29941 88.67039 88.53425 87.88364 86.55859 85.37592 85.00121 85.21211 86.45712 89.48813 92.39686 92.046 90.61459 89.197 -9999 -9999 -9999 -9999 -9999 -9999 -9999 -9999 -9999 -9999 -9999 -9999 -9999 -9999 -9999 -9999 -9999 -9999 -9999 -9999 -9999 -9999 -9999 -9999 -9999 -9999 -9999 -9999 -9999 -9999 -9999 -9999 -9999 -9999 -9999 -9999 -9999
-9999 -9999 -9999 -9999 -9999 -9999 -9999 -9999 -9999 -9999 -9999 -9999 -9999 -9999 -9999 -9999 -9999 -9999 -9999 -9999 -9999 -9999 -9999 -9999 -9999 -9999 -9999 -9999 -9999 -9999 -9999 -9999 -9999 -9999 -9999 -9999 -9999 -9999 -9999 -9999 -9999 -9999 -9999 -9999 -9999 -9999 -9999 -9999 -9999 -9999 -9999 -9999 -9999 -9999 -9999 -9999 -9999 -9999 -9999 -9999 -9999 -9999 -9999 -9999 -9999 -9999 -9999 -9999 60.30128 60.51634 60.82097 61.432 62.50306 63.1313 64.11072 64.91439 64.90427 63.68541 61.52444 59.87098 58.21586 56.95599 56.50994 56.53641 56.82081 57.08381 56.88134 55.96833 54.65631 53.17477 50.90424 48.60008 46.799 45.87648 45.69758 45.68795 45.63145 45.91178 47.70937 49.71442 50.49922 49.36608 46.12017 45.74076 45.66385 45.66177 45.6572 45.66658 45.6939 45.68731 45.68623 45.67839 45.8685 46.83766 49.59989 54.30805 59.55436 66.29795 72.06699 78.39914 83.26939 89.87267 93.13676 95.95566 98.75614 100.369 102.082 104.1409 107.33 108.9497 109.7196 110.0748 109.5802 108.9441 107.4571 102.4422 96.27979 89.60514 84.38008 82.74533 82.9825 84.30739 86.57848 89.13077 90.18194 90.83925 91.12892 90.14019 89.57169 88.19545 86.86366 86.35305 86.56654 87.53928 89.31924 91.06882 91.21483 90.17861 87.95928 -9999 -9999 -9999 -9999 -9999 -9999 -9999 -9999 -9999 -9999 -9999 -9999 -9999 -9999 -9999 -9999 -9999 -9999 -9999 -9999 -9999 -9999 -9999 -9999 -9999 -9999 -9999 -9999 -9999 -9999 -9999 -9999 -9999 -9999 -9999 -9999 -9999
-9999 -9999 -9999 -9999 -9999 -9999 -9999 -9999 -9999 -9999 -9999 -9999 -9999 -9999 -9999 -9999 -9999 -9999 -9999 -9999 -9999 -9999 -9999 -9999 -9999 -9999 -9999 -9999 -9999 -9999 -9999 -9999 -9999 -9999 -9999 -9999 -9999 -9999 -9999 -9999 -9999 -9999 -9999 -9999 -9999 -9999 -9999 -9999 -9999 -9999 -9999 -9999 -9999 -9999 -9999 -9999 -9999 -9999 -9999 -9999 -9999 -9999 -9999 -9999 -9999 -9999 -9999 -9999 60.78397 60.73142 61.05909 61.81486 63.53608 64.23064 65.49809 66.09122 66.2665 64.4713 61.89644 59.71803 57.66017 55.92738 54.91272 54.27556 54.10375 54.09087 53.42569 52.53175 51.69359 50.62165 49.05736 47.34877 46.21873 46.04813 45.99159 46.13363 47.17544 48.74828 51.7113 54.53764 57.28276 59.11022 53.89645 49.09224 47.46161 46.19558 45.88553 46.04828 45.75348 45.78836 45.74214 45.82261 46.47405 47.87575 50.57981 55.8192 62.59239 69.51567 75.88264 82.49792 88.3802 94.72908 98.08239 99.41464 101.6108 102.457 103.6817 105.8333 109.4562 111.315 111.8769 111.5084 110.6033 109.443 108.4576 105.2732 100.7594 95.49345 87.72501 85.10917 85.21006 86.57535 88.72011 91.28261 91.88164 91.83187 91.97228 92.23861 91.68814 90.06981 88.44653 87.77464 87.94114 88.92876 89.81767 90.60478 90.56992 88.76372 86.72446 -9999 -9999 -9999 -9999 -9999 -9999 -9999 -9999 -9999 -9999 -9999 -9999 -9999 -9999 -9999 -9999 -9999 -9999 -9999 -9999 -9999 -9999 -9999 -9999 -9999 -9999 -9999 -9999 -9999 -9999 -9999 -9999 -9999 -9999 -9999 -9999 -9999
-9999 -9999 -9999 -9999 -9999 -9999 -9999 -9999 -9999 -9999 -9999 -9999 -9999 -9999 -9999 -9999 -9999 -9999 -9999 -9999 -9999 -9999 -9999 -9999 -9999 -9999 -9999 -9999 -9999 -9999 -9999 -9999 -9999 -9999 -9999 -9999 -9999 -9999 -9999 -9999 -9999 -9999 -9999 -9999 -9999 -9999 -9999 -9999 -9999 -9999 -9999 -9999 -9999 -9999 -9999 -9999 -9999 -9999 -9999 -9999 -9999 -9999 -9999 -9999 -9999 -9999 -9999 -9999 -9999 61.11247 61.38427 62.77028 63.96503 64.41162 66.60553 67.49516 67.07614 64.5742 62.33027 59.68303 57.10976 55.38636 54.21727 53.45203 52.58952 51.94305 51.54116 50.89581 50.16 49.04605 47.43728 46.43166 46.36595 46.58281 47.82836 48.47939 50.38086 53.53856 56.5067 59.03334 65.07059 67.75714 64.56041 57.90647 54.59147 51.38244 49.25912 49.36891 48.06441 46.23381 46.3191 46.56147 47.24927 48.64222 52.43483 57.8063 66.86347 76.32892 85.10441 90.09277 93.58847 95.59673 98.568 100.4254 101.8016 102.9451 104.6195 106.8254 110.0416 112.2598 112.5234 111.5627 110.388 109.5595 108.6646 105.48 101.9348 97.81656 90.57533 87.07908 87.42436 89.31844 90.96447 93.24395 93.11572 92.97337 93.0078 92.92948 92.91639 92.15018 90.53555 89.78867 89.09381 89.7957 90.435 90.4857 89.74822 88.14677 86.25686 84.80178 -9999 -9999 -9999 -9999 -9999 -9999 -9999 -9999 -9999 -9999 -9999 -9999 -9999 -9999 -9999 -9999 -9999 -9999 -9999 -9999 -9999 -9999 -9999 -9999 -9999 -9999 -9999 -9999 -9999 -9999 -9999 -9999 -9999 -9999 -9999 -9999
-9999 -9999 -9999 -9999 -9999 -9999 -9999 -9999 -9999 -9999 -9999 -9999 -9999 -9999 -9999 -9999 -9999 -9999 -9999 -9999 -9999 -9999 -9999 -9999 -9999 -9999 -9999 -9999 -9999 -9999 -9999 -9999 -9999 -9999 -9999 -9999 -9999 -9999 -9999 -9999 -9999 -9999 -9999 -9999 -9999 -9999 -9999 -9999 -9999 -9999 -9999 -9999 -9999 -9999 -9999 -9999 -9999 -9999 -9999 -9999 -9999 -9999 -9999 -9999 -9999 -9999 -9999 -9999 -9999 -9999 61.77331 62.76856 64.12914 64.62222 66.64961 68.10894 66.95374 63.87875 61.73914 59.51808 56.8075 55.11172 53.93219 53.12008 52.01772 50.05703 49.32319 49.09475 48.10306 46.98692 46.79375 47.4 48.45475 49.30178 50.81883 52.69783 55.11728 57.678 60.95874 63.89109 69.2805 73.87014 72.45189 69.49834 68.38509 60.01603 54.89409 52.705 50.78742 48.08475 47.07247 47.70714 48.368 50.0913 55.5583 63.18186 75.86544 82.13715 88.52773 93.00191 95.19617 96.96133 98.60134 100.0091 101.2828 102.3738 104.3687 106.3945 108.8748 111.0758 111.7653 110.8091 109.5043 108.7089 107.493 104.7978 101.1113 96.24178 90.88625 87.70317 88.9696 92.373 93.37425 94.01765 94.01898 93.69458 93.33108 92.85436 92.93172 92.94931 91.95688 91.42612 90.51566 90.55266 90.89608 90.91347 90.44355 89.21127 87.6195 85.22031 -9999 -9999 -9999 -9999 -9999 -9999 -9999 -9999 -9999 -9999 -9999 -9999 -9999 -9999 -9999 -9999 -9999 -9999 -9999 -9999 -9999 -9999 -9999 -9999 -9999 -9999 -9999 -9999 -9999 -9999 -9999 -9999 -9999 -9999 -9999 -9999
-9999 -9999 -9999 -9999 -9999 -9999 -9999 -9999 -9999 -9999 -9999 -9999 -9999 -9999 -9999 -9999 -9999 -9999 -9999 -9999 -9999 -9999 -9999 -9999 -9999 -9999 -9999 -9999 -9999 -9999 -9999 -9999 -9999 -9999 -9999 -9999 -9999 -9999 -9999 -9999 -9999 -9999 -9999 -9999 -9999 -9999 -9999 -9999 -9999 -9999 -9999 -9999 -9999 -9999 -9999 -9999 -9999 -9999 -9999 -9999 -9999 -9999 -9999 -9999 -9999 -9999 -9999 -9999 -9999 -9999 61.88325 62.52764 63.96061 65.43913 66.55296 66.90054 64.89346 62.64017 61.0273 58.60727 56.27441 54.86136 53.32019 51.57495 50.52756 49.38384 48.20864 47.54861 47.33756 47.82134 49.15298 49.81983 50.44223 51.9002 54.46442 58.34556 61.20095 62.25266 65.14945 68.68155 70.73488 75.31241 75.29955 73.84934 72.68897 69.35389 63.10381 58.21494 53.95206 50.63734 48.04158 48.63444 50.19827 52.46548 59.44492 67.53833 78.04501 84.42326 90.06669 95.00798 96.69136 97.46536 97.42436 98.71975 100.0146 101.2886 102.8186 104.4941 106.6875 109.5579 110.4837 109.4125 108.4018 107.3658 106.638 103.3799 100.0661 95.321 90.00808 87.75695 91.23212 95.20586 95.35883 94.44453 93.67672 93.39216 92.86497 92.16154 91.78391 92.02092 91.83348 91.46733 91.2327 91.13933 91.45566 91.96889 91.35979 90.46878 90.16055 90.23776 -9999 -9999 -9999 -9999 -9999 -9999 -9999 -9999 -9999 -9999 -9999 -9999 -9999 -9999 -9999 -9999 -9999 -9999 -9999 -9999 -9999 -9999 -9999 -9999 -9999 -9999 -9999 -9999 -9999 -9999 -9999 -9999 -9999 -9999 -9999 -9999
-9999 -9999 -9999 -9999 -9999 -9999 -9999 -9999 -9999 -9999 -9999 -9999 -9999 -9999 -9999 -9999 -9999 -9999 -9999 -9999 -9999 -9999 -9999 -9999 -9999 -9999 -9999 -9999 -9999 -9999 -9999 -9999 -9999 -9999 -9999 -9999 -9999 -9999 -9999 -9999 -9999 -9999 -9999 -9999 -9999 -9999 -9999 -9999 -9999 -9999 -9999 -9999 -9999 -9999 -9999 -9999 -9999 -9999 -9999 -9999 -9999 -9999 -9999 -9999 -9999 -9999 -9999 -9999 -9999 -9999 -9999 62.69014 64.25414 65.93587 66.49617 65.18905 63.36716 60.99645 59.05475 57.26358 55.89606 54.41888 51.74928 51.09561 50.22103 49.66125 49.24216 47.5737 49.81295 51.02847 51.45636 51.93787 52.79694 54.8995 58.97297 63.02678 66.34502 67.3722 69.6855 72.47836 72.75964 75.43594 76.17175 75.29475 73.91853 71.4468 67.86995 63.70108 58.40167 54.20863 51.11716 49.40723 51.66416 55.30775 62.32083 72.24025 81.48261 86.67802 90.76189 96.50491 97.68977 96.80733 96.26015 97.08318 98.69759 100.1393 101.6506 103.3121 105.278 107.8776 108.9831 108.4296 107.1555 105.9464 105.9246 104.2478 98.97382 94.38344 89.11292 87.65935 91.23734 95.80505 95.47489 93.96143 93.02901 92.77142 92.23872 91.63409 91.2907 91.15737 91.01938 91.00188 90.99958 91.31939 91.8456 92.20067 91.65003 91.38056 92.46387 92.91648 -9999 -9999 -9999 -9999 -9999 -9999 -9999 -9999 -9999 -9999 -9999 -9999 -9999 -9999 -9999 -9999 -9999 -9999 -9999 -9999 -9999 -9999 -9999 -9999 -9999 -9999 -9999 -9999 -9999 -9999 -9999 -9999 -9999 -9999 -9999 -9999
-9999 -9999 -9999 -9999 -9999 -9999 -9999 -9999 -9999 -9999 -9999 -9999 -9999 -9999 -9999 -9999 -9999 -9999 -9999 -9999 -9999 -9999 -9999 -9999 -9999 -9999 -9999 -9999 -9999 -9999 -9999 -9999 -9999 -9999 -9999 -9999 -9999 -9999 -9999 -9999 -9999 -9999 -9999 -9999 -9999 -9999 -9999 -9999 -9999 -9999 -9999 -9999 -9999 -9999 -9999 -9999 -9999 -9999 -9999 -9999 -9999 -9999 -9999 -9999 -9999 -9999 -9999 -9999 -9999 -9999 -9999 62.69425 64.45142 65.8595 65.44612 63.81333 61.5193 59.15876 57.89252 56.86274 55.21817 52.65447 52.87778 54.32822 53.50241 52.61653 50.09934 49.47225 50.95752 53.87369 54.34189 55.05902 56.81477 60.71117 64.16892 67.99423 70.19624 71.5294 72.50884 73.90925 73.95417 74.42683 75.38417 74.53503 72.56303 70.60742 68.71201 66.33257 63.25622 61.748 61.58764 55.83464 53.23827 56.69139 63.0933 74.45727 83.27117 89.20117 92.83697 95.95483 97.87682 96.874 96.23354 97.01636 97.81289 99.17787 100.5383 101.9714 103.7418 105.83 107.0932 107.2923 106.418 105.6094 105.6852 105.0233 99.74503 94.10754 89.20684 87.59114 89.66189 94.48084 94.51585 93.86417 92.99797 92.18309 91.59196 91.36983 91.65336 91.58275 91.22922 90.3783 90.20909 90.88586 91.07159 91.41479 91.24596 91.21584 92.42756 91.98158 -9999 -9999 -9999 -9999 -9999 -9999 -9999 -9999 -9999 -9999 -9999 -9999 -9999 -9999 -9999 -9999 -9999 -9999 -9999 -9999 -9999 -9999 -9999 -9999 -9999 -9999 -9999 -9999 -9999 -9999 -9999 -9999 -9999 -9999 -9999 -9999
-9999 -9999 -9999 -9999 -9999 -9999 -9999 -9999 -9999 -9999 -9999 -9999 -9999 -9999 -9999 -9999 -9999 -9999 -9999 -9999 -9999 -9999 -9999 -9999 -9999 -9999 -9999 -9999 -9999 -9999 -9999 -9999 -9999 -9999 -9999 -9999 -9999 -9999 -9999 -9999 -9999 -9999 -9999 -9999 -9999 -9999 -9999 -9999 -9999 -9999 -9999 -9999 -9999 -9999 -9999 -9999 -9999 -9999 -9999 -9999 -9999 -9999 -9999 -9999 -9999 -9999 -9999 -9999 -9999 -9999 -9999 -9999 64.14429 65.55461 64.19442 62.50072 60.08099 58.4237 57.32497 55.34931 53.72633 55.01378 57.62719 57.77872 56.29672 55.44175 55.07116 55.10199 55.50472 56.89392 57.70361 58.97586 61.11377 64.37033 67.81101 70.3952 72.20845 73.52344 73.72397 73.55399 73.06811 72.86719 73.20497 72.73089 71.15234 69.89256 68.87758 68.09909 67.89161 68.74702 67.38873 64.51714 55.0745 57.41964 62.85091 75.05002 83.87955 89.99775 94.06733 95.98287 97.65955 97.13268 96.43181 97.20847 97.36078 97.90325 99.52489 100.8698 102.4847 103.81 104.9124 106.3275 106.4075 105.8131 105.7109 105.1543 102.2402 95.28217 90.00222 87.61205 89.78047 94.53052 94.46295 93.9584 92.61723 91.93275 91.5731 91.4418 91.63046 91.62405 90.63086 88.22161 86.98895 87.24001 88.031 89.20412 89.30756 89.54983 -9999 -9999 -9999 -9999 -9999 -9999 -9999 -9999 -9999 -9999 -9999 -9999 -9999 -9999 -9999 -9999 -9999 -9999 -9999 -9999 -9999 -9999 -9999 -9999 -9999 -9999 -9999 -9999 -9999 -9999 -9999 -9999 -9999 -9999 -9999 -9999 -9999 -9999
-9999 -9999 -9999 -9999 -9999 -9999 -9999 -9999 -9999 -9999 -9999 -9999 -9999 -9999 -9999 -9999 -9999 -9999 -9999 -9999 -9999 -9999 -9999 -9999 -9999 -9999 -9999 -9999 -9999 -9999 -9999 -9999 -9999 -9999 -9999 -9999 -9999 -9999 -9999 -9999 -9999 -9999 -9999 -9999 -9999 -9999 -9999 -9999 -9999 -9999 -9999 -9999 -9999 -9999 -9999 -9999 -9999 -9999 -9999 -9999 -9999 -9999 -9999 -9999 -9999 -9999 -9999 -9999 -9999 -9999 -9999 -9999 62.95944 63.31716 62.38287 60.46762 59.02609 57.72578 55.95005 55.11398 56.09039 60.87622 63.60514 62.52495 60.4627 59.24933 59.07484 57.86773 59.00786 60.07617 60.86414 62.09044 63.99619 65.49539 66.99408 68.81025 70.39645 71.63497 72.35059 71.91028 71.24249 70.70767 70.17245 70.30755 70.12341 70.06509 69.60767 71.22558 71.82277 72.01987 71.76865 69.61477 58.67061 58.44827 62.27453 73.86003 84.87913 90.79794 94.81522 96.65707 97.5793 97.85626 96.84509 96.40498 96.61871 96.61408 97.88551 99.5115 101.1474 101.896 103.1761 104.8953 105.4286 105.3487 104.9393 104.0568 102.4932 97.03088 91.19746 87.90542 88.83416 93.67384 94.10468 93.70651 92.6322 92.32583 91.85445 91.30473 90.79446 89.69322 87.22122 84.80269 84.08369 83.80766 -9999 -9999 -9999 -9999 -9999 -9999 -9999 -9999 -9999 -9999 -9999 -9999 -9999 -9999 -9999 -9999 -9999 -9999 -9999 -9999 -9999 -9999 -9999 -9999 -9999 -9999 -9999 -9999 -9999 -9999 -9999 -9999 -9999 -9999 -9999 -9999 -9999 -9999 -9999 -9999 -9999 -9999
-9999 -9999 -9999 -9999 -9999 -9999 -9999 -9999 -9999 -9999 -9999 -9999 -9999 -9999 -9999 -9999 -9999 -9999 -9999 -9999 -9999 -9999 -9999 -9999 -9999 -9999 -9999 -9999 -9999 -9999 -9999 -9999 -9999 -9999 -9999 -9999 -9999 -9999 -9999 -9999 -9999 -9999 -9999 -9999 -9999 -9999 -9999 -9999 -9999 -9999 -9999 -9999 -9999 -9999 -9999 -9999 -9999 -9999 -9999 -9999 -9999 -9999 -9999 -9999 -9999 -9999 -9999 -9999 -9999 -9999 -9999 -9999 62.96986 62.11913 61.22311 59.54425 58.41617 57.52917 58.28112 56.70848 57.65592 61.26578 65.22898 64.98679 64.23169 62.81602 61.7932 60.46017 60.58601 62.1039 62.86562 63.45945 64.58775 65.39545 65.75874 66.5083 67.99043 69.05355 69.97716 69.48512 69.21274 68.77528 68.58428 68.79705 69.2777 69.91035 70.60581 72.30508 73.82323 74.6312 74.26713 72.40883 63.16409 60.34167 62.72736 70.52637 84.18926 91.86279 95.50076 96.76953 97.01278 97.84348 97.78011 96.40608 96.09594 96.04622 96.65412 98.78619 99.42922 100.0567 101.3655 103.0481 103.6113 103.5621 103.0316 102.5071 102.1856 98.09846 92.45617 89.27872 88.84217 91.86247 93.25536 92.76508 92.42818 92.0031 91.43622 90.4792 89.02472 86.79825 84.06384 -9999 -9999 -9999 -9999 -9999 -9999 -9999 -9999 -9999 -9999 -9999 -9999 -9999 -9999 -9999 -9999 -9999 -9999 -9999 -9999 -9999 -9999 -9999 -9999 -9999 -9999 -9999 -9999 -9999 -9999 -9999 -9999 -9999 -9999 -9999 -9999 -9999 -9999 -9999 -9999 -9999 -9999 -9999 -9999 -9999
-9999 -9999 -9999 -9999 -9999 -9999 -9999 -9999 -9999 -9999 -9999 -9999 -9999 -9999 -9999 -9999 -9999 -9999 -9999 -9999 -9999 -9999 -9999 -9999 -9999 -9999 -9999 -9999 -9999 -9999 -9999 -9999 -9999 -9999 -9999 -9999 -9999 -9999 -9999 -9999 -9999 -9999 -9999 -9999 -9999 -9999 -9999 -9999 -9999 -9999 -9999 -9999 -9999 -9999 -9999 -9999 -9999 -9999 -9999 -9999 -9999 -9999 -9999 -9999 -9999 -9999 -9999 -9999 -9999 -9999 -9999 62.78445 62.39917 61.79164 61.25209 60.6993 59.10191 59.01899 59.50488 58.97752 58.45049 61.67033 64.65652 65.3467 65.4877 64.40673 63.65908 62.81427 62.64476 63.37689 63.69028 63.86422 64.3473 64.87875 65.23441 65.54716 65.92433 66.75594 67.61136 67.71211 67.86944 68.03941 68.32431 68.65088 69.07984 69.60838 70.80251 72.45891 75.10034 76.35114 75.5803 72.4983 65.95861 62.30713 64.46082 68.54586 81.67767 90.11052 95.41904 96.64567 96.09186 97.22017 97.69351 96.65192 95.84869 95.87653 96.57799 97.71902 97.71162 98.28223 99.27399 100.5066 101.6746 101.9044 101.6921 101.3525 100.5366 97.44341 93.471 90.74663 89.22453 89.96246 91.73445 91.35708 90.80022 90.8231 89.98206 88.55244 -9999 -9999 -9999 -9999 -9999 -9999 -9999 -9999 -9999 -9999 -9999 -9999 -9999 -9999 -9999 -9999 -9999 -9999 -9999 -9999 -9999 -9999 -9999 -9999 -9999 -9999 -9999 -9999 -9999 -9999 -9999 -9999 -9999 -9999 -9999 -9999 -9999 -9999 -9999 -9999 -9999 -9999 -9999 -9999 -9999 -9999 -9999 -9999
-9999 -9999 -9999 -9999 -9999 -9999 -9999 -9999 -9999 -9999 -9999 -9999 -9999 -9999 -9999 -9999 -9999 -9999 -9999 -9999 -9999 -9999 -9999 -9999 -9999 -9999 -9999 -9999 -9999 -9999 -9999 -9999 -9999 -9999 -9999 -9999 -9999 -9999 -9999 -9999 -9999 -9999 -9999 -9999 -9999 -9999 -9999 -9999 -9999 -9999 -9999 -9999 -9999 -9999 -9999 -9999 -9999 -9999 -9999 -9999 -9999 -9999 -9999 -9999 -9999 -9999 -9999 -9999 -9999 -9999 -9999 -9999 62.01889 61.79745 61.39834 61.12903 61.12815 60.08995 60.06702 60.32116 59.47538 62.0767 65.19347 65.62054 65.58212 65.81631 65.07477 64.25422 63.94856 64.00204 64.51315 64.92772 64.75874 64.67663 64.80515 64.9752 65.35733 65.84631 66.2715 66.85316 67.69792 68.1643 68.69917 69.18006 69.55779 70.15923 71.15464 73.01044 75.53833 76.72288 75.97729 72.65525 67.81408 63.68492 66.02045 68.65421 79.14896 87.23164 93.52794 96.21683 95.544 96.01595 97.05862 96.4677 95.82055 95.91779 95.74744 95.57861 96.35508 97.02609 97.82706 98.48597 99.18012 100.2801 100.4392 100.5078 99.4605 97.4 94.47186 90.72637 88.31502 88.08662 89.14474 89.79084 89.5862 89.4375 -9999 -9999 -9999 -9999 -9999 -9999 -9999 -9999 -9999 -9999 -9999 -9999 -9999 -9999 -9999 -9999 -9999 -9999 -9999 -9999 -9999 -9999 -9999 -9999 -9999 -9999 -9999 -9999 -9999 -9999 -9999 -9999 -9999 -9999 -9999 -9999 -9999 -9999 -9999 -9999 -9999 -9999 -9999 -9999 -9999 -9999 -9999 -9999 -9999 -9999
-9999 -9999 -9999 -9999 -9999 -9999 -9999 -9999 -9999 -9999 -9999 -9999 -9999 -9999 -9999 -9999 -9999 -9999 -9999 -9999 -9999 -9999 -9999 -9999 -9999 -9999 -9999 -9999 -9999 -9999 -9999 -9999 -9999 -9999 -9999 -9999 -9999 -9999 -9999 -9999 -9999 -9999 -9999 -9999 -9999 -9999 -9999 -9999 -9999 -9999 -9999 -9999 -9999 -9999 -9999 -9999 -9999 -9999 -9999 -9999 -9999 -9999 -9999 -9999 -9999 -9999 -9999 -9999 -9999 -9999 -9999 -9999 62.51069 62.48434 62.27238 62.36873 62.64245 62.12506 61.83169 61.24723 62.27317 64.34625 64.87009 65.51589 66.24842 67.37373 66.23312 65.01608 64.45953 63.97137 64.37694 65.1083 64.88599 64.59575 64.54922 64.79711 65.11658 65.5136 66.18044 67.38403 68.53186 69.6115 70.56195 71.3795 71.64589 72.55351 73.3228 75.03214 76.15649 76.32836 75.42528 73.19394 68.9565 65.19299 66.9065 70.16017 77.53517 85.26194 93.27525 96.26664 95.61117 95.05852 95.88117 96.27129 95.78778 95.38142 94.34292 94.35891 95.1555 95.81264 96.35405 96.64194 96.75227 97.33525 98.2885 99.78922 99.88453 98.85918 95.98722 91.25491 87.445 86.62511 86.71533 -9999 -9999 -9999 -9999 -9999 -9999 -9999 -9999 -9999 -9999 -9999 -9999 -9999 -9999 -9999 -9999 -9999 -9999 -9999 -9999 -9999 -9999 -9999 -9999 -9999 -9999 -9999 -9999 -9999 -9999 -9999 -9999 -9999 -9999 -9999 -9999 -9999 -9999 -9999 -9999 -9999 -9999 -9999 -9999 -9999 -9999 -9999 -9999 -9999 -9999 -9999 -9999 -9999
