NCOLS 171
NROWS 32
XLLCORNER 354000
YLLCORNER 6699200
CELLSIZE 16 
NODATA_value -3.4e+38 
0.0711328312754631 -0.070145919919014 -0.223472535610199 -0.327958941459656 -0.42542564868927 -0.507893145084381 -0.557083964347839 -0.62606543302536 -0.688329935073853 -0.732946157455444 -0.778994619846344 -0.816416323184967 -0.864225268363953 -0.907042026519775 -0.966047525405884 -1.0083075761795 -1.05075633525848 -0.978806138038635 -0.643690943717957 -0.253002226352692 -0.782309114933014 -0.658933937549591 -0.740674018859863 -0.683931171894073 -0.677775263786316 -0.676405310630798 -0.692989945411682 -0.700453460216522 -0.722661435604095 -0.770242035388947 -0.812071204185486 -0.952315032482147 -1.13682782649994 -1.20932734012604 0.245871633291245 -1.61267518997192 -1.7916294336319 -1.9276682138443 0.400242567062378 6.37962055206299 6.404052734375 4.86974620819092 4.19158840179443 3.15830039978027 2.33891820907593 1.52796697616577 1.02222061157227 0.686579883098602 0.344696998596191 -0.051631823182106 -0.226456373929977 -0.513767838478088 -0.835415422916412 -1.05067920684814 -1.28893303871155 -1.24448323249817 7.14997863769531 8.69077587127686 9.40558433532715 9.36724758148193 9.19540786743164 8.06872749328613 7.74121856689453 7.58028364181519 6.87614774703979 6.34659862518311 6.16981983184814 5.78468322753906 4.98888540267944 4.48837804794312 3.82041621208191 3.15774774551392 2.82870221138 2.35749363899231 1.44367718696594 0.628841996192932 0.110387921333313 -0.102746076881886 -0.501673579216003 -0.820825815200806 -0.924528181552887 -1.32321119308472 0.0460354648530483 5.17903280258179 4.14800643920898 11.7742938995361 21.3371086120605 16.9907627105713 14.9187517166138 11.7043933868408 9.2150936126709 3.588454246521 2.86645984649658 2.4682469367981 1.62990546226501 0.592210292816162 -0.664422333240509 -1.34602844715118 -1.91007971763611 -2.37305402755737 -2.49587965011597 -2.57668328285217 0.146821424365044 -2.62432765960693 -2.26211357116699 -2.04819488525391 -2.4580295085907 -2.99592423439026 -3.12209534645081 -3.34125423431396 -2.57486653327942 3.83025479316711 5.37073612213135 5.49739217758179 4.71272373199463 11.5098533630371 11.7273559570312 16.5187168121338 18.3691329956055 14.7853813171387 9.77439594268799 6.59094285964966 5.47328281402588 5.27455234527588 5.05661869049072 4.39414739608765 4.22562503814697 4.02039432525635 3.71920657157898 3.45816087722778 3.15419435501099 2.71223378181458 2.62501668930054 2.52100205421448 2.0962188243866 1.61482489109039 2.18012714385986 3.18738985061646 1.17113029956818 1.11990439891815 7.86810302734375 12.7461519241333 16.9937858581543 15.2615385055542 8.40934944152832 7.42039632797241 6.92490291595459 6.45167398452759 6.18703937530518 5.82476711273193 5.49598836898804 5.1698751449585 4.89662551879883 4.6792311668396 4.36108589172363 4.02847146987915 3.75056743621826 3.36872911453247 2.96353340148926 2.669508934021 2.55034422874451 12.6474523544312 11.6871032714844 9.58935642242432 8.0897970199585 7.64873456954956 6.36101341247559 5.42423582077026 4.46342897415161 3.39582896232605 3.86678647994995
0.164898216724396 0.000851170218084008 -0.138924211263657 -0.286100417375565 -0.400368958711624 -0.474274426698685 -0.550717175006866 -0.6305872797966 -0.693087339401245 -0.733193814754486 -0.772564470767975 -0.693421602249146 -0.846699774265289 -0.913905560970306 -0.975741803646088 -1.03243231773376 -1.09632241725922 -1.13815486431122 -0.518629431724548 -0.454662501811981 -0.667934894561768 -0.720123589038849 -0.905525743961334 -0.843285381793976 -0.830630421638489 -0.835492670536041 -0.805260002613068 -0.850912630558014 -0.849423706531525 -0.87814474105835 -0.879012823104858 -0.964011788368225 -1.15375864505768 -1.27117586135864 0.952122688293457 -1.56404292583466 -1.74387669563293 -1.91294419765472 -1.52413856983185 5.76054525375366 7.10130262374878 5.17588710784912 4.58391666412354 3.42063474655151 2.63920783996582 2.09654188156128 1.62326121330261 1.55775892734528 1.10329926013947 0.477047979831696 0.238998249173164 -0.151606425642967 -0.633456587791443 -0.971105873584747 -1.03463208675385 4.67041158676147 6.49617576599121 9.37074947357178 9.26879119873047 8.57552146911621 8.16184711456299 8.27727031707764 9.47254753112793 7.75273323059082 7.02888536453247 6.54496574401855 6.09390592575073 5.95321893692017 4.64780902862549 4.00532197952271 3.42248797416687 2.9340808391571 2.58465766906738 1.87620747089386 0.817799687385559 0.0502424277365208 -0.521114408969879 -0.759698808193207 -1.0086258649826 -1.26157748699188 -1.00715792179108 -1.4118138551712 -1.40991103649139 3.13740873336792 4.91610050201416 8.78182125091553 12.6014566421509 14.6039609909058 18.325553894043 14.6849813461304 10.9357490539551 9.25364398956299 4.41460800170898 1.86681878566742 1.12047231197357 -0.123356617987156 -1.11812841892242 -1.6161562204361 -1.97745728492737 -2.49956440925598 -2.54700040817261 3.15682983398438 1.95868134498596 0.612023711204529 -1.39511168003082 -2.27216553688049 -2.61816430091858 -2.78317070007324 -2.90031433105469 -3.06093502044678 -3.1383113861084 1.98127615451813 5.31470441818237 5.53356313705444 3.96083474159241 5.98274421691895 18.243444442749 16.0081367492676 18.2322559356689 13.7776508331299 9.12604331970215 5.7454662322998 5.51104640960693 5.53272819519043 5.3473687171936 4.78792142868042 4.58180284500122 4.42049264907837 3.99169635772705 3.79411149024963 3.5071005821228 3.24781322479248 3.09348607063293 2.89744257926941 2.5310378074646 2.11598014831543 2.1139235496521 1.83197951316833 1.3528950214386 1.24590718746185 8.58409595489502 13.6070594787598 13.002161026001 22.6294250488281 12.5889863967896 10.9674549102783 7.72547817230225 6.35751581192017 5.9113392829895 5.59440898895264 5.33020782470703 5.11910533905029 4.83714818954468 4.62231206893921 4.33975315093994 4.08299684524536 3.82606625556946 3.57412695884705 3.18532967567444 2.96481919288635 2.91512608528137 9.34060287475586 11.6005821228027 9.51235485076904 8.12098407745361 7.11663579940796 6.13386678695679 5.08816480636597 4.60584878921509 3.86528015136719 3.7410032749176
0.153548762202263 0.033105157315731 -0.0764861702919006 -0.227630645036697 -0.362707674503326 -0.458461344242096 -0.536367177963257 -0.632544219493866 -0.69523823261261 -0.74321836233139 -0.768669605255127 -0.798543691635132 -0.851262152194977 -0.930612206459045 -0.995977222919464 -1.0587249994278 -1.14509642124176 -1.17876851558685 -0.53294426202774 -0.429242044687271 -0.736636281013489 -0.625224351882935 -1.10476934909821 -0.82725602388382 -0.981657803058624 -0.994425714015961 -0.941188812255859 -0.947382032871246 -0.988984227180481 -0.998166918754578 -1.03155398368835 -1.07526528835297 -1.23119485378265 -1.33968496322632 1.15123736858368 -0.535105526447296 -0.834567785263062 -1.07151019573212 -1.45363104343414 4.03911733627319 6.12234115600586 5.2453761100769 4.8357310295105 3.48283934593201 3.0093982219696 2.44519567489624 1.84383618831635 1.71108758449554 1.47896063327789 1.10761725902557 0.922193467617035 0.459022670984268 -0.307611674070358 -0.62848949432373 1.47996401786804 5.82682609558105 8.15929412841797 9.56737518310547 8.6999626159668 7.32547569274902 7.72137117385864 9.10320091247559 6.86456966400146 5.75636672973633 5.61966896057129 5.39584541320801 8.940749168396 5.37003040313721 4.55359935760498 3.47167730331421 2.87003636360168 2.53662800788879 2.01827907562256 0.832846939563751 0.138784527778625 -0.528172135353088 -0.907488286495209 -1.27599549293518 -1.35610842704773 -1.46031761169434 -0.160864189267159 -1.3718329668045 -1.4256364107132 3.03792285919189 7.02627038955688 7.46407651901245 8.27993869781494 8.52688312530518 10.8835515975952 8.36365413665771 6.26058006286621 19.7766761779785 9.21722412109375 4.40530967712402 1.81445872783661 -0.60428512096405 -1.49077665805817 -2.03365874290466 -2.29626393318176 -2.50487041473389 -2.5907301902771 3.58640360832214 2.33081603050232 0.762536287307739 -0.106927782297134 -1.65300273895264 -2.04255270957947 -2.54964900016785 -2.68509459495544 -2.81565475463867 -2.88542151451111 0.93726110458374 4.10090494155884 4.50714302062988 3.10473608970642 3.62616848945618 18.2572937011719 19.4095802307129 17.0294857025146 14.1704187393188 9.52325820922852 5.95836687088013 5.42276859283447 5.13070392608643 5.05375909805298 5.02946472167969 4.82187938690186 4.5438060760498 4.04144144058228 3.81618857383728 3.67534255981445 3.49964833259583 3.36327266693115 3.09394431114197 2.8078351020813 2.6062023639679 2.52792763710022 2.29226303100586 1.83035254478455 1.82484567165375 7.3844838142395 14.3442096710205 13.8507242202759 16.3153228759766 14.7459411621094 12.7816181182861 10.5953598022461 8.7927713394165 7.16983270645142 5.40620565414429 5.1702356338501 4.92776441574097 4.69238424301147 4.50702428817749 4.25597810745239 3.99183487892151 3.77616477012634 3.61680221557617 3.3057644367218 3.26188826560974 4.01530742645264 7.16459465026855 9.55493545532227 7.85843515396118 7.00464534759521 7.16387796401978 6.27732229232788 5.44549465179443 4.86098432540894 4.13576078414917 3.70721220970154
0.0949061363935471 0.0613596998155117 0.0043357009999454 -0.169048324227333 -0.323007136583328 -0.429445803165436 -0.522788822650909 -0.621129512786865 -0.702099621295929 -0.757983207702637 -0.7843297123909 -0.829104959964752 -0.886198937892914 -0.9450643658638 -1.04220020771027 -1.11583340167999 -1.18206346035004 -1.22750997543335 -0.58060085773468 -0.146397963166237 -0.265023112297058 -0.511854410171509 -1.29623413085938 -0.387129217386246 -1.08798670768738 -1.1589081287384 -1.10552322864532 -1.07061791419983 -1.12458789348602 -1.11493921279907 -1.1608601808548 -1.2332878112793 -1.31570136547089 -1.39822268486023 1.52535355091095 0.722497999668121 0.064865954220295 0.121962025761604 0.462424904108047 1.30229842662811 4.34617948532104 4.42949962615967 4.104896068573 3.78691720962524 3.19048595428467 2.65368890762329 2.00748300552368 1.74997889995575 1.58103406429291 1.2986091375351 1.0877947807312 0.803342819213867 0.335262060165405 0.0149535955861211 4.85914325714111 6.04260921478271 8.59985542297363 8.56689548492432 7.30758428573608 7.37141132354736 7.5778956413269 5.74197435379028 3.73569202423096 3.81750416755676 5.29193019866943 3.92417597770691 3.98240923881531 3.67723417282104 3.3147280216217 2.64665937423706 2.25651812553406 1.83393681049347 1.27349436283112 0.376645117998123 -0.291499853134155 -0.738084673881531 -1.01892554759979 -1.33510529994965 -0.718061149120331 0.608656227588654 1.73941516876221 1.66835308074951 1.19964098930359 2.71395516395569 6.74578237533569 7.39343452453613 6.38003396987915 5.57208490371704 4.91082143783569 3.70218729972839 4.85236215591431 10.1747989654541 30.5476226806641 5.74437665939331 3.37052536010742 -0.684001266956329 -1.72922277450562 -2.28769087791443 -2.55120968818665 -2.61617016792297 -2.66124939918518 1.88603532314301 2.50821781158447 0.756800651550293 0.448184251785278 -0.141956761479378 -1.03893411159515 -1.56382131576538 -2.42666959762573 -2.55797290802002 -1.8740086555481 -0.796673953533173 1.09798979759216 2.36753106117249 1.79020380973816 2.5443754196167 10.322211265564 23.5030860900879 18.2627372741699 14.7848205566406 9.53146743774414 5.5868182182312 5.08941173553467 4.77507209777832 4.91109132766724 4.7496600151062 4.52277660369873 4.35583829879761 4.09624338150024 3.8535475730896 3.84664440155029 8.56315231323242 6.759108543396 5.01303339004517 3.49876928329468 3.05895376205444 2.92231345176697 2.98396825790405 2.69860672950745 3.70704197883606 6.60646057128906 10.5858974456787 14.9339284896851 14.1843881607056 13.6924095153809 12.2917413711548 11.0589971542358 9.84940433502197 7.97511434555054 6.83255195617676 6.3411693572998 5.31381177902222 4.53818798065186 4.413001537323 4.16984033584595 3.92192339897156 3.75793504714966 3.66489052772522 3.41864681243896 3.41151666641235 5.23308610916138 5.7065110206604 6.76519346237183 6.26273679733276 6.14450883865356 6.42012548446655 5.68039178848267 5.40442514419556 5.1204719543457 4.50475406646729 4.0033221244812
0.134237423539162 0.101886391639709 0.0603957325220108 -0.103459849953651 -0.252807766199112 -0.371246099472046 -0.49908173084259 -0.588373303413391 -0.688724517822266 -0.759984910488129 -0.807756006717682 -0.863003313541412 -0.91805899143219 -0.955148339271545 -1.06089544296265 -1.18145263195038 -1.22541666030884 -1.27204835414886 -0.957967698574066 -0.0522099509835243 -0.213674649596214 -0.409408241510391 -1.11977434158325 -0.854407012462616 -0.846950054168701 -1.32925200462341 -1.25526165962219 -1.22740113735199 -1.24108386039734 -1.23103892803192 -1.28433358669281 -1.38423597812653 -1.39682304859161 -1.45604813098907 1.10388147830963 1.42960691452026 0.895946621894836 0.525742292404175 1.35421621799469 1.13414800167084 1.21256220340729 3.72415280342102 2.9310450553894 3.26698422431946 2.85460495948792 2.40828394889832 2.15280055999756 1.82639634609222 1.58808243274689 1.23246514797211 1.06411325931549 0.887824833393097 0.807102143764496 0.684881150722504 3.34189128875732 8.09239768981934 8.2200403213501 7.60197925567627 7.37699127197266 6.83793926239014 5.28223323822021 2.24671912193298 1.21151554584503 3.86229395866394 7.34439086914062 4.33676481246948 2.3928370475769 4.31447553634644 2.07707047462463 1.93422377109528 1.64036464691162 1.28547894954681 0.694992899894714 0.377420425415039 0.090056911110878 -0.225533694028854 -0.569407343864441 -0.859825730323792 -0.227636337280273 2.58167052268982 3.96764421463013 4.54870510101318 4.62721490859985 4.09220170974731 4.92286014556885 4.26131582260132 3.53226923942566 2.76320505142212 2.01564645767212 1.65439486503601 1.84480440616608 7.6669135093689 34.3725204467773 10.020806312561 4.43290567398071 0.378990828990936 -1.88619780540466 -2.37126445770264 -2.6753261089325 -2.80871534347534 -2.82767558097839 -0.991699039936066 3.61617469787598 1.57562780380249 0.90391206741333 0.951809048652649 -0.00492024188861251 -0.804021000862122 -1.44886088371277 -1.5873156785965 -1.10711336135864 -1.73754477500916 -0.826614797115326 1.5671204328537 2.34995460510254 3.15702033042908 5.58150196075439 18.8496437072754 20.0313110351562 15.8182706832886 11.4869480133057 6.39936017990112 5.3550705909729 4.60202789306641 4.59893894195557 4.44337940216064 4.28487062454224 4.20724201202393 4.11824226379395 4.12040758132935 8.78275585174561 10.7946119308472 10.3703260421753 7.68030309677124 5.25451135635376 3.71278595924377 3.48253703117371 5.40423345565796 6.31050443649292 7.63015174865723 8.24103736877441 9.04407215118408 13.0032548904419 13.8716297149658 12.8635654449463 11.8996133804321 10.5537300109863 9.19050312042236 7.88519334793091 7.02427339553833 6.50554943084717 5.71169710159302 5.69069242477417 5.23604154586792 4.30054998397827 3.88295578956604 3.68165802955627 3.6397111415863 3.56159925460815 3.51825428009033 4.77313995361328 4.31196928024292 3.70385408401489 4.36748266220093 4.66276025772095 5.03687763214111 4.68315553665161 4.93271350860596 4.82875633239746 4.29311609268188 4.26612234115601
0.168830201029778 0.135514751076698 0.0989829823374748 -0.0418562367558479 -0.202677398920059 -0.319314152002335 -0.446269601583481 -0.548926830291748 -0.643199920654297 -0.737816095352173 -0.822449266910553 -0.889620244503021 -0.942975878715515 -0.990646779537201 -1.09820175170898 -1.25079572200775 -1.28804576396942 -1.31227326393127 -1.3563756942749 -0.127833604812622 0.0813611596822739 -0.886692643165588 -0.00300528318621218 -0.814226686954498 -0.835928499698639 -1.28563988208771 -1.43466818332672 -1.44447648525238 -1.37275218963623 -1.35543596744537 -1.43665170669556 -1.53972566127777 -1.55672347545624 -1.55695223808289 2.10342216491699 1.513258934021 1.33694911003113 1.06940007209778 1.33978223800659 1.53571212291718 0.843084573745728 1.7361775636673 2.68126463890076 2.31904363632202 2.06320261955261 1.71133553981781 1.81928277015686 1.4582941532135 1.31420469284058 1.26988732814789 1.13987588882446 0.968487560749054 0.823495984077454 3.04358959197998 3.20528364181519 6.01993751525879 6.32669687271118 5.47959613800049 4.82523107528687 5.61356925964355 3.87932014465332 1.92460644245148 0.237998947501183 0.867203891277313 2.70201230049133 5.05632209777832 3.65772557258606 4.76256561279297 1.43703734874725 1.15527391433716 0.913757860660553 0.735058903694153 0.69940459728241 0.512116312980652 0.422380417585373 0.274504572153091 -0.0801209583878517 -0.241719678044319 0.671445667743683 3.4387743473053 5.01234197616577 5.0077953338623 4.24922561645508 3.27270078659058 2.84128427505493 2.09888434410095 1.50340723991394 0.672313988208771 0.0548812970519066 -0.0856586545705795 1.3035215139389 6.62486219406128 30.0191593170166 14.5307884216309 7.80389022827148 1.4859801530838 -1.86942338943481 -2.45592832565308 -2.73283290863037 -2.82889175415039 -0.871000587940216 -1.89930951595306 0.226925015449524 4.90834379196167 1.99259841442108 1.57165861129761 0.569260597229004 -0.554157912731171 -0.650617599487305 -0.822780072689056 -0.349277764558792 -1.63890326023102 -0.696916997432709 2.13408422470093 3.83297801017761 4.54118967056274 4.40127897262573 14.3295660018921 19.4248428344727 14.6372146606445 11.6911430358887 7.48303985595703 5.83268976211548 5.12399339675903 4.74340295791626 4.45687007904053 4.09470129013062 4.22056341171265 5.19420719146729 7.92208862304688 10.6543207168579 11.0907554626465 8.11480522155762 6.04902410507202 5.34000539779663 3.85915875434875 3.68780565261841 6.22949504852295 6.50142669677734 7.51936101913452 7.97720241546631 7.83888530731201 10.1664953231812 12.0764741897583 11.0446500778198 10.927357673645 9.45021152496338 8.18934917449951 6.91603708267212 6.16635131835938 6.04021215438843 5.87423229217529 10.3772830963135 5.92615938186646 5.09333562850952 4.78545427322388 4.20447254180908 3.59508156776428 3.63560366630554 3.35046672821045 3.36833190917969 3.32473182678223 3.2778217792511 3.32470154762268 5.45374059677124 5.36537170410156 4.2029447555542 4.30437564849854 4.27299308776855 3.93047022819519 4.15476036071777
0.184262931346893 0.166031703352928 0.133862122893333 0.00162211712449789 -0.145772099494934 -0.272879481315613 -0.408043265342712 -0.530449211597443 -0.618861436843872 -0.697334468364716 -0.806852519512177 -0.897083878517151 -0.967333316802979 -1.04674601554871 -1.17500150203705 -1.31540036201477 -1.25551557540894 -1.38938248157501 -1.05941915512085 -1.23514401912689 0.0352027900516987 -0.127341836690903 0.612330436706543 0.0284682270139456 -0.764894783496857 -1.10122120380402 -1.0893931388855 -1.35176241397858 -1.48678886890411 -1.60750329494476 -1.64792430400848 -1.71345615386963 -1.70933330059052 -1.68794357776642 3.18003582954407 1.84583449363708 1.61937367916107 1.44765484333038 1.05755150318146 0.920815885066986 0.832286894321442 0.85449492931366 1.21596956253052 1.24582314491272 1.25435721874237 1.33482992649078 1.10465848445892 0.92366749048233 0.762668251991272 1.0404247045517 0.942398369312286 0.886694192886353 1.37941801548004 2.17450714111328 2.74883818626404 2.56947612762451 5.70133638381958 2.69054365158081 2.53341054916382 2.45561623573303 2.39245796203613 1.62755262851715 0.338998824357986 0.0713118463754654 0.113748610019684 3.86506795883179 2.67537879943848 3.02244806289673 1.37800896167755 0.706423699855804 0.599382638931274 0.53406947851181 0.507156729698181 0.381575882434845 0.299441754817963 0.232101887464523 0.353405028581619 0.209862038493156 0.607051432132721 2.14726161956787 3.37154340744019 2.31399488449097 2.20041608810425 2.4586980342865 1.88148581981659 1.64043986797333 1.22426199913025 0.477510154247284 -0.472080230712891 -0.959322273731232 2.7582471370697 10.9030609130859 22.2313327789307 15.7670841217041 8.92742538452148 3.35122585296631 -1.32604694366455 -2.33249402046204 -2.73563432693481 -2.83521962165833 1.98239493370056 -0.721642851829529 -1.04620623588562 3.72468328475952 3.09011459350586 2.15461134910583 1.04395055770874 0.0777086690068245 0.0711491927504539 0.807020723819733 0.24860243499279 -0.720457851886749 -0.494996398687363 1.83097219467163 3.07058525085449 3.53411364555359 3.98920273780823 10.9416751861572 13.9432249069214 12.7394065856934 11.115327835083 8.27458477020264 6.06884527206421 5.76321220397949 5.40215635299683 4.90354108810425 4.59192371368408 5.50907468795776 8.01211738586426 10.422737121582 11.4885721206665 9.4693546295166 6.86132097244263 5.85684394836426 4.2020058631897 3.91811847686768 4.79222011566162 7.85432291030884 10.1805229187012 8.69943714141846 7.67431735992432 7.60133075714111 7.73105907440186 8.97134494781494 8.62244129180908 8.74494361877441 8.36600971221924 7.41343450546265 6.3063850402832 5.6484522819519 5.74192380905151 5.66061210632324 8.34431171417236 6.90680742263794 5.75805330276489 5.41626167297363 4.81992959976196 4.26637363433838 3.98691010475159 3.72993421554565 3.41900205612183 3.03756976127625 3.0023078918457 3.11670684814453 6.72102642059326 7.86906814575195 6.06121063232422 4.84774780273438 4.17176580429077 3.91382193565369 3.83237314224243
0.201047644019127 0.174702882766724 0.142151951789856 0.019640427082777 -0.113627277314663 -0.225952818989754 -0.35722941160202 -0.487518191337585 -0.601444661617279 -0.68530011177063 -0.783644735813141 -0.886754393577576 -1.00651979446411 -1.11439204216003 -1.26023077964783 -1.40448641777039 -1.33389985561371 -1.47416698932648 -0.96726781129837 0.0463359914720058 -0.107930518686771 0.175357729196548 0.539569020271301 0.360670208930969 -0.32540038228035 -0.554634988307953 -1.00136768817902 -1.3259311914444 -1.43691146373749 -1.69744515419006 -1.84364426136017 -1.9543217420578 -1.96739077568054 -1.38188910484314 4.7333288192749 2.34109282493591 1.65263915061951 1.38226044178009 1.18335318565369 0.991571664810181 0.8606818318367 0.710472404956818 0.651219308376312 0.631817698478699 0.678467094898224 0.676609456539154 0.612353146076202 0.690400540828705 0.60981148481369 0.629017114639282 0.78021913766861 0.872508525848389 1.28829121589661 1.58024501800537 1.60237956047058 1.43801558017731 1.26557397842407 3.71257662773132 1.64314770698547 1.3026350736618 3.02590799331665 0.642250299453735 0.181425765156746 0.11884331703186 0.137559741735458 -0.0233403835445642 2.65354204177856 2.93580269813538 1.33652865886688 0.603494584560394 0.282601922750473 0.31154990196228 0.605077624320984 0.327012807130814 0.290003806352615 0.255237489938736 0.249647781252861 0.163520842790604 0.0936955735087395 0.177756667137146 0.0560730434954166 -0.00728742545470595 0.235650107264519 0.53003191947937 0.351494371891022 0.618491530418396 0.501238465309143 -0.245361760258675 -0.616421103477478 -0.905691862106323 2.66801810264587 11.729513168335 16.8344078063965 14.4707164764404 8.24549388885498 3.72716760635376 -0.90679794549942 -2.09825491905212 -2.57754302024841 -2.76819133758545 2.40797138214111 1.00836277008057 -0.467615634202957 2.11511325836182 2.99675035476685 2.01001167297363 1.68970906734467 1.46361839771271 0.806805849075317 1.10955607891083 0.0110241062939167 -0.215986251831055 0.150320336222649 0.362729489803314 1.97766077518463 2.23548221588135 3.74500513076782 7.33823680877686 10.3708600997925 13.1753044128418 10.4956512451172 9.29307746887207 7.34331035614014 6.07395648956299 5.44574785232544 5.00162220001221 5.20905447006226 7.60087490081787 10.2531471252441 11.9129009246826 10.5562381744385 8.54744815826416 7.64516639709473 5.70666551589966 4.66926908493042 4.48084592819214 6.08947134017944 9.63680362701416 9.24346351623535 7.39986896514893 6.28465175628662 6.76496458053589 5.98231220245361 5.39006328582764 6.28556632995605 6.51652765274048 6.84052753448486 6.38383388519287 5.69755983352661 5.3101749420166 5.11398696899414 5.93247509002686 6.82050228118896 7.10487937927246 5.59642648696899 5.2904200553894 5.06274080276489 4.59652709960938 4.08924198150635 3.80500411987305 3.38861131668091 3.06747460365295 3.53632736206055 7.56486463546753 7.4039363861084 9.58339309692383 7.46694421768188 6.22027587890625 5.48236083984375 4.2808666229248 4.03228616714478
0.202070191502571 0.191482469439507 0.137740582227707 0.00504394434392452 -0.112089172005653 -0.212541133165359 -0.31607848405838 -0.449319630861282 -0.56990784406662 -0.677443265914917 -0.769843518733978 -0.877245247364044 -1.04395115375519 -1.20279371738434 -1.34274971485138 -1.47917640209198 -0.684625566005707 -1.53278911113739 -1.57415723800659 -0.555099427700043 0.477542102336884 0.293463349342346 0.513712108135223 0.763419687747955 0.528177201747894 -0.513247668743134 -0.947989463806152 -1.20213639736176 -1.40350306034088 -1.74101686477661 -1.91970980167389 -2.03161239624023 -2.08380389213562 1.6799498796463 4.17269659042358 2.96419763565063 2.10122752189636 1.56372630596161 1.21078729629517 1.09874022006989 0.937972247600555 0.720781624317169 0.674871325492859 0.631265580654144 0.53477543592453 0.522639155387878 0.459556937217712 0.484780758619308 0.430125594139099 0.357067674398422 0.350521564483643 0.386779695749283 0.411816596984863 0.442580461502075 0.758980870246887 0.751575767993927 0.662457942962646 1.85211169719696 1.05043363571167 2.09201741218567 0.68824976682663 0.352158278226852 0.222430109977722 0.129615724086761 0.0345900021493435 -0.103542543947697 4.07760953903198 4.34983062744141 1.99219131469727 1.74756288528442 0.628893077373505 0.186622053384781 0.796048283576965 1.039222240448 0.428610295057297 0.274858772754669 0.213987290859222 0.146352410316467 0.0527305938303471 -0.0684384182095528 -0.222550854086876 -0.35686531662941 -0.308642238378525 -0.398207902908325 -0.417117416858673 -0.572792112827301 -0.640647768974304 -0.804985880851746 -0.969795942306519 -0.615458309650421 3.23050308227539 7.93918752670288 14.833667755127 13.2364416122437 7.82903671264648 3.59949278831482 -0.582387387752533 -1.82732152938843 -2.46116471290588 -2.69483733177185 2.34592366218567 1.97824716567993 0.380092829465866 -0.0473048351705074 2.03434467315674 1.89857864379883 3.71363759040833 2.49492073059082 1.43672907352448 0.925096035003662 0.597673952579498 0.615187883377075 1.7207111120224 1.84220147132874 1.42761051654816 0.78607052564621 0.888217449188232 3.66675901412964 10.1760692596436 16.4765949249268 13.3938188552856 9.27626705169678 7.77752590179443 6.12964534759521 5.88047552108765 5.40577030181885 6.7636251449585 9.11896324157715 10.6808938980103 11.1331548690796 9.56453323364258 8.8129825592041 8.24115085601807 6.73943853378296 6.07871627807617 5.66467142105103 7.1298189163208 7.55440044403076 5.61864614486694 4.79199743270874 5.63005208969116 5.47068643569946 4.78886651992798 4.33259105682373 6.14937686920166 8.85297393798828 5.53004932403564 5.33221673965454 5.26503610610962 4.94490480422974 4.71160936355591 4.85215997695923 6.98550987243652 5.56780195236206 5.11929845809937 5.02075242996216 4.82649230957031 4.31186580657959 3.69318985939026 3.04655718803406 2.77454876899719 2.71303939819336 9.26804637908936 9.16571998596191 11.1466407775879 11.9629306793213 9.12549495697021 7.05596971511841 6.49819087982178 5.30662488937378 5.00008773803711
0.185402512550354 0.164213880896568 0.0993966311216354 -0.0184602495282888 -0.115516029298306 -0.211396887898445 -0.309542506933212 -0.431189030408859 -0.556324362754822 -0.6579230427742 -0.773974180221558 -0.892289817333221 -1.04929637908936 -1.21652460098267 -1.35654091835022 -1.47834575176239 -1.56440758705139 -1.6305319070816 -1.68225407600403 -0.419639319181442 1.42586278915405 0.952177286148071 0.625060439109802 0.721639633178711 0.455454736948013 -0.0910190269351006 -0.727769017219543 -1.0702850818634 -1.28277230262756 -1.42976403236389 -1.90909898281097 -2.0907416343689 -0.481243818998337 4.20756196975708 2.61650609970093 2.07270956039429 1.54741454124451 1.19540202617645 1.35623776912689 1.21511316299438 1.02226912975311 0.758411765098572 0.676563024520874 0.608739733695984 0.451539307832718 0.376525908708572 0.316898345947266 0.214927047491074 0.111546367406845 -0.00279432581737638 -0.0258344355970621 -0.0262981653213501 -0.0797682106494904 -0.134615302085876 -0.196686714887619 -0.317128419876099 -0.463087379932404 4.50118255615234 7.17547607421875 2.99573373794556 0.388722777366638 0.272903978824615 0.323328584432602 0.173996344208717 0.0493427701294422 -0.100192815065384 1.23001003265381 4.60749626159668 3.4552686214447 2.80291485786438 1.98076939582825 0.923547446727753 0.749360322952271 1.27208578586578 0.783630311489105 0.286921143531799 0.104756057262421 0.00813848618417978 -0.101781725883484 -0.316790372133255 -0.502857625484467 -0.718063354492188 -0.941209316253662 -1.17458808422089 -1.22299242019653 7.03173351287842 -0.150181859731674 -0.876510560512543 -0.942706167697906 1.21501779556274 2.80103993415833 5.90782356262207 14.4126577377319 11.1334638595581 6.51841926574707 3.45877623558044 -0.935043513774872 -1.80042552947998 -2.34411120414734 -2.56306529045105 0.437342166900635 3.71763706207275 1.09039092063904 0.293202668428421 2.593998670578 3.66014719009399 4.02040195465088 3.14296054840088 1.53506338596344 1.02114355564117 1.15948963165283 1.01704728603363 1.82962965965271 1.36268472671509 0.258174866437912 -0.212627992033958 -0.780664026737213 2.32350325584412 8.22549915313721 18.7603569030762 18.4443492889404 11.9520177841187 9.60121631622314 6.73290729522705 6.10634899139404 5.81939649581909 7.49932909011841 10.7792844772339 11.6897983551025 11.4691514968872 10.1449851989746 9.13003635406494 8.11146926879883 7.12515687942505 6.68967008590698 5.99996995925903 5.47988891601562 5.12283706665039 4.45503664016724 3.82069182395935 3.86420512199402 9.77906608581543 4.52732944488525 4.19500589370728 4.09437847137451 10.3566370010376 6.85610723495483 5.74840021133423 4.91550540924072 4.6180534362793 4.47792196273804 4.36180925369263 4.37311744689941 4.42146348953247 4.45620107650757 4.4305534362793 4.23126792907715 3.84860920906067 3.23431015014648 2.67916941642761 2.2852885723114 2.18053698539734 3.92862153053284 8.68819046020508 13.7169790267944 16.4159297943115 11.6961145401001 8.70737361907959 7.69043445587158 6.2689528465271 5.8627142906189
0.167234465479851 0.134951531887054 0.0479137822985649 -0.0639706924557686 -0.148224651813507 -0.224801078438759 -0.316195040941238 -0.42766460776329 -0.556423127651215 -0.661039233207703 -0.775801122188568 -0.89980012178421 -1.05487370491028 -1.22414672374725 -1.35621798038483 -1.49680590629578 -1.60422050952911 -1.71630954742432 -1.76824939250946 -0.53058123588562 0.909172117710114 1.55139875411987 0.794108927249908 0.704553127288818 0.38595449924469 0.521634459495544 0.258725821971893 -0.842529833316803 -1.05982971191406 -1.30129599571228 -1.78025352954865 -2.05087566375732 -0.62628972530365 2.38438034057617 2.15105605125427 1.57195317745209 1.26397204399109 1.16121411323547 1.11509096622467 0.911702036857605 0.676347851753235 0.700348615646362 0.552998125553131 0.462219268083572 0.27056559920311 0.139647766947746 -0.0569144152104855 -0.298792093992233 -0.47005096077919 -0.587978363037109 -0.641599118709564 -0.675223350524902 -0.743934750556946 -0.749329388141632 -0.724183619022369 -0.835271537303925 -1.16419041156769 6.18953323364258 6.47695827484131 8.50565338134766 5.23479557037354 1.12588798999786 0.180388480424881 0.0947536379098892 0.0457273758947849 0.0605250485241413 1.01207411289215 3.16889429092407 3.71563172340393 3.09451103210449 2.57758975028992 1.92363572120667 1.63123667240143 1.00354468822479 0.484015285968781 0.283295691013336 -0.0635664239525795 -0.201275512576103 -0.413367867469788 -0.651037573814392 -0.939586579799652 -1.31740343570709 -1.83204400539398 -2.07315731048584 -1.96637678146362 23.1044807434082 10.1208209991455 1.7444920539856 2.87233591079712 0.299159556627274 3.55475282669067 3.80876731872559 16.0003108978271 9.05546379089355 5.62280511856079 1.62992703914642 -1.41204154491425 -1.94922924041748 -2.23968482017517 -2.38371348381042 -2.03789710998535 3.79938292503357 1.6248676776886 1.57054173946381 4.57429695129395 5.18760919570923 4.03051710128784 2.6657395362854 1.86853229999542 1.16170036792755 0.926132202148438 1.23003733158112 0.877440989017487 0.840376257896423 0.309903085231781 -0.201336741447449 -0.743319988250732 -0.783477067947388 5.2404580116272 18.433629989624 21.2056846618652 15.4643936157227 12.843677520752 9.0524845123291 7.81586503982544 6.6873779296875 8.34977722167969 9.61430931091309 10.4830226898193 11.2262849807739 10.1690073013306 9.34313297271729 7.98995208740234 7.31687068939209 6.99775123596191 6.29526853561401 5.61071825027466 4.9210147857666 4.38476800918579 3.82851219177246 3.67721915245056 7.4678168296814 9.35964870452881 5.91012525558472 5.20751428604126 6.87222957611084 8.03812694549561 6.44014978408813 5.18493986129761 4.3268723487854 4.3227972984314 4.04413557052612 3.77720618247986 3.72429180145264 3.67554545402527 3.57450771331787 3.51685166358948 3.43723583221436 3.20579361915588 2.70224666595459 2.08431220054626 1.83611392974854 1.99531650543213 7.85263395309448 13.7855978012085 16.077808380127 12.2745409011841 11.2030200958252 10.0191659927368 7.83888149261475 7.32350873947144
0.145159527659416 0.0900699347257614 -0.0141689144074917 -0.110116019845009 -0.188838049769402 -0.262395173311234 -0.339646190404892 -0.438918471336365 -0.570450723171234 -0.669211745262146 -0.788650691509247 -0.930010497570038 -1.06320631504059 -1.19831097126007 -1.35885214805603 -1.52833425998688 -1.62765955924988 -1.74212908744812 -1.83637320995331 -1.46240830421448 0.65769100189209 2.03550958633423 1.79374539852142 0.693844974040985 0.205437555909157 0.770876944065094 0.290799647569656 -0.0787383690476418 -0.84944099187851 -1.07746851444244 -1.46523773670197 -1.67989373207092 -0.928865313529968 0.596923649311066 1.00416100025177 0.85047847032547 0.75370728969574 0.895444631576538 0.751490354537964 0.645179450511932 0.567942082881927 0.364900767803192 0.234455719590187 0.00402994407340884 -0.115807339549065 -0.474870234727859 -0.668440341949463 -0.89853447675705 -1.04627788066864 -1.10778486728668 -1.17627453804016 -1.19218456745148 -0.447504907846451 -1.24938559532166 -1.37642347812653 -1.42011785507202 -1.58195281028748 0.831503510475159 4.92274475097656 5.65734767913818 9.74464988708496 9.95546627044678 2.52168226242065 0.803942203521729 0.123549312353134 0.07264444231987 1.74563848972321 2.84177446365356 2.49524998664856 1.95581150054932 2.21474981307983 2.02912783622742 1.67055547237396 1.28397250175476 0.921044051647186 0.391844213008881 -0.166468784213066 -0.296170741319656 -0.57617712020874 -0.957252204418182 -1.21907532215118 -1.82979691028595 -2.29506874084473 -2.46999454498291 1.15955317020416 7.4078049659729 22.6978206634521 12.5843868255615 9.43006610870361 3.21319127082825 5.18030643463135 7.08070707321167 12.4926195144653 8.1020975112915 5.04942274093628 -0.636789262294769 -1.55968141555786 -1.9066686630249 -2.15556693077087 -2.27543807029724 1.38770496845245 3.20117115974426 3.83274674415588 3.85541558265686 6.07465982437134 5.89583253860474 3.4672577381134 2.37256574630737 2.33810329437256 1.62692725658417 0.777501285076141 0.795633554458618 0.624084293842316 0.531139135360718 -0.0236141365021467 -0.293443351984024 -0.584190249443054 -0.726805567741394 3.03171110153198 14.4072504043579 20.6810932159424 20.576545715332 15.2565097808838 12.2871856689453 10.6016206741333 9.46589756011963 8.48192024230957 9.53990459442139 9.11083889007568 11.5326013565063 10.0775117874146 8.6153621673584 7.45795202255249 7.33611583709717 6.80728435516357 6.10374164581299 5.570396900177 4.70179271697998 4.40584516525269 4.17471361160278 3.91645312309265 4.197105884552 7.9403133392334 7.89620161056519 7.04178094863892 6.32129287719727 6.8490252494812 5.37298679351807 4.69623851776123 4.08895349502563 3.87749910354614 3.77431464195251 3.67784857749939 3.58081436157227 3.48635292053223 3.41418170928955 3.33850765228271 3.23340177536011 3.07104301452637 2.77459192276001 2.28534340858459 1.91401994228363 1.75351011753082 5.62303972244263 11.9236135482788 13.8557462692261 12.0398721694946 11.6490659713745 10.7596235275269 9.75570678710938 9.20068454742432
0.102750971913338 0.0159990377724171 -0.0773414894938469 -0.167333751916885 -0.2551489174366 -0.32979542016983 -0.402071207761765 -0.493526488542557 -0.594305872917175 -0.686729788780212 -0.807717740535736 -0.937839329242706 -1.07032942771912 -1.20608770847321 -1.37880659103394 -1.54917228221893 -1.6812162399292 -1.77793824672699 -1.87705492973328 -1.9454824924469 -0.373783618211746 1.78043949604034 2.70881366729736 1.39402604103088 0.372807830572128 0.824346959590912 -0.191831976175308 0.941211044788361 -0.490427613258362 -0.786266803741455 -1.32885134220123 -1.56372261047363 0.111577831208706 0.568977057933807 0.286182552576065 0.0123899625614285 0.202222377061844 0.225650727748871 0.121496096253395 0.203742384910583 0.0525917783379555 -0.142689600586891 -0.295606344938278 -0.396354377269745 -0.780695557594299 -1.00046503543854 -1.16355621814728 -1.2980682849884 -1.47325718402863 -1.64847433567047 -1.82078289985657 -0.695415735244751 -1.59946060180664 -1.96988523006439 -2.12041592597961 -1.70851600170135 -1.75636553764343 1.2980055809021 3.78763222694397 4.40564775466919 6.3859076499939 12.6408720016479 10.7298316955566 4.54246520996094 2.28455567359924 1.17941546440125 1.38797807693481 3.38026762008667 1.5274099111557 1.28087389469147 1.49428653717041 1.26758968830109 0.913285315036774 0.976104140281677 0.308795809745789 -0.112686946988106 -0.215359836816788 -0.387298852205276 -0.772100985050201 -1.10688030719757 -1.48005282878876 -2.007737159729 -2.31553626060486 -2.20781707763672 1.85052883625031 3.14190316200256 11.4924077987671 20.8370380401611 14.8077259063721 11.3633155822754 7.36408853530884 8.75759124755859 7.11472082138062 5.31963348388672 3.04156017303467 -1.00883328914642 -1.62019038200378 -1.87471795082092 -2.09624791145325 -2.15250515937805 4.59131765365601 4.04330730438232 4.22077894210815 5.32608699798584 6.4901123046875 5.03887033462524 3.07454657554626 2.49399304389954 1.85814797878265 1.34809327125549 0.930426955223083 0.833869755268097 0.476502269506454 0.202759176492691 -0.0683045014739037 -0.298019617795944 -0.29494845867157 -0.494222223758698 2.16969895362854 8.5539083480835 20.3455257415771 22.6579322814941 16.4054622650146 14.340950012207 13.0090894699097 11.9487180709839 9.99793148040771 9.45306873321533 9.15912342071533 10.208158493042 9.22410869598389 7.66004180908203 7.34717512130737 7.09100341796875 6.40274715423584 5.78152370452881 5.0250678062439 4.52283668518066 4.38517951965332 4.35797595977783 4.16330003738403 4.03774976730347 6.87945985794067 8.43142700195312 7.69081592559814 6.98988103866577 6.33578300476074 5.56365156173706 4.50034952163696 3.97951722145081 3.79543471336365 3.70118141174316 3.63357162475586 3.5315043926239 3.43301868438721 3.35101890563965 3.27769756317139 3.23689365386963 3.14045691490173 2.92522215843201 2.60296225547791 2.09769105911255 1.77289438247681 2.1541063785553 10.7344741821289 11.7835464477539 11.8241586685181 11.2027931213379 10.6513338088989 10.5130195617676 9.87590599060059
0.0310371182858944 -0.0918001681566238 -0.162936419248581 -0.256812334060669 -0.338627874851227 -0.397508174180984 -0.483782976865768 -0.562166154384613 -0.64036101102829 -0.721145272254944 -0.82724666595459 -0.952961981296539 -1.08256804943085 -1.21012258529663 -1.39427673816681 -1.56460762023926 -1.74091172218323 -1.83370900154114 -1.90133082866669 -1.99171185493469 -0.696112275123596 0.706601858139038 1.51193475723267 2.22211170196533 2.59833383560181 1.08988475799561 -0.0654205605387688 0.550305068492889 0.24798895418644 -0.655872702598572 -0.968889355659485 -1.20362508296967 -0.563199281692505 0.260337710380554 -0.240805327892303 -0.456446677446365 -0.692486345767975 -1.00624585151672 -1.04949986934662 -0.710379719734192 -0.912334740161896 -1.09030091762543 -0.909128308296204 -1.02693223953247 -1.29997479915619 -1.51851320266724 -1.55329692363739 -1.86571109294891 -2.22022461891174 -2.43217015266418 -2.53283405303955 -2.54892778396606 -0.60655277967453 -2.5466513633728 -2.59573483467102 -2.65297889709473 -2.71379137039185 -1.17618453502655 13.3175230026245 6.43212509155273 7.1081223487854 5.24587678909302 13.7043180465698 10.5667810440063 6.13773918151855 3.467369556427 2.57030844688416 2.98362278938293 2.59727048873901 1.38190948963165 1.06123268604279 0.672387778759003 0.199001923203468 -0.142021477222443 -0.335045635700226 -0.480316758155823 -0.558748841285706 -0.684279680252075 -0.976209282875061 -1.26460099220276 -1.62492108345032 -2.04628705978394 -2.27127242088318 -0.790530562400818 2.52673292160034 4.55841541290283 8.19688892364502 17.0199432373047 16.3200531005859 13.3275909423828 12.5972414016724 9.99863243103027 9.08366680145264 5.82236385345459 4.81147766113281 0.592827081680298 -1.71018838882446 -1.96661126613617 -2.13616156578064 1.13265299797058 4.29196786880493 4.10303258895874 3.38252186775208 7.15718698501587 5.44029474258423 4.08336448669434 2.60051536560059 1.97697150707245 1.92828118801117 1.44134259223938 1.28199994564056 0.882155418395996 0.578458666801453 0.279798090457916 0.161250457167625 -0.00670507829636335 -0.128332391381264 0.518306910991669 0.822131633758545 8.06261539459229 18.014232635498 21.5860118865967 17.6068019866943 15.8272180557251 13.6842727661133 12.9795703887939 12.0684204101562 11.2725419998169 10.6077899932861 9.26809215545654 8.75167655944824 8.20469951629639 7.26198768615723 6.92303466796875 6.23681116104126 5.65065145492554 4.93222188949585 4.40015602111816 4.28698635101318 7.06297540664673 5.59078788757324 4.34032392501831 5.08132600784302 7.79533004760742 7.7575831413269 6.46004104614258 5.70279264450073 4.74271821975708 4.59001398086548 4.04276752471924 3.664635181427 3.55997204780579 3.52788090705872 3.44008731842041 3.34256744384766 3.29523944854736 3.22193694114685 3.16137218475342 3.13959789276123 3.04708027839661 2.75199317932129 2.40337896347046 2.03287744522095 1.99105060100555 7.6278829574585 11.0891675949097 11.1349048614502 10.7427835464478 10.5470733642578 10.20325756073 10.279088973999
0.0456434786319733 -0.168456390500069 -0.256226360797882 -0.353776067495346 -0.421295762062073 -0.526829659938812 -0.589578449726105 -0.607699513435364 -0.684752762317657 -0.759798645973206 -0.855014085769653 -0.962682247161865 -1.08870565891266 -1.21932137012482 -1.38730359077454 -1.59669303894043 -1.7545679807663 -1.85174012184143 -1.92350292205811 -2.01272463798523 -1.87064290046692 0.175289422273636 0.021446792408824 1.46093392372131 4.24336194992065 1.64608705043793 0.497751891613007 -0.0480807907879353 -0.0441230125725269 -0.566271364688873 -0.839532613754272 -1.06068134307861 -0.643868505954742 -0.777173221111298 -1.0907586812973 -1.3255900144577 -1.35231757164001 -1.05224990844727 -1.4285728931427 -1.67029559612274 -1.79529201984406 -1.83644556999207 -1.79692208766937 -1.89632833003998 -2.05964207649231 -2.04310035705566 -2.26656985282898 -2.56058645248413 -2.75123810768127 -2.85908460617065 -2.87711930274963 -2.99987316131592 3.05617594718933 -0.941088080406189 -2.83600521087646 -2.65370559692383 -2.97047686576843 -3.10858583450317 5.57105588912964 15.6084308624268 9.20179653167725 8.54909992218018 12.1998090744019 14.3231801986694 8.74144458770752 6.85220241546631 4.40897655487061 4.04498958587646 2.7676465511322 2.21005058288574 1.38531506061554 0.583765268325806 -0.492549151182175 -0.811231315135956 -0.9596266746521 -1.05256927013397 -1.10849475860596 0.343909561634064 -1.3104966878891 -1.45647275447845 -1.78646373748779 -2.13970756530762 -2.22127556800842 -2.34691786766052 4.39383316040039 5.87900686264038 7.21374368667603 15.1508188247681 16.954797744751 14.134467124939 13.6053514480591 11.4128713607788 10.0835094451904 8.33706188201904 6.22199773788452 3.69576454162598 -0.314427942037582 -1.23439693450928 -2.22612190246582 1.70057272911072 6.0764741897583 4.28636980056763 4.03466367721558 4.85558986663818 6.33190488815308 4.73890399932861 2.87987995147705 1.99930715560913 1.4849100112915 1.18200123310089 2.72049450874329 1.98688662052155 1.04859209060669 0.574395835399628 0.354719430208206 0.277485698461533 0.928918302059174 2.0644850730896 1.9631016254425 4.78714656829834 15.6092920303345 19.7995853424072 17.3420810699463 16.0932674407959 14.3900651931763 13.7235736846924 13.4078311920166 12.2419509887695 11.4427843093872 10.4309597015381 9.7379264831543 9.14521217346191 8.01142120361328 7.56966733932495 7.05261135101318 6.11594486236572 5.30505609512329 4.76244020462036 4.4571008682251 6.03850984573364 7.02252244949341 5.17139673233032 4.30774402618408 5.19767951965332 6.17479562759399 4.60515069961548 4.41717195510864 3.96368312835693 3.8883957862854 3.76826763153076 3.63525938987732 3.48835754394531 3.4286732673645 3.33234310150146 3.21963834762573 3.2122790813446 3.13011646270752 3.04439163208008 3.0183162689209 2.98072552680969 2.78032302856445 2.50859236717224 2.38808584213257 2.29211497306824 5.60284185409546 8.80450439453125 10.1198072433472 9.72509765625 9.96891307830811 9.41621589660645 11.8671865463257
0.0615673661231995 -0.189739495515823 -0.301823884248734 -0.395424336194992 -0.526909649372101 -0.62571257352829 -0.701336264610291 -0.705391407012939 -0.721440374851227 -0.797218382358551 -0.876045823097229 -0.978809714317322 -1.103355884552 -1.23585712909698 -1.39441084861755 -1.57464993000031 -1.75655436515808 -1.87381219863892 -1.95194113254547 -2.07536673545837 -1.99642097949982 0.138816490769386 -0.421988785266876 1.42958974838257 2.92167377471924 2.46555495262146 0.848519623279572 0.258955657482147 -0.449733167886734 -0.751993536949158 -0.995334088802338 -1.27853226661682 -0.770835936069489 -1.03225767612457 -1.44763505458832 -1.51006770133972 -1.68967127799988 -1.72640204429626 -1.76153147220612 -1.85553586483002 -2.10899186134338 -2.25439548492432 -2.32808804512024 -2.41310596466064 -2.44857907295227 -2.63112425804138 -2.78049230575562 -2.91579055786133 -3.09090423583984 -3.18603706359863 -3.28760361671448 -2.95468592643738 3.84363651275635 -1.30221080780029 -3.09347057342529 -0.304568916559219 -3.1099169254303 -3.23732829093933 -3.06369519233704 18.1532287597656 10.1574611663818 5.60342502593994 12.0910034179688 17.8814029693604 11.1128416061401 8.39677906036377 6.26679229736328 4.65274286270142 4.97462034225464 3.29481339454651 1.77062225341797 0.945672512054443 -0.264431476593018 -1.27247822284698 -1.30307853221893 -1.32798802852631 -1.37096285820007 -1.20423090457916 -1.49395787715912 -1.65919411182404 -1.96185624599457 -2.26226496696472 -2.25126552581787 -1.21534550189972 4.43693447113037 6.81478214263916 10.5637445449829 13.0513029098511 14.5445327758789 14.462345123291 13.824146270752 11.718412399292 10.155686378479 8.68496417999268 6.73428964614868 4.4109091758728 1.37684321403503 0.165927067399025 -0.974356174468994 2.55372714996338 6.38566493988037 6.01215553283691 4.70210838317871 4.26766920089722 6.51239824295044 4.28863573074341 3.24394631385803 2.43786668777466 1.75229787826538 1.30353617668152 3.78828501701355 3.1131272315979 1.14732086658478 0.755019068717957 0.753299176692963 1.13715863227844 3.24056148529053 4.07006502151489 3.19835901260376 4.68554830551147 11.0302963256836 17.3842353820801 17.2280693054199 16.1149387359619 15.1831865310669 14.483097076416 13.7457523345947 12.6729393005371 11.8279085159302 10.9266786575317 10.099555015564 9.41920471191406 8.62532138824463 8.13673877716064 7.65989208221436 6.71678161621094 6.02961730957031 5.49900579452515 5.15719604492188 5.06368732452393 4.85646343231201 4.37124538421631 4.32477617263794 4.2874755859375 4.14977169036865 4.03110265731812 3.96038484573364 3.84638500213623 3.72953867912292 3.60803413391113 3.53355669975281 3.47600388526917 3.36718344688416 3.27263236045837 3.1138904094696 3.07802724838257 2.99335384368896 2.92423009872437 2.87523531913757 3.1021876335144 2.91040587425232 2.64948010444641 2.43709015846252 2.37857675552368 3.4599449634552 5.54935932159424 6.78284406661987 8.91145992279053 8.20340442657471 9.7615795135498 8.95921802520752
0.044068768620491 -0.214418739080429 -0.319149196147919 -0.451205223798752 -0.583629429340363 -0.663894057273865 -0.754850327968597 -0.800428926944733 -0.581174552440643 -0.832104563713074 -0.904056906700134 -1.00679445266724 -1.11982476711273 -1.25414824485779 -1.38553082942963 -1.54196035861969 -1.7211606502533 -1.88333749771118 -1.96981918811798 -2.1220383644104 -1.4014937877655 -0.202063485980034 -0.487527132034302 1.21676552295685 1.06680691242218 0.883537888526917 1.28866672515869 -0.00380347133614123 -0.763715982437134 -1.15932786464691 -1.34079468250275 -1.60722947120667 -0.934068560600281 -0.466682851314545 -1.71525895595551 -1.76029992103577 -1.95231223106384 -2.03654432296753 -2.11842679977417 -2.32736849784851 -2.65757083892822 -2.80622529983521 -2.16716837882996 -2.95424723625183 -2.97198629379272 -3.05937457084656 -3.13526511192322 -3.21935486793518 -3.36452341079712 -3.43478035926819 -3.51391363143921 0.302902400493622 -0.0723726451396942 0.919838190078735 -2.42561650276184 -1.97298049926758 -0.571312725543976 -3.3043851852417 2.00185108184814 10.068811416626 8.75172138214111 8.22471618652344 8.23675155639648 15.0891246795654 8.71029472351074 6.00651359558105 6.47080850601196 14.7467288970947 8.09156608581543 3.69886827468872 1.41503751277924 0.8228440284729 0.338469654321671 -1.26073253154755 -1.46360433101654 -0.179715350270271 1.46421039104462 -0.736472368240356 -1.56186544895172 -1.93149089813232 -2.04676508903503 -2.15668296813965 -2.21448469161987 1.39297473430634 5.18212175369263 8.00437831878662 10.6464614868164 13.3071146011353 13.7688970565796 13.5401201248169 12.8682651519775 11.6372194290161 10.0397310256958 8.61560344696045 6.71373081207275 4.75605630874634 2.25520396232605 1.06916904449463 0.294079601764679 0.190831616520882 5.38479661941528 5.24695920944214 3.67599725723267 3.01053500175476 6.37106657028198 7.24463796615601 3.64245223999023 2.67318296432495 1.868577003479 1.30507409572601 2.56474280357361 2.53343152999878 1.18114078044891 0.789627611637115 1.61856997013092 2.298100233078 3.60119962692261 4.64015436172485 3.56082987785339 5.07511901855469 10.0023431777954 14.4135627746582 16.1908378601074 16.6285705566406 15.869927406311 14.6590900421143 13.6693563461304 12.7210092544556 11.743745803833 10.8727121353149 9.99029064178467 9.2622709274292 8.78047466278076 8.26701068878174 7.77824831008911 7.13930368423462 6.63586568832397 6.22282552719116 5.8751015663147 5.31730794906616 5.03825378417969 4.76435232162476 4.4717812538147 4.29803133010864 3.96787714958191 3.8430392742157 3.70792579650879 3.5432608127594 3.46318912506104 3.45599961280823 3.40935611724854 3.32268309593201 3.21798801422119 3.17516613006592 3.11507701873779 3.01759195327759 2.93977212905884 2.85423541069031 2.83348631858826 3.82282948493958 3.85614728927612 3.40892219543457 3.35670065879822 2.90053582191467 2.52307844161987 2.75269627571106 3.71162891387939 7.10294342041016 6.59966945648193 12.45383644104 8.42179870605469
0.0300133284181356 -0.23763781785965 -0.367261856794357 -0.468424797058105 -0.621741235256195 -0.720635831356049 -0.818990409374237 -0.850745379924774 -0.854399085044861 -0.877547860145569 -0.934658229351044 -1.02613353729248 -1.14246094226837 -1.27128314971924 -1.3790397644043 -1.52343904972076 -1.70041859149933 -1.85042572021484 -2.00440955162048 -2.12402176856995 -1.10146450996399 -1.18755030632019 -1.12032854557037 0.60395759344101 0.557626366615295 0.0174033213406801 -0.158159464597702 -0.705883681774139 -1.22545325756073 -1.57548379898071 -1.71605908870697 -1.88086080551147 -0.537110328674316 -1.89378666877747 -2.06206512451172 -2.27174878120422 -2.52709650993347 -2.56705904006958 -2.60740995407104 -2.87626719474792 -3.14211177825928 -3.26001143455505 -2.97062587738037 -3.34850192070007 -2.6354398727417 -3.44277405738831 -3.47141766548157 -2.86407852172852 -3.00615549087524 -3.63463759422302 -2.80074024200439 -0.656625628471375 0.88364714384079 0.878129661083221 -1.01091611385345 -1.84156441688538 -1.4232006072998 1.54106533527374 2.34123229980469 3.73842167854309 4.84118604660034 5.79186201095581 4.56543874740601 4.93291425704956 12.5207681655884 4.48186922073364 2.41241788864136 13.5800867080688 28.0864582061768 5.35541439056396 2.83618783950806 1.285231590271 0.665805339813232 -0.0263769999146461 -0.79972505569458 0.403958022594452 3.97211885452271 3.05653786659241 -1.63492298126221 -2.03426885604858 -2.08502840995789 -2.16185641288757 -2.2193443775177 2.17786288261414 7.06391716003418 8.6412992477417 10.3868646621704 11.8300447463989 12.5116539001465 11.9874954223633 11.6251935958862 10.5046844482422 9.22329616546631 7.99197816848755 6.70987892150879 5.06490135192871 3.07505488395691 1.83524298667908 1.05501210689545 0.846186518669128 2.73576426506042 3.67770600318909 2.44412279129028 2.66078090667725 6.07042264938354 8.01196193695068 4.74439573287964 2.88312578201294 2.0420560836792 1.54089772701263 2.34865117073059 3.38550901412964 2.36464047431946 1.34452879428864 1.12944614887238 3.62236261367798 4.97005987167358 6.0317554473877 6.16333436965942 6.40148878097534 9.15004825592041 11.8514394760132 13.6605596542358 16.3073444366455 15.142635345459 14.2427034378052 13.1755352020264 12.494701385498 11.5082588195801 10.5626211166382 9.83283519744873 9.11901950836182 8.55872821807861 8.0445442199707 7.53667259216309 7.17887020111084 6.76039266586304 6.2637619972229 5.85235500335693 5.56994390487671 5.3488507270813 5.08947801589966 4.67025566101074 4.43974161148071 4.06642484664917 3.76378440856934 3.57404208183289 3.32795310020447 3.25846886634827 3.21204280853271 3.12362742424011 3.12014865875244 3.10972905158997 3.06216621398926 3.00525951385498 2.95160436630249 2.92839789390564 2.89949798583984 2.89812135696411 3.48864102363586 4.30339193344116 3.98501396179199 3.67051529884338 3.20997428894043 2.90952372550964 2.62394380569458 2.90789890289307 4.75830554962158 10.04958152771 9.18772602081299 9.48678684234619
0.00422014761716127 -0.276206433773041 -0.418086409568787 -0.521077990531921 -0.659882843494415 -0.781250536441803 -0.861237466335297 -0.896596491336823 -0.9037024974823 -0.936178088188171 -0.974940299987793 -1.05033886432648 -1.16204750537872 -1.27823662757874 -1.38280987739563 -1.50603926181793 -1.68617916107178 -1.86324310302734 -2.01140785217285 -2.1363410949707 -1.34696567058563 -2.05180692672729 -2.03786969184875 1.92224991321564 0.20239132642746 -0.592101275920868 -1.12717962265015 -1.42397105693817 -1.76955533027649 -1.93254029750824 -2.08093309402466 -2.4224226474762 -2.49315333366394 -2.59444904327393 -2.80451464653015 -3.1218581199646 -3.26029109954834 -1.50530052185059 -3.2740478515625 -3.42093944549561 -3.56459951400757 -3.62645125389099 -3.69264149665833 -2.54530191421509 -1.79217600822449 -3.00563764572144 -3.70236325263977 -1.71059060096741 -2.50846314430237 -3.21974539756775 -0.240885689854622 -0.119282253086567 0.86570155620575 -0.635072290897369 -1.78152430057526 -2.61541414260864 1.79283106327057 3.70335364341736 1.43013572692871 -0.179564476013184 2.20206093788147 2.96242451667786 0.408980131149292 4.69497203826904 14.27015209198 6.24723291397095 3.34297657012939 9.59326076507568 19.5922832489014 17.1923961639404 9.51137256622314 3.95741558074951 2.26232647895813 1.9501326084137 0.841415405273438 1.34431886672974 5.92546224594116 4.59871196746826 -1.6227742433548 -2.0972728729248 -2.16662502288818 -2.22081661224365 -2.25759649276733 2.7455723285675 9.03373241424561 7.33409214019775 6.52164077758789 8.33695697784424 9.74754238128662 16.717248916626 9.82832527160645 8.9415225982666 8.37245941162109 7.58795881271362 6.68570518493652 5.39418935775757 3.60468363761902 2.18702697753906 1.62378752231598 1.33352541923523 1.09059083461761 2.18778014183044 1.6652889251709 1.51270020008087 6.5408763885498 6.15189695358276 5.63863039016724 3.00234913825989 2.02038097381592 1.95399487018585 3.65274620056152 5.77152729034424 4.73594856262207 2.09954333305359 1.40711152553558 2.3503692150116 6.72062206268311 7.29186487197876 4.37768220901489 4.06703996658325 7.29074335098267 9.60141563415527 13.5974588394165 13.8257904052734 14.6796636581421 13.1510095596313 12.2674741744995 11.7984914779663 10.8152914047241 9.90089130401611 9.53978729248047 8.83897399902344 8.350998878479 7.85978698730469 7.36426782608032 6.91944646835327 6.46029472351074 5.8322491645813 5.40020847320557 5.26971292495728 5.15668058395386 4.90904712677002 4.63845539093018 4.42937898635864 4.18508958816528 3.88482403755188 3.70845746994019 3.37221431732178 3.16141510009766 3.00058460235596 2.88761162757874 2.88940334320068 2.89092493057251 2.84433364868164 2.83599662780762 2.88987827301025 2.90477609634399 2.87750291824341 2.88438129425049 3.66806888580322 3.81868553161621 3.43173980712891 3.30053782463074 3.43828344345093 3.20966219902039 3.04195332527161 2.98739838600159 4.28411626815796 10.6461515426636 9.05805015563965 8.76376342773438
-0.102080292999744 -0.332672566175461 -0.4939806163311 -0.593629479408264 -0.712255954742432 -0.803258419036865 -0.871836483478546 -0.922946870326996 -0.955607533454895 -0.988494992256165 -1.01811504364014 -1.07731556892395 -1.18812298774719 -1.2966650724411 -1.41170215606689 -1.52723753452301 -1.68224036693573 -1.90293478965759 -2.04947400093079 -2.13949775695801 -2.21591091156006 -1.92442667484283 -1.74441027641296 0.298995643854141 -0.174414470791817 -1.26817846298218 -1.73936808109283 -2.05812454223633 -2.35090112686157 -2.65335249900818 -2.89576101303101 -3.00463223457336 -2.97591185569763 -3.15150856971741 -3.34579181671143 -3.57184386253357 -3.73306345939636 0.921832084655762 -0.463650435209274 -2.39657139778137 -2.66117548942566 -3.51403617858887 -3.3086040019989 -2.4552059173584 -1.6934210062027 -2.44500660896301 -3.80106949806213 -2.88495349884033 -2.54620170593262 0.734532952308655 0.14015519618988 0.31724539399147 -1.38188910484314 -2.47334289550781 -3.68369293212891 -3.71054363250732 -1.61130845546722 10.4098205566406 4.29998254776001 0.0302422326058149 -1.19989264011383 2.58800029754639 3.44835448265076 7.47031497955322 8.50934028625488 7.24579429626465 5.16945171356201 8.81632041931152 13.4709701538086 19.8442440032959 10.9783792495728 7.78318309783936 5.70243501663208 4.68359518051147 2.94426798820496 1.80720949172974 1.52084445953369 1.28090405464172 -0.637371301651001 -1.98127365112305 -2.24433565139771 -2.32628393173218 0.864144623279572 1.78980147838593 10.6317167282104 6.47884607315063 5.0518913269043 4.74003028869629 8.6480073928833 20.0584354400635 9.09470558166504 8.21200275421143 7.56799745559692 6.8696722984314 6.35607814788818 5.49763774871826 3.88155698776245 2.43769836425781 2.02920413017273 1.77946293354034 1.40417516231537 1.29836010932922 1.30803799629211 1.12616980075836 5.13862657546997 5.63512754440308 7.05996179580688 4.5955605506897 2.76818037033081 2.6147735118866 6.15108776092529 6.84615898132324 4.26482772827148 2.68691062927246 2.500403881073 2.8483681678772 6.93169593811035 8.61127376556396 5.37062311172485 5.13522672653198 8.52538681030273 10.9526271820068 12.884557723999 14.5743837356567 13.3435335159302 12.4450225830078 11.3745260238647 10.7328605651855 9.85565948486328 9.15224838256836 8.8947582244873 8.26469707489014 7.86826467514038 7.51394414901733 7.01925325393677 6.77535438537598 6.17381858825684 5.36959314346313 4.92759132385254 4.80971240997314 4.66968870162964 4.59207820892334 4.46343469619751 4.24325799942017 4.03903388977051 3.87305188179016 3.71331191062927 3.49480009078979 3.26161479949951 3.10763835906982 2.80916476249695 2.70515036582947 2.63570094108582 2.65236473083496 2.64460492134094 2.67859745025635 3.93645310401917 3.2636456489563 3.25956082344055 3.0449390411377 2.87355828285217 2.79797387123108 3.08151793479919 3.06774806976318 2.98278760910034 3.00021696090698 3.1111581325531 9.38559246063232 9.44351863861084 10.0279426574707 8.61425685882568
-0.299371749162674 -0.481685072183609 -0.591536343097687 -0.680769026279449 -0.76637589931488 -0.852855324745178 -0.883792817592621 -0.939063489437103 -1.03063380718231 -1.0525838136673 -0.734491944313049 -1.11664891242981 -1.23298752307892 -1.34306979179382 -1.46773791313171 -1.56379985809326 -1.70854902267456 -1.90132331848145 -2.06323623657227 -2.14547491073608 -2.21014714241028 -2.26356530189514 -2.30759906768799 -1.90036308765411 -2.00796341896057 -2.39440441131592 -2.5326452255249 -2.68113732337952 -2.89697957038879 -3.04907655715942 -3.17457723617554 -3.26166439056396 -2.06089901924133 -3.44695091247559 -3.67410659790039 -3.89515709877014 -4.01611185073853 0.405487895011902 0.809378206729889 -0.474277496337891 -0.726720452308655 -1.7559015750885 -2.66248416900635 -2.14400601387024 -2.72172117233276 -3.88764047622681 -1.69350290298462 -2.44077944755554 -1.66011822223663 1.68878042697906 0.868296444416046 -0.507059991359711 -1.85671603679657 -3.18224382400513 -3.60496306419373 -2.68159437179565 -3.355464220047 6.02049398422241 7.04333209991455 2.95740389823914 1.79982137680054 3.39428853988647 4.90077686309814 5.39409065246582 5.52149868011475 5.42747735977173 7.28058195114136 9.2728099822998 13.3295526504517 16.2732639312744 13.2081680297852 9.78515434265137 6.72768449783325 5.63203144073486 4.08731079101562 2.89997410774231 2.45544409751892 2.11511182785034 0.89639949798584 -1.10681080818176 -1.43249952793121 -2.12034106254578 0.997325420379639 3.46819877624512 9.88834381103516 6.66213130950928 4.66488838195801 4.22594165802002 9.10904788970947 20.2998065948486 12.4976673126221 10.1936225891113 8.03993511199951 6.17967987060547 5.87000131607056 5.04966878890991 3.75316858291626 2.64018869400024 2.03068995475769 1.94371688365936 1.88952958583832 1.82286763191223 1.5649551153183 2.13790321350098 4.39750146865845 6.13859891891479 6.87142705917358 6.58214139938354 4.18544960021973 3.95906496047974 6.56840753555298 5.41359424591064 2.74175882339478 3.31320428848267 3.00031495094299 2.61308574676514 9.07676219940186 9.63062763214111 7.3987455368042 6.45024347305298 10.2398595809937 12.3284683227539 13.212682723999 14.565673828125 12.3053092956543 11.7627191543579 11.0740938186646 9.95919799804688 9.08276748657227 8.44051456451416 8.06138038635254 7.41861629486084 7.2062292098999 6.98708772659302 6.53315591812134 6.25922918319702 5.67006921768188 4.8800573348999 4.29442739486694 4.29918670654297 4.19499826431274 4.08216047286987 4.1041111946106 3.94846177101135 3.84620046615601 3.66283845901489 3.51043486595154 3.40912270545959 3.28766417503357 3.16286468505859 2.93608832359314 2.76857471466064 2.67346620559692 2.51171898841858 3.37879729270935 2.50512766838074 2.9199435710907 5.22151947021484 4.31812953948975 3.29575133323669 2.89070105552673 2.77620029449463 2.72300219535828 2.64414000511169 3.49393534660339 4.70988368988037 3.4543936252594 11.551308631897 9.20397758483887 13.355055809021 9.56083679199219
-0.511772751808167 -0.663212954998016 -0.729064762592316 -0.789154291152954 -0.857861340045929 -0.900240302085876 -0.942931532859802 -1.00279521942139 -1.06786227226257 -1.11806559562683 -0.583974599838257 -1.17602407932281 -1.27997410297394 -1.39670395851135 -1.50150382518768 -1.63449048995972 -1.74967074394226 -1.89035618305206 -2.04484844207764 -2.14941954612732 -2.21664667129517 -2.28633046150208 -2.35467171669006 -2.4169397354126 -2.47360897064209 -2.57862615585327 -2.74388146400452 -3.00316834449768 -3.19326400756836 -3.31716465950012 -3.45037746429443 -3.54440212249756 -2.88612532615662 -3.78671765327454 -4.08404064178467 -4.19283056259155 -2.61313819885254 -0.182529360055923 0.546016097068787 -0.187774881720543 0.165180832147598 0.865865468978882 -1.19057643413544 -2.06941199302673 -2.45283341407776 -3.0529613494873 -1.47944521903992 -2.93362283706665 -0.164006054401398 2.17262482643127 1.54450523853302 -0.298227041959763 -1.02572774887085 -2.37442445755005 -2.53617191314697 -2.61098051071167 -1.14761877059937 3.12359833717346 5.65880870819092 3.9530975818634 3.53759002685547 4.000403881073 4.54844999313354 3.92530202865601 4.02053880691528 5.85332298278809 8.02739238739014 10.1801452636719 13.8566474914551 13.3985500335693 13.2320146560669 10.6443357467651 7.71396589279175 6.57529592514038 5.20322275161743 3.92516016960144 2.94861912727356 2.56568646430969 1.84088695049286 0.0227306187152863 -0.518235921859741 -0.95241242647171 0.618627190589905 4.2838716506958 9.6389684677124 7.82622289657593 5.36449146270752 4.78163290023804 9.187819480896 15.1638498306274 12.5970630645752 10.2137994766235 8.07281875610352 6.60607194900513 5.71080589294434 4.69134044647217 3.81781816482544 2.69565415382385 1.82263910770416 3.15628504753113 3.66004991531372 5.28747272491455 4.72596120834351 5.32227563858032 5.67483806610107 7.71536636352539 8.48934268951416 8.90239143371582 6.58769941329956 5.76400947570801 5.99553918838501 4.65581226348877 3.5789270401001 3.98657488822937 3.80014705657959 6.17556858062744 10.6412811279297 10.6360759735107 8.12186622619629 7.70207977294922 10.8487873077393 13.9750308990479 14.1478881835938 13.627779006958 12.4304637908936 11.2604446411133 10.2930946350098 9.51630783081055 8.68762588500977 7.79211759567261 7.19252061843872 6.67681837081909 6.58166694641113 6.16862344741821 5.60734033584595 5.40105533599854 5.0248908996582 4.36471223831177 3.70376038551331 3.59230017662048 3.45219469070435 3.43212819099426 3.64277458190918 3.63160943984985 3.50769805908203 3.35774779319763 3.23351168632507 3.24262142181396 3.14564967155457 3.02976942062378 2.92750263214111 2.78145360946655 2.68240904808044 2.57961297035217 3.44476103782654 2.89318346977234 2.85167860984802 5.39609432220459 5.64974546432495 3.88579130172729 3.59216403961182 2.88240623474121 2.79465317726135 2.56522989273071 3.3330557346344 2.5506227016449 10.8428535461426 11.3559265136719 11.723801612854 10.6255378723145 9.38960266113281
-0.74047464132309 -0.884678721427917 -0.642871379852295 0.860989809036255 -0.931735038757324 -0.96320503950119 -1.00945377349854 -1.05668270587921 -1.11243212223053 -1.1521612405777 -1.14759147167206 -1.21754848957062 -1.31315636634827 -1.42509424686432 -1.5228785276413 -1.66367590427399 -1.83472621440887 -1.93008685112 -2.04401469230652 -2.13687038421631 -2.2394495010376 -2.33843493461609 -2.41284155845642 -2.50352430343628 -2.61288285255432 -2.83313488960266 -3.05815672874451 -3.39205408096313 -3.5546190738678 -3.64027690887451 -3.7517511844635 -3.95703768730164 -4.10072708129883 -2.16916012763977 -4.16094303131104 -4.28153514862061 -1.68525922298431 -0.778347790241241 -0.0554064773023129 -0.407127052545547 -0.805089712142944 0.564483225345612 0.19118994474411 -0.75941789150238 -2.02168893814087 -1.95188641548157 -2.75990986824036 -2.91073298454285 1.41293430328369 2.40079879760742 1.03725576400757 0.346177101135254 -0.395150572061539 -1.29221904277802 -1.46073603630066 -1.3204939365387 -0.742129445075989 3.43368148803711 4.05096626281738 3.23083329200745 2.95798087120056 3.90262484550476 3.22925734519958 3.11062264442444 3.68390035629272 5.56247663497925 7.6343879699707 9.47632122039795 14.3498773574829 16.9738445281982 12.2669544219971 10.6164855957031 8.50529670715332 7.44292163848877 6.14031553268433 5.01787805557251 4.10599708557129 2.53820085525513 1.96669840812683 1.01753079891205 0.164803639054298 -0.166793704032898 0.0445055030286312 5.34377288818359 8.54073715209961 8.86425018310547 6.56047487258911 6.28281307220459 7.9682993888855 10.5114316940308 9.86743831634521 8.59536552429199 7.73407411575317 6.84794950485229 6.04915952682495 4.6398286819458 3.8162100315094 2.79914999008179 1.99070620536804 4.19809198379517 6.69675922393799 8.09628963470459 7.87025165557861 5.89875841140747 4.5778431892395 7.687575340271 10.8381452560425 9.78351211547852 8.79154586791992 7.25672578811646 6.10112380981445 5.31085348129272 8.37876796722412 9.27100563049316 9.82217693328857 11.0202951431274 13.2068920135498 13.2541313171387 10.9011640548706 12.8616933822632 14.6117324829102 14.8232374191284 13.9144496917725 11.0318431854248 10.788064956665 9.50346088409424 8.66208648681641 8.24035453796387 7.49422836303711 7.11766338348389 6.97835397720337 6.41740226745605 5.75887250900269 5.13943815231323 4.74441766738892 4.48095083236694 4.05928993225098 3.53041505813599 3.05866765975952 2.89116048812866 2.74123406410217 2.81908321380615 2.99393367767334 3.34133315086365 3.06204700469971 3.1354832649231 3.02109599113464 2.97791361808777 2.92448663711548 2.80459380149841 2.78252911567688 2.66606283187866 2.57152938842773 2.55652260780334 2.55246829986572 4.66425085067749 3.68885207176208 4.78166627883911 6.16112470626831 4.23875999450684 4.07312965393066 3.34358549118042 2.90178155899048 3.72672367095947 3.80363988876343 12.0343713760376 8.43754768371582 10.2470655441284 9.05003261566162 8.02710056304932 6.27147674560547
-0.890575587749481 -1.1279524564743 -0.0700094029307365 3.96643114089966 0.956779599189758 -0.992859840393066 -1.08526229858398 -1.12217843532562 -1.17571139335632 -1.22141432762146 -1.15002202987671 -1.27748560905457 -1.37339293956757 -1.46832013130188 -1.55742418766022 -1.65691792964935 -1.80431711673737 -1.96041965484619 -2.0760509967804 -2.21389317512512 -2.32006812095642 -2.4126341342926 -2.49696731567383 -2.64596772193909 -2.89126563072205 -3.12519717216492 -3.38922023773193 -3.65767669677734 -3.79566335678101 -3.92723560333252 -3.96968030929565 -4.13244724273682 -3.81602954864502 -2.89629006385803 -2.49984645843506 -1.77498066425323 -0.956028461456299 -0.841473460197449 -1.15302610397339 -0.673589527606964 -1.08286583423615 -0.946059107780457 -0.130893513560295 -1.2009265422821 -1.11525630950928 -2.22164797782898 -1.79067480564117 -0.832104444503784 0.313147395849228 1.85907125473022 1.48823666572571 0.670038342475891 0.211760953068733 1.38161599636078 0.737018704414368 0.553162455558777 1.05157685279846 2.74306607246399 3.71279692649841 2.22529196739197 1.80730819702148 1.88713145256042 1.32387101650238 2.12408947944641 4.22233057022095 3.16527342796326 6.43366289138794 6.33304309844971 16.8705940246582 20.1324806213379 18.9159030914307 11.3036832809448 8.81290626525879 7.68313264846802 6.49736261367798 5.85126209259033 4.83397674560547 3.54925870895386 2.69489312171936 1.57143008708954 0.719535708427429 0.0249574761837721 -0.0157672371715307 5.37589263916016 7.74168825149536 8.10479259490967 6.465980052948 6.51212692260742 7.53330326080322 8.59149265289307 7.96093511581421 7.55605220794678 7.36145162582397 6.36512660980225 5.57229852676392 5.0604772567749 4.02392196655273 2.95192241668701 2.14890170097351 5.43736028671265 6.4826340675354 9.77463436126709 9.44356918334961 7.28833055496216 5.37731647491455 8.15138339996338 12.0648488998413 9.86446189880371 7.19065809249878 7.85569095611572 7.22004365921021 9.2224063873291 13.1684970855713 14.4230976104736 12.3504476547241 9.95283985137939 11.0952501296997 12.2644443511963 13.6225862503052 12.0078401565552 12.0288677215576 10.6086454391479 9.95726680755615 9.69650554656982 8.53112888336182 7.4038143157959 7.2276759147644 6.92304801940918 6.30299282073975 6.32142305374146 5.98824453353882 5.43791484832764 5.09653759002686 4.54886531829834 3.87318205833435 3.52625799179077 3.223797082901 2.90258002281189 2.62546300888062 2.40770959854126 2.13920044898987 2.09447431564331 3.82451581954956 4.51190757751465 2.51276135444641 4.18417835235596 2.68212127685547 2.68057918548584 2.72228455543518 2.60703206062317 2.54126048088074 2.45915484428406 2.38075423240662 2.43797826766968 2.43298554420471 4.06891107559204 4.67274522781372 6.15045690536499 6.00860500335693 4.39081478118896 4.28208684921265 3.59133243560791 3.32516193389893 3.64077353477478 9.21710395812988 6.41348218917847 6.13379144668579 5.83937358856201 5.78241395950317 4.76419687271118 4.46952724456787
-0.927519202232361 -1.17095363140106 -1.30318057537079 2.71036744117737 4.1636061668396 1.07556009292603 0.0280522555112839 -0.83069771528244 -1.24216258525848 -1.28330183029175 -1.12567520141602 -1.33186209201813 -1.41277134418488 -1.50399112701416 -1.59822797775269 -1.69536423683167 -1.82277548313141 -1.98487496376038 -2.14234900474548 -2.30407428741455 -2.43131947517395 -2.54755520820618 -2.72255539894104 -3.16151642799377 -3.40976071357727 -3.55781149864197 -3.66612958908081 -3.83758234977722 -3.98562073707581 -4.08352756500244 -2.04834747314453 -1.61111736297607 -2.57859373092651 -2.66106653213501 -1.75060629844666 -0.804543375968933 0.200151056051254 0.157419070601463 0.0243264622986317 -0.126812636852264 -0.41623055934906 -0.433848261833191 -0.588726103305817 -0.892932534217834 -1.1681067943573 -1.17531073093414 -1.52856147289276 0.73955911397934 2.59402585029602 3.04871606826782 3.78703355789185 2.99762773513794 1.54370987415314 1.39141762256622 1.73033034801483 1.04458248615265 0.84587961435318 0.336791187524796 -0.371555864810944 -1.33087742328644 -1.73807883262634 -1.33617985248566 -1.76603806018829 3.60877275466919 6.20630168914795 4.50354480743408 7.44477033615112 7.74565839767456 16.6491107940674 18.6923809051514 21.5176620483398 14.6658344268799 11.6029891967773 8.14599704742432 6.84528303146362 6.15101480484009 5.23410940170288 4.4317421913147 3.52903008460999 2.28646063804626 1.28721070289612 0.539023339748383 0.263774573802948 4.51682233810425 7.19384527206421 6.53652334213257 6.67752027511597 10.179669380188 9.33434295654297 9.65822601318359 8.73544120788574 7.1265115737915 6.237868309021 5.67751550674438 5.18871974945068 4.78017663955688 4.08671855926514 3.06062579154968 2.33031797409058 3.15748333930969 5.02662515640259 14.2915506362915 10.431116104126 8.89996147155762 6.92138051986694 6.70831966400146 10.6108293533325 7.99100685119629 6.30154371261597 8.20964908599854 11.1852073669434 13.861403465271 13.7923269271851 10.7543392181396 8.44860744476318 8.95197868347168 9.18395328521729 9.09690189361572 8.28163242340088 8.09518718719482 7.72916221618652 7.63983011245728 7.89111709594727 7.31689596176147 6.58553123474121 6.69901561737061 6.6584358215332 6.11850118637085 5.69361925125122 5.51950597763062 5.09617853164673 4.82835531234741 4.3765811920166 3.81275486946106 3.28645443916321 3.08142185211182 2.85245752334595 2.53217315673828 2.27575445175171 1.91719460487366 1.64095270633698 1.66790688037872 3.57840275764465 5.77801609039307 3.69543647766113 3.32619404792786 2.78656721115112 2.35846424102783 2.4041121006012 2.29307889938354 2.25454568862915 2.28483557701111 2.2352077960968 2.26524114608765 2.25523138046265 2.4076988697052 4.56289482116699 7.35855340957642 7.03611993789673 4.62418508529663 4.33393430709839 3.68144178390503 3.59587383270264 3.46161913871765 4.56335639953613 3.16809868812561 3.65092301368713 10.4480714797974 4.50947761535645 2.7823166847229 2.80300235748291
-1.00045692920685 -1.16146576404572 -1.33932948112488 -0.0495325177907944 4.05328035354614 3.08503937721252 1.28776836395264 0.617062866687775 -0.494697958230972 -0.944522857666016 -1.34836268424988 -1.08910644054413 -1.42512822151184 -1.51363110542297 -1.59651434421539 -1.6935932636261 -1.83368480205536 -2.02284789085388 -2.23891282081604 -2.39578986167908 -2.5462167263031 -2.78278970718384 -3.1049976348877 -3.41825532913208 -3.61214733123779 -3.76560807228088 -3.90291881561279 -3.9945056438446 -2.38375306129456 -1.59973359107971 -0.517195224761963 -0.497708648443222 -0.484452843666077 -1.14314317703247 -1.29073369503021 0.136849403381348 1.79283106327057 1.80553507804871 0.81858903169632 0.477831035852432 0.125016570091248 0.0167878251522779 0.0697904005646706 -0.346821993589401 -0.889572203159332 1.13240718841553 1.15479469299316 2.18441295623779 4.57017040252686 5.24887371063232 4.43029546737671 2.51386523246765 1.3498717546463 1.35217380523682 1.21473753452301 0.880899131298065 0.395635843276978 -0.240296438336372 -1.67628121376038 -2.80611729621887 0.14930759370327 1.99882221221924 1.97699189186096 4.32405185699463 5.63045358657837 3.86909294128418 3.407301902771 5.07110977172852 20.2662258148193 21.5714111328125 19.5436744689941 21.7273979187012 14.0976390838623 10.4151077270508 9.0646333694458 6.73675632476807 5.59370231628418 4.85372304916382 3.96794986724854 3.06372499465942 2.11546468734741 1.34620463848114 0.962829172611237 3.41677594184875 6.38500547409058 6.09460544586182 8.45559406280518 10.8869552612305 10.5128726959229 9.0678825378418 7.50459766387939 6.66452980041504 5.96239137649536 5.51638174057007 5.15454006195068 4.72228956222534 4.12323474884033 3.15504264831543 2.49547100067139 2.56692409515381 8.41466617584229 14.95751953125 14.5798425674438 11.786660194397 9.46688079833984 7.97762489318848 8.75872707366943 9.56597328186035 9.79802322387695 12.1550455093384 13.5392408370972 10.7183904647827 8.03392505645752 7.29719018936157 6.98786163330078 6.83685350418091 6.32933521270752 6.16444778442383 5.97429227828979 6.09960556030273 5.4709153175354 5.46780061721802 5.49452686309814 5.61813259124756 5.54769277572632 5.74542427062988 5.25279140472412 4.96103239059448 5.00561189651489 4.83587074279785 4.31796169281006 4.00242328643799 3.6348934173584 3.08361506462097 2.67202281951904 2.7082736492157 2.5290699005127 2.21449589729309 2.053551197052 1.69058096408844 1.55796229839325 1.40216732025146 1.37483394145966 4.97171878814697 6.16366291046143 3.43253827095032 2.36087703704834 1.93426811695099 1.98833560943604 1.93905210494995 1.88918113708496 1.9573734998703 1.95461559295654 2.20577096939087 2.15462851524353 2.12982583045959 3.16091537475586 7.07820463180542 8.0808277130127 4.89344882965088 4.21375608444214 3.94232654571533 5.00230407714844 3.52800250053406 3.29731726646423 3.06043410301208 10.1755266189575 5.3005256652832 3.46061229705811 2.48791456222534 2.23309636116028
2.14179611206055 -1.22771000862122 -1.28883123397827 -1.3671463727951 3.76559829711914 3.48386406898499 2.1284008026123 1.61326253414154 0.547236084938049 0.10725662112236 -0.653974831104279 -1.02302229404449 -1.25728797912598 -1.52235960960388 -1.59054124355316 -1.6765718460083 -1.86500918865204 -2.08434081077576 -2.31237554550171 -2.47955393791199 -2.71427392959595 -3.05800175666809 -3.29762148857117 -3.4920289516449 -3.67387771606445 -3.80492162704468 -2.96247887611389 -1.00352537631989 -0.0400146432220936 1.06120157241821 1.64493811130524 1.96167373657227 1.70905315876007 0.884846031665802 0.475277602672577 1.10068893432617 2.2879753112793 2.73710513114929 1.34630870819092 0.839506208896637 0.626648843288422 0.253953903913498 0.736045777797699 0.82692015171051 0.677236258983612 1.33672320842743 3.1890287399292 3.35458207130432 4.18773603439331 3.70664048194885 2.47878122329712 2.1884605884552 0.717656850814819 0.55245053768158 2.39509868621826 0.767812788486481 -0.0672130361199379 -1.2214617729187 -2.28786396980286 -3.01643943786621 0.974628627300262 2.39678955078125 2.69773244857788 3.06167912483215 4.98571014404297 5.02339696884155 3.71007370948792 3.29624152183533 16.2727088928223 23.1991577148438 20.8179683685303 20.8248424530029 16.5884628295898 12.2675790786743 10.6420736312866 8.36230373382568 6.93414068222046 6.17492866516113 4.36694049835205 3.26263809204102 2.52723360061646 1.56861472129822 1.33167886734009 4.52214384078979 5.61076831817627 6.27680110931396 8.90885543823242 10.6896123886108 9.280442237854 7.86010694503784 7.20620203018188 6.3077278137207 5.69686031341553 5.3766450881958 4.93147373199463 4.51046228408813 4.16059494018555 3.43278670310974 2.81751036643982 4.81967449188232 10.6974678039551 15.4931058883667 16.9782581329346 13.8067007064819 11.3892993927002 10.3413343429565 9.45221042633057 9.76051616668701 9.0120325088501 7.50590372085571 7.0263500213623 6.33965730667114 6.70916748046875 6.06203937530518 5.65049839019775 5.95349407196045 5.50214767456055 5.274573802948 5.40680694580078 5.15946865081787 5.06602478027344 4.83227682113647 4.62876796722412 4.39951324462891 4.37355995178223 4.22860383987427 4.16761302947998 3.88115215301514 3.94857549667358 3.52254748344421 3.30822014808655 3.16301608085632 2.82300996780396 2.43237161636353 2.19397521018982 2.17978191375732 2.18250679969788 1.98528933525085 1.86380839347839 1.52168548107147 1.33166301250458 1.22297072410583 1.07561421394348 3.56112122535706 6.61860799789429 3.61595678329468 1.98755645751953 1.49813580513 4.21923303604126 1.56547474861145 1.60011327266693 3.69587159156799 2.07890725135803 2.25451922416687 2.04924416542053 1.93509244918823 2.00405120849609 3.32684755325317 6.20892095565796 5.47344970703125 3.76541352272034 6.58466577529907 5.48406171798706 3.81608057022095 3.40219473838806 3.20456123352051 10.7475671768188 3.96944999694824 2.43201923370361 2.08863687515259 1.91775321960449
1.94674241542816 0.151179060339928 -0.642762124538422 -1.33295547962189 2.06727004051208 3.05376505851746 2.24162197113037 1.67838788032532 0.890971064567566 0.391444712877274 -0.0635516718029976 -0.448763817548752 -0.616093575954437 -1.10988342761993 -1.49559009075165 -1.69694221019745 -1.87958645820618 -2.1231734752655 -2.36053776741028 -2.56321120262146 -2.85530948638916 -3.16484904289246 -3.36527228355408 -3.48769426345825 -3.57458543777466 -3.14676117897034 0.0169344432651997 2.08668088912964 2.48939633369446 2.03378343582153 1.54157865047455 1.5034236907959 1.08142781257629 0.611009538173676 0.146989479660988 -0.377567499876022 -0.31887623667717 2.55323648452759 2.19763803482056 1.73245787620544 1.33722078800201 1.18860054016113 1.24389970302582 1.53348386287689 1.06180000305176 1.07407510280609 2.10708236694336 2.36723828315735 1.97507357597351 2.01473498344421 1.68473994731903 0.970264136791229 0.239787384867668 0.217653572559357 1.14330387115479 0.197612375020981 -0.604107141494751 -2.04541563987732 -2.73178672790527 -2.96902585029602 0.45228573679924 2.30670118331909 3.38903403282166 1.26925134658813 4.41053628921509 6.93914031982422 4.44581460952759 4.06081056594849 6.92855978012085 23.7252750396729 23.8625640869141 18.8251705169678 21.8788356781006 14.5630836486816 12.8168134689331 10.0623292922974 8.16130828857422 7.28463268280029 5.30463027954102 4.0062084197998 2.67580223083496 1.91843259334564 1.73809719085693 4.18257522583008 5.39516305923462 5.4717264175415 7.97630167007446 8.3645715713501 7.55988025665283 6.92349529266357 6.44320487976074 5.78723621368408 5.29670429229736 5.20745706558228 4.71358156204224 4.30433893203735 4.04930686950684 3.4992094039917 2.91384387016296 7.56851577758789 9.45198631286621 17.0425224304199 15.2662143707275 12.3272285461426 11.6191282272339 10.6698970794678 9.22237586975098 8.09757709503174 7.64266967773438 6.95798349380493 6.34901857376099 5.80890130996704 5.58027839660645 5.29811573028564 5.02702522277832 4.96284675598145 4.79086017608643 4.61557722091675 4.66758012771606 4.41790580749512 4.34561014175415 4.443687915802 4.21795797348022 4.18713760375977 4.09130239486694 3.84184956550598 3.47358775138855 3.25764012336731 3.02202248573303 2.81709384918213 2.65418076515198 2.42769908905029 2.12642121315002 1.93681943416595 1.95596897602081 1.90998423099518 1.92885053157806 1.82670891284943 1.68119692802429 1.50402736663818 1.37510204315186 1.24664485454559 1.15242052078247 1.13123261928558 3.5361704826355 3.47090744972229 2.89589595794678 1.85322105884552 2.81777453422546 2.47004103660583 2.16324734687805 2.99322891235352 4.11911392211914 3.25889086723328 2.66023850440979 1.78869354724884 1.79156494140625 1.98815274238586 3.00285863876343 2.29205346107483 4.81636476516724 7.41218423843384 7.34721279144287 4.28868055343628 3.92537069320679 3.37525725364685 5.65568399429321 3.29197144508362 2.38819265365601 2.04457020759583 1.54500901699066
-0.315811097621918 1.32966732978821 0.147745162248611 -0.108607530593872 1.98096239566803 2.62464356422424 1.70155334472656 1.2087779045105 0.969703674316406 0.423677384853363 -0.0167637318372726 -0.341318488121033 -0.467418611049652 -0.719978988170624 -1.14634108543396 -1.47060310840607 -1.92446649074554 -2.18962430953979 -2.40023398399353 -2.63395261764526 -2.95787858963013 -3.15931677818298 -3.27172875404358 -2.90334820747375 -0.277937740087509 0.395130783319473 0.959394454956055 0.792129635810852 0.762359321117401 0.161096721887589 0.256014108657837 0.248597040772438 -0.0950996205210686 -0.414357602596283 -0.777851581573486 -0.511534094810486 2.36027026176453 2.3952796459198 2.58784031867981 1.86797571182251 1.2474011182785 0.940507173538208 1.02750992774963 0.609519958496094 0.286249995231628 0.215186104178429 0.26100617647171 0.309044420719147 0.469334065914154 0.519485354423523 0.0873150378465652 -0.295703500509262 -0.252884715795517 -0.335004597902298 -0.427402824163437 -0.628832757472992 -1.09272110462189 -1.97487545013428 -2.53927373886108 -2.8046977519989 0.177611663937569 1.81100869178772 4.70305871963501 2.17117881774902 2.53834867477417 6.81063365936279 7.01956939697266 3.78901267051697 4.7678017616272 16.5710105895996 26.6703033447266 19.1324157714844 22.9848766326904 16.7403202056885 13.7599716186523 11.6049480438232 9.72282218933105 8.70414733886719 6.3089075088501 5.16277980804443 3.69855165481567 2.45446467399597 2.12917733192444 2.71381592750549 4.24256706237793 3.14028596878052 8.16602611541748 8.3629789352417 6.43508243560791 5.95528841018677 5.43829345703125 5.19149875640869 4.91237688064575 4.73219871520996 4.30054521560669 3.9190092086792 3.92455172538757 3.3835084438324 2.79812812805176 8.46326541900635 14.8623342514038 15.047830581665 14.9380693435669 12.1217279434204 10.7150564193726 9.32308101654053 8.16896629333496 7.88212060928345 7.12973356246948 6.54913806915283 6.07827043533325 5.70610284805298 5.24983358383179 4.89734363555908 4.61927556991577 4.56673049926758 4.34426641464233 4.13387537002563 3.94332599639893 4.04013347625732 3.89942336082458 3.83738851547241 3.63075613975525 3.5645763874054 3.50922989845276 3.4493772983551 3.08407020568848 2.78961730003357 2.63420605659485 2.47867012023926 2.30474209785461 2.0642364025116 1.79335975646973 1.62906467914581 2.546147108078 1.90614867210388 1.6890310049057 1.72696781158447 1.58385479450226 1.36161243915558 1.28912281990051 1.27178800106049 1.24777150154114 1.21855580806732 1.78051233291626 3.08237838745117 2.97729086875916 3.14159655570984 3.54312062263489 5.26547193527222 4.90682601928711 3.93569946289062 3.39886546134949 2.56378531455994 2.20574545860291 2.11752390861511 1.7660276889801 1.66331362724304 1.90942347049713 1.71724426746368 5.25489807128906 5.746994972229 6.24615287780762 6.69712352752686 6.09773397445679 3.53772854804993 3.25012230873108 6.35865354537964 2.6064281463623 2.09005784988403 1.18681156635284
-1.24655628204346 0.220953077077866 0.128932490944862 1.77821505069733 2.22775864601135 2.24946284294128 1.66115057468414 1.10922598838806 0.552456617355347 0.0333163850009441 -0.404632717370987 -0.383827686309814 -0.513570487499237 -0.828709006309509 -1.18671226501465 -1.39200294017792 -1.93148684501648 -2.1915111541748 -2.40033006668091 -2.61784291267395 -2.81688475608826 -2.99158525466919 -2.80680537223816 0.315715461969376 0.529839932918549 -0.289361506700516 -1.53352046012878 -1.72468745708466 -1.32123816013336 -0.994598865509033 -1.13449847698212 -1.42303717136383 -1.56971216201782 -1.3164689540863 -1.13985753059387 1.04722452163696 0.508535206317902 1.39183282852173 0.970659196376801 0.769679546356201 0.979358017444611 0.920954585075378 0.350620090961456 -0.0268219094723463 0.0441368073225021 0.0991017445921898 -0.110608108341694 -0.244851335883141 -0.25746938586235 -0.396023362874985 -0.616232454776764 -0.808950424194336 -0.805553376674652 -0.841941714286804 -0.945779800415039 -1.15204155445099 -1.40552592277527 -2.02995729446411 -2.44724011421204 -2.71946430206299 -0.906618297100067 2.90239429473877 3.14310169219971 2.67270708084106 3.27304077148438 5.63540506362915 4.05904340744019 5.23972654342651 5.27914428710938 11.2131366729736 24.6048069000244 23.2263870239258 22.7753257751465 19.024486541748 14.8869695663452 13.1841983795166 10.3789825439453 9.21246242523193 7.3056755065918 6.19100379943848 5.09526395797729 3.65268659591675 3.00563287734985 2.54109907150269 2.91744589805603 2.49373412132263 6.07099008560181 7.25114488601685 6.70054769515991 6.25720691680908 5.15075540542603 4.73954200744629 4.34820461273193 4.19199991226196 3.92962694168091 3.66205835342407 3.7381443977356 3.13353800773621 2.71623206138611 5.81387376785278 20.5554695129395 15.6799583435059 13.7267379760742 11.887975692749 9.58184814453125 8.21695327758789 7.52677726745605 7.03377056121826 6.43349266052246 6.10089015960693 5.82544136047363 5.36904621124268 4.98980903625488 4.69183540344238 4.39027547836304 4.22430849075317 4.01442289352417 3.84722113609314 3.68589305877686 3.70420479774475 3.55693030357361 3.41276168823242 3.51523184776306 3.36566662788391 3.20359826087952 3.00587105751038 2.65180706977844 2.31971025466919 2.22062301635742 2.1131432056427 1.76722455024719 1.57707178592682 1.41500961780548 1.35415518283844 3.97960448265076 4.42164421081543 1.57690274715424 1.50603330135345 1.39149987697601 1.13146197795868 1.11131322383881 2.25716543197632 4.41365957260132 3.51817345619202 2.68672037124634 3.17441201210022 4.71699333190918 4.81717014312744 5.21555280685425 4.76001119613647 4.04409742355347 3.09267735481262 3.09625887870789 2.57548570632935 2.14574480056763 1.7319061756134 1.52399969100952 1.48678135871887 1.44237279891968 2.19753241539001 3.21462535858154 4.07663106918335 1.88076591491699 3.70041537284851 11.9225673675537 7.56730794906616 4.51978158950806 5.91391897201538 2.76574373245239 2.02388501167297 1.23746001720428
-1.18263137340546 0.282030761241913 0.791518867015839 1.78759062290192 2.50067067146301 1.86571896076202 1.3651282787323 0.600004851818085 0.198107957839966 -0.392209231853485 -0.770992457866669 -0.7579225897789 -0.836954653263092 -1.15169107913971 -1.29562151432037 -1.49039554595947 -1.79708075523376 -2.1157500743866 -2.31803894042969 -2.48638963699341 -2.63062834739685 -2.75517416000366 -1.13077104091644 -0.0837313607335091 -1.47946786880493 -2.96736192703247 -2.24925446510315 -2.22834372520447 -2.5460057258606 -2.74246978759766 -2.27860283851624 -2.28827953338623 -2.39756178855896 -2.38125967979431 -1.55886542797089 1.70548617839813 0.976030886173248 0.649884700775146 0.484162420034409 0.25192204117775 0.479764133691788 0.0827368944883347 -0.0418136306107044 -0.0834810584783554 -0.395552963018417 -0.574382960796356 -0.572164952754974 -0.665118873119354 -0.927232623100281 -1.18235242366791 0.47061675786972 -0.99700528383255 -1.02358651161194 -1.14823257923126 -1.27364456653595 -1.43249583244324 -1.56610429286957 -1.89335834980011 -2.26309466362 -2.64478349685669 -2.69676208496094 1.06271016597748 3.93468546867371 1.51906049251556 3.45752811431885 4.5169849395752 1.70161926746368 6.10635042190552 4.97006511688232 6.98148488998413 18.4121360778809 27.781551361084 25.5402679443359 19.9425640106201 15.819317817688 13.6775941848755 11.3917007446289 9.38807392120361 8.21057033538818 6.6696982383728 5.76559114456177 4.42063474655151 4.02092790603638 3.71422123908997 3.15145492553711 3.08175253868103 5.33139562606812 7.08159732818604 7.10396480560303 5.82828712463379 5.44721364974976 4.97123050689697 4.50445318222046 4.22498750686646 4.02778196334839 3.91683769226074 3.80367302894592 3.21150732040405 2.70449256896973 2.98070883750916 20.1391754150391 17.1519775390625 14.3770484924316 11.4433107376099 9.23852443695068 8.0335168838501 7.17030000686646 6.45184087753296 5.8034520149231 5.51649618148804 5.07746028900146 4.68614196777344 4.60637617111206 4.1884937286377 3.59202742576599 3.10891819000244 2.92327547073364 11.3573837280273 3.7308452129364 3.41429233551025 3.30185699462891 3.17978429794312 3.18004870414734 3.01931047439575 2.87565612792969 2.89779782295227 2.59825611114502 2.18453359603882 1.96146786212921 1.71184980869293 1.34979033470154 1.07326900959015 1.0865398645401 2.14215064048767 2.18757486343384 4.9711766242981 2.16520571708679 1.5217992067337 1.24557757377625 1.05518686771393 0.978159248828888 0.987552642822266 4.58444976806641 6.68739461898804 4.65261507034302 4.01275444030762 4.24651622772217 5.07562828063965 4.56939315795898 4.03499031066895 3.4914345741272 2.99181509017944 2.58989310264587 2.46520948410034 2.15877175331116 1.89607501029968 1.48650407791138 1.28675520420074 1.26053273677826 1.32467484474182 2.088538646698 3.49933838844299 1.69825255870819 2.27004051208496 7.81230640411377 10.249659538269 9.53106784820557 6.68786144256592 3.75141286849976 2.28704524040222 1.07493710517883
-1.07560110092163 -0.14470611512661 0.576332032680511 1.18886923789978 1.55155372619629 1.1333566904068 0.743729770183563 0.0771628767251968 -0.346965700387955 -0.6639564037323 -0.821672976016998 -0.112411111593246 -0.473567217588425 -1.13135731220245 -1.3471896648407 -1.54269063472748 -1.81192910671234 -2.01396346092224 -2.18642950057983 -2.3745231628418 -2.50881814956665 -2.50534725189209 -2.37747192382812 -2.93768620491028 -3.1104109287262 -3.23815727233887 -3.33773732185364 -3.49282312393188 -3.61992239952087 -3.12758374214172 -2.69974970817566 -2.88489603996277 -3.17946529388428 -2.73460745811462 -1.03502666950226 0.0262447223067284 0.8740354180336 0.735758185386658 0.611871778964996 0.302155017852783 0.0845944061875343 -0.158345013856888 -0.479924470186234 -0.563500940799713 -0.697571098804474 -0.710979580879211 -0.805468559265137 -1.30757236480713 -1.51759564876556 -0.902821660041809 -0.342789441347122 -1.0478527545929 -1.36615133285522 -1.46567165851593 -1.59282350540161 -1.74328863620758 -1.82806062698364 -1.97293341159821 -2.22857761383057 -2.47855091094971 -2.58720350265503 -0.93313992023468 3.99314451217651 2.52223372459412 1.7193911075592 2.59408044815063 1.33186554908752 4.94769382476807 4.89082336425781 5.76519680023193 13.4313802719116 20.5686187744141 25.6816940307617 22.6004619598389 17.8197841644287 14.0845317840576 12.5672779083252 9.91921520233154 8.33057117462158 6.70170879364014 6.0569806098938 5.48611688613892 4.77071762084961 4.43396711349487 3.72757840156555 6.444993019104 6.12410449981689 8.21894454956055 7.49456119537354 5.6251368522644 5.54597473144531 5.38648319244385 4.96152257919312 4.76058101654053 4.62562465667725 5.02361822128296 4.01477909088135 3.55149292945862 2.93320775032043 2.83942031860352 18.9636402130127 17.8977127075195 13.9300374984741 10.9084415435791 9.06666469573975 7.65551805496216 6.8801531791687 6.17382287979126 5.55138635635376 5.04311895370483 4.56164455413818 3.85647320747375 3.42874217033386 2.67195391654968 2.03891372680664 1.73241019248962 1.65624344348907 23.7165508270264 14.6304368972778 6.54120016098022 3.3204619884491 2.90355467796326 2.87025761604309 2.69615149497986 2.58730888366699 2.58430814743042 2.37701463699341 2.06407952308655 1.96162009239197 1.65187990665436 1.27036333084106 0.931521654129028 0.819324433803558 3.30111575126648 2.26349401473999 2.67886829376221 2.02878332138062 1.15359473228455 1.18484544754028 1.11761128902435 0.986687779426575 1.87315380573273 4.06630849838257 6.26402854919434 6.348717212677 5.17162799835205 4.22314071655273 3.79580974578857 3.5673680305481 3.15305805206299 2.92810702323914 2.69513463973999 2.61113357543945 2.24337315559387 1.98678159713745 1.69479668140411 1.61572122573853 1.44754588603973 1.28072392940521 1.18343019485474 1.14621245861053 1.14298892021179 1.11873781681061 5.82095861434937 6.44485807418823 9.04090023040771 11.1077375411987 8.57562828063965 6.5776104927063 3.45827627182007 1.58298516273499
