NCOLS 174
NROWS 31
XLLCORNER 353840
YLLCORNER 6701024
CELLSIZE 16 
NODATA_value -3.4e+38 
18.8500423431396 21.2885818481445 31.9406032562256 45.801097869873 47.8169174194336 10.9941720962524 22.2865905761719 21.369213104248 25.6995811462402 1.21781969070435 3.14909410476685 2.54660511016846 0.325879096984863 7.48880910873413 0.665184020996094 1.28499817848206 4.72342967987061 16.0929126739502 10.5008583068848 11.262622833252 23.3146667480469 2.5929388999939 2.73932838439941 5.30046606063843 6.21285104751587 6.9529242515564 6.57782554626465 8.64631366729736 2.37464690208435 2.68532633781433 3.89813566207886 3.37479543685913 5.83233118057251 2.69690299034119 2.72280526161194 5.69641447067261 6.28913450241089 -0.594067454338074 1.60379934310913 2.02217841148376 3.07169961929321 2.72011852264404 4.16966485977173 5.74605655670166 7.03529071807861 8.584792137146 12.9137306213379 30.8590927124023 11.3845872879028 21.7955112457275 23.5405960083008 -4.45541524887085 -3.40194272994995 -3.8414888381958 -3.74501848220825 -1.7647123336792 -2.75192260742188 12.6880493164062 -2.50545740127563 3.34758996963501 1.98214387893677 -2.17632913589478 -2.00483012199402 25.3874988555908 -1.78566372394562 -0.0343768931925297 -0.0908591598272324 -0.0480950176715851 0.0231190081685781 0.410105317831039 0.362140536308289 0.0913850963115692 0.264010787010193 0.217599779367447 0.172134503722191 0.157814517617226 -0.237634658813477 -0.392757058143616 -0.615915477275848 -0.610696315765381 -0.269815564155579 -0.20065850019455 -0.128841653466225 -0.0764497667551041 -0.0434663817286491 0.032061830163002 0.21903583407402 0.248632460832596 0.299080550670624 0.374183535575867 0.352482676506042 0.439450830221176 0.332856178283691 0.418436348438263 0.482999354600906 0.465451925992966 0.53177672624588 1.20880210399628 1.27420997619629 1.34364068508148 1.42863094806671 1.51926219463348 0.784374535083771 1.08864033222198 1.1357524394989 1.24070692062378 1.37019181251526 1.5014283657074 1.42561912536621 1.6459835767746 1.87185108661652 2.09971904754639 2.47565579414368 2.86879062652588 3.49345326423645 9.41030597686768 18.5793609619141 4.89132261276245 0.171638026833534 13.2425670623779 6.44227123260498 2.18172860145569 0.883707940578461 0.779172241687775 2.97969651222229 -0.0213260743767023 0.145026579499245 7.28153228759766 8.31098651885986 0.847124874591827 0.794282376766205 1.22365891933441 1.25632727146149 1.29412710666656 1.32599020004272 0.775521993637085 0.794994056224823 0.820030212402344 0.84169614315033 1.60519754886627 1.69467425346375 1.74207305908203 1.79191732406616 2.02366352081299 2.26262450218201 3.06088590621948 3.13153266906738 3.75609374046326 3.80423736572266 3.92890548706055 4.13458871841431 4.49932193756104 4.70402336120605 4.80217456817627 5.05337858200073 5.16647672653198 5.28396606445312 5.40517377853394 5.53253412246704 5.41174507141113 5.34715223312378 5.46754217147827 5.65133237838745 5.84969997406006 6.0595760345459 5.66303443908691 5.85926723480225 6.13867092132568 6.34699535369873 7.00113296508789 7.25137233734131 7.55168533325195 8.06089496612549 14.6252241134644
23.4205932617188 27.9917221069336 29.1818046569824 27.6333904266357 35.218318939209 42.9489135742188 24.0512447357178 18.585807800293 11.2534093856812 24.0035343170166 6.28473472595215 0.497244387865067 1.03663122653961 1.13908219337463 1.24053204059601 1.71633803844452 5.79129362106323 7.85082149505615 17.0527191162109 14.4640445709229 11.9348726272583 19.2807922363281 4.63042163848877 4.4686450958252 7.25371360778809 18.4107112884521 38.1639938354492 17.4314098358154 0.821790993213654 5.72648572921753 8.5633659362793 3.59952044487 -0.0565101690590382 2.37173223495483 5.76550245285034 1.1907274723053 0.884596943855286 1.08204138278961 3.17614102363586 1.97049355506897 2.23407578468323 8.71597576141357 3.02112770080566 5.82128858566284 14.8944988250732 8.44798946380615 30.0412731170654 3.09539341926575 17.1104106903076 8.96177864074707 5.64300060272217 10.5396108627319 -1.10053050518036 -0.0275611765682697 -2.75707936286926 0.762183904647827 0.95877069234848 27.1848659515381 -2.23695731163025 -2.11054039001465 -1.64690732955933 4.24069166183472 -1.53204238414764 0.0358413010835648 0.280486106872559 0.0966725125908852 0.0386227890849113 0.0943644344806671 0.115899831056595 -0.0721830874681473 -0.0154888750985265 0.13555046916008 0.254222333431244 0.0503111593425274 -0.096093662083149 -0.154687017202377 -0.0668789744377136 -0.574265658855438 -0.291154563426971 -0.27490308880806 -0.195920184254646 0.0157476142048836 0.0751138478517532 0.135580942034721 0.18367338180542 0.217587530612946 0.170135080814362 -0.0303121041506529 0.0185617376118898 0.085293136537075 0.119443289935589 0.205094754695892 0.819334983825684 0.896513760089874 0.972756862640381 1.04017698764801 1.10929381847382 0.421612054109573 0.738228619098663 0.797794282436371 0.856553375720978 0.924919843673706 0.996086657047272 0.823660969734192 0.89672464132309 0.96640145778656 1.06175053119659 1.18427383899689 1.36815440654755 1.57008111476898 2.43864226341248 3.17533493041992 3.68575930595398 4.43395662307739 5.65853691101074 10.248420715332 20.523229598999 2.12905764579773 6.8030104637146 0.0868783295154572 3.08225250244141 19.3120212554932 1.41489470005035 -0.386682868003845 1.53814899921417 3.71050620079041 6.91213083267212 0.268934398889542 1.10021841526031 1.16713452339172 0.677889883518219 0.693417072296143 0.705410063266754 0.722958326339722 0.748919785022736 0.902868032455444 1.50279831886292 1.53920578956604 1.57840490341187 1.64893579483032 1.75932085514069 2.04490828514099 2.18570923805237 2.61133527755737 2.95537495613098 3.57769370079041 4.45072460174561 3.98401999473572 4.12575817108154 4.2385106086731 4.38772964477539 4.49076366424561 4.82227563858032 4.92524385452271 4.81665182113647 4.70169305801392 4.81399869918823 4.80347013473511 4.94575500488281 5.09601926803589 4.81678438186646 4.95961332321167 5.13052272796631 5.30144023895264 5.86776876449585 6.05673456192017 6.25544738769531 6.45368909835815 6.65600204467773 7.08984470367432 7.33478784561157 8.51891136169434 10.2163162231445 15.7299423217773
18.6860504150391 30.4083824157715 17.8465061187744 22.365083694458 44.2405700683594 24.5623016357422 18.3676948547363 16.7981433868408 15.5596590042114 5.1281852722168 13.1601037979126 8.62792491912842 17.814115524292 0.82580691576004 1.755038022995 2.06712746620178 5.58662509918213 11.0940446853638 33.7161636352539 4.19339799880981 11.0260429382324 14.7554817199707 5.80168867111206 10.9479608535767 10.8860521316528 35.8405113220215 16.2022380828857 24.4384136199951 0.331470817327499 8.92383193969727 3.21167302131653 -0.801977813243866 2.57103037834167 -0.611156642436981 0.252442687749863 -0.0279451794922352 0.672751903533936 1.78457581996918 1.8504638671875 2.38922929763794 2.09970617294312 18.175594329834 2.84907150268555 7.10653734207153 11.1485109329224 3.26633644104004 7.28968715667725 24.86887550354 -0.797373473644257 10.4512815475464 8.76018905639648 9.94621753692627 3.65597677230835 2.63602232933044 3.24137449264526 11.634934425354 2.24135875701904 11.0034284591675 -2.1997926235199 -2.11517667770386 -1.44824922084808 -1.42082142829895 0.144449189305305 0.35159632563591 0.663822829723358 0.749942004680634 0.89637553691864 1.03296780586243 -0.163936465978622 -0.113050423562527 0.0192625280469656 0.137857228517532 0.112656995654106 -0.241322815418243 -0.382792592048645 -0.307186037302017 -0.283008813858032 -0.437676280736923 -0.199290126562119 -0.0308665428310633 -0.00367509014904499 -0.225715577602386 -0.184426218271255 -0.137605294585228 -0.0955260097980499 -0.0626193508505821 -0.0831146836280823 -0.061077892780304 0.479944705963135 0.568670809268951 0.654150187969208 0.724494457244873 0.13001760840416 0.462468296289444 0.52142858505249 0.569865584373474 0.617513835430145 0.661310195922852 0.470756828784943 0.507395148277283 0.558493971824646 0.611621022224426 0.634300649166107 0.724202930927277 1.00505983829498 1.06659603118896 1.25892996788025 1.75430011749268 1.98622977733612 2.27941203117371 2.73301672935486 3.22579407691956 3.86559176445007 4.80374383926392 6.25722742080688 5.93594741821289 13.7675685882568 28.3729000091553 5.11142921447754 -0.78702586889267 -0.666347563266754 11.2195482254028 0.622654378414154 10.3116416931152 2.37799000740051 0.529043197631836 3.09700512886047 5.87949323654175 0.293748319149017 0.658396899700165 0.795359313488007 1.32861709594727 1.36188089847565 1.39127063751221 1.42137134075165 1.45200085639954 1.38953268527985 1.58884620666504 1.70134651660919 1.93756783008575 2.07320737838745 2.19305539131165 2.55959177017212 2.60727500915527 3.07542157173157 5.71349954605103 12.0658140182495 3.41669154167175 3.60671472549438 3.71717071533203 4.11767148971558 4.23775291442871 4.17637062072754 4.28174638748169 4.39667463302612 4.18480920791626 4.28825330734253 4.40880870819092 4.52689695358276 5.03679227828979 5.17762184143066 5.32932567596436 5.48657369613647 5.65383005142212 5.93328905105591 6.11541604995728 6.31113433837891 6.5053768157959 6.74234104156494 6.89875078201294 7.32105684280396 8.25576591491699 10.1715908050537 10.3823003768921
20.1458206176758 33.5663833618164 19.6170024871826 20.7752208709717 23.3844680786133 27.9202079772949 37.9303970336914 26.8576240539551 15.4701709747314 23.3745918273926 8.82185554504395 15.4836902618408 21.5308647155762 0.836925446987152 1.34153950214386 3.79550814628601 7.79021453857422 28.2329730987549 7.2540922164917 12.1782007217407 8.66899967193604 7.03794860839844 9.01259899139404 12.3230428695679 21.1752910614014 22.8925437927246 19.8009757995605 22.6646366119385 29.2432250976562 13.7316551208496 -0.931657552719116 5.77052211761475 11.8783483505249 -1.66266202926636 -0.72603964805603 -0.235554233193398 -0.0363503769040108 3.17624831199646 5.87216711044312 9.96300411224365 0.549651026725769 -0.153020665049553 0.714191317558289 1.05784320831299 6.65831089019775 13.3273334503174 -1.54162406921387 -1.36286652088165 5.45907926559448 0.47046485543251 1.67183434963226 0.294505089521408 0.57872462272644 6.2727222442627 16.0166988372803 -1.29323542118073 8.16584396362305 -1.87179744243622 -1.84102499485016 -1.52649450302124 -1.17187237739563 -0.984850585460663 0.91233617067337 1.09031748771667 1.36166572570801 1.50771248340607 1.4954035282135 0.776490330696106 0.00647501926869154 -0.00479409657418728 0.0763220191001892 0.162972316145897 0.240489542484283 -0.52529776096344 -0.577113211154938 -0.474816232919693 -0.484772652387619 -0.614557385444641 -0.71900874376297 -0.238144487142563 -0.220887646079063 -0.241572514176369 -0.210537940263748 0.262743026018143 0.307383149862289 0.348188787698746 0.388621717691422 0.436318188905716 -0.104946255683899 0.21154497563839 0.244619235396385 0.293321430683136 0.351700067520142 0.19964188337326 0.240708634257317 0.293080061674118 0.33835232257843 0.351338446140289 0.387960702180862 0.671452641487122 0.717067301273346 0.759940385818481 0.913202047348022 1.03009581565857 1.17590069770813 1.31427884101868 1.42912650108337 1.63185453414917 1.93441474437714 2.15767931938171 2.45625114440918 4.27943468093872 5.04582643508911 6.03846216201782 7.46836376190186 9.54811954498291 10.9246225357056 9.41100120544434 3.16485500335693 4.26390218734741 2.31969618797302 14.0587520599365 25.8817577362061 -0.601658046245575 1.91101777553558 10.2819004058838 0.229465812444687 0.21199443936348 0.539942502975464 1.27656412124634 1.30485033988953 1.21736586093903 1.24367558956146 1.26646220684052 1.29572582244873 1.23364126682281 1.47161781787872 1.60518109798431 1.64003205299377 1.89631116390228 2.06379365921021 2.32246017456055 2.49674081802368 2.93329906463623 3.85024499893188 3.50340366363525 3.59112954139709 5.49580240249634 11.1284637451172 3.5810215473175 3.83571887016296 7.07384586334229 3.61751508712769 3.71108365058899 4.11264705657959 4.46452236175537 5.03330087661743 9.95594596862793 4.55637311935425 5.08917045593262 5.22913360595703 5.38992309570312 5.54349565505981 5.70797348022461 5.73077964782715 6.13308048248291 6.35782194137573 6.89431428909302 7.5351767539978 7.82467842102051 8.16608428955078 9.10124492645264 9.52663516998291 10.0068187713623
37.0330963134766 25.3452739715576 20.5915126800537 23.6207523345947 16.6799926757812 36.1412506103516 22.0736217498779 15.9842863082886 23.7348880767822 11.9701652526855 15.3832178115845 25.0088176727295 1.33899807929993 1.69794499874115 2.88500022888184 4.28527545928955 11.0751113891602 24.3774833679199 5.55918502807617 7.66520690917969 7.74463605880737 8.01993846893311 8.05699634552002 12.7721529006958 25.8784427642822 14.4339408874512 19.5597629547119 18.2138977050781 24.4652290344238 7.26288032531738 19.01123046875 -0.351363927125931 0.88872754573822 -1.59464347362518 7.79590511322021 -0.413846701383591 0.328225404024124 11.0956258773804 22.9555797576904 -0.821690499782562 6.73550939559937 15.4024505615234 -1.89361083507538 5.02116918563843 -1.96831893920898 5.64219903945923 7.4935359954834 -2.51236200332642 -2.14423608779907 4.03221750259399 16.1426372528076 3.04864048957825 -2.75845098495483 -0.496535390615463 3.56352281570435 4.48764705657959 27.6267719268799 -1.78081870079041 -1.67191219329834 -1.48908185958862 -1.40085303783417 0.886868834495544 1.58566677570343 1.68867874145508 1.87742602825165 1.88856768608093 1.88023591041565 1.09779119491577 0.263493180274963 0.25535175204277 0.123217523097992 0.0372538715600967 0.208688676357269 -0.693188965320587 -0.727396428585052 -0.542700707912445 -0.524377763271332 -0.627973079681396 -0.580208897590637 -0.571403920650482 -0.23013573884964 0.206461414694786 0.23081910610199 -0.27702522277832 -0.0150493727996945 0.0154833374544978 0.0574085079133511 0.100710704922676 0.133980885148048 -0.0399695970118046 -0.0176877323538065 0.0138257415965199 0.0527552254498005 0.105892971158028 0.366405636072159 0.419274091720581 0.478205263614655 0.533460438251495 0.574915289878845 0.60096263885498 0.673177599906921 0.729357004165649 0.737973630428314 1.00528037548065 1.1470685005188 1.27116227149963 1.44209134578705 2.40042853355408 2.96703624725342 3.30412530899048 3.68841195106506 4.14668655395508 3.54395437240601 1.30969560146332 1.44790720939636 1.21804189682007 3.78270196914673 4.45483303070068 5.30552101135254 6.60961055755615 8.56469821929932 10.4702711105347 20.9611701965332 7.20621156692505 -0.62666267156601 0.396628201007843 -0.173847034573555 0.0701487138867378 1.1359840631485 1.16111445426941 1.10368311405182 1.3109005689621 1.34875595569611 1.37464475631714 1.40273237228394 1.44449198246002 1.41719973087311 1.82469618320465 1.8599750995636 1.92791819572449 1.95694351196289 2.18466591835022 2.86664342880249 2.95454049110413 3.43592166900635 3.5294976234436 3.52183246612549 3.43016314506531 3.50351572036743 3.56028079986572 3.99494433403015 5.96490526199341 4.04191923141479 4.14415788650513 4.23989963531494 4.47617673873901 8.72071838378906 17.2561054229736 4.36275863647461 4.50976896286011 4.78589582443237 5.32923173904419 5.79842615127563 6.30352210998535 6.54411220550537 6.74585723876953 6.95176649093628 7.60189008712769 7.9547758102417 8.23104763031006 8.64146709442139 8.54171180725098 9.4766731262207 12.2513694763184
42.8119430541992 38.0642585754395 14.2700071334839 17.2990303039551 26.8356666564941 15.2388982772827 20.9119853973389 20.2960586547852 31.4404792785645 22.9061641693115 5.0896053314209 4.52338743209839 1.51363277435303 1.93716681003571 2.71484136581421 6.33053159713745 13.5395669937134 30.0847492218018 4.16865587234497 6.37721014022827 8.14692401885986 8.15927314758301 12.5607376098633 12.2045001983643 12.7359504699707 17.1937217712402 15.5854167938232 13.061653137207 15.2632389068604 23.4587516784668 0.156566113233566 -2.36725854873657 -2.34768176078796 -2.82132911682129 -2.46436738967896 -2.01170015335083 2.44078874588013 15.4300546646118 9.40170860290527 19.7562065124512 13.1841201782227 -3.59957933425903 -2.95022392272949 -2.82497954368591 -2.78912663459778 -1.09204506874084 9.87197780609131 -3.05742979049683 5.33488941192627 1.2336642742157 5.05933856964111 4.51991271972656 2.59703731536865 6.47709226608276 10.8330078125 10.161509513855 18.3655872344971 4.17757225036621 -1.54067933559418 -1.00758790969849 -0.132794231176376 1.62796306610107 2.01444697380066 2.21559572219849 2.3268928527832 2.25882935523987 1.33341693878174 1.06945598125458 0.682110249996185 0.421565324068069 0.445647209882736 -0.118699043989182 -0.528001725673676 -0.487499803304672 -0.761512696743011 -0.552937686443329 -0.490910619497299 -0.474261105060577 -0.397698849439621 -0.391745120286942 -0.316944092512131 -0.299513876438141 -0.0586568005383015 -0.0421745963394642 -0.204647317528725 -0.176263079047203 -0.149277567863464 -0.137956693768501 -0.119626611471176 -0.0962053537368774 0.115404203534126 0.14538437128067 0.189304187893867 0.247991234064102 0.147428393363953 0.325193792581558 0.382211565971375 0.43063086271286 0.523230671882629 0.5872682929039 0.657971620559692 0.733993291854858 1.31764876842499 1.70514392852783 1.86764311790466 2.07608366012573 2.29566073417664 2.53827810287476 2.08407592773438 0.7374666929245 0.801183044910431 0.429657191038132 2.3285870552063 2.56760478019714 2.84524273872375 3.20004892349243 2.80982255935669 3.79311966896057 4.40684223175049 5.10611391067505 5.95585823059082 7.53779983520508 1.08771705627441 9.70709896087646 21.6977062225342 -0.477872461080551 -0.387171387672424 0.250601768493652 1.05014514923096 1.25723576545715 1.28713774681091 1.07662642002106 1.17084527015686 1.1925220489502 1.08455204963684 1.75344097614288 1.79319250583649 1.56497418880463 1.78116810321808 1.82914209365845 1.72754776477814 2.31656050682068 2.46107482910156 2.48660969734192 2.5836181640625 2.99143576622009 3.34206080436707 3.40558457374573 3.81235671043396 3.88132357597351 4.03477191925049 10.9400339126587 21.334379196167 3.7924485206604 4.11459350585938 4.84916639328003 9.69298267364502 4.7282862663269 4.95974349975586 5.16029071807861 5.30771017074585 5.52345657348633 6.38121891021729 6.58524513244629 6.80178833007812 7.0263843536377 7.26786947250366 7.25437593460083 7.52885055541992 7.58022975921631 7.93504858016968 8.27883243560791 8.67306423187256 9.49404907226562
35.6935348510742 33.5608215332031 15.2593460083008 16.7301712036133 18.0425701141357 13.9370918273926 20.0764255523682 23.9367084503174 23.2399482727051 26.6790542602539 2.04712581634521 3.92718243598938 17.8834457397461 2.93112874031067 3.29593086242676 10.5509929656982 6.25962448120117 19.4019889831543 23.2816162109375 4.68762159347534 17.1987285614014 6.73893356323242 10.8181390762329 17.8712673187256 12.4179592132568 31.120304107666 47.7537841796875 4.43071508407593 10.3516712188721 25.4724979400635 1.24120998382568 7.27752304077148 -2.48288750648499 -2.91333055496216 -0.311778992414474 3.36231398582458 4.59545230865479 6.5978889465332 26.4022903442383 17.6092662811279 22.8727512359619 -3.80879998207092 -3.65964555740356 -3.32629179954529 2.90365886688232 20.5729160308838 -0.929682016372681 -2.9900484085083 -2.80841636657715 0.902521193027496 -2.71707487106323 -1.53206360340118 1.82718431949615 3.7112877368927 11.8077068328857 3.81747269630432 17.3438472747803 -1.19914710521698 -0.972454309463501 1.1330498456955 1.56414842605591 1.81122612953186 2.06079769134521 2.40756916999817 3.0041663646698 1.67641484737396 1.12948763370514 0.953704476356506 0.931709706783295 0.630401015281677 0.489794582128525 -0.155659630894661 -0.671610355377197 -0.678910791873932 -0.543211817741394 -0.40916645526886 -0.368412613868713 -0.37270450592041 -0.395078629255295 -0.39199823141098 -0.420179784297943 -0.246900364756584 -0.231595784425735 -0.222211331129074 -0.208527565002441 0.0194113962352276 -0.0255337115377188 -0.00938543397933245 0.0146094718948007 0.0339399054646492 -0.0732510089874268 0.0750332474708557 0.107194639742374 0.157442212104797 0.201067954301834 0.190337330102921 0.271097004413605 0.718507826328278 1.01982092857361 1.10756373405457 1.20509219169617 1.31427216529846 1.43093645572662 1.17353498935699 0.309279501438141 0.367394089698792 0.132146120071411 1.38988614082336 1.51253128051758 1.67420625686646 1.81277704238892 1.96767222881317 1.64858961105347 2.31367015838623 2.57873129844666 2.81835269927979 3.14855265617371 0.928810715675354 2.5942018032074 2.78752112388611 2.84565186500549 3.07352614402771 4.08705711364746 3.38220310211182 7.39453554153442 17.8875560760498 -0.355061322450638 0.617128431797028 0.937419354915619 0.966641366481781 0.992908358573914 1.01196312904358 0.932680308818817 1.15866577625275 1.22469472885132 1.50008988380432 1.52831792831421 1.45745742321014 1.67207932472229 1.68935084342957 1.7245888710022 2.01038360595703 2.03439950942993 2.0672595500946 3.00062322616577 3.07460284233093 3.13107824325562 3.60340166091919 4.38358688354492 5.5784740447998 7.21589851379395 4.20058631896973 9.07559490203857 12.0924921035767 4.38210773468018 5.54193687438965 12.4315748214722 5.01826763153076 8.20329570770264 27.57080078125 4.7676854133606 6.13137292861938 6.12363958358765 6.42818784713745 6.58766412734985 6.78688764572144 7.07132816314697 7.44611597061157 7.85673475265503 8.11461639404297 8.4247407913208 8.72121429443359 9.16651630401611 9.52727794647217
29.318567276001 36.2413711547852 26.3181076049805 38.6450691223145 16.4947052001953 11.3812456130981 12.7644195556641 12.8600616455078 20.452449798584 37.4651718139648 17.4068965911865 1.74228143692017 3.03585290908813 4.60618257522583 4.8216609954834 7.70089673995972 10.8829145431519 10.2390031814575 5.10737562179565 5.11149120330811 9.6065092086792 12.3119974136353 16.4625625610352 20.4889717102051 23.5338668823242 15.9583225250244 12.607816696167 12.8764820098877 8.79739856719971 9.20302867889404 14.069712638855 9.17966175079346 -0.613561689853668 0.0518955029547215 3.43039631843567 5.4924955368042 9.77352809906006 14.0847368240356 23.0119113922119 23.0763683319092 0.693249464035034 1.31045746803284 -3.70588159561157 -3.40469193458557 -3.20746493339539 14.7103128433228 -2.90940070152283 6.41523313522339 15.6917591094971 -2.40867376327515 -1.92310309410095 -1.56840932369232 6.89937210083008 20.549991607666 0.0892049297690392 -1.32442092895508 -1.08691596984863 0.872693359851837 5.58150482177734 14.2372674942017 7.21205902099609 12.0296230316162 -1.06065893173218 2.92782545089722 3.28534936904907 2.3085560798645 1.14712727069855 0.796414494514465 0.809297859668732 0.647638261318207 0.419284164905548 -0.24600824713707 -0.627505898475647 -0.418733865022659 -0.4049132168293 -0.347328543663025 -0.389341086149216 -0.297021776437759 -0.0336181856691837 -0.384233355522156 -0.483248174190521 -0.474705904722214 -0.406931459903717 -0.0672677382826805 -0.0549865812063217 -0.174204766750336 -0.066756546497345 -0.0610682778060436 -0.0495043247938156 -0.0313418619334698 -0.00823340937495232 -0.0600721910595894 -0.0817366018891335 0.272431612014771 0.51686954498291 0.59770131111145 0.681154191493988 0.785901665687561 0.603078126907349 0.0335219874978065 0.0587653256952763 0.0904984697699547 0.716172635555267 0.781267583370209 0.889995932579041 0.998480141162872 1.12996351718903 0.8990758061409 1.40950572490692 1.51572978496552 1.6672295331955 1.80720567703247 1.9428915977478 0.407714128494263 1.56351721286774 1.72784852981567 1.90364384651184 2.14388465881348 1.58359265327454 2.19155120849609 2.25288271903992 1.50695621967316 1.57587432861328 2.40452265739441 0.095922127366066 0.287791907787323 0.455178529024124 0.469708889722824 0.536058127880096 0.546120405197144 0.596818923950195 0.621794879436493 1.16248226165771 1.1925995349884 0.657346308231354 1.28804504871368 1.48700535297394 1.66899704933167 1.71215331554413 1.73763608932495 1.77006602287292 1.80954825878143 2.02064800262451 2.24410915374756 2.58264875411987 2.84796595573425 3.02229237556458 3.60501670837402 3.95056509971619 4.29199028015137 4.45632123947144 5.72811317443848 10.4497718811035 16.5542163848877 4.53297138214111 6.37395715713501 6.82227325439453 18.537748336792 31.4267807006836 4.85596036911011 5.90947437286377 6.12879753112793 6.37491130828857 6.77453660964966 6.940101146698 7.13041591644287 7.3726110458374 7.62536382675171 7.90194416046143 8.15052318572998 8.43196678161621 8.76649951934814 8.94149780273438 9.2362003326416
27.4001579284668 38.1520042419434 49.6543655395508 16.6318893432617 20.4344882965088 18.5756931304932 32.7811050415039 10.4969892501831 26.9042701721191 31.7694702148438 16.3720874786377 2.2762598991394 1.9262866973877 2.8708770275116 5.20978212356567 4.44912910461426 31.9850921630859 5.03583288192749 15.1068897247314 5.18220806121826 6.25811672210693 8.75002479553223 9.97353458404541 11.2190885543823 23.8038787841797 10.2369918823242 8.74997997283936 5.58745670318604 13.3687810897827 20.3767147064209 6.80424976348877 0.948320686817169 0.530667245388031 1.34709572792053 3.87399649620056 6.70324277877808 11.8062782287598 26.4498825073242 16.8674221038818 6.94431447982788 7.34795999526978 -1.33774995803833 0.863718569278717 -3.81704473495483 -3.57525897026062 -2.87010455131531 -2.71350789070129 5.82551574707031 16.9674377441406 -2.28569626808167 -1.58392453193665 -0.00510486820712686 10.1352090835571 13.7040576934814 -1.71902287006378 3.03391242027283 19.9372425079346 38.3206176757812 3.61579370498657 -1.62229573726654 5.85062599182129 14.6912775039673 -1.59990382194519 1.54744100570679 3.34737777709961 3.26747179031372 1.5235652923584 0.826040506362915 0.62758868932724 0.541611015796661 0.552750051021576 -0.11534807831049 -0.583219647407532 -0.479284703731537 -0.446839511394501 -0.28823310136795 -0.189089521765709 -0.224498391151428 0.0118367178365588 0.143064841628075 -0.351017832756042 -0.34626504778862 -0.325267672538757 -0.19673790037632 -0.0871473029255867 -0.0845727026462555 -0.0503999516367912 -0.0125675480812788 -0.0201696306467056 0.164879694581032 0.212560445070267 0.246777847409248 0.308853656053543 0.373965203762054 0.19932809472084 -0.242777094244957 -0.211733654141426 -0.383273273706436 0.323854029178619 0.384684801101685 0.473590314388275 0.535380601882935 0.26147797703743 0.672944664955139 0.767226159572601 0.873970985412598 0.988879680633545 1.1163501739502 -0.0317795760929585 0.897526144981384 0.95497864484787 1.06738841533661 1.12789368629456 1.24547135829926 0.894733667373657 1.0778900384903 1.17323815822601 1.36871552467346 1.46262121200562 1.83863604068756 2.3067421913147 0.937305212020874 0.87101423740387 -0.142974495887756 -0.0906822010874748 0.0387967750430107 0.245058938860893 0.425143510103226 0.465109288692474 0.480444192886353 0.481708973646164 0.59502375125885 0.609403133392334 0.729887068271637 0.867788076400757 1.5966579914093 1.63560724258423 1.44166219234467 1.5471465587616 1.63656210899353 1.86201906204224 2.13347101211548 2.17644953727722 2.22348093986511 2.90825152397156 2.97146892547607 3.78132891654968 4.111243724823 4.36592292785645 4.45970249176025 4.95554733276367 6.34722900390625 6.09295129776001 7.32404232025146 9.77903175354004 7.88747310638428 11.7963352203369 5.52453231811523 5.71680736541748 5.95844888687134 6.22374820709229 6.36235523223877 6.60145330429077 6.7706880569458 6.96283960342407 7.14836692810059 7.364577293396 7.66432571411133 7.88711357116699 8.19494438171387 8.6555871963501 8.95447254180908 9.2750883102417 9.59719562530518
26.8581428527832 28.3623752593994 38.2878265380859 24.6509799957275 21.6483955383301 17.6436882019043 21.8145294189453 11.2656965255737 16.7032852172852 16.6709995269775 30.6245498657227 3.12479329109192 5.79667043685913 3.71197748184204 4.51691055297852 31.9308624267578 5.49499654769897 15.3114461898804 5.84896469116211 3.86444640159607 5.99378395080566 5.94038200378418 6.91898727416992 9.92938899993896 12.4245767593384 11.7283458709717 12.7659502029419 32.2672119140625 12.119402885437 27.0221252441406 0.383805751800537 0.915119111537933 3.08730006217957 4.17315721511841 6.52692937850952 11.58629322052 12.5741748809814 24.2291679382324 11.4300022125244 13.9653911590576 3.54725003242493 4.73433017730713 12.8282403945923 -3.84805393218994 -2.08924245834351 -2.81118083000183 1.69653475284576 0.659842252731323 3.86202454566956 -2.02421045303345 -1.85635840892792 -1.80715477466583 2.59159398078918 4.79194688796997 13.354829788208 27.3043384552002 20.7641506195068 -1.36557364463806 44.9867134094238 -0.736681580543518 -1.21328401565552 -0.939110577106476 3.82028961181641 4.17060375213623 4.04376602172852 3.19750785827637 2.57999801635742 1.23807954788208 0.669970035552979 0.372896373271942 0.355691194534302 0.402236878871918 -0.517369031906128 -0.486759692430496 -0.355947315692902 -0.254365980625153 -0.0931650921702385 -0.0412064790725708 -0.155568242073059 -0.0660888776183128 -0.0344241484999657 -0.280674695968628 -0.277798533439636 -0.0728090032935143 0.0878142490983009 0.0992393419146538 0.129001557826996 0.188826724886894 0.105838045477867 -0.0577953718602657 -0.350780129432678 -0.382752656936646 -0.552837789058685 0.00818155054003 0.0365953147411346 0.0672620981931686 0.105444639921188 0.155802503228188 -0.060349203646183 0.292099565267563 0.372407138347626 0.412760436534882 0.427570134401321 -0.429847300052643 0.245789930224419 0.328952521085739 0.42833486199379 0.51472395658493 0.626470744609833 0.441881448030472 0.75146895647049 0.53387176990509 0.644616007804871 0.687028527259827 0.769633650779724 0.419633120298386 0.644235789775848 0.815445005893707 1.12045407295227 1.17932641506195 1.42325520515442 1.02402317523956 0.88915091753006 0.237497970461845 -0.124446950852871 -0.0798148736357689 0.0491973236203194 0.192353963851929 0.425979256629944 0.471903383731842 0.519727826118469 0.693130731582642 1.06679916381836 1.24241876602173 1.27067267894745 1.30171942710876 1.37182033061981 1.31909763813019 1.67160642147064 2.04446601867676 2.08777689933777 2.03365111351013 2.21337532997131 2.25766777992249 3.40359449386597 3.75176358222961 4.18152141571045 4.26835250854492 4.30213356018066 4.38989591598511 10.0390958786011 19.0823554992676 4.29039001464844 4.78410768508911 10.9085807800293 18.8869686126709 5.20249605178833 5.48226261138916 5.90956592559814 6.14710235595703 6.26475954055786 6.4231128692627 6.62899684906006 6.88807010650635 7.05780649185181 7.44434309005737 7.65633869171143 7.88537359237671 8.12343120574951 8.5518217086792 8.81875228881836 9.11620712280273 9.44569969177246 9.79267501831055
20.3738880157471 25.7055854797363 33.0880928039551 42.2441062927246 20.8590106964111 15.8619346618652 36.2762718200684 7.13909721374512 8.70174026489258 7.12804555892944 10.7336559295654 5.66385173797607 2.96286392211914 3.11093211174011 10.5215263366699 18.1260051727295 14.4074506759644 2.5308985710144 3.53239917755127 5.78774547576904 6.2976541519165 6.90322017669678 9.35443496704102 24.2895355224609 7.77706575393677 13.9229650497437 11.813063621521 17.1221904754639 13.5182428359985 8.62090969085693 17.7154960632324 3.41783499717712 5.05422735214233 6.09865570068359 8.78895664215088 20.1301040649414 10.549017906189 30.7733421325684 9.30042552947998 5.00207710266113 5.80163383483887 17.1190509796143 -3.56913423538208 -3.40136528015137 -2.8181037902832 -2.40529298782349 14.0360622406006 30.4917240142822 -2.64598941802979 -1.93091201782227 2.86849880218506 14.4097080230713 0.478442132472992 17.9179344177246 35.7475395202637 2.86410713195801 3.68427038192749 -0.432908266782761 -1.60645341873169 26.1616554260254 44.4606781005859 -1.59575545787811 -1.41533195972443 0.0550336949527264 3.68293452262878 3.66893577575684 2.74261498451233 1.94359040260315 0.943792104721069 0.45953893661499 0.178438112139702 0.195697814226151 -0.204727217555046 -0.369983226060867 -0.414332866668701 -0.284833937883377 -0.172327473759651 0.0650370344519615 -0.124249950051308 -0.0903264880180359 0.195001155138016 0.226815730333328 0.1416305154562 0.0367361530661583 -0.102411635220051 -0.200246676802635 0.00209686812013388 0.126617833971977 0.148242101073265 -0.150339052081108 -0.137846618890762 -0.109238676726818 -0.0821957960724831 -0.268974810838699 0.00164438283536583 0.03267777338624 0.0656655356287956 0.0982373952865601 0.101409308612347 -0.579560458660126 -0.0528046600520611 -0.017192529514432 0.00537704769521952 0.0410893373191357 -0.118392251431942 -0.0412564910948277 0.0346299521625042 0.109440840780735 0.217890828847885 0.319937348365784 0.0380851291120052 0.171601161360741 0.0480090156197548 0.148846045136452 0.156700193881989 0.191746592521667 0.291400641202927 0.457741975784302 0.586334109306335 0.705362558364868 0.825895428657532 0.853396356105804 0.683655858039856 0.16274930536747 -0.0548655539751053 -0.0282858461141586 0.0265208333730698 0.133371710777283 0.736308515071869 0.879809856414795 0.971712589263916 1.13154709339142 1.15048718452454 1.09967124462128 1.00709438323975 1.05186128616333 1.13987600803375 1.6055999994278 1.6392787694931 1.94515001773834 2.01536726951599 2.11639642715454 2.22795796394348 2.80139446258545 3.00234985351562 3.52564883232117 3.69844245910645 4.07056570053101 4.98016738891602 6.4813232421875 9.89502334594727 18.6849231719971 4.72700023651123 4.81457710266113 5.09577417373657 5.61911773681641 6.2854380607605 9.39435291290283 5.74666404724121 6.24068450927734 6.36805438995361 6.69096755981445 6.88137340545654 7.05221652984619 7.35540533065796 7.55634689331055 7.76610898971558 8.00511264801025 8.25040435791016 8.27047538757324 8.52999019622803 8.80495834350586 9.39305210113525 9.71525382995605
18.7573089599609 23.0675315856934 28.4167041778564 39.9381790161133 30.3110046386719 12.9370498657227 15.3553142547607 9.76473426818848 14.004075050354 14.4343891143799 9.37648868560791 5.73653888702393 5.8388671875 7.9111442565918 10.8756542205811 16.7104015350342 9.44401836395264 4.05927991867065 4.78745746612549 6.25783824920654 8.60055065155029 11.8908061981201 8.08249950408936 21.730167388916 20.0646591186523 3.28217577934265 3.39440751075745 17.2666683197021 7.4621376991272 5.50502252578735 4.7894721031189 5.6506724357605 6.44691228866577 9.19584274291992 12.4762582778931 16.1174030303955 19.0933246612549 29.9842319488525 12.6000261306763 3.28766345977783 15.8640775680542 0.642196655273438 -3.47358775138855 1.51657605171204 -3.07446718215942 -2.7410614490509 4.19210529327393 1.09288620948792 -1.99572050571442 4.18810796737671 2.85662436485291 5.33260536193848 16.8453903198242 36.8509826660156 4.03941917419434 -0.556177198886871 2.11636877059937 14.9929790496826 50.8309669494629 -1.85933661460876 -1.69104814529419 42.6399345397949 -1.53192436695099 -0.630613505840302 4.43071508407593 2.93992042541504 3.10743141174316 2.24244856834412 1.11658084392548 0.934601187705994 0.408506691455841 0.0288233961910009 -0.00375660392455757 -0.312126040458679 -0.147241696715355 -0.0046301269903779 0.020193288102746 0.0352150425314903 0.176177337765694 0.0359113290905952 0.166608333587646 0.538599193096161 0.63269567489624 0.448365449905396 -0.185745984315872 -0.182708114385605 -0.136596694588661 -0.0321975089609623 -0.0840385854244232 -0.145100235939026 -0.149904921650887 -0.137037470936775 -0.112068936228752 -0.0979796499013901 -0.708867311477661 -0.268669068813324 -0.245823889970779 -0.24562706053257 -0.236038163304329 -0.218900293111801 -0.331076860427856 -0.273999899625778 -0.232997164130211 -0.232763230800629 -0.22089858353138 -0.279194504022598 -0.261249244213104 -0.245293378829956 -0.210729837417603 -0.200773760676384 -0.136539578437805 -0.105918385088444 0.0100813591852784 0.410050243139267 -0.119564518332481 -0.109434977173805 -0.0106914648786187 0.0662456974387169 0.143974885344505 0.252425611019135 0.4421366751194 0.559258639812469 0.725463926792145 0.29597145318985 0.311359614133835 0.352406233549118 0.413109719753265 0.506529986858368 0.359804093837738 0.659394025802612 0.760199069976807 0.82262796163559 0.8614501953125 0.991221964359283 1.070183634758 1.60508596897125 1.68582963943481 1.74652457237244 2.13562250137329 2.2376561164856 2.35011434555054 2.46765422821045 2.60329008102417 2.60529637336731 2.66147422790527 3.19748449325562 3.44353890419006 3.98658776283264 4.91419363021851 6.35133457183838 9.71260547637939 14.9569606781006 4.67110395431519 4.7202296257019 12.7172431945801 25.5580883026123 5.06673765182495 5.46118927001953 5.72632551193237 6.35461187362671 6.56207799911499 6.74436473846436 6.93140172958374 7.12059307098389 7.16321134567261 7.33968925476074 7.53112316131592 8.08403778076172 8.30834197998047 8.54250335693359 8.79900360107422 9.05242252349854 9.03284072875977 9.36097526550293
17.7998180389404 21.5707511901855 27.0487537384033 27.1172847747803 29.9983768463135 11.6871328353882 28.7605972290039 11.8876810073853 14.3504076004028 14.4223937988281 4.20054578781128 9.11520576477051 3.48589992523193 4.49349451065063 5.77242946624756 5.77627897262573 6.94036388397217 16.556978225708 6.49138259887695 7.14387130737305 13.1794118881226 9.9995174407959 12.0778455734253 15.1965084075928 20.0450687408447 4.8847017288208 15.9510917663574 3.5318591594696 3.82287669181824 5.43619680404663 5.47407722473145 7.10764741897583 8.28870391845703 10.5875768661499 10.9635162353516 14.038763999939 21.3036270141602 18.9837970733643 24.9575042724609 9.66314125061035 4.26998853683472 -1.6471471786499 -2.82390832901001 -2.7436146736145 -2.64061141014099 -2.43900036811829 1.3616464138031 26.512170791626 -2.03611040115356 3.84275841712952 6.99159526824951 21.6411666870117 41.5403633117676 0.768927752971649 5.11357021331787 2.46629643440247 24.5657176971436 42.3410911560059 5.35021734237671 7.94572401046753 -1.70043206214905 0.851585388183594 46.3836364746094 -1.69590926170349 4.45036315917969 3.0187292098999 2.29092860221863 2.69210338592529 1.58414542675018 1.2325633764267 0.758735001087189 0.0990649685263634 0.207691475749016 -0.0365662761032581 -0.0349709279835224 -0.126931548118591 0.0520155653357506 0.181173950433731 0.284201830625534 0.441276133060455 0.21841362118721 0.636048913002014 0.981170058250427 0.77366316318512 0.188813060522079 -0.152347013354301 0.0226762276142836 -0.196640983223915 -0.195023074746132 -0.0801658779382706 -0.0528929680585861 -0.383482068777084 -0.391269713640213 -0.376265734434128 -0.366513907909393 -0.477567732334137 -0.236418828368187 -0.445879846811295 -0.441706329584122 -0.431115448474884 -0.409989029169083 -0.368885010480881 -0.308967441320419 -0.359828412532806 -0.279639393091202 -0.364858835935593 -0.354818999767303 -0.33940926194191 -0.319427758455276 -0.285950720310211 -0.249258443713188 -0.204282343387604 0.311767727136612 -0.0253946408629417 -0.136294364929199 -0.135762155056 -0.0989880934357643 -0.0891694352030754 0.229135721921921 0.266687959432602 0.292759835720062 0.485949486494064 0.624213635921478 0.0850156992673874 0.156052023172379 0.182779386639595 0.244118005037308 0.321964710950851 0.541700422763824 0.682866334915161 1.2694479227066 1.33969104290009 1.40319430828094 1.45333886146545 1.75207960605621 1.85848712921143 1.94458484649658 2.02282571792603 1.49433541297913 1.60408449172974 1.72437071800232 2.15010619163513 2.19460010528564 2.27332210540771 2.53504228591919 3.09924268722534 3.54549598693848 3.98977375030518 4.91175317764282 6.33664751052856 6.49634695053101 12.3185529708862 6.416907787323 10.6348924636841 5.34830665588379 15.8410053253174 34.7182083129883 5.19250535964966 5.51602172851562 6.0007472038269 6.44951820373535 6.60819911956787 6.76666021347046 7.24411916732788 7.42904376983643 7.61940860748291 7.81621122360229 7.66026210784912 7.89578056335449 8.00995540618896 8.10207176208496 8.22594165802002 8.37727832794189 8.67349338531494
11.9393615722656 14.5269889831543 18.5241813659668 29.955114364624 21.3255214691162 11.5490522384644 23.8917560577393 15.4328184127808 11.3999738693237 19.2092971801758 12.855149269104 3.8136739730835 4.27790641784668 4.38289022445679 4.25638866424561 4.33611059188843 6.30732440948486 11.4483528137207 6.55520439147949 7.37564516067505 8.89049816131592 12.7416019439697 17.6050033569336 30.480318069458 45.6063385009766 8.58822536468506 3.88789200782776 3.53000783920288 4.69872379302979 12.2070331573486 7.04134273529053 8.30843734741211 7.61721038818359 9.14018726348877 9.20849132537842 11.6971130371094 16.6568965911865 17.0498809814453 16.0733509063721 9.80752277374268 5.31481027603149 5.88012313842773 -0.0640486478805542 -2.31610345840454 11.4631462097168 -1.96475851535797 -1.9094762802124 -1.44932842254639 7.42610311508179 1.39797532558441 24.3507041931152 45.2269744873047 -1.06565487384796 2.51872062683105 21.6607513427734 38.1773109436035 18.7290649414062 -0.466905504465103 -0.375648498535156 0.43598735332489 7.52763080596924 19.9776954650879 -1.94981789588928 21.7318859100342 -0.484294205904007 3.39499640464783 2.07680583000183 2.01753187179565 2.6623067855835 1.36739003658295 1.10617566108704 0.387129217386246 0.292780339717865 0.219125062227249 -0.151125878095627 -0.0955694988369942 0.0857478827238083 0.267084777355194 0.316764622926712 0.498946368694305 0.699977576732635 0.84057205915451 0.662061750888824 0.661269545555115 0.243433311581612 0.340153098106384 0.0950078442692757 -0.328774362802505 -0.331916153430939 -0.259654700756073 -0.0681789144873619 -0.0604061707854271 -0.473936021327972 -0.542742013931274 -0.5320063829422 -0.51833575963974 -0.363675355911255 -0.516006827354431 -0.712693452835083 -0.708996415138245 -0.438605695962906 -0.120101869106293 -0.512250542640686 -0.342932879924774 -0.115061208605766 -0.580074071884155 -0.428826481103897 -0.413144558668137 -0.390149623155594 -0.459751784801483 -0.417191833257675 -0.379686892032623 -0.150919511914253 0.410050243139267 0.0549165308475494 0.102904573082924 0.123763784766197 0.139580577611923 0.098113939166069 0.0970404595136642 0.113890990614891 0.280643403530121 0.506069719791412 0.618476927280426 0.212326124310493 0.692516803741455 0.759099960327148 0.851981341838837 0.972462773323059 1.30090963840485 1.42670691013336 1.52163887023926 1.57812702655792 1.67011165618896 1.10747909545898 1.21536719799042 1.29801201820374 1.38184642791748 1.47465920448303 1.58967626094818 1.70514416694641 1.85655343532562 2.03192377090454 2.25282716751099 2.50385808944702 3.56100988388062 3.79899787902832 4.27562141418457 4.81274747848511 4.08836460113525 5.58575868606567 6.50176477432251 7.70942449569702 8.46117877960205 16.362340927124 5.1579647064209 5.40009260177612 7.19034004211426 14.0506010055542 6.24374723434448 6.35768890380859 6.78721046447754 7.02468061447144 6.79310035705566 6.89384269714355 6.97228956222534 7.08413124084473 7.12300968170166 7.34877824783325 7.57394933700562 7.3841495513916 7.6062445640564 7.83038282394409 8.61289119720459
11.3184423446655 13.6117610931396 17.5207443237305 15.8088674545288 21.3664302825928 27.3160972595215 13.0876188278198 14.4864234924316 19.0640048980713 17.5368003845215 13.4340963363647 3.85446000099182 11.4418802261353 3.62874937057495 5.01671838760376 5.58990049362183 6.30660629272461 8.87960052490234 10.127124786377 12.1689863204956 13.0288305282593 13.5761060714722 23.6694431304932 26.1372623443604 25.9248275756836 34.9907455444336 6.03491592407227 8.73804378509521 5.6680645942688 6.34626340866089 21.2366580963135 6.00871324539185 12.5810499191284 6.40625286102295 6.86001110076904 6.93435001373291 9.75327682495117 12.6307182312012 5.94023466110229 9.32849788665771 6.96418333053589 2.88389658927917 10.3390607833862 8.90956020355225 8.94902229309082 12.4343156814575 18.4522476196289 -1.59028851985931 17.6492023468018 35.3353080749512 0.958603382110596 3.90829300880432 19.355297088623 34.8192977905273 21.4706745147705 1.63780248165131 3.69228887557983 6.62124395370483 8.93586540222168 10.9881391525269 9.89503860473633 16.0882205963135 3.42273116111755 5.04978609085083 -1.80120098590851 3.46031832695007 2.28190588951111 2.06789708137512 2.20530390739441 3.23409795761108 1.35272705554962 0.820789158344269 0.885641098022461 0.184851601719856 0.0248481798917055 0.0400125049054623 0.124560937285423 0.217712894082069 0.260968089103699 0.42482316493988 0.972791850566864 1.22233641147614 0.724603474140167 0.0889699757099152 0.335522383451462 0.54393994808197 0.0982590019702911 -0.0783558785915375 -0.219480231404305 -0.548823058605194 -0.258869230747223 -0.0353598855435848 -0.00139335857238621 -0.50469696521759 -0.604497134685516 -0.154047712683678 -0.335317492485046 -0.62317556142807 -0.531332492828369 -0.677441239356995 -0.206817224621773 0.16802217066288 -0.634252786636353 -0.335016965866089 -0.0479205958545208 -0.450305104255676 -0.590882122516632 -0.583132445812225 -0.552309215068817 -0.159947440028191 -0.11187805980444 -0.0666207298636436 -0.0361782945692539 -0.00928512588143349 -0.103064246475697 -0.0694742724299431 -0.028937941417098 -0.00615058233961463 0.0135917104780674 0.140968695282936 0.147298693656921 0.565574765205383 0.587611734867096 0.595957696437836 0.769885361194611 0.793789207935333 0.856055676937103 0.972472310066223 1.09729015827179 0.575506389141083 0.729567468166351 0.828413367271423 0.914762675762177 1.027383685112 1.0966534614563 1.19119250774384 1.26956140995026 1.35894858837128 1.45270395278931 1.56096458435059 2.47275042533875 2.63542032241821 2.8094437122345 3.01289844512939 3.24358749389648 2.3245484828949 3.46084976196289 3.85869789123535 4.32964611053467 4.79354810714722 4.44099807739258 5.46618032455444 7.04769563674927 7.36321544647217 5.48365354537964 5.46949577331543 9.15279197692871 5.94701147079468 5.66472816467285 5.82060098648071 6.42211866378784 5.97771739959717 6.37076377868652 6.3365912437439 6.50501251220703 6.39966201782227 6.55929470062256 6.73384237289429 6.60467576980591 6.78068590164185 6.77198886871338 7.23193645477295 7.816819190979 7.40054178237915
10.1046562194824 11.0254640579224 12.1579484939575 14.2292757034302 16.6239356994629 24.5221900939941 33.0603256225586 9.9074239730835 16.2559947967529 9.47311305999756 12.7362232208252 4.74717998504639 4.79862499237061 4.91821813583374 16.8700313568115 5.07699251174927 8.23478221893311 9.30158042907715 10.5489616394043 11.1614713668823 10.0528507232666 11.3148136138916 14.4626522064209 18.8988094329834 18.6588020324707 31.6780586242676 9.22108173370361 12.7848062515259 17.3958721160889 5.18731355667114 4.31061840057373 7.18233442306519 7.02507591247559 6.30695152282715 13.653938293457 14.7835206985474 9.14034080505371 31.7031345367432 10.9252071380615 26.0473880767822 1.24686765670776 1.32786333560944 14.3751964569092 6.50579118728638 20.7159423828125 7.13257694244385 25.5697116851807 45.4117050170898 -1.00347757339478 -0.348188936710358 4.2696967124939 48.0788269042969 1.24244344234467 5.01375913619995 1.00578272342682 9.04778289794922 3.57630181312561 0.792144596576691 6.68259191513062 5.31543684005737 11.9324855804443 14.8654813766479 2.46721029281616 -0.386724889278412 11.9463109970093 -1.7669917345047 2.66376543045044 2.41592645645142 2.40808701515198 2.73828077316284 3.57789921760559 1.2087436914444 1.24644947052002 0.463117718696594 0.521142721176147 0.875514268875122 0.924672663211823 0.584616601467133 0.239622130990028 0.274947166442871 0.570056080818176 0.904965758323669 0.969848871231079 0.212786734104156 0.143133148550987 0.298544853925705 0.138686716556549 0.190151765942574 -0.192337408661842 -0.696145713329315 -0.562448024749756 -0.226890861988068 0.00933003798127174 0.0789296180009842 -0.446992665529251 -0.28340956568718 -0.319308042526245 -0.761166155338287 -0.358436822891235 -0.157312527298927 0.0839907750487328 0.369726657867432 -0.523901879787445 -0.306959420442581 -0.200533539056778 -0.332804054021835 -0.484645009040833 -0.298568069934845 -0.277941048145294 -0.450453728437424 -0.273739516735077 -0.231277167797089 -0.200670719146729 -0.16655421257019 -0.0256044566631317 1.77080452442169 0.349487453699112 0.421943366527557 0.430770188570023 0.46446505188942 0.604290187358856 0.623377978801727 0.649341404438019 0.676691770553589 0.0440750606358051 0.0513314679265022 0.138269871473312 0.233078062534332 0.343151211738586 0.46305239200592 0.60324639081955 0.716038465499878 0.854888558387756 0.983250319957733 1.06580853462219 1.86729431152344 1.97118675708771 2.07685112953186 2.18649125099182 2.30665612220764 1.69385862350464 2.49782180786133 2.65354299545288 2.82768654823303 3.02449584007263 3.21927928924561 2.50663805007935 3.41083860397339 3.48878240585327 3.30420470237732 3.83413600921631 3.91874051094055 4.50623989105225 5.32768583297729 5.43260860443115 5.51569032669067 5.57950496673584 5.66282510757446 5.62679052352905 5.71676445007324 5.84353828430176 5.78025102615356 5.92773342132568 6.06487035751343 5.95112133026123 6.09317874908447 6.04837226867676 6.19491720199585 6.35755443572998 6.55585670471191 6.72063207626343 6.89863157272339 7.373459815979 8.66570949554443
8.80550289154053 9.49535751342773 10.9336700439453 13.4722805023193 17.3895378112793 21.4725608825684 12.3449764251709 13.5665550231934 14.1069660186768 10.4731884002686 9.9162712097168 8.51172542572021 12.6904726028442 25.4446086883545 5.61761283874512 7.55198192596436 6.86818981170654 6.07799768447876 6.82231616973877 7.22616720199585 8.29321098327637 8.27405643463135 10.1357870101929 13.8402986526489 17.8197898864746 32.8638534545898 10.8856840133667 10.9757699966431 7.87681150436401 9.28540992736816 4.27361011505127 4.75370454788208 7.5991587638855 12.699592590332 10.9624376296997 13.9069213867188 15.933162689209 20.3979797363281 20.3288707733154 11.0419988632202 14.1109304428101 8.3467264175415 9.70879650115967 31.6962509155273 50.7967834472656 -1.46164619922638 -0.586931586265564 0.853775680065155 6.46666383743286 50.3316688537598 0.591022610664368 0.431591480970383 1.51365482807159 -0.228743046522141 8.36686706542969 1.80431628227234 -0.161138713359833 0.65305894613266 6.63876628875732 19.1661758422852 6.80707836151123 -0.413076341152191 2.38034391403198 7.25321483612061 0.622924208641052 3.21910262107849 -1.75917291641235 2.54258036613464 2.65993404388428 2.62212538719177 2.86367654800415 2.90359330177307 1.04714262485504 0.941264569759369 1.02335405349731 1.53651976585388 1.70414865016937 1.56955361366272 0.919838190078735 0.373291879892349 0.573402583599091 0.479160755872726 0.588727951049805 0.580395936965942 0.139362901449203 -0.121051259338856 0.102056577801704 0.317122459411621 -0.269681185483932 -0.636078536510468 -0.587766051292419 -0.49820876121521 -0.00678237760439515 0.225115045905113 0.26917576789856 -0.1880754083395 -0.670758783817291 -0.608187556266785 -0.407598316669464 0.038481280207634 0.352146446704865 0.487636417150497 -0.228605225682259 -0.168049499392509 -0.280103832483292 -0.154156997799873 -0.172502741217613 -0.706622540950775 -0.426288694143295 -0.409679472446442 -0.326242297887802 -0.294204443693161 -0.185822695493698 -0.142877250909805 0.275204509496689 0.69059431552887 0.400309443473816 0.45794677734375 0.494731605052948 0.52352637052536 -0.0998185127973557 0.00805962271988392 -0.0324292927980423 -0.0068648811429739 0.0125162769109011 0.0275185666978359 0.0336829386651516 0.126668646931648 0.234556272625923 0.336411982774734 0.458728969097137 1.24902832508087 1.41250717639923 1.57306146621704 1.69596266746521 1.27161657810211 1.88674783706665 1.96865749359131 2.09459853172302 2.20735669136047 2.32648205757141 2.14578080177307 2.18823719024658 1.98580551147461 2.08594465255737 2.20764136314392 2.27226090431213 2.90986251831055 3.65736222267151 3.73558259010315 3.66550254821777 3.78954243659973 3.90427684783936 4.5890326499939 5.10479640960693 5.21126890182495 4.448326587677 5.28186845779419 5.3929271697998 5.30695390701294 5.41734552383423 5.40450477600098 5.5235447883606 5.62117052078247 5.82471704483032 5.94551944732666 6.07860946655273 6.21886730194092 6.36346197128296 6.8421368598938 7.10866403579712 7.40487623214722 7.79783201217651 9.487135887146
7.60546398162842 8.2105655670166 7.70622396469116 8.60736274719238 8.17520618438721 8.52299880981445 10.7228088378906 11.8871698379517 15.747540473938 24.2826080322266 5.98287487030029 12.9109725952148 13.5571031570435 23.1997928619385 4.79994678497314 5.65581750869751 5.74186134338379 5.31665086746216 5.56352043151855 6.17525243759155 6.98982667922974 8.12532138824463 8.58410549163818 12.006308555603 16.3563385009766 30.9400825500488 3.82451748847961 15.2195158004761 13.1594619750977 6.39758777618408 7.06560373306274 7.84891080856323 8.77493190765381 8.80767059326172 6.14493227005005 6.84313535690308 3.57770013809204 31.7161293029785 50.7122917175293 3.79783797264099 1.30996918678284 6.27078056335449 9.96943378448486 6.10267448425293 5.72410726547241 0.67281848192215 5.52611780166626 50.2904968261719 0.181808441877365 1.07031548023224 6.46188497543335 7.46039819717407 -0.588841915130615 4.66713285446167 0.0876763388514519 0.989361107349396 -0.555932581424713 0.72134256362915 1.39825963973999 4.34761428833008 0.161402404308319 -0.0743593871593475 1.19104182720184 2.0915322303772 -1.06880056858063 3.19827318191528 5.55224895477295 -1.69736862182617 2.55574703216553 2.68152904510498 2.4685366153717 2.75245499610901 1.83677339553833 1.54137766361237 1.67863953113556 1.78132653236389 2.24275541305542 2.42856192588806 2.18906164169312 0.917270660400391 0.519565105438232 0.543926239013672 0.261034369468689 0.406853884458542 0.161615505814552 -0.181463852524757 0.0139335859566927 0.0167612843215466 -0.280568271875381 -0.528803288936615 -0.50871467590332 -0.43598610162735 -0.227246031165123 0.090923398733139 0.197378024458885 0.134745717048645 -0.390530496835709 -0.430804520845413 -0.33171808719635 -0.0354145281016827 0.41903829574585 0.678315401077271 0.181764379143715 -0.0553928166627884 -0.268731832504272 -0.0105594722554088 -0.0322248302400112 -0.329634964466095 -0.458404779434204 -0.446850091218948 -0.580381751060486 -0.56592333316803 -0.565110862255096 0.217195406556129 0.278709322214127 2.11515426635742 -0.165966302156448 0.0364185646176338 -0.254619717597961 0.889055371284485 2.4312481880188 -0.288079798221588 -0.203398913145065 -0.156986907124519 -0.12297547608614 -0.0911637172102928 0.557884395122528 0.655299663543701 0.750031769275665 0.861880779266357 0.987209439277649 0.689562797546387 1.29030418395996 1.44459927082062 1.59137403964996 1.73465430736542 1.38713777065277 1.23157680034637 1.32012927532196 1.39548325538635 1.37770521640778 1.50265192985535 1.91523408889771 1.95497941970825 2.17177772521973 2.51228308677673 2.80974841117859 3.10234642028809 3.16750144958496 3.61656975746155 3.69235944747925 3.63901472091675 3.74363660812378 4.10693120956421 4.19547367095947 4.37890863418579 4.69688749313354 4.79407358169556 4.99019432067871 5.09374761581421 5.00579071044922 5.12465524673462 5.56241846084595 5.67855978012085 5.7293496131897 5.91203880310059 6.10538721084595 6.31995296478271 6.54299926757812 6.87605953216553 7.32979917526245 7.86189746856689 8.5111780166626 8.7377758026123
5.48387145996094 5.72434091567993 5.87636566162109 6.34702491760254 6.06873750686646 7.24244403839111 8.91458225250244 11.4111862182617 7.56452798843384 8.40335178375244 9.2840633392334 11.20592212677 5.03726863861084 5.24126386642456 7.73882436752319 15.3672151565552 20.1626071929932 3.38851594924927 4.777015209198 3.83915066719055 4.13003158569336 5.40962171554565 7.41427659988403 10.3029804229736 4.31751775741577 4.60879516601562 5.13763856887817 5.80064821243286 6.45148658752441 6.56916809082031 5.09107494354248 4.95735740661621 10.4134912490845 11.9215049743652 14.3964138031006 17.9312782287598 22.7766227722168 27.9825706481934 46.5234870910645 0.567224025726318 5.77754402160645 6.30217981338501 5.62629222869873 2.41152238845825 0.40236884355545 50.9237098693848 1.09454131126404 1.07320320606232 1.36873745918274 1.96652412414551 4.75450706481934 7.82758045196533 8.09034824371338 -0.0226270500570536 -0.719503164291382 -0.438943445682526 -0.264205813407898 7.18911123275757 -0.156419694423676 -0.587260961532593 2.51184177398682 -0.260148853063583 0.197412490844727 1.02725970745087 3.02316188812256 -1.61931777000427 -1.43184638023376 -1.42017662525177 2.36632776260376 2.47214126586914 2.39598703384399 2.24459671974182 3.13806247711182 1.93758344650269 2.14292669296265 2.33433222770691 2.51371932029724 2.89823174476624 2.90788531303406 2.19649577140808 1.29609417915344 0.273157685995102 0.334388613700867 -0.0221707932651043 -0.055283535271883 -0.140052750706673 0.00260913232341409 -0.262769192457199 -0.154197975993156 -0.551838755607605 -0.520655333995819 -0.424264281988144 -0.326527327299118 -0.0973847433924675 0.044874332845211 0.708206713199615 1.46218991279602 -0.442016422748566 -0.164572775363922 -0.116379432380199 0.342427462339401 0.600652158260345 0.484959185123444 0.209453642368317 -0.0415207110345364 0.198962613940239 0.0224849823862314 -0.208415478467941 -0.552214741706848 -0.54140830039978 -0.502765953540802 -0.485456377267838 -0.393288105726242 -0.376603454351425 0.346778124570847 1.92523813247681 -0.362296670675278 0.0296156983822584 0.688982605934143 -0.449116319417953 -0.181737065315247 0.179833635687828 0.212212547659874 0.256897628307343 0.302357941865921 0.350461393594742 0.0648749247193336 0.486903935670853 0.578834235668182 0.708131551742554 0.882507920265198 1.02199470996857 0.829505503177643 0.969076454639435 1.03679835796356 1.02460062503815 1.28967177867889 1.32779896259308 1.58774888515472 1.78863596916199 2.10578489303589 3.38079023361206 1.81098914146423 1.91964364051819 2.04837393760681 2.34611392021179 2.8045380115509 2.8709237575531 2.79999947547913 3.12200617790222 3.57364702224731 3.6481761932373 3.5986270904541 3.6718385219574 3.94653367996216 4.2445182800293 4.33310031890869 4.22187948226929 4.75249528884888 4.90301656723022 5.04764032363892 5.20858478546143 5.36284971237183 5.52529048919678 5.65180826187134 5.92197227478027 6.08393573760986 6.52127838134766 6.77592611312866 7.04438972473145 7.34331178665161 7.67134952545166 8.09886360168457 8.18551254272461
4.91924858093262 5.05145454406738 4.99229145050049 4.78854513168335 4.78269290924072 5.24511384963989 5.84605836868286 4.68270969390869 4.7975869178772 4.9063835144043 7.26927947998047 8.03207588195801 9.06666469573975 10.4915294647217 12.6804800033569 12.7765007019043 3.42353272438049 3.21018290519714 2.70670580863953 2.6762273311615 3.0375554561615 3.38156962394714 3.70744752883911 3.90980529785156 4.10349321365356 3.7097954750061 3.56844043731689 3.58327746391296 6.99542713165283 7.68677663803101 8.49511623382568 9.43876934051514 9.82316589355469 10.2572660446167 12.3042726516724 15.1481428146362 27.3354473114014 45.9692192077637 1.65400505065918 20.3593559265137 29.3353118896484 7.7923731803894 0.385266304016113 39.6482238769531 22.0060348510742 0.56553989648819 9.4503059387207 1.19169020652771 2.73919677734375 1.39516019821167 3.07972168922424 1.99454164505005 3.55339074134827 3.94264459609985 7.73715209960938 0.824642956256866 2.91063213348389 0.263252705335617 1.10804712772369 4.37286758422852 0.0735851526260376 0.147533938288689 4.52385711669922 2.53297019004822 6.4800009727478 3.32949161529541 -0.548939168453217 -1.72324061393738 -1.19190394878387 2.44621872901917 2.53369283676147 2.14026665687561 2.34529638290405 2.87852215766907 2.28189969062805 2.69837856292725 2.78659296035767 2.93200826644897 3.20082378387451 25.2883338928223 41.6217956542969 -1.92142462730408 -1.78351128101349 -0.154676094651222 -0.0705831423401833 0.00271841534413397 -0.439705282449722 -0.501664578914642 -0.458145678043365 -0.49266305565834 -0.372882217168808 -0.289937615394592 -0.190067782998085 -0.0411589853465557 0.0583517141640186 -0.0943248271942139 0.134322255849838 -0.0697694197297096 0.141056776046753 -0.0591499507427216 0.265132397413254 0.464067041873932 0.494848549365997 0.389137208461761 0.31602281332016 0.488469630479813 0.133748516440392 -0.372171759605408 -0.602595210075378 -0.560497760772705 -0.289686352014542 0.00952128320932388 -0.552772402763367 -0.51775187253952 1.63492202758789 2.83615756034851 0.294883996248245 -0.0501516722142696 -0.0475846268236637 24.4512672424316 42.1456298828125 -1.71906185150146 0.0797667130827904 0.120119787752628 0.165358036756516 0.21294704079628 0.262087732553482 0.0187994465231895 1.54247546195984 7.60146236419678 -0.289509743452072 -0.0770956873893738 0.023097375407815 0.231648832559586 1.09329533576965 1.15981996059418 1.42027652263641 1.63114535808563 1.6878799200058 1.80833029747009 2.04852056503296 2.06179118156433 2.06563377380371 2.10806393623352 2.17276668548584 2.32655692100525 2.5169951915741 2.65688824653625 2.94880151748657 3.01381731033325 3.2420654296875 23.268762588501 40.6604766845703 6.66310977935791 6.85742616653442 2.99677920341492 3.22355914115906 4.61906623840332 4.77763271331787 4.88173341751099 5.07286310195923 5.31831216812134 5.46729326248169 5.64455413818359 5.82797574996948 6.03223848342896 6.24292945861816 6.40210819244385 6.57303190231323 6.91869592666626 7.27198886871338 8.14233112335205 8.52310752868652 8.9390811920166
4.31951570510864 4.41871166229248 4.43422412872314 4.19290018081665 4.30514144897461 4.4210524559021 5.07339906692505 5.51779556274414 6.03136157989502 6.62348318099976 5.11689472198486 5.80640840530396 6.77948951721191 8.01346015930176 7.94385147094727 18.5722370147705 30.8737525939941 1.5979311466217 2.67919588088989 2.61448168754578 2.54250025749207 2.78603172302246 1.5242612361908 4.144615650177 4.84795236587524 5.33112478256226 5.81883764266968 6.35124492645264 6.6899619102478 6.30834865570068 6.99957370758057 8.39355278015137 9.7332935333252 11.6430187225342 14.3627195358276 18.4712047576904 12.7949113845825 19.6018943786621 22.3923416137695 19.2168617248535 4.55038356781006 50.9949150085449 0.637570917606354 1.17154252529144 2.25703096389771 4.05345439910889 6.68683385848999 0.634438514709473 2.93924331665039 2.54779076576233 4.31585025787354 2.22794246673584 3.63156008720398 4.40230178833008 1.80741584300995 1.17496955394745 4.59288740158081 6.7965841293335 10.4961061477661 5.80466461181641 8.10829067230225 21.334623336792 4.52278709411621 2.41236543655396 1.61998569965363 5.83791971206665 4.79851388931274 -1.579549908638 -1.45716536045074 -1.17803955078125 2.47232103347778 2.54549288749695 2.45315599441528 2.64965987205505 9.50198364257812 10.502495765686 12.2297992706299 14.3309183120728 17.5948600769043 16.3572311401367 2.39339685440063 -1.0326155424118 -0.353512436151505 -0.665563344955444 -0.358935415744781 -0.254716575145721 -0.246513664722443 -0.589411020278931 -0.552929222583771 -0.537457525730133 -0.480777412652969 -0.444762587547302 -0.390649348497391 -0.295041590929031 -0.247372522950172 -0.195281729102135 0.0661025419831276 0.349209576845169 0.371051669120789 0.0597299821674824 0.262400358915329 0.259518086910248 0.355998545885086 0.361776649951935 0.368818283081055 0.441918134689331 0.0161875486373901 0.209235087037086 0.0346973575651646 -0.305880278348923 -0.637411892414093 -0.634680271148682 -0.169719532132149 -0.120716579258442 7.29183721542358 8.09604072570801 9.1900053024292 11.1168184280396 13.8999662399292 25.1881294250488 43.5487785339355 -1.63085412979126 -0.291338920593262 -0.483690530061722 -0.441732197999954 -0.412805944681168 -0.131603851914406 5.04371118545532 12.6143388748169 -0.963361799716949 -0.835357964038849 -0.267794191837311 -0.132522702217102 -0.183178961277008 0.301255762577057 0.399161964654922 1.40080404281616 1.5850967168808 1.85329282283783 2.10205793380737 1.95580530166626 1.96840071678162 1.98183107376099 2.03610348701477 2.12113404273987 1.73441338539124 17.5654296875 33.6294212341309 3.25001525878906 22.4831581115723 5.81627941131592 7.85575819015503 10.6924057006836 12.930380821228 8.95849704742432 3.1060197353363 3.34348464012146 3.39664506912231 3.5384156703949 5.03495216369629 5.26889610290527 5.38440990447998 5.50977563858032 5.75937080383301 5.90102958679199 6.05036592483521 6.20604038238525 6.8621768951416 7.12575769424438 7.41480159759521 7.73710203170776 8.06464195251465 8.32701396942139 8.69659614562988
3.89069104194641 3.98012351989746 3.72754216194153 3.98571038246155 4.27423667907715 4.60747146606445 3.41678357124329 3.72691321372986 4.10846662521362 4.39433574676514 7.50004959106445 8.58406066894531 10.028715133667 11.9310359954834 14.4459085464478 6.31876468658447 5.989089012146 4.99162101745605 5.10905742645264 2.97374773025513 3.06864023208618 3.35220551490784 3.64573359489441 4.19181776046753 3.92067861557007 4.36031341552734 4.76938962936401 5.31816434860229 5.86281681060791 6.53001356124878 7.30883836746216 6.58110475540161 7.2369065284729 8.58683681488037 9.96782779693604 11.8641891479492 32.3849792480469 51.7272415161133 0.324774175882339 50.6784400939941 0.636260211467743 1.48504793643951 3.07684779167175 3.93756246566772 2.16574430465698 1.85284042358398 0.255070328712463 0.454704970121384 0.571739971637726 5.12595796585083 5.84114170074463 6.70180177688599 3.84965753555298 1.94463121891022 2.07333612442017 2.50378179550171 3.24410963058472 3.51095938682556 3.65638518333435 7.21019983291626 11.2368850708008 19.7938747406006 1.14401745796204 1.18966281414032 1.26740908622742 4.36940813064575 11.2533779144287 20.6009540557861 -1.61310088634491 -1.5315272808075 2.16116166114807 7.31323385238647 7.84180212020874 8.48895072937012 7.34742641448975 5.63410758972168 6.23660516738892 10.7065629959106 18.0983257293701 6.9570198059082 10.6828765869141 19.7535915374756 45.5541915893555 -2.32048320770264 -2.07713222503662 -0.562263607978821 -0.520910501480103 -0.611590087413788 -0.585550487041473 -0.532380282878876 -0.459937661886215 -0.402243465185165 -0.36831146478653 -0.329241812229156 -0.252052783966064 -0.16357333958149 -0.0572574585676193 0.603172242641449 0.886214673519135 0.343916386365891 0.521989583969116 0.105048194527626 0.157285198569298 -0.0045489058829844 -0.0506868213415146 0.5574010014534 1.05597794055939 0.706601858139038 0.246581971645355 0.0349159240722656 3.5712206363678 3.95952248573303 4.53622150421143 5.39242315292358 7.99892616271973 8.67222118377686 9.79800319671631 36.9209022521973 55.8603477478027 -2.92541432380676 -2.06288075447083 -2.04986071586609 -0.11978692561388 0.265576720237732 0.696149945259094 1.14568018913269 1.5271862745285 17.2247142791748 34.6277770996094 -1.63702023029327 -0.995960414409637 -0.687932550907135 0.140585497021675 2.26950860023499 -0.582607388496399 0.20318241417408 0.263240605592728 0.8750119805336 1.74682974815369 1.78443312644958 1.55930233001709 3.21116089820862 3.56473278999329 4.60002279281616 6.3298077583313 12.3215913772583 5.997633934021 19.0212516784668 3.92254161834717 7.05317831039429 10.8039131164551 14.660327911377 14.8043041229248 22.0585079193115 7.28719425201416 7.02376079559326 11.2435989379883 3.66119503974915 4.41766166687012 5.2032356262207 5.33551263809204 5.45750379562378 5.74250745773315 5.93784809112549 6.15623998641968 6.40321254730225 6.94623947143555 7.13020753860474 7.33003664016724 7.55069351196289 7.80595588684082 8.09316158294678 8.41689014434814 8.77153301239014
3.35322546958923 3.00514221191406 3.06583499908447 3.02514791488647 2.86899399757385 3.09399771690369 5.01512145996094 5.4710545539856 6.00548601150513 6.59079694747925 3.74980473518372 3.96013760566711 3.7816698551178 4.25034809112549 4.66380786895752 5.0234546661377 5.55823373794556 4.75741195678711 5.23861598968506 2.91524291038513 2.55617666244507 2.52060484886169 2.65633869171143 3.08768630027771 3.7889199256897 4.34046363830566 4.78300714492798 4.79839611053467 5.15436220169067 5.56733465194702 5.99934959411621 10.1134223937988 11.7846994400024 14.0547332763672 17.2221508026123 22.0764980316162 31.4929885864258 50.8181915283203 0.429097235202789 0.244252055883408 0.862695395946503 10.4301748275757 3.43313598632812 3.20643377304077 6.09343862533569 10.5353221893311 -0.137680172920227 -0.097955584526062 -0.0207959543913603 0.481378018856049 4.86674880981445 2.05159544944763 6.22973537445068 2.29615545272827 2.44065141677856 3.18464112281799 4.22419357299805 6.98256158828735 8.60452842712402 11.2857494354248 8.40818023681641 5.86321258544922 3.9177086353302 5.50222969055176 5.65746259689331 10.521411895752 22.4727058410645 3.42362403869629 7.60037803649902 0.492179185152054 5.05764770507812 -1.18433427810669 4.88824558258057 5.33944129943848 6.21078062057495 6.95213842391968 11.7210597991943 24.454704284668 28.5479335784912 6.21681356430054 7.29127168655396 21.1798419952393 43.525463104248 -2.44788670539856 -1.72629404067993 -2.31324744224548 -0.64899355173111 -0.617294430732727 -0.601167559623718 -0.57569032907486 -0.470683127641678 -0.399458467960358 -0.13198633491993 -0.365238726139069 -0.311930060386658 -0.207848891615868 -0.0602897517383099 0.526299059391022 1.03597211837769 0.737947463989258 0.780205249786377 -0.00870166067034006 -0.0554337985813618 -0.0935217067599297 0.336410284042358 2.47160410881042 2.56988096237183 2.70586204528809 2.88007259368896 3.05128359794617 4.03053379058838 4.41153001785278 11.7297410964966 14.0059976577759 17.2480697631836 20.2235870361328 24.9157752990723 13.8273305892944 23.866382598877 26.138916015625 -2.25572514533997 -1.9342987537384 3.52849173545837 4.46556091308594 5.65907144546509 7.11113786697388 9.22771072387695 6.16940975189209 15.0865669250488 -1.24130642414093 -0.922635734081268 -0.844607412815094 -0.776079833507538 -0.747921586036682 0.755009114742279 6.37321710586548 19.9753189086914 0.310122311115265 2.11440086364746 2.48299121856689 2.55713391304016 2.61366891860962 2.83740329742432 25.3340435028076 44.9571914672852 1.36541640758514 1.59914875030518 2.10841608047485 3.99582958221436 11.6112089157104 25.9682559967041 6.52713108062744 12.7772569656372 4.69209814071655 3.10033917427063 3.13318753242493 3.56063485145569 3.77803587913513 3.97348594665527 5.25795364379883 5.48324680328369 5.62898015975952 6.22836494445801 6.39166641235352 6.55921506881714 6.7303147315979 6.73747301101685 6.96177244186401 7.20045804977417 7.46655082702637 7.49274730682373 7.80711841583252 8.09169101715088 8.48603248596191
2.49837350845337 3.54137635231018 3.74570965766907 3.9557147026062 4.2288179397583 4.54133939743042 2.67642426490784 2.83777928352356 2.63516807556152 2.90261077880859 3.07070469856262 3.37821912765503 3.47623586654663 3.68201041221619 4.17359447479248 4.72853946685791 5.21234321594238 4.74777603149414 4.95475769042969 3.42560315132141 4.17582178115845 2.52908086776733 2.63469433784485 2.96884393692017 3.55867600440979 4.04383325576782 4.18367290496826 6.38014841079712 7.04220819473267 7.83524894714355 8.75595092773438 9.76663684844971 32.6642074584961 52.1679649353027 0.0721719115972519 51.1783561706543 0.138312265276909 0.504169940948486 6.18910932540894 12.2324495315552 0.499749422073364 0.970968425273895 6.46740055084229 14.9853010177612 9.20061492919922 4.86202383041382 0.634949386119843 0.169962674379349 0.242365792393684 1.07160246372223 1.79766666889191 2.06447196006775 2.19253993034363 2.2820520401001 2.71013832092285 3.77238702774048 4.05582094192505 3.57043838500977 8.96041870117188 7.94955635070801 3.45084929466248 3.69041204452515 8.70008945465088 13.7804841995239 2.85033226013184 4.9344654083252 1.84345817565918 -0.754043519496918 0.0437541827559471 -1.27803838253021 5.80251121520996 8.81346321105957 2.32269024848938 10.3110589981079 11.7842645645142 13.9674663543701 20.9885025024414 35.1888847351074 8.79674243927002 18.4622497558594 22.5973205566406 17.0952320098877 16.3634128570557 34.9871635437012 54.3700866699219 -2.95091223716736 -1.55022978782654 -0.622424304485321 -0.562297761440277 -0.631157279014587 -0.545408606529236 -0.466846793889999 -0.173677518963814 -0.0582341738045216 -0.306507438421249 -0.239306971430779 -0.158354923129082 0.139601960778236 0.739285945892334 0.990756809711456 1.75508368015289 1.7977602481842 1.8923602104187 2.01559257507324 2.13944840431213 2.74229145050049 2.91828012466431 3.10840702056885 7.28245162963867 7.88354635238647 8.61841106414795 9.52759456634521 5.30128908157349 7.75625419616699 9.54700756072998 10.684045791626 12.4879293441772 15.3947563171387 17.0237693786621 28.8656406402588 -1.97949731349945 -1.96176099777222 0.207567229866982 0.5915846824646 1.09169518947601 1.51913797855377 1.99719858169556 -0.608745038509369 0.795283496379852 -1.06431603431702 -0.205679431557655 0.00525924563407898 0.118254706263542 0.51961612701416 0.8382967710495 18.0620861053467 36.9651145935059 -0.236224874854088 5.5313572883606 6.52352285385132 8.74498653411865 10.561710357666 26.3515739440918 46.1367683410645 0.597362816333771 1.44283127784729 1.95216155052185 2.0497727394104 2.36753416061401 11.8896446228027 14.7021207809448 16.2027435302734 2.58887052536011 2.59551525115967 2.76708388328552 2.95140767097473 4.40369510650635 3.85511898994446 4.9167857170105 5.03820037841797 5.89513349533081 6.02976655960083 5.96037721633911 6.11844158172607 6.2823224067688 6.40410470962524 6.65311574935913 6.83733415603638 7.12528896331787 7.35680866241455 7.60525131225586 8.11500835418701 8.36372756958008 8.62675380706787
3.24632048606873 2.32071232795715 2.2464919090271 1.92179429531097 2.54845237731934 2.64670944213867 2.70900344848633 2.77097392082214 2.83821868896484 2.91786551475525 2.64337587356567 2.88358044624329 3.1914918422699 3.35057044029236 3.87915349006653 4.54099035263062 5.05378580093384 4.93292093276978 5.58622455596924 2.76219177246094 2.6889750957489 2.91013336181641 3.24621653556824 3.53593611717224 4.23650741577148 4.95432281494141 5.7036828994751 10.0636987686157 11.7418556213379 14.037956237793 17.2814254760742 22.1625137329102 16.7550563812256 30.6966094970703 49.2906227111816 2.34993982315063 6.78009939193726 0.917799174785614 11.1056652069092 -0.0738510712981224 2.3386127948761 4.38096714019775 6.39424085617065 7.58986616134644 23.490909576416 1.83694887161255 5.19930696487427 0.476229280233383 3.35070753097534 2.32589530944824 0.560696661472321 7.77469110488892 1.7206472158432 1.93441736698151 2.70101499557495 5.5628662109375 6.01491975784302 2.37453556060791 9.53733062744141 8.54281806945801 3.48499464988708 5.83950424194336 8.07560157775879 9.60009002685547 9.19877910614014 11.4609727859497 4.50602960586548 3.42170333862305 1.53555536270142 2.20741152763367 15.2697639465332 2.83244466781616 5.22090196609497 3.9307849407196 11.937970161438 14.7162437438965 9.78454494476318 19.0865612030029 31.9854145050049 10.8356962203979 34.8107414245605 49.7628936767578 4.98012685775757 37.7114486694336 -2.00084137916565 17.4351081848145 48.6037902832031 -2.79061603546143 -0.642290592193604 -0.620573461055756 -0.587522804737091 -0.506656527519226 -0.296038240194321 0.0293288305401802 -0.116775579750538 -0.113230727612972 1.36372315883636 1.43521010875702 1.5026068687439 1.56439447402954 1.9879766702652 2.08323001861572 2.17912197113037 4.8309178352356 5.14896583557129 5.51568365097046 5.95038652420044 6.4211106300354 3.4381697177887 4.43856525421143 4.78474760055542 5.19385242462158 5.95592975616455 5.67265462875366 7.18600225448608 7.89028406143188 8.98451805114746 10.8352680206299 15.684362411499 27.1479835510254 -2.01862859725952 -1.89132487773895 -1.28126001358032 -0.959865987300873 -0.601546823978424 -0.452490627765656 -0.581816494464874 -0.57549923658371 0.16515351831913 0.0612423866987228 3.59161496162415 5.92216730117798 11.4366655349731 3.43491673469543 7.16314077377319 2.39069581031799 3.30453634262085 6.23730659484863 7.18009805679321 9.30210494995117 11.6651134490967 27.7320671081543 46.9658317565918 0.93882155418396 4.08920764923096 6.47548818588257 6.38161182403564 21.2294578552246 40.2540092468262 2.27633571624756 3.96407866477966 11.8615121841431 15.8166351318359 8.62701225280762 2.91537475585938 3.7944643497467 3.89214110374451 7.51340579986572 3.76740002632141 5.02823925018311 5.60821294784546 5.70319128036499 5.95440912246704 6.10955047607422 9.08731174468994 17.5999050140381 6.45014047622681 7.14947462081909 7.36880350112915 7.58486032485962 7.82020854949951 8.03765869140625 8.30199241638184 8.55498123168945
2.26569390296936 2.36641216278076 2.42640948295593 2.48433518409729 2.55292248725891 2.46628713607788 2.36777329444885 2.29453110694885 2.35478234291077 2.3485586643219 2.58181929588318 2.79466962814331 3.07110357284546 3.33941674232483 3.62290859222412 4.30489158630371 5.3873815536499 7.03681993484497 3.40904426574707 3.19356107711792 3.28505706787109 3.35063028335571 7.13414907455444 15.5661497116089 4.03920030593872 5.82095670700073 7.47249555587769 7.22817182540894 9.27879619598389 10.8396530151367 12.9462594985962 15.9392108917236 28.4729824066162 47.5386810302734 3.25321245193481 3.03622388839722 8.58322525024414 1.19168663024902 2.48895382881165 2.59800386428833 0.37747848033905 11.5001497268677 5.70521879196167 6.38108015060425 5.2221827507019 8.2462854385376 9.6828498840332 1.90038919448853 2.12323546409607 1.01569402217865 2.1049964427948 1.47364640235901 1.23816609382629 1.59860050678253 1.89497458934784 7.10551261901855 2.72272515296936 2.99123549461365 11.0948781967163 6.34169006347656 2.95617938041687 4.07436656951904 4.69525766372681 5.70557451248169 11.3523893356323 9.41643524169922 10.5031337738037 1.96876287460327 4.01418781280518 3.25068140029907 12.8569259643555 4.95280408859253 14.6692705154419 3.67662763595581 4.73677253723145 13.5198163986206 15.2647438049316 17.6229038238525 30.0357074737549 46.9213180541992 6.74463558197021 13.8833618164062 3.34560465812683 28.3345985412598 12.5818748474121 2.40569424629211 -0.78692352771759 -0.709550619125366 -0.636829078197479 -0.564941167831421 -0.543352484703064 0.993318974971771 1.05908727645874 1.11801397800446 1.16131460666656 1.20699095726013 1.55696964263916 1.61474001407623 3.59391283988953 3.78256368637085 3.98575401306152 4.19134569168091 4.35877227783203 2.21845746040344 2.89520716667175 3.09145593643188 3.34652376174927 3.61292314529419 3.93733358383179 3.19120001792908 3.43334341049194 3.7623393535614 4.27335834503174 5.26361608505249 6.60538864135742 7.92993593215942 8.73957538604736 10.3179302215576 14.2476682662964 10.8483934402466 -1.90830886363983 -1.62999904155731 -1.08124756813049 -0.386048257350922 -0.142363309860229 0.113577641546726 1.73724663257599 1.90290057659149 2.23582458496094 2.48368167877197 2.09667897224426 1.60103034973145 2.11271238327026 2.37565541267395 2.65086078643799 3.28047752380371 12.5426683425903 4.99246168136597 8.60221862792969 18.4271850585938 34.5579299926758 0.0419150553643703 9.94191455841064 1.16212284564972 3.48278045654297 7.57730579376221 9.68702030181885 5.07211112976074 5.16722106933594 11.1885900497437 22.1471862792969 5.99164962768555 14.5381498336792 14.5562982559204 3.03959321975708 3.50553345680237 3.56017708778381 3.73523163795471 3.80259656906128 5.12087440490723 5.58426475524902 5.73232269287109 6.20080804824829 6.36693000793457 10.8556985855103 21.175443649292 6.25242376327515 7.08357620239258 7.28964948654175 7.52193975448608 7.74878454208374 7.88900184631348 8.34689235687256 8.60549831390381
2.27796483039856 2.09463620185852 1.98817598819733 2.03977823257446 2.02840852737427 2.08964252471924 2.14875388145447 2.33363366127014 2.39042115211487 2.44414448738098 2.50583434104919 2.56544613838196 2.57970595359802 3.11296391487122 3.34496235847473 3.99254131317139 6.29626893997192 4.70497226715088 13.8608531951904 25.6897277832031 2.61652135848999 6.52379274368286 9.17812061309814 13.3337097167969 2.09839677810669 5.22423505783081 6.12977504730225 7.8189868927002 9.87789916992188 11.7993192672729 14.573166847229 18.782922744751 28.3919105529785 47.5669975280762 1.31020534038544 3.77434659004211 5.97201824188232 1.12339568138123 2.35621166229248 0.366711854934692 1.49918246269226 9.82016754150391 2.12761855125427 3.94917750358582 5.28871583938599 4.99284505844116 4.59348392486572 4.03742361068726 1.77062380313873 14.2481803894043 21.0589504241943 2.50826954841614 0.468999207019806 1.3387303352356 1.48076319694519 1.67036437988281 2.38688063621521 4.76238632202148 18.8939342498779 2.36373543739319 3.76253700256348 7.09141540527344 4.78780317306519 10.5172920227051 20.5116100311279 1.8484194278717 1.88284993171692 2.39444613456726 7.52428913116455 4.2287278175354 11.8266448974609 4.5972261428833 5.02275276184082 9.71388339996338 5.26760864257812 4.93946266174316 17.2880439758301 21.4847640991211 20.437198638916 22.9461269378662 28.0578651428223 23.5409374237061 23.7777481079102 -2.30261063575745 -1.58590757846832 -0.311488419771194 0.722108006477356 0.752041161060333 0.775754630565643 0.791366696357727 0.854432582855225 1.17330980300903 1.2357656955719 1.31075823307037 2.94136595726013 3.05310297012329 3.16064596176147 3.27811717987061 1.63112771511078 2.12295413017273 2.19430184364319 2.30878162384033 2.44316697120667 2.57033681869507 1.99388921260834 2.133131980896 2.32016038894653 2.52279615402222 2.78272032737732 3.0423150062561 3.30220365524292 3.63914179801941 4.10979413986206 4.13551187515259 4.96831274032593 6.41029405593872 7.70834970474243 8.7102746963501 8.61575984954834 12.125186920166 -0.599160254001617 -0.141006350517273 0.893628060817719 1.03762245178223 1.18658566474915 1.3685849905014 0.728639006614685 0.78941398859024 1.65093111991882 1.71351718902588 1.78790462017059 1.88939464092255 3.12810301780701 5.53047704696655 11.4715719223022 3.9399688243866 17.6971340179443 0.787277638912201 13.2314710617065 0.390478610992432 15.7834424972534 15.7761840820312 0.552129924297333 1.38975834846497 2.26471590995789 1.44465923309326 1.5124785900116 1.61379265785217 1.66202569007874 2.32979106903076 4.99456691741943 12.3423929214478 2.28869390487671 27.1317329406738 2.90639853477478 24.7287826538086 3.36086177825928 4.30242443084717 4.52595806121826 5.49028158187866 5.79379081726074 5.9609203338623 6.09547281265259 25.9670944213867 44.5233497619629 5.08436584472656 6.31710004806519 17.1189250946045 6.84226846694946 7.5682487487793 7.80729961395264 8.03679370880127 8.16658115386963 8.44827461242676
1.77300953865051 1.83424925804138 1.89536368846893 2.09434175491333 2.15013360977173 2.20931601524353 2.26827526092529 2.21526312828064 2.64216256141663 2.71992087364197 2.79133176803589 2.87647247314453 2.97028851509094 5.84085607528687 6.65398359298706 7.83851003646851 8.49193859100342 19.232027053833 33.726749420166 1.63817822933197 9.5635461807251 10.7817296981812 3.97495794296265 4.05189085006714 4.32169628143311 4.86286640167236 5.70836162567139 7.16958713531494 9.12836265563965 11.6723403930664 14.6319284439087 18.7195854187012 25.9554176330566 44.7001457214355 6.55860757827759 14.7569408416748 5.16432332992554 -0.113596104085445 6.51198291778564 0.38154810667038 4.71305322647095 8.13752269744873 1.02812719345093 0.911162376403809 3.69191241264343 4.95227432250977 5.91835308074951 10.0865459442139 8.16520118713379 9.50123119354248 27.1698741912842 1.24987936019897 0.491425514221191 1.01226902008057 1.01924097537994 2.03053641319275 2.9700984954834 4.69974803924561 6.13304233551025 3.55858850479126 8.2813138961792 5.71188497543335 7.60464525222778 8.73577690124512 16.8843822479248 2.74051094055176 3.49297189712524 5.00078535079956 16.15114402771 3.31277704238892 4.08972358703613 5.91270160675049 7.67505502700806 5.64353322982788 4.45429277420044 14.9346323013306 5.22292232513428 15.3288717269897 17.5087871551514 20.3672332763672 24.186824798584 36.8940010070801 51.3339996337891 -1.18203973770142 5.82884836196899 0.54751592874527 0.951018035411835 0.957767188549042 0.977745592594147 2.30239105224609 2.3871955871582 2.48896789550781 2.59775424003601 2.71216607093811 1.32642447948456 1.6938054561615 1.74153804779053 1.80218958854675 1.8741602897644 1.36824667453766 1.4243631362915 1.51877689361572 1.61553478240967 1.71855449676514 1.83652794361115 1.96781063079834 2.14108633995056 2.33665132522583 2.5923707485199 2.40879249572754 2.63880324363708 2.92571187019348 3.33412432670593 3.02335119247437 3.52517080307007 4.48208570480347 6.1060905456543 6.98553895950317 6.06566667556763 9.49658489227295 0.0914834141731262 -0.00281618209555745 0.390203356742859 0.996048450469971 1.09591519832611 1.20167243480682 1.274289727211 2.15581631660461 2.28375363349915 2.38446474075317 2.60727524757385 2.87833738327026 3.07065963745117 3.61722111701965 4.65943002700806 7.35298776626587 8.26741790771484 16.8846893310547 0.98628294467926 -0.132725521922112 6.49500846862793 17.2765560150146 31.6023712158203 29.0273780822754 4.50356388092041 -0.2192592471838 0.135001093149185 0.703413784503937 8.30109596252441 12.4221458435059 3.0259108543396 1.2249356508255 1.81518149375916 2.71290159225464 18.9610900878906 3.3427140712738 3.62850451469421 4.05308151245117 4.90177440643311 8.33288669586182 9.89885997772217 12.4885196685791 30.9265995025635 49.9419326782227 4.67444276809692 11.3127174377441 5.17655658721924 6.33980131149292 6.63265085220337 7.15153074264526 7.60741138458252 7.67753267288208 7.88370847702026 8.14786434173584
1.86643171310425 1.940021276474 2.00757312774658 2.2555832862854 2.32637929916382 2.40270662307739 2.48033237457275 2.55714154243469 2.5430281162262 3.84439373016357 4.17377471923828 4.5697774887085 6.72375440597534 7.71788597106934 26.958158493042 43.3448867797852 0.807981610298157 3.72733974456787 4.5016713142395 3.67757511138916 3.67503976821899 3.68150591850281 3.73291444778442 3.94797301292419 4.23783826828003 4.68708181381226 5.44024324417114 5.87022352218628 7.54520559310913 9.89074420928955 12.708288192749 16.8525352478027 28.0733375549316 47.1156730651855 4.17982196807861 2.78077507019043 0.863311529159546 0.328294813632965 3.32539916038513 0.548951029777527 4.71283626556396 2.0957555770874 2.18948221206665 2.54436659812927 4.15799427032471 5.84877824783325 6.05910778045654 6.46949481964111 7.48588800430298 6.62023782730103 6.74675703048706 11.6143369674683 2.83227109909058 8.41438770294189 1.54133868217468 3.35943388938904 2.70141053199768 3.37951231002808 3.88539481163025 4.05513429641724 6.7280216217041 4.23456048965454 6.21065282821655 10.1333379745483 23.1832408905029 2.18259859085083 3.04508090019226 11.1168766021729 16.2908096313477 2.55656719207764 2.65882635116577 1.91785597801208 10.0902318954468 5.06814336776733 11.9616565704346 12.2204189300537 6.77038240432739 8.35518455505371 20.3042469024658 23.6429805755615 28.4609470367432 19.9469547271729 30.9081611633301 11.7987833023071 0.985731184482574 9.47410774230957 1.78123795986176 1.87968981266022 2.15273571014404 1.00609862804413 1.32583045959473 1.36747050285339 1.43489599227905 1.49142217636108 1.5380893945694 1.11915755271912 1.38328158855438 1.17101609706879 1.21621763706207 1.28253519535065 1.33651793003082 1.40369379520416 1.47825145721436 1.56839406490326 1.37524449825287 1.47360444068909 1.61731708049774 1.78146922588348 1.99648809432983 1.69441723823547 1.86379015445709 2.05685973167419 2.3905291557312 2.03521299362183 2.15730929374695 2.82804560661316 4.13523864746094 11.8543109893799 20.4988822937012 13.6471729278564 14.9830656051636 -1.02861833572388 1.45113670825958 1.49661016464233 1.60280764102936 1.73691475391388 1.87233209609985 1.77505457401276 1.91547548770905 1.99372136592865 1.50395107269287 3.50476408004761 3.84750628471375 4.39842224121094 5.20468521118164 6.52154684066772 6.14640665054321 8.3478889465332 8.86246681213379 10.3638019561768 12.0690116882324 25.2862682342529 42.9372787475586 21.6424102783203 9.66826629638672 6.65928411483765 -1.0747138261795 -0.730038702487946 12.7044095993042 2.30200409889221 0.0125587098300457 1.19606399536133 1.76571726799011 13.7790699005127 2.30538082122803 3.22034287452698 3.8244481086731 4.72984170913696 16.5108470916748 41.603816986084 4.50931358337402 43.1094055175781 18.7528591156006 8.68354034423828 4.21640110015869 4.63552474975586 4.79055881500244 6.02875423431396 6.88156843185425 6.91271209716797 7.1243143081665 7.71836280822754 7.98084259033203 8.25399303436279
1.90731310844421 2.01052117347717 2.11251020431519 2.120854139328 2.59067821502686 2.7664589881897 2.99534773826599 3.22733736038208 4.37301874160767 8.62657260894775 9.95217895507812 11.7093458175659 14.0895805358887 21.3954010009766 36.7408294677734 1.29423463344574 3.35611844062805 3.51478385925293 3.73582363128662 3.97555327415466 3.67921185493469 3.68391418457031 3.74264764785767 3.39004039764404 3.53839325904846 4.3300256729126 4.93004512786865 6.36852979660034 7.9883279800415 10.3260869979858 13.3641862869263 17.7685470581055 19.3894004821777 33.8846702575684 20.3815155029297 11.1906385421753 0.273018628358841 0.645411908626556 0.402575522661209 0.607992589473724 0.881842076778412 1.27352523803711 1.38806712627411 7.52555418014526 2.59189891815186 5.69263792037964 11.1031923294067 1.38774490356445 2.51761174201965 2.89197731018066 3.21903896331787 4.51799964904785 1.83551573753357 1.8560653924942 5.54562997817993 8.40324401855469 8.87620830535889 4.22956132888794 6.04712104797363 2.11138367652893 3.59480929374695 5.10349988937378 6.85081911087036 2.61319661140442 4.76836347579956 7.33583927154541 18.0110054016113 2.35666489601135 7.54850053787231 2.53920006752014 2.82887029647827 3.05963778495789 9.36837005615234 6.50138759613037 8.05296039581299 12.3010654449463 22.0409908294678 1.76274371147156 6.37061500549316 22.8986797332764 36.7830009460449 6.65632486343384 11.5851612091064 16.6641826629639 11.5404434204102 29.8323841094971 0.200981810688972 1.12976622581482 1.17677891254425 1.22963535785675 0.884040415287018 0.919334173202515 0.944734632968903 0.983744442462921 1.01093316078186 1.05588614940643 1.07232868671417 1.0792088508606 1.14670395851135 0.981618523597717 1.01210784912109 1.05671715736389 1.11834049224854 1.18189203739166 0.894425213336945 0.97362095117569 1.07234871387482 1.19164025783539 1.34816408157349 1.13516533374786 0.992477595806122 1.09597742557526 2.6501259803772 4.47651863098145 6.69780492782593 8.00690078735352 9.96948623657227 12.5664262771606 15.5987377166748 1.22384023666382 1.40603995323181 1.3992965221405 1.27741611003876 1.01998066902161 1.08848178386688 1.23861002922058 1.42414522171021 2.37798285484314 2.55961513519287 2.690101146698 2.86555171012878 2.81949901580811 3.06922292709351 5.81033182144165 6.23096370697021 6.73183631896973 8.5781421661377 10.7287225723267 11.1151485443115 12.6763286590576 15.626859664917 23.0706901550293 39.026065826416 37.8705711364746 20.6004695892334 18.5806980133057 -0.550829589366913 -2.24151849746704 16.0572624206543 4.17584085464478 -1.05060267448425 -0.548615753650665 1.18529438972473 1.88859522342682 2.82355999946594 3.14626908302307 3.75278496742249 17.194091796875 4.16129493713379 20.5588970184326 3.88738322257996 5.01200866699219 14.2068901062012 20.1603622436523 3.71610736846924 4.44775485992432 4.82300329208374 5.94534587860107 15.5636825561523 6.66616773605347 7.32883596420288 7.22056531906128 7.60860729217529 7.80932998657227
1.96574079990387 2.09670162200928 2.23693609237671 2.67960524559021 2.92633509635925 5.23713254928589 5.87905359268188 6.56490325927734 7.33072757720947 7.9334454536438 9.28626251220703 10.7948789596558 13.3045969009399 2.923832654953 3.06101202964783 3.1659848690033 3.330721616745 3.47889161109924 3.36848545074463 3.70063304901123 3.68811750411987 3.74174332618713 3.77253675460815 3.82611060142517 3.93809175491333 4.15128326416016 4.813889503479 5.67870664596558 6.51533651351929 8.53341865539551 10.2597284317017 12.9276285171509 17.3638801574707 21.0117282867432 31.8241004943848 51.4583625793457 0.927357614040375 0.0157916005700827 2.28741097450256 8.64462089538574 0.784800052642822 0.824853003025055 0.966926217079163 0.991132020950317 1.49678361415863 7.42610597610474 1.49453175067902 1.67658174037933 3.10405778884888 5.17150449752808 2.091712474823 2.16354179382324 2.79928469657898 3.5821270942688 4.6793966293335 14.2981233596802 27.3906574249268 1.55130636692047 1.94914388656616 2.43785309791565 3.0132110118866 4.77240610122681 3.88179159164429 4.39994049072266 6.77732419967651 9.3791446685791 19.5479526519775 3.15452575683594 3.20657777786255 3.60305285453796 3.835120677948 4.62120008468628 5.11686992645264 5.32949686050415 7.10128211975098 3.72976660728455 11.3471183776855 18.0847473144531 1.2082771062851 9.93957138061523 10.5633935928345 11.4627227783203 11.9058418273926 13.0541944503784 2.95313286781311 2.72146201133728 0.920848786830902 0.729055285453796 0.77579128742218 0.818096518516541 0.846860349178314 0.883639872074127 0.925903022289276 0.928685665130615 0.950947105884552 0.784587979316711 0.813242614269257 0.815029740333557 0.846181035041809 0.624205529689789 0.639563858509064 0.656975984573364 0.688975512981415 0.736407577991486 0.565396070480347 0.431508660316467 0.48005411028862 0.549193799495697 1.38045310974121 2.52069067955017 3.89155244827271 4.2901496887207 4.86082983016968 5.53123188018799 1.11249470710754 1.20398771762848 2.02592778205872 8.50070095062256 13.4995985031128 0.428084164857864 1.94986009597778 2.16209411621094 1.6068502664566 1.62222683429718 1.73170125484467 1.88656890392303 2.05627131462097 2.34762811660767 4.24988746643066 4.45743274688721 4.65466737747192 4.89128637313843 5.8959493637085 7.79208469390869 8.54044055938721 8.82409763336182 9.96243095397949 14.9975738525391 16.535493850708 18.4675731658936 21.3090572357178 29.2994365692139 42.1267318725586 41.1129341125488 19.0626029968262 -0.468540519475937 4.05690670013428 -2.98788809776306 -2.89093255996704 -2.26845216751099 -1.71403110027313 -0.535097241401672 0.0357368364930153 1.18830728530884 2.29278635978699 3.44848537445068 3.79109334945679 7.63786602020264 5.52736520767212 6.67282676696777 6.65079736709595 8.36021709442139 7.83986330032349 3.90914964675903 4.03500461578369 4.15890789031982 4.57461833953857 5.53553247451782 5.69367074966431 6.78025388717651 6.84051752090454 7.10232782363892 7.06582403182983 7.39416790008545
