NCOLS 174
NROWS 32
XLLCORNER 353952
YLLCORNER 6700048
CELLSIZE 16 
NODATA_value -3.4e+38 
1.74736678600311 1.56754529476166 1.32725238800049 2.65548801422119 3.17855525016785 3.71780109405518 3.77661085128784 4.38331890106201 3.62693977355957 3.89088821411133 3.1433961391449 2.9487202167511 2.714768409729 2.70220589637756 2.74038815498352 2.6021671295166 2.11197137832642 1.93335676193237 2.06963849067688 1.5310081243515 1.36310195922852 1.79624283313751 3.08929753303528 4.01380491256714 4.02605056762695 2.52449178695679 3.35799837112427 3.33266162872314 3.08535599708557 3.02688694000244 2.73756217956543 2.53941178321838 2.4170458316803 2.22020483016968 2.01897358894348 1.8623172044754 1.77733278274536 1.72375321388245 1.67257606983185 1.62512421607971 4.19056129455566 4.45307350158691 4.96657848358154 4.7610936164856 5.04256010055542 5.38914632797241 5.16614675521851 4.32853269577026 4.34280681610107 3.56867384910583 3.98857569694519 3.93087363243103 4.05950975418091 3.66104602813721 3.52782511711121 3.64350652694702 3.96237707138062 7.80283403396606 6.08304738998413 4.62995433807373 4.38979196548462 4.7876181602478 3.31163644790649 5.08892250061035 3.54485630989075 3.50122737884521 2.94264197349548 2.06538271903992 1.32049226760864 1.16280519962311 1.8728061914444 1.27810001373291 2.40651774406433 3.33199262619019 2.25291609764099 0.319750130176544 1.43197059631348 1.24329423904419 3.18393898010254 2.71225476264954 2.17669653892517 28.1938743591309 2.16789579391479 19.730899810791 7.837975025177 4.20674896240234 1.27020466327667 10.827844619751 2.71977806091309 0.919091701507568 1.04925131797791 0.903463244438171 1.27005505561829 6.11078548431396 11.6088132858276 1.72673809528351 5.51406002044678 6.14115858078003 5.08595132827759 4.17560386657715 0.545258462429047 20.1752796173096 2.37408947944641 12.2145214080811 32.3306732177734 23.872802734375 30.7177295684814 16.4029426574707 3.71621704101562 3.92280864715576 0.0390116237103939 -0.486381769180298 -2.05368590354919 -2.41465711593628 -3.40617156028748 -3.50095105171204 -1.69256293773651 -2.60388565063477 20.6576709747314 14.8920936584473 23.2491989135742 11.192403793335 8.30922317504883 6.92789268493652 -0.575548112392426 -1.14069795608521 -0.87490314245224 -1.40358817577362 1.34558534622192 -2.50370788574219 -2.88013339042664 -3.06269097328186 -3.44456148147583 -3.42303061485291 -3.39702105522156 -3.36344599723816 -3.52828550338745 -3.76582717895508 -3.16094565391541 -2.6294960975647 31.2114944458008 10.5625038146973 0.840337634086609 0.63288289308548 4.57571268081665 -0.175356164574623 14.5375957489014 3.81927227973938 7.8232479095459 6.08275461196899 3.97697401046753 2.83545279502869 0.810611367225647 0.971617758274078 0.778096199035645 0.53912615776062 0.793401956558228 0.59238600730896 0.936653137207031 0.811216235160828 0.83548241853714 0.985852420330048 1.38665807247162 1.68450045585632 2.54085659980774 2.89809226989746 2.76855897903442 2.65824604034424 2.56705212593079 2.76484894752502 3.10327243804932 6.47900724411011 9.04194927215576 9.06003952026367
1.61976110935211 2.88222193717957 2.80550980567932 3.35097694396973 3.95888566970825 4.00677108764648 4.49571323394775 3.90524244308472 4.25222969055176 3.37369132041931 3.16114115715027 2.93039155006409 2.94369173049927 2.98586678504944 2.75715613365173 2.32919406890869 2.30887031555176 2.19050049781799 1.58569443225861 1.38235747814178 0.777050673961639 0.821117162704468 1.97239303588867 2.89217662811279 3.91279935836792 2.92404270172119 4.41209936141968 3.70020151138306 3.18488907814026 3.41150259971619 2.85913801193237 2.72886848449707 2.46268010139465 2.23416209220886 2.06495308876038 1.95268106460571 1.91127526760101 1.8811103105545 1.82536911964417 4.53173303604126 4.69819593429565 5.33871221542358 5.0697226524353 5.50389289855957 5.88781499862671 4.8609447479248 4.67759799957275 4.6364164352417 3.87751483917236 4.26760244369507 4.30708742141724 4.46097564697266 4.03974390029907 3.78978896141052 5.37040567398071 6.00722217559814 12.9843244552612 8.93164920806885 6.0448431968689 4.37481498718262 4.97466993331909 2.87879371643066 5.64189577102661 3.08645153045654 4.59150886535645 3.95137214660645 3.41292142868042 1.89684915542603 1.36866474151611 2.13471412658691 1.50822305679321 1.63597595691681 12.2978658676147 0.477714329957962 2.77889537811279 1.51067662239075 1.59189319610596 3.70514750480652 7.223952293396 2.6595995426178 2.9192533493042 8.29671859741211 6.09025287628174 9.21517086029053 12.3839426040649 16.211784362793 1.05783092975616 2.83135104179382 6.82879638671875 18.6510543823242 3.57473015785217 4.42049598693848 1.8679963350296 2.12608170509338 7.2924633026123 6.78570747375488 7.62181282043457 7.43458461761475 6.76545906066895 6.47081756591797 2.55585479736328 2.88373160362244 0.465743452310562 1.13279318809509 6.78304052352905 23.8716945648193 31.0338134765625 24.1975841522217 5.83375072479248 5.98662185668945 1.60687446594238 -0.817764282226562 -1.22985255718231 -2.49385023117065 -2.38993716239929 -3.25166583061218 -2.58808827400208 -0.768911182880402 17.7112808227539 40.0391807556152 14.8415784835815 10.7560205459595 28.4362659454346 8.51614761352539 1.3485871553421 0.0519565157592297 -1.1583057641983 -1.92713403701782 -2.35084342956543 -0.946997165679932 -1.73987746238708 -2.37764978408813 -2.76848936080933 -2.70125412940979 -2.86833524703979 -3.05510711669922 -3.18266701698303 -3.11717009544373 0.86952942609787 -1.69886112213135 5.63017654418945 3.41044116020203 0.317264705896378 5.39390897750854 0.0908495336771011 6.20407152175903 0.741607844829559 8.88092041015625 6.93044281005859 4.42913675308228 3.13676071166992 0.993740797042847 1.20540511608124 1.39058578014374 1.13582897186279 0.870312631130219 0.878319621086121 1.06637263298035 0.979952096939087 1.03076410293579 1.3600310087204 1.43460178375244 1.53354525566101 1.59766256809235 1.87276291847229 2.63915181159973 3.2250714302063 2.72624707221985 2.27018237113953 2.38616251945496 6.89295434951782 9.86674308776855 10.0134000778198 10.3926811218262
3.05847811698914 3.65988564491272 4.27854490280151 4.17946767807007 4.22308492660522 4.76557445526123 4.06455087661743 4.51009750366211 3.74392986297607 3.41094899177551 3.13341760635376 3.16151165962219 3.22414135932922 3.00781273841858 2.57129526138306 2.53637838363647 1.82104408740997 1.52600312232971 1.39599549770355 0.790946125984192 0.823367893695831 0.974605977535248 1.47133588790894 2.18751239776611 3.14111137390137 3.25421690940857 4.66309070587158 4.02339792251587 4.95393228530884 3.43930888175964 3.00397348403931 2.84460020065308 2.55506992340088 2.32897353172302 2.20597982406616 2.15601325035095 2.11150932312012 2.00325870513916 4.90181827545166 4.96262788772583 5.75099611282349 5.47375822067261 5.92126417160034 6.36396360397339 5.30362462997437 4.85391616821289 4.98677444458008 4.72473669052124 4.55392789840698 4.61923217773438 4.79559898376465 4.37406969070435 4.09368896484375 8.81299495697021 10.6377029418945 26.0514106750488 14.6293382644653 10.5334272384644 6.96482086181641 5.65632677078247 6.23248529434204 6.22868490219116 3.39434480667114 5.21120405197144 3.7188880443573 3.42190909385681 4.80904388427734 5.69587707519531 4.6153359413147 0.246709614992142 0.39729830622673 0.0485311858355999 0.454123318195343 3.26058125495911 6.05089473724365 1.63342106342316 5.80541706085205 3.04424166679382 3.00368094444275 3.10604119300842 2.04640913009644 1.54215621948242 0.71486222743988 5.30729627609253 1.34028136730194 21.3047218322754 5.17581176757812 1.93951690196991 1.15446949005127 14.42347240448 12.8349962234497 7.754478931427 9.98588085174561 11.2267179489136 10.4307355880737 10.4277191162109 10.3258781433105 10.6693534851074 7.95891046524048 3.57927107810974 3.05392336845398 2.89627647399902 0.516319096088409 -0.730161249637604 -0.603509902954102 0.742826104164124 3.02594494819641 13.3722333908081 11.8570489883423 0.70138281583786 -0.382514357566833 8.08460903167725 -1.90310478210449 -1.94798946380615 -1.61833679676056 -2.11126136779785 -1.90863859653473 -0.457840472459793 -0.314466118812561 21.1286716461182 13.8024644851685 47.5173377990723 30.5148277282715 24.2385101318359 0.435012578964233 -0.39454710483551 3.58886933326721 -2.31249094009399 4.03186559677124 1.76679873466492 -2.14974069595337 -2.14019441604614 -1.71943914890289 -2.405837059021 -2.50170946121216 -2.54497623443604 -2.45327734947205 -2.39911127090454 2.6187207698822 0.399040460586548 0.177437752485275 0.461870282888412 13.297926902771 0.594218313694 -0.395504683256149 10.7716264724731 10.3928527832031 8.048020362854 5.01364088058472 3.48736786842346 0.556914746761322 0.722925186157227 1.06112205982208 1.45943367481232 1.28876435756683 0.928008854389191 1.14258325099945 1.07652831077576 1.14797484874725 1.51424062252045 1.60405337810516 1.63916885852814 1.63169169425964 1.70397508144379 1.85678148269653 2.29991960525513 2.95499181747437 2.78094220161438 2.71732187271118 7.52988767623901 10.835470199585 11.0499143600464 11.6008758544922 10.9656000137329
3.8968985080719 4.6223406791687 4.60796594619751 5.18265342712402 5.0399055480957 4.26963376998901 4.73353004455566 3.91321444511414 3.77901244163513 3.4089994430542 3.39534330368042 3.42974281311035 3.23839545249939 2.81287121772766 2.76731014251709 2.03565406799316 1.69672358036041 0.998687744140625 0.885166585445404 1.01856327056885 1.00382149219513 0.692558228969574 1.0834949016571 1.77754127979279 2.82769727706909 3.36442875862122 3.51735305786133 2.71476721763611 5.09044647216797 3.62601256370544 2.90760159492493 2.83868432044983 2.82838773727417 2.48676037788391 2.36453175544739 2.30964517593384 2.15451264381409 5.3129734992981 5.32094240188599 6.24020910263062 5.95229578018188 6.44073057174683 6.91606903076172 5.73786926269531 5.23847770690918 5.31324434280396 5.1628680229187 5.29275989532471 4.98776531219482 5.07582807540894 4.61564207077026 4.36249876022339 18.4121494293213 8.51818752288818 2.2625744342804 28.3497543334961 22.4574279785156 16.6576232910156 2.15613532066345 7.63162326812744 6.30971622467041 6.07024192810059 6.55840539932251 3.85113906860352 6.09717655181885 6.05839920043945 7.56696033477783 3.78957509994507 2.78677439689636 1.67917370796204 2.24897956848145 3.95110416412354 0.739046573638916 13.7031860351562 2.13878011703491 3.36113476753235 3.13582229614258 3.02463579177856 3.61579155921936 2.68286561965942 6.97912502288818 1.35327553749084 2.41305422782898 2.26327657699585 1.41184079647064 8.21835136413574 4.20860528945923 1.58984529972076 32.0052833557129 17.9521083831787 13.3474388122559 18.2159099578857 22.0663375854492 24.3739929199219 20.7983074188232 15.7302865982056 14.8752717971802 14.9040555953979 10.2870388031006 7.68854999542236 7.20709562301636 3.67338919639587 1.83738195896149 -0.300461411476135 1.40429532527924 1.58247900009155 16.8352527618408 22.4647827148438 12.2888107299805 0.0134142888709903 -1.12228155136108 -1.45689499378204 4.05158805847168 0.389926552772522 6.5241494178772 0.282418787479401 1.61093199253082 -0.0455044880509377 38.010383605957 19.6232509613037 -0.549429953098297 20.043758392334 42.3922500610352 16.7264442443848 3.33879113197327 -1.05623626708984 -2.03032493591309 -1.93052911758423 -1.58372616767883 -1.87804937362671 -1.38078379631042 -1.24626219272614 -1.14684975147247 -1.95147752761841 0.750526905059814 -1.51725614070892 -1.37366998195648 -1.4141343832016 10.2938289642334 0.169087499380112 0.6272012591362 -0.00552209280431271 0.722122013568878 6.6644287109375 13.3067350387573 10.2199230194092 6.11104774475098 6.04030513763428 4.22759771347046 0.599719107151031 0.89453399181366 0.922400116920471 0.72010213136673 0.899884402751923 0.950530350208282 1.20303285121918 1.13349783420563 1.21729910373688 1.61450338363647 1.71216785907745 1.77395987510681 1.75238287448883 1.77810418605804 1.87539756298065 2.04709529876709 1.96725106239319 2.18331670761108 2.90789794921875 8.36509799957275 12.1612033843994 12.3711862564087 13.0161600112915 12.1974029541016 16.2094097137451
4.80039167404175 4.94858026504517 5.59983968734741 4.6897234916687 5.15276288986206 5.00145244598389 4.10329818725586 3.91515326499939 3.75022673606873 3.72160625457764 3.68388724327087 3.46971750259399 3.03083872795105 2.99013209342957 2.24921321868896 1.91716837882996 1.18113541603088 0.992176413536072 1.09718000888824 0.661309838294983 0.713623523712158 0.295650631189346 0.666078507900238 1.28259515762329 2.0023877620697 3.2055344581604 3.61574721336365 2.78677225112915 3.42138290405273 3.72567224502563 3.13005876541138 3.03804707527161 2.85361933708191 2.86905670166016 2.52250289916992 2.3629891872406 5.79595851898193 5.9878830909729 6.82524490356445 6.49073934555054 7.03730392456055 7.5732536315918 6.23841571807861 5.88477182388306 5.6796989440918 5.62678480148315 5.7116231918335 5.8027172088623 5.51947498321533 4.91004943847656 4.58104801177979 3.40319919586182 2.59668731689453 9.5800313949585 2.52490901947021 3.80364871025085 5.92264032363892 2.37942051887512 10.7213792800903 12.3246631622314 7.00052356719971 7.95384645462036 4.181480884552 7.29463243484497 7.88134860992432 10.1402702331543 3.85785675048828 3.49756813049316 2.73690128326416 3.13573813438416 4.66897439956665 2.9855329990387 1.66283321380615 18.2613639831543 4.39550447463989 3.19922113418579 5.21085691452026 4.2062816619873 8.55709743499756 1.99191570281982 3.89013576507568 5.70421838760376 8.04636287689209 5.17253398895264 1.1881343126297 2.47814679145813 13.9698352813721 0.697134494781494 13.6755466461182 23.2205696105957 15.5770301818848 25.4250526428223 16.201171875 37.8164939880371 19.81325340271 29.7850017547607 19.4357376098633 13.7775039672852 14.6980724334717 12.2039661407471 8.37851238250732 7.14379167556763 6.6413722038269 2.49488520622253 2.44484710693359 0.935508072376251 0.477211773395538 1.78383374214172 2.89333868026733 5.78006935119629 -0.837447345256805 6.87766981124878 8.90178871154785 10.4061756134033 8.87474727630615 6.27574634552002 0.162224128842354 0.652909874916077 36.2247047424316 0.16932088136673 0.169310182332993 0.798267364501953 30.588529586792 30.7173042297363 16.2584953308105 -0.126572504639626 -1.70637345314026 -1.91337382793427 -1.7828015089035 -1.08972752094269 -1.83252537250519 -2.04402279853821 -1.60365045070648 -2.29226279258728 -1.48316121101379 -1.33620524406433 -0.775636672973633 -0.561866879463196 12.4556427001953 0.830296277999878 0.546871364116669 0.786388516426086 16.087869644165 17.6703224182129 13.649790763855 7.55617427825928 5.42715740203857 2.94763040542603 1.14409458637238 0.978595376014709 0.98032808303833 0.883627474308014 0.910771012306213 0.95132040977478 1.24791049957275 1.2009254693985 1.27843058109283 1.68758606910706 1.79971575737 1.8405487537384 1.83599209785461 1.86511075496674 1.94897925853729 2.085040807724 2.06338214874268 2.33086585998535 10.1089420318604 15.0139942169189 15.2413167953491 15.9940528869629 16.7681465148926 13.6431217193604 20.5749320983887 20.5124168395996
5.20823097229004 5.96986246109009 5.0096378326416 5.56187534332275 4.86849737167358 4.3646183013916 4.12493753433228 3.87687921524048 4.0415472984314 4.02791881561279 3.78314733505249 3.29924273490906 3.21602439880371 2.44765424728394 2.12909603118896 1.43491315841675 1.19846105575562 1.23206043243408 0.734426259994507 0.76096373796463 0.148344069719315 0.131521433591843 0.560600876808167 1.04110491275787 1.64710211753845 2.75525045394897 3.23861908912659 2.91862344741821 3.26514983177185 3.72060322761536 4.41796636581421 3.11929488182068 2.87817716598511 2.78625202178955 3.12603974342346 6.48234605789185 6.85114049911499 7.48896646499634 7.1620979309082 7.78790616989136 8.40594291687012 6.92654705047607 6.3392219543457 5.77481126785278 6.13272905349731 6.17388916015625 6.2215518951416 5.62308073043823 5.2307825088501 5.00104904174805 4.68100786209106 4.17419385910034 3.50334429740906 3.09003400802612 1.97789978981018 11.3277215957642 2.47068500518799 14.1943426132202 0.7034712433815 9.60165309906006 14.7976570129395 3.88591408729553 8.08596229553223 10.4237747192383 14.5976057052612 5.29152679443359 4.34192895889282 3.66880106925964 4.452561378479 6.3745379447937 3.45378351211548 3.83957600593567 1.67506039142609 5.7926983833313 5.20566987991333 4.03282165527344 4.47070074081421 3.0335681438446 14.5278911590576 2.28053331375122 1.48779332637787 3.06156539916992 13.4695434570312 2.62416887283325 1.36916983127594 3.20837116241455 1.50841045379639 0.824638426303864 12.1603698730469 15.4950180053711 29.5396385192871 19.0473823547363 13.8085975646973 22.8836345672607 14.191258430481 25.0701847076416 17.7494297027588 18.4267959594727 20.5097179412842 12.3990449905396 8.38661956787109 7.94486045837402 15.5294876098633 8.79825592041016 7.56688594818115 3.17147159576416 2.97211384773254 15.5245037078857 0.3746058344841 16.2735729217529 2.44703435897827 15.4827575683594 20.6466541290283 11.3361654281616 10.0359020233154 10.3648920059204 3.4768168926239 1.68249642848969 2.19158172607422 0.295577347278595 1.29589712619781 1.73618137836456 7.25434875488281 29.9438781738281 25.9429721832275 12.9585494995117 0.973703801631927 -0.048217486590147 -0.363585084676743 -1.35946452617645 -1.263916015625 -1.19810879230499 -0.418084889650345 -1.0443422794342 24.2314739227295 2.52921748161316 3.73616075515747 0.205991074442863 1.0668478012085 0.796682119369507 0.900412261486053 0.405655980110168 25.8102607727051 20.4893589019775 10.4953641891479 7.60257196426392 3.57983303070068 1.98197090625763 2.12607717514038 1.90480375289917 1.49456477165222 1.12835609912872 1.09288561344147 1.31717824935913 1.27165758609772 1.35878372192383 1.77375531196594 1.88463318347931 1.93148148059845 1.8946967124939 1.92377710342407 2.00896883010864 2.14150261878967 2.09109163284302 2.40710210800171 12.007381439209 18.0533103942871 18.446798324585 19.4395904541016 30.0715389251709 17.1265811920166 28.5705585479736 28.4009227752686 22.587308883667
6.50751638412476 5.36862421035767 5.95387315750122 4.7693338394165 4.51973438262939 4.39742231369019 4.10131216049194 4.22526502609253 4.28147029876709 4.17980861663818 3.63231372833252 3.51508522033691 2.68746757507324 2.3393874168396 1.65147280693054 1.41959798336029 1.43742167949677 0.922139942646027 0.849748075008392 0.16467610001564 0.115570813417435 0.204032197594643 0.479065626859665 0.614455759525299 1.23539340496063 2.0788893699646 2.65333032608032 3.43059372901917 3.69167876243591 2.7659957408905 3.31241631507874 3.38335800170898 3.07279896736145 2.99181032180786 8.34349918365479 7.63979148864746 8.1098804473877 7.77352237701416 8.50745964050293 9.24325561523438 7.67950057983398 6.91582918167114 6.41078996658325 6.70959424972534 6.67938566207886 6.68636703491211 6.04067897796631 5.6100926399231 5.18970918655396 5.06546974182129 4.46943092346191 4.17015504837036 3.62805128097534 2.89038419723511 21.7461071014404 2.57718968391418 23.373851776123 3.51956820487976 12.2700242996216 3.14708542823792 5.7821307182312 11.1778373718262 15.6046571731567 24.2364101409912 7.82793569564819 6.56238651275635 5.27774143218994 6.90430879592896 9.02023983001709 4.05696964263916 4.036208152771 1.71856272220612 6.40917110443115 5.86418342590332 6.32036399841309 3.67967844009399 2.68633627891541 2.11263012886047 1.33092677593231 7.64420366287231 3.10136532783508 1.54347848892212 1.78206324577332 1.49684548377991 5.32901525497437 1.64643371105194 0.971696376800537 0.332767844200134 2.75597906112671 5.77060317993164 19.7056655883789 30.1789302825928 22.4839630126953 17.6418972015381 30.2362022399902 30.1749534606934 19.4662475585938 15.2774353027344 15.8213195800781 11.7159242630005 9.80856990814209 20.1037750244141 14.6087875366211 12.3342208862305 6.32197856903076 3.66565728187561 0.932775020599365 0.523652791976929 0.270309209823608 18.0263023376465 3.24778723716736 6.17127752304077 14.9258460998535 14.1147203445435 16.3844871520996 9.92440319061279 9.04753398895264 3.3755259513855 4.57356929779053 3.81511092185974 2.871906042099 0.129767507314682 -0.227005943655968 0.615279138088226 5.20507955551147 3.15062427520752 2.69678044319153 2.21459603309631 1.31865203380585 0.357488632202148 -0.439785957336426 0.797850608825684 0.10248926281929 -0.527999341487885 11.4533863067627 7.53835344314575 0.895206689834595 1.39462375640869 1.32427453994751 1.01283121109009 0.991174399852753 41.9553070068359 37.2210998535156 15.8391256332397 11.7741384506226 2.27725076675415 2.63422775268555 3.12073731422424 3.4303674697876 3.13998079299927 2.35203194618225 1.78827548027039 1.77636885643005 1.40266954898834 1.45729839801788 1.88658559322357 1.98507976531982 2.01897215843201 1.98386800289154 1.99116182327271 2.06974959373474 2.19787859916687 2.12345004081726 1.87311673164368 14.6202802658081 22.3378925323486 22.9214878082275 24.3414211273193 13.3805208206177 30.5836067199707 46.8883934020996 46.4999885559082 38.6178245544434 19.0420265197754
5.93478345870972 6.48811101913452 5.19902276992798 4.76970672607422 4.5234580039978 4.66329669952393 4.46524620056152 4.4976487159729 4.43365240097046 4.00701999664307 3.81091022491455 2.96116304397583 2.59831380844116 1.90285468101501 1.62805688381195 1.61556875705719 1.16966772079468 1.07525229454041 0.218760639429092 0.143796786665916 0.224935710430145 0.492111355066299 0.459088534116745 0.367349565029144 0.878554940223694 1.65269994735718 2.13737463951111 2.66727733612061 3.21300649642944 3.19445109367371 3.59814071655273 4.00450038909912 4.2992377281189 10.0759344100952 7.05506992340088 8.93790054321289 8.54458999633789 9.30080318450928 10.0841245651245 8.29050731658936 7.40274858474731 6.90553379058838 7.20869874954224 7.16198015213013 7.16101169586182 6.50513601303101 6.06594657897949 5.64503574371338 5.37899827957153 5.08279657363892 5.30462551116943 4.8900260925293 3.70646333694458 1.78389668464661 2.70050001144409 0.236579492688179 0.661055386066437 27.3330974578857 10.1518840789795 4.20278692245483 24.3150749206543 2.73330664634705 0.192373856902122 6.37036323547363 6.70304012298584 6.53469467163086 15.0784111022949 18.5397071838379 5.71472692489624 4.61261558532715 5.1034107208252 7.05201196670532 6.78714323043823 6.89749574661255 5.10185480117798 3.70623803138733 1.811119556427 1.33397591114044 1.56025326251984 1.42214751243591 1.72841668128967 3.76953840255737 1.94180774688721 1.64263927936554 1.67575228214264 1.46976780891418 0.521999716758728 0.654038369655609 0.295520395040512 3.33316802978516 10.3248071670532 24.0615520477295 21.6863307952881 33.9686126708984 18.1565742492676 25.9094085693359 28.1014766693115 16.5186214447021 17.9415512084961 11.4748544692993 4.70715570449829 7.01770925521851 29.2126808166504 9.44197273254395 9.15788459777832 5.51249694824219 1.40341627597809 1.24549067020416 3.26100087165833 8.04675102233887 20.7945232391357 16.0674629211426 12.4205169677734 31.6164627075195 13.4607772827148 12.7359228134155 9.23566150665283 6.10608530044556 7.8162989616394 6.24472904205322 2.81523823738098 2.29881167411804 4.54747295379639 17.9993934631348 3.4139928817749 3.11261057853699 4.91799402236938 3.69576454162598 2.41465044021606 1.60534477233887 2.35996747016907 1.32290422916412 1.68308043479919 0.686373233795166 23.8552436828613 6.79576921463013 1.82898128032684 1.72489523887634 1.7041255235672 1.34882664680481 -0.286593794822693 0.439741164445877 28.7139282226562 22.1549072265625 3.14797782897949 3.11878371238708 3.28872919082642 3.55205821990967 3.78029727935791 3.82986068725586 3.37160849571228 2.42624020576477 2.05372405052185 1.60000920295715 2.0199453830719 2.10802340507507 2.12076640129089 2.07676482200623 2.08577585220337 2.15236330032349 2.25871539115906 2.17104029655457 1.87429738044739 19.7869606018066 29.581901550293 29.8268146514893 31.5874423980713 24.4702186584473 15.7272644042969 8.08716773986816 1.47056865692139 6.48781538009644 32.7433128356934 23.6034145355225
7.17901420593262 5.62614774703979 5.28508949279785 4.88286781311035 5.06269025802612 4.87966823577881 4.88514709472656 4.65055370330811 4.25217866897583 4.14427661895752 3.21947121620178 2.85880374908447 2.07360768318176 1.88563859462738 1.80648291110992 1.378258228302 1.31842970848083 0.344340920448303 0.216769307851791 0.265011847019196 0.560161173343658 0.490412265062332 -0.0298214685171843 0.157775357365608 0.529326796531677 1.37360489368439 1.77159678936005 2.28505825996399 2.71255683898926 2.95218825340271 3.36233973503113 9.2695426940918 12.8025274276733 10.9469299316406 10.1263046264648 11.3730421066284 10.5397071838379 11.381552696228 9.27139854431152 8.07186222076416 7.456702709198 7.71152973175049 7.66759729385376 7.68977975845337 7.05734014511108 6.50019550323486 5.97872829437256 5.10019111633301 5.53046178817749 5.6734733581543 4.22965621948242 3.94004487991333 4.02399206161499 2.86167693138123 1.98174297809601 1.91550409793854 0.495239078998566 3.94708800315857 14.7333726882935 2.83388447761536 16.5009422302246 1.34878945350647 4.80206823348999 3.53859043121338 7.16804647445679 1.08042204380035 -0.106715738773346 12.9640779495239 6.61356544494629 5.65387487411499 9.05179786682129 7.72970294952393 7.04811668395996 5.93168020248413 4.30539083480835 3.49794983863831 1.33576476573944 3.44890165328979 12.2029705047607 2.70547890663147 1.71055030822754 3.93450021743774 2.88223338127136 1.78762495517731 2.00817203521729 1.51486265659332 1.27215981483459 0.297575265169144 0.448650568723679 0.0247852299362421 3.46654486656189 8.1242847442627 5.19612884521484 18.0272960662842 36.3716621398926 29.6221408843994 36.7049407958984 23.205509185791 16.4422359466553 11.7473239898682 10.8716115951538 3.95154237747192 8.02166843414307 4.03720378875732 12.8716087341309 4.44536781311035 2.18170022964478 0.412851125001907 9.03991031646729 9.65958976745605 35.211742401123 18.929708480835 7.10461568832397 24.2977180480957 26.8506488800049 10.1302947998047 8.78118515014648 9.4423713684082 7.4946460723877 6.4581093788147 4.917799949646 0.956931829452515 0.994350492954254 3.84124088287354 3.28337717056274 5.27328157424927 4.09685373306274 4.01582717895508 3.74916243553162 4.99955081939697 4.30344486236572 2.92807602882385 2.20466041564941 0.181429997086525 1.64432168006897 10.3839569091797 1.97715127468109 2.14464712142944 2.13060855865479 1.02903425693512 29.5919361114502 1.0338968038559 1.76010930538177 4.57818937301636 3.34936499595642 3.6876368522644 3.80488514900208 3.981032371521 4.2808690071106 4.35346126556396 4.14334154129028 3.62079048156738 2.82318925857544 2.17699837684631 2.25649809837341 2.24054741859436 2.17895102500916 2.18294262886047 2.24783635139465 2.35678005218506 2.24218845367432 1.91853713989258 33.9815902709961 46.3825187683105 46.112979888916 47.5459289550781 31.0901107788086 25.246976852417 18.2223091125488 1.61248481273651 6.51509046554565 19.8083591461182 17.631706237793 42.5968322753906
6.32353830337524 5.75871753692627 5.3260178565979 5.49521350860596 5.34884119033813 5.28683567047119 4.74952459335327 4.14773559570312 4.42813348770142 3.44720053672791 3.11735463142395 2.34776258468628 1.93681740760803 2.02820897102356 1.69744098186493 1.52954697608948 0.45190966129303 0.351045548915863 0.373166441917419 0.669981241226196 0.575379073619843 -0.011015759781003 -0.0586481019854546 0.0129435239359736 0.258269846439362 1.00986695289612 1.41362881660461 2.03728222846985 2.5309944152832 2.53784871101379 10.6466073989868 16.1067333221436 12.3519887924194 12.5252103805542 13.7602214813232 14.371524810791 13.0209913253784 10.5029621124268 8.97299385070801 8.24602699279785 8.39896011352539 8.20599746704102 8.19324684143066 7.538161277771 6.90840578079224 6.31079530715942 5.42090129852295 5.91602516174316 6.04421091079712 4.48437261581421 4.44253730773926 4.24206447601318 3.03100109100342 2.03326869010925 1.97315335273743 5.05631160736084 4.89904880523682 4.09059476852417 10.1064367294312 1.95083773136139 5.07850074768066 12.5240898132324 0.597030460834503 1.43260264396667 2.63101649284363 6.42607736587524 2.50005865097046 15.3375730514526 7.38593578338623 9.99036407470703 8.90473079681396 8.96799850463867 6.92589712142944 4.79462337493896 8.49731922149658 7.97782754898071 1.67791569232941 1.76804792881012 2.19902992248535 2.32474303245544 1.96033823490143 2.0597939491272 8.98313045501709 7.57698488235474 1.73782932758331 2.67110824584961 1.43613398075104 1.17903733253479 0.202453374862671 -0.401471942663193 -0.46363353729248 15.0078563690186 20.7345504760742 6.97785711288452 7.504234790802 16.0080280303955 24.0022888183594 18.4895610809326 18.7629661560059 13.7806329727173 10.4843463897705 5.19689989089966 3.58011317253113 4.58912706375122 3.28441977500916 3.26207041740417 1.53718566894531 0.259395837783813 -0.437875539064407 6.16794729232788 17.1003494262695 9.88104343414307 11.671781539917 8.207275390625 13.4433927536011 12.1378870010376 11.4077558517456 9.71908855438232 8.19349479675293 6.49542951583862 6.19438457489014 6.77893686294556 4.94645690917969 4.17405700683594 5.97228145599365 4.34732723236084 4.1975269317627 4.09419441223145 5.71494340896606 5.01578235626221 3.55750250816345 3.97554326057434 3.2077784538269 2.55310273170471 1.22693431377411 2.25127220153809 2.40762162208557 6.26192331314087 2.17179155349731 1.26804888248444 2.1894199848175 10.2380056381226 2.89141035079956 3.49999642372131 3.75002431869507 3.99851512908936 4.24111318588257 4.42859506607056 4.48480319976807 4.61778497695923 4.57272481918335 4.28999328613281 3.91424107551575 2.94292211532593 2.48458766937256 2.28721928596497 2.28030323982239 2.34442067146301 2.46055293083191 2.35238933563232 2.03960514068604 0.709243178367615 0.208296686410904 1.7975070476532 6.6800389289856 47.0204315185547 32.4746856689453 30.3457431793213 8.95746421813965 8.65369033813477 2.27986121177673 19.0844917297363 3.33812546730042 49.577938079834
6.37716150283813 5.76146841049194 5.93679571151733 5.78262186050415 5.76603031158447 5.19451808929443 4.91962718963623 4.79834175109863 3.80705595016479 3.37074971199036 2.55257344245911 2.13863444328308 2.25117015838623 1.96779096126556 1.46718144416809 0.531327724456787 0.435200095176697 0.486627966165543 0.890316188335419 0.743145048618317 0.0426701530814171 -0.0285779908299446 -0.0948892757296562 -0.126230746507645 0.0506149604916573 0.299050629138947 0.524236738681793 1.2431173324585 2.19823789596558 13.3557472229004 29.0834693908691 15.6618728637695 16.4348888397217 17.3941650390625 17.229061126709 13.9079284667969 11.3627786636353 10.4424695968628 9.46246814727783 9.41045570373535 9.00068473815918 8.81794834136963 8.05230712890625 7.31291437149048 6.61848306655884 5.79179668426514 6.35533428192139 6.36994981765747 4.60643911361694 4.69821357727051 3.24734163284302 3.10139918327332 2.07247614860535 2.60974287986755 5.41369915008545 5.5844669342041 5.3824577331543 4.67415142059326 7.77476978302002 14.273663520813 0.320778280496597 0.939973294734955 4.83045387268066 1.76549971103668 2.93179416656494 2.73940181732178 5.67186117172241 12.4015092849731 11.705470085144 10.0495023727417 9.60431289672852 8.24221515655518 6.81706380844116 3.80876183509827 10.4896717071533 3.88808155059814 2.8153281211853 2.49205732345581 2.83977341651917 2.6607027053833 2.57450294494629 1.90232336521149 2.30819201469421 12.6135139465332 3.01175141334534 2.92697811126709 1.74314415454865 0.990315198898315 -0.0772091224789619 -0.42257097363472 -0.950763761997223 -1.12023401260376 6.85459041595459 8.75339317321777 7.67036390304565 27.1066417694092 22.7706069946289 22.500997543335 15.5077123641968 16.0866680145264 9.74667358398438 7.69188928604126 5.44425058364868 5.12777328491211 3.74565482139587 7.01359033584595 4.49222326278687 0.232527270913124 -0.374813944101334 -0.538191318511963 15.8674688339233 35.4083557128906 24.7089462280273 17.4316005706787 22.4699192047119 13.850396156311 13.9946775436401 10.339879989624 8.6841459274292 9.66496849060059 9.01399326324463 6.41472387313843 5.85042905807495 7.51794862747192 5.40319681167603 4.69189167022705 4.27114629745483 6.1370267868042 5.63217830657959 4.15014934539795 4.65683269500732 3.69458293914795 4.38151073455811 2.71431946754456 2.73494386672974 2.68704891204834 2.37964582443237 3.20439267158508 3.35906410217285 2.91411900520325 2.10697340965271 3.03857803344727 3.51204085350037 3.75436592102051 4.03575086593628 4.31116485595703 4.53513860702515 4.63168144226074 4.96210050582886 4.92835521697998 4.6795334815979 4.35691547393799 4.38929224014282 4.15477609634399 2.79880809783936 2.48748302459717 2.41859316825867 2.55466365814209 2.45024061203003 2.20047950744629 2.4278359413147 1.27500665187836 0.251611620187759 0.237576693296432 0.410763889551163 48.7551765441895 46.5095596313477 14.2761106491089 20.3184394836426 2.98371481895447 2.93769717216492 3.38156819343567 3.13030028343201 9.13405990600586
6.50806427001953 6.48721694946289 6.20241546630859 6.25361919403076 5.63772916793823 5.27217769622803 4.3095235824585 3.8827338218689 3.42740702629089 2.91660237312317 2.31861329078674 2.45246148109436 2.20680499076843 0.710672378540039 0.624505579471588 0.515954613685608 0.559310495853424 1.04297268390656 0.928173422813416 0.130596697330475 0.0392595343291759 -0.0492304414510727 -0.114246413111687 -0.196783229708672 0.0762604922056198 0.155978739261627 0.174939870834351 1.003378033638 18.6860885620117 5.1651291847229 23.348030090332 29.4747409820557 23.9448699951172 21.8126926422119 17.719898223877 13.385290145874 12.2905855178833 11.8420848846436 10.7867727279663 10.1355247497559 9.76197624206543 8.85380172729492 7.88548612594604 7.01145505905151 6.25442504882812 6.90887022018433 6.78174924850464 4.8028564453125 4.91027450561523 3.40249848365784 2.8303325176239 2.07766890525818 2.1582944393158 5.81574869155884 5.95746326446533 5.34903335571289 29.7318248748779 2.70407271385193 1.04139077663422 13.7125511169434 3.28489923477173 1.62211155891418 5.74430370330811 6.21507883071899 2.86964273452759 12.6955671310425 15.3490877151489 19.885555267334 11.8893251419067 10.9427223205566 9.21011257171631 7.3938946723938 10.6673851013184 18.472677230835 4.42662954330444 3.52989768981934 3.47342395782471 2.93630003929138 3.01968693733215 3.18697834014893 2.89035081863403 2.19638586044312 2.00870513916016 18.1625499725342 2.51778268814087 3.66371464729309 2.15903162956238 0.731215417385101 0.142975568771362 -0.585830867290497 -1.03028786182404 -1.10535538196564 14.2102537155151 9.19742965698242 8.27461528778076 27.8483619689941 27.8037433624268 18.2032012939453 19.5995101928711 10.1302537918091 11.2135448455811 6.11125612258911 3.35810041427612 5.0438985824585 9.30583953857422 6.11137437820435 1.26141250133514 3.06529402732849 -0.00409503513947129 -0.643931150436401 17.0318489074707 11.0292797088623 33.9937438964844 12.9335384368896 19.3339385986328 20.3212547302246 12.9885234832764 11.7399101257324 13.0109462738037 8.97819232940674 8.51224517822266 7.98282194137573 9.63497924804688 7.17773294448853 5.99923992156982 5.00851488113403 6.86164855957031 6.08444452285767 4.55952310562134 5.30728673934937 4.21614265441895 4.98497247695923 3.30883097648621 3.30616974830627 2.90852570533752 2.98593068122864 3.48016285896301 3.6293249130249 3.59540843963623 3.05338358879089 3.20362257957458 3.8256676197052 3.87494158744812 4.05079936981201 4.32382249832153 4.589195728302 4.72323894500732 5.09698343276978 5.07680130004883 4.8245644569397 4.49631881713867 4.82427740097046 5.00086879730225 4.29721593856812 3.21930646896362 2.56549739837646 2.59284377098083 2.51984333992004 2.27550029754639 2.70248007774353 3.21737337112427 1.8814789056778 0.740658640861511 0.55371230840683 0.191563248634338 0.106777563691139 22.6514911651611 34.3549766540527 3.52138352394104 4.26831674575806 3.9898407459259 3.73593902587891 3.51907801628113 5.48662281036377
7.36620140075684 6.87997102737427 6.95416927337646 6.35990333557129 5.78967666625977 4.63059663772583 4.20577335357666 3.66068172454834 3.21468210220337 2.85025906562805 2.74634552001953 2.59645199775696 0.815552532672882 0.67118638753891 0.72014456987381 1.34200024604797 1.19188785552979 1.05467057228088 0.180388897657394 0.108480267226696 0.0236060693860054 -0.0621902458369732 -0.175812751054764 -0.26886922121048 -0.298838138580322 0.0974433869123459 1.0297429561615 32.9245643615723 24.116870880127 20.0164585113525 11.2798414230347 39.5848426818848 29.8397808074951 24.6010341644287 17.0776691436768 15.3699350357056 13.8735418319702 12.5478076934814 11.5159006118774 10.9701766967773 9.9833402633667 8.73889064788818 7.57854270935059 6.94115257263184 7.69649028778076 7.30074548721313 5.06396055221558 5.13910055160522 3.4515814781189 2.44397330284119 2.39527082443237 2.26566696166992 6.07639932632446 6.28008460998535 5.73829221725464 2.99338936805725 26.1303195953369 1.09735405445099 0.94325202703476 5.00062322616577 8.45381927490234 0.360238194465637 4.10363674163818 3.44676780700684 9.72082328796387 13.2390060424805 11.2977313995361 20.0055503845215 12.3625411987305 10.5432815551758 8.70797824859619 13.3254117965698 2.51678109169006 4.31905031204224 3.92057538032532 4.80908346176147 13.5753908157349 4.49065494537354 4.40648508071899 4.04411888122559 3.34540343284607 3.22034287452698 2.42748045921326 7.89581775665283 2.70503449440002 2.49233055114746 1.88091683387756 1.08467447757721 0.139076769351959 -0.843372642993927 -1.07474029064178 -1.31490182876587 1.97490930557251 0.320721715688705 6.39530467987061 40.1508102416992 20.2747192382812 29.9274501800537 13.7235307693481 12.8714246749878 4.72036170959473 5.18387699127197 4.68234825134277 13.1086673736572 11.3729238510132 18.0722198486328 1.1254049539566 0.316944479942322 0.0400668382644653 -0.968660950660706 5.62957382202148 8.577805519104 12.218092918396 33.3066062927246 34.212646484375 20.1056747436523 13.9820175170898 16.1463813781738 10.9357490539551 10.9760103225708 13.0134296417236 12.1362733840942 9.44082164764404 7.77445125579834 6.13447999954224 8.44956970214844 7.24634265899658 5.07244873046875 5.88451290130615 4.71091175079346 5.59783744812012 3.82327699661255 3.95787215232849 3.50175666809082 3.19385051727295 3.6888108253479 4.08837509155273 3.86477780342102 3.81134676933289 3.87144470214844 4.255051612854 4.31781816482544 4.34210968017578 4.45800161361694 4.64210271835327 4.75212240219116 5.17329168319702 5.21819162368774 4.97742128372192 4.64222717285156 4.97967958450317 5.16681289672852 4.63759088516235 4.35077333450317 3.6375195980072 3.09008932113647 2.62870836257935 2.3177535533905 2.9592080116272 3.61518979072571 3.23343348503113 2.53478050231934 2.68157625198364 1.75429213047028 1.66713404655457 1.7410603761673 0.966043949127197 3.73439192771912 4.50260066986084 4.67650985717773 5.12455749511719 4.36412239074707 3.65655994415283 4.24393796920776
7.73831939697266 7.6551194190979 7.17115354537964 6.39948177337646 4.94562673568726 4.64567947387695 4.18127012252808 3.59585189819336 3.08377313613892 3.07816934585571 2.92242527008057 0.926089465618134 0.806848704814911 0.825469672679901 1.53817868232727 1.3644003868103 0.289991408586502 0.220105320215225 0.136848628520966 0.0622825250029564 -0.00753818824887276 -0.125115126371384 -0.238772064447403 -0.317129373550415 -0.125791043043137 1.07909166812897 5.64977073669434 8.01475429534912 10.834451675415 11.402738571167 11.3092422485352 47.5492324829102 40.8288459777832 23.7706871032715 21.6834106445312 17.6333312988281 14.8800859451294 13.4909639358521 12.4082946777344 11.3717288970947 9.83216857910156 8.83863925933838 9.84202671051025 8.85902881622314 8.00404167175293 5.46793031692505 5.55535364151001 3.64332842826843 2.13405442237854 2.10403609275818 2.35017085075378 6.58433151245117 6.73365211486816 6.04008626937866 3.28065156936646 2.3098738193512 11.0830726623535 1.9175420999527 7.18840503692627 12.7582597732544 6.27119827270508 17.1543884277344 3.80478739738464 21.4105625152588 24.9754905700684 15.2359180450439 10.9717473983765 14.0705251693726 11.9769344329834 11.5003995895386 17.8086471557617 4.87839889526367 3.78188943862915 4.55379199981689 5.15262031555176 4.11344146728516 5.34438943862915 4.94758892059326 4.60302734375 4.5236496925354 4.20324420928955 3.386155128479 2.99016046524048 2.78023791313171 7.49411487579346 2.46626901626587 2.24537968635559 1.44968557357788 0.0370670519769192 -0.529396772384644 -0.907053291797638 -1.02335369586945 0.502477884292603 8.12566661834717 0.846433281898499 23.3210926055908 21.1043376922607 29.623140335083 20.1874160766602 8.49411582946777 8.54609966278076 8.01859092712402 18.5399723052979 23.251916885376 2.26087760925293 7.82538747787476 1.08811891078949 0.366374671459198 -0.603166103363037 12.1741743087769 10.7034406661987 15.3062448501587 9.23029613494873 6.76966190338135 13.3658514022827 18.5108413696289 21.3714389801025 12.6840343475342 12.6240406036377 15.1806783676147 12.5274629592896 10.5545053482056 9.75310802459717 7.32306003570557 10.432728767395 9.09953594207764 6.29796266555786 6.95305824279785 5.29534482955933 6.28503608703613 4.34646701812744 4.43883800506592 4.19316816329956 3.52461910247803 3.97366571426392 4.32402276992798 4.091796875 4.05934047698975 4.1780252456665 4.59259986877441 4.70612812042236 4.77329301834106 4.86373901367188 4.91467571258545 4.89849328994751 5.21179628372192 5.25352764129639 5.09830284118652 4.78940105438232 5.14618396759033 5.34627437591553 4.80109977722168 4.82149457931519 4.3005223274231 3.95383715629578 2.96554756164551 2.92977786064148 3.43942308425903 4.14990520477295 3.70708465576172 6.36455965042114 2.69295287132263 25.131893157959 4.49059057235718 4.3511700630188 3.12284183502197 3.82372641563416 4.96764516830444 5.23620271682739 5.62558507919312 5.33580923080444 5.52612495422363 4.67356204986572 6.52543020248413
8.49042892456055 7.81249809265137 7.16217279434204 5.66503572463989 5.08989000320435 4.88484191894531 4.14783048629761 3.38834929466248 3.49304389953613 3.27446317672729 1.00456511974335 0.912098169326782 0.944811344146729 1.80326426029205 1.62283384799957 0.37025710940361 0.275395303964615 0.177172109484673 0.0860761478543282 0.00973962061107159 -0.0969950258731842 -0.06059305742383 -0.165103524923325 0.0875522419810295 1.14859080314636 15.8433647155762 6.59494256973267 4.57720327377319 4.77896928787231 1.72953009605408 0.887449502944946 6.24656200408936 39.5251045227051 37.0864486694336 24.8629741668701 20.3040332794189 16.2524032592773 14.6490240097046 12.0842237472534 11.1053533554077 10.5293941497803 11.8529224395752 8.26957893371582 8.92081546783447 6.00891733169556 6.06551742553711 4.00000762939453 2.33962106704712 2.14575362205505 2.41932582855225 7.16511964797974 7.33465194702148 6.53340625762939 4.58959579467773 2.52716279029846 1.43531167507172 2.02366042137146 14.4940004348755 25.2171745300293 1.56293892860413 10.2471218109131 4.13989973068237 39.3051910400391 35.005126953125 24.9589614868164 19.4185218811035 16.9199848175049 14.1837739944458 14.2301321029663 31.2003536224365 11.5139350891113 5.13331937789917 4.62273836135864 7.88302707672119 12.7784357070923 7.15778923034668 5.15909814834595 5.07279443740845 5.06640529632568 4.95107698440552 4.38899183273315 4.1656346321106 3.32779693603516 2.6939651966095 2.57578253746033 6.09838581085205 2.23011636734009 1.75601243972778 0.557065367698669 -0.480432718992233 -0.545368254184723 -1.23088383674622 -1.04535567760468 -1.02306282520294 2.45036768913269 3.20278239250183 12.3794364929199 23.4329242706299 9.98297500610352 9.02017402648926 8.42963123321533 19.684061050415 3.39709424972534 11.0864152908325 19.3459987640381 4.04655790328979 0.58998167514801 -0.111874364316463 -0.840929627418518 20.491325378418 21.3900680541992 11.6134557723999 10.2716112136841 7.93951034545898 32.5336799621582 35.9195861816406 17.1155376434326 17.086498260498 18.5814056396484 14.947039604187 12.0452461242676 10.4800481796265 13.3464498519897 12.5260429382324 11.1303224563599 7.69345808029175 8.45972919464111 6.18455696105957 7.17993497848511 5.02153301239014 5.06941556930542 4.68811893463135 3.68926501274109 4.25721120834351 4.63256359100342 4.35858058929443 4.29710102081299 4.45490884780884 4.88463068008423 5.04846620559692 5.11899614334106 5.24362421035767 5.34468173980713 5.25850629806519 5.46398258209229 5.3844780921936 5.15601301193237 4.8921332359314 5.29869413375854 5.52524948120117 5.19626331329346 5.2072057723999 5.1278829574585 4.5104341506958 4.09091424942017 3.1770224571228 4.26773262023926 4.94339275360107 4.34771156311035 10.8063631057739 14.4558000564575 3.58339548110962 12.982590675354 12.4157800674438 12.3326644897461 4.61901903152466 5.90913057327271 5.89388847351074 6.19298553466797 5.94242286682129 6.26511526107788 6.56225109100342 5.25916481018066 6.69992589950562
8.72172164916992 7.80461263656616 6.49398040771484 5.81959533691406 5.73066329956055 4.82208919525146 3.77942776679993 4.07624912261963 3.72629356384277 1.0793182849884 1.00931239128113 1.04944801330566 2.1254575252533 1.91091763973236 0.459069192409515 0.338150471448898 0.251804560422897 0.136978909373283 0.0346364937722683 -0.089492492377758 0.153138905763626 0.35541108250618 0.681188464164734 1.24519824981689 20.7021884918213 18.7689552307129 14.447190284729 3.82967710494995 5.77686214447021 1.94950568675995 0.895671904087067 6.58443784713745 2.45067858695984 41.267822265625 35.3872718811035 21.9504089355469 18.9481792449951 14.5704536437988 11.099986076355 12.9794645309448 14.8470315933228 9.15580463409424 9.96855735778809 6.62304639816284 6.64465093612671 4.31465482711792 2.5329864025116 2.30361437797546 2.65469527244568 7.90302038192749 8.0043830871582 7.10202836990356 4.91825914382935 2.69632935523987 2.35588550567627 2.22065210342407 1.45230436325073 1.35131466388702 2.09944176673889 1.39975607395172 4.33469676971436 2.05099844932556 54.2528457641602 34.4488792419434 28.1031322479248 19.3979969024658 18.4282112121582 28.3629207611084 18.8646850585938 4.95998954772949 4.47255754470825 5.50541305541992 7.09808969497681 4.85406255722046 10.619312286377 5.23802137374878 5.48247051239014 5.30003833770752 5.18030261993408 4.79453229904175 6.50220346450806 4.65527868270874 3.38795876502991 3.02391767501831 2.21840953826904 5.30401515960693 1.75337564945221 1.83157694339752 1.16916584968567 0.53511381149292 -0.543569922447205 -0.768919408321381 -0.591059744358063 -0.485930144786835 -0.665622472763062 0.0403002761304379 1.31812906265259 6.7197585105896 20.9257564544678 15.5316505432129 1.10072541236877 3.39888310432434 1.83282661437988 1.67461109161377 1.27868378162384 0.90840607881546 0.0645355209708214 -0.570000052452087 -0.950018286705017 -1.32102179527283 16.3351154327393 1.28343999385834 1.77238428592682 4.22860145568848 2.17663264274597 29.158390045166 29.4328651428223 25.4650573730469 20.287410736084 14.5439758300781 10.4775476455688 16.0830326080322 14.715931892395 9.85685348510742 11.024712562561 10.0914640426636 7.12637901306152 8.28398132324219 5.82912969589233 5.80489253997803 5.39945411682129 3.8462393283844 4.43285512924194 4.85656023025513 4.60585594177246 4.54153299331665 4.72935819625854 5.17786645889282 5.47189569473267 5.44010305404663 5.59119129180908 5.71708726882935 5.67222595214844 5.86878156661987 5.74267816543579 5.39559555053711 5.00525331497192 5.39068031311035 5.6483473777771 5.54127311706543 5.37896776199341 5.412193775177 5.41497945785522 5.112877368927 4.72972822189331 4.99828386306763 6.22069311141968 7.08099174499512 23.788064956665 29.3020324707031 22.679256439209 26.4365844726562 21.3469867706299 21.1734142303467 11.3186006546021 7.79517555236816 6.79429244995117 6.89366054534912 7.30658674240112 7.81872034072876 7.28668260574341 8.11177349090576 8.51238250732422 9.56099605560303
8.44199275970459 6.91976833343506 7.87068462371826 6.81482648849487 5.63499593734741 4.222825050354 4.86567783355713 4.3520770072937 1.1855217218399 1.20166552066803 1.13441550731659 2.44083714485168 2.25446557998657 0.556397080421448 0.427549242973328 0.302946835756302 0.186618968844414 0.0940607637166977 -0.0632548034191132 -0.21178437769413 -0.155370205640793 0.750816643238068 2.06508851051331 29.5365047454834 26.9871406555176 27.2945785522461 18.9034614562988 7.30089330673218 12.436731338501 10.8816738128662 11.1064186096191 3.10593247413635 5.05846548080444 16.6054229736328 37.2605934143066 26.4197483062744 19.3074684143066 14.4915065765381 18.3094291687012 20.4556446075439 12.3860483169556 11.3050403594971 7.30401039123535 7.27240991592407 4.60893535614014 2.59454703330994 2.42837810516357 2.88490962982178 8.8792896270752 8.85078716278076 7.73353338241577 5.26190853118896 2.87699866294861 2.49959373474121 2.36997556686401 2.03680682182312 2.21540379524231 2.13372325897217 18.1766262054443 4.47836828231812 1.72293210029602 -0.420744478702545 51.5067977905273 44.3576240539551 24.3060550689697 26.2771167755127 14.0108394622803 1.21122658252716 2.98956203460693 4.7705225944519 5.58730792999268 5.30402278900146 5.22807741165161 23.1233882904053 5.63966083526611 5.99197864532471 5.64309883117676 4.83467435836792 4.81909036636353 8.57505702972412 6.30812358856201 7.5815749168396 3.45261645317078 2.88811182975769 2.36246371269226 2.16277623176575 1.79019749164581 2.17782378196716 7.22898864746094 0.500923454761505 0.280512899160385 0.499061673879623 0.645233988761902 0.581615626811981 0.0782811269164085 0.528440177440643 1.4910352230072 1.41731286048889 1.65871047973633 14.2411918640137 6.96764755249023 4.07913494110107 1.87673795223236 1.73863255977631 1.23395538330078 0.736182928085327 0.105786748230457 -0.778951406478882 -1.03958332538605 -1.18445014953613 3.68754243850708 -1.14295041561127 1.59456074237823 8.95288562774658 6.68156719207764 2.64574766159058 42.1736030578613 34.7698631286621 19.8711814880371 13.8316898345947 19.7635097503662 18.4366989135742 12.1065969467163 13.6968517303467 10.5217380523682 9.97418880462646 9.60248184204102 6.81931495666504 6.64761209487915 6.18505859375 4.01383256912231 4.61437892913818 5.0390772819519 4.79217958450317 5.08711767196655 5.32813787460327 5.47477197647095 5.79794216156006 5.90944576263428 5.91045141220093 6.0809645652771 6.03086471557617 6.21503973007202 6.10516786575317 5.74219226837158 5.34751081466675 5.5910964012146 5.77616167068481 5.65786933898926 5.48881816864014 5.58236742019653 5.59659767150879 5.58182001113892 5.0933141708374 5.74066591262817 9.71595096588135 10.3506383895874 3.55914950370789 2.95538926124573 20.5884017944336 14.1249933242798 38.9373779296875 38.7811698913574 17.8774070739746 13.4277172088623 12.5608959197998 7.82195043563843 11.4960861206055 11.8837690353394 8.31080532073975 9.52181053161621 9.35524368286133 10.2475023269653 11.0300674438477
7.68117380142212 9.33162021636963 7.59201383590698 6.73036003112793 6.52772855758667 5.86332750320435 5.17745542526245 1.48392820358276 1.47681879997253 1.22997188568115 2.77285599708557 2.59254193305969 0.648732006549835 0.513390421867371 0.394993424415588 0.261866807937622 0.0843727588653564 0.000604450062382966 -0.169025063514709 -0.298734247684479 -0.420224517583847 2.37743401527405 47.7939643859863 45.1546745300293 45.751106262207 27.0070762634277 20.056697845459 3.02910089492798 1.96423125267029 27.0503273010254 6.22124719619751 4.38287115097046 1.88723123073578 18.7008457183838 43.3978309631348 33.3175010681152 20.4275989532471 32.9756355285645 36.1454086303711 14.9036722183228 8.90061092376709 8.14236450195312 8.03863430023193 4.95269250869751 2.68108797073364 2.49814558029175 3.03051710128784 9.97355651855469 9.88000202178955 8.56100273132324 5.67827653884888 3.07717180252075 2.64936900138855 2.50757956504822 2.14653611183167 2.27578806877136 2.35860109329224 3.71303582191467 5.37786531448364 4.84250259399414 0.0649784803390503 -0.304613947868347 16.825174331665 36.1518287658691 41.0615768432617 19.1881885528564 2.42333078384399 6.75479555130005 6.25074911117554 6.97114992141724 5.79717636108398 7.23144817352295 4.66620445251465 8.92307281494141 6.1391396522522 5.98328495025635 5.0743236541748 5.06410074234009 11.61403465271 7.22110509872437 10.6883487701416 7.48525762557983 2.96873211860657 3.03478384017944 2.58836841583252 1.90411365032196 7.71487522125244 1.5999813079834 15.4549722671509 2.02788257598877 1.31675028800964 1.53015124797821 1.64963436126709 1.1317732334137 1.13041126728058 1.64450442790985 1.7524299621582 1.69896507263184 1.33867931365967 4.08641338348389 1.88439440727234 2.30956077575684 6.40419912338257 7.7001838684082 7.91687870025635 0.891978740692139 0.102440878748894 -0.71368420124054 -0.99632316827774 -0.934426486492157 -1.03412616252899 -1.3171055316925 -0.920675933361053 -0.813145458698273 9.98415184020996 -1.01731216907501 4.32058715820312 34.3894920349121 24.4478816986084 27.2896099090576 25.1904144287109 14.8979978561401 17.6029453277588 11.1138229370117 12.4687366485596 11.3373508453369 8.08530521392822 7.74123764038086 7.1978816986084 4.21486139297485 4.80814456939697 5.23821640014648 4.98164558410645 5.31958532333374 5.69762945175171 6.03171586990356 6.08618879318237 6.23102951049805 6.56321001052856 6.54929304122925 6.36999654769897 6.5401782989502 6.42698812484741 6.06659746170044 5.61596393585205 5.92724561691284 6.09414005279541 5.85379981994629 5.61966180801392 5.67006635665894 5.72686910629272 5.9798641204834 5.3228440284729 6.35740661621094 15.3303556442261 4.62517166137695 2.95492219924927 3.08683156967163 2.99657535552979 3.48578286170959 3.18384218215942 3.87749147415161 33.4371109008789 26.4749794006348 25.8027667999268 9.38212776184082 19.6791076660156 19.9773921966553 12.1075248718262 11.01881980896 11.0902729034424 11.8209991455078 12.5927505493164 11.6166067123413
11.8479108810425 9.04050350189209 6.54250621795654 8.39176273345947 6.94869756698608 6.23480558395386 1.86135983467102 1.88653314113617 1.35131740570068 3.18240094184875 2.98087358474731 0.757836997509003 0.593306601047516 0.480745702981949 0.360124260187149 0.177099600434303 -0.0111179202795029 -0.0993516519665718 -0.226944625377655 1.61904311180115 2.48786497116089 -1.99028360843658 -1.03504776954651 14.5416774749756 44.7432556152344 28.3390998840332 31.8672904968262 40.491756439209 -0.742420256137848 12.444263458252 11.1467275619507 4.3714656829834 -0.619512915611267 3.3127224445343 17.81764793396 34.9125900268555 4.23505973815918 4.87978029251099 19.1537094116211 10.8782711029053 10.0711879730225 9.10589122772217 5.41846036911011 2.82370042800903 2.65455532073975 12.3179235458374 11.3993120193481 11.0510950088501 9.48850059509277 6.18190002441406 3.32699203491211 2.80667686462402 2.65858674049377 2.26590609550476 2.33423066139221 2.57111263275146 5.65700054168701 5.86583471298218 4.71758651733398 1.09476780891418 -0.247474372386932 15.8564949035645 25.023775100708 7.25788545608521 1.11488735675812 3.12128353118896 7.89213514328003 8.92189979553223 8.06957721710205 6.76904582977295 7.42588901519775 6.55312919616699 15.3746290206909 6.77670907974243 6.43424654006958 5.53578805923462 5.15878677368164 9.02951240539551 7.36392402648926 20.8630619049072 10.5422992706299 6.19289636611938 4.16849708557129 3.14300012588501 2.87547898292542 2.26600193977356 2.027756690979 2.55301666259766 4.49693441390991 2.50995683670044 2.09153985977173 2.20136904716492 8.94895648956299 2.02475070953369 1.99179530143738 2.11528444290161 2.19930744171143 1.48033940792084 1.50189340114594 1.94449818134308 11.7332324981689 2.23821330070496 2.14386582374573 1.60174000263214 1.42355263233185 0.945254623889923 0.138818219304085 -0.0907237380743027 -0.613416373729706 -1.01374483108521 -0.848158478736877 -0.340094000101089 0.70464950799942 -0.694481134414673 -0.60070675611496 -0.180061995983124 5.02768135070801 8.0318078994751 45.0862045288086 42.1357536315918 20.7056427001953 24.2352352142334 14.1700258255005 16.3698635101318 11.1197004318237 10.0667791366577 9.42378425598145 8.55931758880615 5.12756395339966 5.0186185836792 5.45556974411011 5.18408536911011 5.56766271591187 6.03096866607666 6.30717372894287 6.39500331878662 6.6120867729187 6.8672833442688 6.8445873260498 6.83407306671143 6.84817600250244 6.73031044006348 6.36517953872681 5.91292572021484 6.24529123306274 6.4350414276123 6.1469931602478 5.90024518966675 5.88383531570435 5.86850786209106 6.36620378494263 8.24142646789551 9.96788120269775 5.6379017829895 6.50439834594727 7.4418888092041 4.1091136932373 5.35382795333862 4.75535678863525 3.59404349327087 13.5166797637939 6.12639999389648 7.12276649475098 7.56123685836792 18.4575862884521 36.7380104064941 38.1744232177734 16.8380947113037 15.5971231460571 16.1989116668701 14.6040916442871 14.5988340377808 13.435115814209 13.8225564956665
11.3497734069824 7.68955183029175 10.7573909759521 8.92737197875977 5.88608074188232 2.79568219184875 2.40642952919006 1.50023639202118 3.74544978141785 3.49038457870483 0.880933046340942 0.672766089439392 0.91625964641571 0.427386462688446 0.261817067861557 0.0865108817815781 -0.0544667169451714 -0.195342868566513 1.87661135196686 2.92519950866699 3.48446464538574 -0.803488850593567 -2.12536597251892 5.37356567382812 45.5553321838379 9.35279560089111 2.35405254364014 -0.0152469463646412 -0.027647202834487 12.1792659759521 6.8927903175354 -0.25926548242569 -0.566245436668396 3.91207909584045 10.366886138916 35.1694068908691 31.5590000152588 27.2039432525635 13.9838008880615 12.2625885009766 6.82169914245605 6.20753002166748 3.12248349189758 3.72098588943481 14.9192056655884 13.6734771728516 12.5826835632324 10.4353742599487 6.61844873428345 3.61285042762756 3.04121708869934 2.87503218650818 2.4696044921875 2.53043413162231 2.86914396286011 6.04473876953125 6.29171514511108 5.18801641464233 4.08690738677979 0.860080718994141 -0.826013684272766 -0.225779816508293 12.1642379760742 5.14332580566406 11.7872905731201 5.77067232131958 8.65015888214111 5.96011066436768 7.11045360565186 7.80837249755859 8.65552139282227 5.74844598770142 7.70723104476929 7.295485496521 6.13509082794189 5.40456008911133 4.78297185897827 4.7935585975647 3.98459911346436 14.0835037231445 11.9917783737183 4.55401611328125 4.63421297073364 3.73404455184937 3.19906115531921 2.89471220970154 2.58685874938965 3.02775311470032 2.86822557449341 3.52353858947754 2.39273738861084 1.88459718227386 2.6377067565918 2.56292939186096 2.35526823997498 2.42826294898987 2.45292639732361 2.22277998924255 2.35985541343689 2.47845792770386 2.56661033630371 2.78003120422363 2.44357538223267 1.90898978710175 1.18065786361694 0.787301242351532 0.402374565601349 0.254061013460159 1.32695686817169 -0.689371585845947 -0.294782966375351 14.9023218154907 4.53589677810669 0.0358110554516315 3.44259190559387 0.456888973712921 8.33963394165039 0.233806759119034 1.08874809741974 35.9189720153809 40.9223556518555 19.7187080383301 23.1791248321533 14.6292409896851 12.5392436981201 11.7440662384033 6.47023868560791 5.76117324829102 5.81336688995361 5.69147348403931 5.40508508682251 5.84220838546753 6.29915952682495 6.60047292709351 6.72411870956421 6.91256332397461 7.17760896682739 7.17427539825439 7.31285429000854 7.19725465774536 7.03580522537231 6.66039323806763 6.3740348815918 6.5238995552063 6.73788118362427 6.4019136428833 6.18694353103638 6.17686891555786 6.15622806549072 8.84297466278076 10.0901975631714 11.9810342788696 9.74717807769775 11.1115016937256 9.23074817657471 12.974778175354 10.9039430618286 6.46215486526489 8.79374122619629 5.31865119934082 7.84466981887817 7.1597900390625 12.862024307251 10.1636648178101 6.77749156951904 6.86951351165771 32.1105155944824 20.1514453887939 20.7328720092773 19.6639499664307 17.7887573242188 16.029088973999 15.6401290893555 15.7216548919678
9.51643562316895 14.9637689590454 11.204891204834 3.38618063926697 3.81787800788879 2.57092070579529 1.66239380836487 4.50028085708618 4.20289182662964 0.939339220523834 0.758590161800385 0.962469696998596 1.23820221424103 0.573566079139709 0.162152618169785 0.0432147532701492 -0.0982582569122314 2.25505518913269 3.42508935928345 4.23219537734985 3.65192770957947 -0.522992432117462 -1.47719442844391 1.81349861621857 17.1611785888672 33.3733215332031 4.62727355957031 0.825008690357208 -1.29727172851562 -0.874160170555115 -0.132106393575668 0.0163431167602539 11.5599889755249 12.58385181427 4.94623756408691 18.5233402252197 45.3471183776855 20.4605274200439 16.0763931274414 8.38286113739014 5.31638669967651 3.50431704521179 4.36900472640991 19.1231060028076 16.4857788085938 12.8847742080688 11.9130220413208 7.09315156936646 3.73949885368347 3.25016641616821 3.13482093811035 3.01964330673218 3.53973937034607 3.18808269500732 6.49821138381958 6.78864765167236 5.57704877853394 5.95015287399292 3.22670602798462 2.31946206092834 0.456292986869812 0.345203250646591 16.5119781494141 26.3330059051514 10.7850437164307 15.8535556793213 9.77224922180176 7.86549472808838 8.23897075653076 10.8182201385498 5.86136293411255 14.6638402938843 8.01580905914307 8.22824287414551 6.14842128753662 5.02915954589844 5.07137775421143 6.63244819641113 4.15164852142334 3.85584115982056 4.82017278671265 5.03943347930908 4.71934652328491 4.93457555770874 4.28208303451538 3.68019199371338 3.64371824264526 8.40525913238525 2.90078210830688 3.75895023345947 3.69981956481934 3.67332124710083 3.12333226203918 3.02280807495117 2.52566838264465 2.50854516029358 2.91274309158325 2.89960694313049 3.0003125667572 2.906658411026 3.59531688690186 2.63327646255493 15.3577928543091 1.27837288379669 1.08406865596771 0.828684568405151 5.22316074371338 1.67243468761444 -0.495371460914612 5.57266902923584 -0.730864524841309 -0.574882507324219 -0.600070536136627 0.252922743558884 2.54151201248169 12.6961231231689 6.88807582855225 8.81034183502197 1.6931848526001 2.19416761398315 34.6541137695312 39.5014419555664 20.8861217498779 16.5004749298096 15.5494251251221 7.93394947052002 6.20749282836914 6.08039426803589 5.94607639312744 6.25097799301147 6.14883852005005 6.59418392181396 6.92459583282471 7.08845043182373 7.22526025772095 7.51915216445923 7.51532363891602 7.63411140441895 7.52352571487427 7.12565469741821 6.63497114181519 6.99015092849731 7.22328186035156 7.03359270095825 6.63797760009766 6.43025779724121 6.4085636138916 6.38652801513672 13.3897285461426 13.3709850311279 15.4383039474487 11.5043821334839 14.5148210525513 12.8437833786011 16.8974590301514 17.0099849700928 15.7970952987671 3.64592218399048 7.33660888671875 8.47700214385986 9.36834716796875 8.95767211914062 8.46737861633301 8.43070697784424 8.44354629516602 15.2268600463867 20.3216667175293 26.9515628814697 25.0892429351807 24.6325798034668 19.1432933807373 18.160795211792 18.0708255767822 14.3424987792969
26.7160739898682 15.4981937408447 3.86443614959717 4.66769027709961 2.61990737915039 6.27582693099976 5.98206853866577 5.21087503433228 1.02739429473877 0.843037128448486 1.0216691493988 1.2955516576767 1.09048080444336 0.903522789478302 0.505313754081726 0.209939926862717 2.66724133491516 4.0687050819397 5.19352388381958 4.35186529159546 3.43125605583191 -0.602620899677277 -1.37155902385712 0.157107636332512 14.7214508056641 7.95613050460815 3.80107164382935 3.3491199016571 1.60872507095337 12.2549238204956 0.234586581587791 -0.721172153949738 -0.401704400777817 6.7429027557373 -0.331357717514038 -0.522010147571564 35.7923583984375 22.797534942627 10.8797721862793 4.29050350189209 4.98090982437134 5.50430870056152 27.0656986236572 20.9746856689453 15.4485034942627 11.5492057800293 7.87095499038696 3.92747354507446 3.31190037727356 3.26675319671631 3.28764986991882 3.9808394908905 3.67897152900696 6.97643756866455 7.30767011642456 5.9970064163208 7.34396314620972 5.02600574493408 5.60342693328857 2.72602272033691 2.2079005241394 1.55720472335815 8.55108833312988 17.1193561553955 20.1502990722656 11.8920707702637 13.254900932312 9.08785057067871 14.1444892883301 9.9939079284668 7.36510753631592 13.4930267333984 11.8632326126099 6.80458545684814 6.69291353225708 5.43914699554443 4.44963359832764 5.10221290588379 6.81722211837769 4.84089803695679 5.60174655914307 5.30709028244019 5.35409307479858 5.2637152671814 5.13467073440552 4.528395652771 4.35041618347168 3.92450618743896 4.35481834411621 4.54058742523193 4.28360891342163 3.88849425315857 4.04781007766724 3.14528131484985 3.631596326828 3.52591943740845 3.0886709690094 2.84545660018921 3.76930642127991 7.50319957733154 2.70143985748291 2.0292820930481 1.46022474765778 1.71300232410431 1.03828859329224 2.52798843383789 3.69618058204651 3.54173040390015 -0.061529241502285 -0.0462717562913895 -0.170453637838364 10.2127132415771 0.326082766056061 0.35138937830925 0.645438134670258 1.11698484420776 1.20155608654022 2.47102379798889 1.84005892276764 8.86655807495117 12.4751405715942 36.5195579528809 23.7239933013916 22.619592666626 10.6262502670288 8.29593467712402 7.77761840820312 8.21262836456299 8.06163501739502 7.28382444381714 6.91209316253662 7.28250789642334 7.48747682571411 7.55901718139648 7.89416694641113 7.88386964797974 7.96738386154175 7.8513650894165 7.43939447402954 6.9318585395813 7.29116582870483 7.52748537063599 7.03469276428223 6.88463449478149 6.68829107284546 6.65861368179321 6.64097023010254 26.0947742462158 19.9738540649414 22.9317321777344 16.0287456512451 21.2334327697754 22.6837177276611 4.42758178710938 13.6286792755127 19.8453750610352 5.42965745925903 9.75061130523682 9.86790752410889 9.76484966278076 11.0676536560059 21.984130859375 14.2077608108521 20.8526916503906 20.8820304870605 37.8265914916992 38.4263648986816 26.1243324279785 21.6161193847656 23.5455665588379 28.3348941802979 21.229793548584 16.8676147460938 15.4019269943237
28.4173755645752 4.6770281791687 5.74405765533447 2.6345636844635 7.80272769927979 7.90752410888672 1.35956406593323 1.18830156326294 0.990232765674591 1.10997927188873 1.3667254447937 1.14158749580383 0.973283529281616 0.585166931152344 0.675431251525879 3.06420493125916 4.71004486083984 6.47376394271851 5.28520393371582 7.23209524154663 6.56266307830811 1.53466284275055 0.20974762737751 -0.272276997566223 3.98716855049133 3.95957612991333 3.53979659080505 3.39421629905701 0.570639371871948 5.54861354827881 1.11389243602753 -0.0642394945025444 -0.191126942634583 0.915720760822296 7.29312324523926 5.10242557525635 39.2970199584961 14.6533145904541 5.11063385009766 9.30394554138184 7.88058757781982 45.1768074035645 29.6484546661377 20.6759471893311 9.47999954223633 8.85516548156738 3.45045495033264 3.42020273208618 3.38317370414734 3.70936846733093 4.59008073806763 4.03421115875244 7.47790384292603 7.8713493347168 6.39177894592285 9.31869602203369 5.39706659317017 6.09987306594849 5.8937029838562 5.2510724067688 4.41883850097656 3.14112782478333 6.67462158203125 34.6406097412109 13.6319169998169 14.7147779464722 13.3713455200195 7.57148265838623 10.8662691116333 9.35307788848877 8.33435344696045 24.1236019134521 9.4320011138916 10.3889932632446 6.65651750564575 5.46562480926514 5.16632032394409 8.88642978668213 11.3014497756958 6.41939258575439 6.10302543640137 5.7715015411377 5.69432735443115 5.49103021621704 5.73197174072266 5.31606912612915 5.25248384475708 5.27962112426758 5.16840410232544 4.75470876693726 4.77952480316162 13.0392532348633 12.0758152008057 4.42344665527344 4.04221248626709 3.89550971984863 3.58455729484558 4.01219272613525 3.60724377632141 2.93015670776367 2.13699841499329 1.56755375862122 18.720085144043 11.2057933807373 6.94462251663208 10.4535894393921 9.1532564163208 9.9309663772583 0.12078158557415 0.00834914017468691 0.344928443431854 0.872377753257751 1.06673419475555 1.34793031215668 6.3821587562561 1.77667629718781 1.81626689434052 6.89388704299927 2.29462838172913 1.79465186595917 2.42922735214233 40.2657737731934 39.5700912475586 15.67396068573 12.4219427108765 9.73984622955322 10.2638072967529 10.1088905334473 8.14943599700928 7.6695237159729 7.67432403564453 7.9201488494873 7.95865726470947 8.30345439910889 8.28239440917969 8.33833789825439 8.21275234222412 7.77573871612549 7.24625158309937 7.60408926010132 7.85190534591675 7.26383209228516 7.1145544052124 6.92762660980225 6.89696073532104 6.89133596420288 6.04387760162354 35.7980918884277 40.1454048156738 30.0072441101074 37.9606094360352 39.8954734802246 20.3047981262207 4.90094041824341 5.15614032745361 7.21063375473022 10.2542343139648 11.6347017288208 27.1198902130127 19.3150463104248 13.6663608551025 9.23882293701172 7.96311330795288 7.64381551742554 18.6520004272461 27.4425582885742 42.9104843139648 30.6752853393555 24.0605335235596 21.913330078125 28.1905136108398 20.5502471923828 26.3833255767822 12.5883598327637
10.1104173660278 10.3380899429321 2.9042055606842 9.54152297973633 9.72758960723877 2.05129957199097 1.40058314800262 1.14382648468018 1.20575046539307 1.46798884868622 1.21064400672913 1.02362859249115 0.630306601524353 0.749945044517517 3.51591777801514 8.96791648864746 7.91483116149902 6.32060241699219 9.91091823577881 9.51338672637939 8.36166667938232 8.5753345489502 6.60375785827637 4.88327360153198 4.03834104537964 3.64628195762634 3.58055710792542 0.921265006065369 18.8202362060547 3.58498978614807 2.36253786087036 0.492987394332886 0.114728391170502 -0.147947043180466 1.11570274829865 -0.00381910451687872 27.9580898284912 6.07620716094971 2.20644068717957 8.17164134979248 -0.431221395730972 47.9769287109375 36.107349395752 11.3623580932617 5.15447568893433 3.7312924861908 3.60224175453186 3.24167132377625 4.58566570281982 5.58800172805786 4.47562217712402 8.01778221130371 8.4816312789917 6.84740543365479 12.8405570983887 5.65856742858887 6.4536247253418 6.59691572189331 6.19764184951782 5.79432201385498 15.7479162216187 11.1343574523926 3.13319063186646 17.5034141540527 18.4176387786865 15.4157466888428 16.4360980987549 9.8395299911499 10.9554510116577 10.6705026626587 6.08844041824341 19.0826015472412 20.1929130554199 7.77514743804932 9.17003345489502 8.43714141845703 4.72714614868164 6.16221857070923 7.84823131561279 7.12032985687256 6.39040184020996 6.2812123298645 6.02092313766479 6.1771388053894 5.72158336639404 5.59040880203247 5.64958238601685 5.33392190933228 5.54889440536499 5.4752836227417 4.36170625686646 4.75178956985474 4.84517288208008 10.6162586212158 4.66528081893921 4.25840139389038 5.92621612548828 4.62580251693726 3.25647950172424 2.5693051815033 1.63929319381714 1.10144293308258 1.04669344425201 0.51919025182724 -0.182855561375618 -0.250207990407944 -0.0349019207060337 1.16973876953125 0.188623771071434 0.445900410413742 1.29503560066223 1.26037192344666 1.91138768196106 1.893878698349 1.87923645973206 2.11601090431213 2.42429113388062 2.66750144958496 2.70448446273804 5.35058164596558 2.43441534042358 2.96114015579224 28.5320701599121 23.6545314788818 13.6859121322632 13.6562213897705 13.4625682830811 10.7775201797485 9.58160781860352 8.44645404815674 8.42267227172852 8.42851066589355 8.75007152557373 8.7274751663208 8.74523735046387 8.60414123535156 8.15521240234375 7.59708404541016 7.94715452194214 8.1988582611084 7.51271677017212 7.34782123565674 7.18445348739624 7.09436893463135 7.09322166442871 7.22502183914185 4.92325067520142 4.74272012710571 14.2193994522095 4.37536668777466 3.97025179862976 35.768123626709 27.7426586151123 18.2706775665283 15.9746179580688 12.8546094894409 13.5838861465454 10.7738227844238 12.301887512207 11.445502281189 12.2538537979126 10.309229850769 9.33643054962158 9.06977558135986 8.08192539215088 22.1691513061523 35.0775413513184 33.5864219665527 35.766975402832 20.7127914428711 19.4499683380127 15.1017627716064 17.9141044616699 23.9915523529053
1.08337259292603 6.40409994125366 13.6834020614624 13.6207799911499 1.42338013648987 1.67445373535156 1.34733390808105 1.29043221473694 1.57044625282288 1.30606329441071 1.10348081588745 0.676689803600311 0.794111907482147 4.09405708312988 11.5043449401855 6.10338115692139 7.90830278396606 13.7454204559326 13.2173109054565 12.5244560241699 10.7607593536377 8.52488231658936 6.3106517791748 5.14906024932861 4.16276979446411 3.81422472000122 3.97891402244568 2.12156248092651 3.93839025497437 3.88524866104126 3.55348086357117 1.85484850406647 0.0667182579636574 0.0227367095649242 1.70295786857605 0.797598659992218 15.1066627502441 2.48704433441162 1.89282965660095 1.25654721260071 -0.890554368495941 18.1323871612549 14.4637012481689 6.58851528167725 4.38420391082764 3.92913055419922 2.75596356391907 3.56217479705811 7.34526205062866 5.58919286727905 8.68297100067139 9.22120189666748 7.34765720367432 22.3600997924805 5.94849872589111 6.90001392364502 7.31584548950195 7.36917448043823 6.52949857711792 23.9892425537109 19.4282073974609 16.5690879821777 23.52805519104 25.702241897583 20.7582569122314 20.5877742767334 17.921480178833 13.9376697540283 12.1135263442993 11.0307540893555 7.06957578659058 6.35571241378784 10.3608083724976 12.3396167755127 12.2313861846924 7.42868375778198 10.5404872894287 9.45983219146729 7.70275783538818 7.08713483810425 6.96832227706909 6.69533681869507 6.69968700408936 6.23898363113403 6.18513631820679 5.9371657371521 5.7461724281311 5.81709384918213 5.83461093902588 5.75934886932373 5.67543983459473 4.86420917510986 4.53787040710449 5.09513425827026 18.4242973327637 14.4835329055786 10.9501104354858 9.7273006439209 3.61032676696777 6.263099193573 1.91876602172852 1.53724658489227 1.16742849349976 0.573833346366882 0.272377461194992 0.0570700354874134 0.179925188422203 0.378942102193832 0.970816969871521 1.46734595298767 1.61413180828094 5.10899782180786 6.28718042373657 2.99973750114441 3.57108926773071 2.73784565925598 3.27576470375061 3.34735894203186 2.86485123634338 4.02998495101929 3.83218550682068 4.20881986618042 5.56317234039307 25.2188568115234 20.3748626708984 19.7884292602539 16.0320796966553 12.7375574111938 11.2276048660278 9.52401065826416 8.95951652526855 10.2003164291382 9.22545719146729 9.17742824554443 9.03504753112793 8.56213092803955 7.97019052505493 8.32080459594727 8.57513523101807 7.81979656219482 7.60981464385986 7.51598310470581 7.45893001556396 7.25649404525757 7.38550710678101 6.53416109085083 5.33668041229248 4.42096757888794 4.54128456115723 4.51815128326416 7.31383180618286 26.3912906646729 29.3809757232666 14.2547454833984 17.9573822021484 15.5735235214233 12.4154539108276 12.7646398544312 12.7794303894043 12.442967414856 11.8021268844604 12.7645807266235 10.7550935745239 11.4942016601562 8.38268375396729 11.4722013473511 33.0744667053223 29.7103786468506 32.5156288146973 19.8214435577393 13.1966495513916 14.484935760498 10.8294143676758 9.45731353759766
1.73661148548126 27.4695148468018 26.1758995056152 1.45958173274994 1.38591718673706 1.50076603889465 1.37720584869385 1.6650367975235 1.40059542655945 1.19997942447662 0.76208108663559 0.85359513759613 8.69324779510498 15.5738878250122 10.2547569274902 10.0901641845703 20.7009544372559 20.1337146759033 16.1055202484131 13.0095653533936 10.8377857208252 8.26636981964111 6.77105522155762 5.20287418365479 8.56673908233643 8.96961498260498 4.38680267333984 4.28987121582031 4.25536918640137 3.91031122207642 3.76825451850891 1.98576200008392 3.52515411376953 1.74187898635864 1.36809122562408 2.08497834205627 3.00322651863098 2.5725429058075 1.37467110157013 31.2465915679932 0.00712087005376816 17.9550514221191 10.4793529510498 6.17100048065186 4.40926694869995 2.87316203117371 2.34075903892517 2.16752505302429 4.54400014877319 9.44943809509277 10.137885093689 9.46188259124756 3.63260436058044 6.38305282592773 7.32283782958984 9.17786598205566 8.30541229248047 7.47906303405762 42.3648796081543 35.9428596496582 32.843921661377 20.4743728637695 26.9185352325439 34.6840171813965 27.9222946166992 22.6161041259766 21.4679660797119 15.7504911422729 11.4720001220703 9.55668163299561 12.9009408950806 10.2818250656128 17.8798427581787 19.7648391723633 9.37396240234375 14.2361268997192 13.1072978973389 9.57462215423584 8.47289562225342 9.95365715026855 9.13297176361084 7.86825466156006 8.04494476318359 7.34311199188232 6.31255102157593 6.23966264724731 6.25957918167114 6.04917669296265 6.12159729003906 6.19853401184082 5.8722710609436 5.83065986633301 5.65270185470581 4.33451557159424 3.80899906158447 3.06767988204956 2.76072645187378 2.8010139465332 15.2816467285156 2.18250608444214 2.21258950233459 4.7980580329895 2.08439946174622 1.57818901538849 1.02149438858032 0.470562994480133 0.821150958538055 1.2200710773468 2.23606133460999 2.68974757194519 7.43915176391602 9.55276870727539 9.38037776947021 7.66294765472412 7.50876712799072 6.76884460449219 6.26950645446777 5.29994487762451 5.64476823806763 5.32821846008301 5.84484481811523 9.84711933135986 11.3933391571045 19.6204643249512 35.0169372558594 29.8302268981934 18.7328243255615 16.7220191955566 12.5714721679688 9.81723690032959 12.7496767044067 9.8264799118042 9.65729904174805 9.47970199584961 8.96648025512695 8.62137508392334 8.69291496276855 8.96237182617188 8.11593055725098 7.90939426422119 7.77893829345703 7.71927404403687 7.53076553344727 7.5375771522522 6.61938381195068 6.39407587051392 14.0863561630249 7.63391971588135 4.59174871444702 19.986686706543 7.83352613449097 9.8588981628418 16.402322769165 20.2180557250977 18.9112014770508 15.2119750976562 13.4249296188354 13.3868761062622 19.1683883666992 18.0494384765625 14.9217338562012 12.5728168487549 13.254322052002 11.2009515762329 12.8045530319214 22.4335651397705 33.6834259033203 33.7562484741211 37.283519744873 18.752197265625 22.8068542480469 12.222526550293 15.3748407363892 14.2019853591919
0.431070953607559 0.485991328954697 1.72637915611267 1.49319767951965 1.54382884502411 1.45773935317993 1.74110281467438 1.45550525188446 1.25770497322083 0.830329358577728 0.942467570304871 11.3171987533569 23.5346126556396 13.1779155731201 14.0029497146606 37.9268989562988 37.1056671142578 21.4958343505859 17.7504081726074 14.2455072402954 10.5930080413818 9.04195690155029 7.35825872421265 3.96355676651001 3.44321823120117 5.38878011703491 4.84423828125 4.67773866653442 4.27372884750366 4.1002984046936 3.86946368217468 3.95092439651489 1.95966529846191 2.0200297832489 3.46292901039124 3.34535622596741 3.14483571052551 2.15403318405151 -0.328783869743347 -0.691825151443481 27.5405883789062 1.43526005744934 3.58522868156433 6.00203847885132 3.28299498558044 2.42887139320374 2.30502510070801 10.9147624969482 12.0509042739868 11.4243612289429 7.69496917724609 6.76824855804443 7.0046911239624 10.0682277679443 11.1147756576538 7.74506855010986 8.39060592651367 3.08268857002258 12.0274610519409 9.39684581756592 0.985651612281799 5.58404922485352 16.7835254669189 44.5319900512695 30.1240673065186 29.4363098144531 14.6783246994019 23.2043132781982 10.7584075927734 9.24497890472412 30.3092975616455 34.0576095581055 16.4940986633301 17.0018177032471 20.7272205352783 19.3830299377441 13.1189308166504 14.5070743560791 13.255518913269 17.291955947876 9.44577312469482 9.98842811584473 7.39608192443848 6.69152355194092 6.99710845947266 6.70463180541992 6.40476226806641 6.25771379470825 6.55783557891846 6.28931617736816 6.42518281936646 6.04303121566772 5.44144821166992 5.14128303527832 4.20374536514282 3.8042516708374 3.2544641494751 2.01331567764282 2.00091123580933 4.55492162704468 21.9265995025635 20.9213218688965 6.37771320343018 2.14281582832336 1.65197026729584 1.36746633052826 1.69268643856049 2.31540989875793 3.29115772247314 13.245717048645 14.6563138961792 13.2207651138306 10.5736932754517 9.3179235458374 8.67266082763672 6.55746507644653 6.18987846374512 5.90365648269653 5.91161584854126 8.06095409393311 5.47488641738892 5.94046831130981 5.41448831558228 6.15450096130371 7.27685594558716 33.6204605102539 30.8414402008057 18.3683948516846 12.7833557128906 16.6987361907959 12.2033424377441 11.8478546142578 10.6669254302979 10.028223991394 9.6715669631958 9.03717422485352 9.33693790435791 8.50472068786621 8.60575485229492 8.06746578216553 8.00044918060303 8.01593208312988 7.78147840499878 6.77655076980591 6.4594554901123 21.8613815307617 8.45276927947998 5.39511823654175 3.84259271621704 8.27102184295654 4.93794822692871 16.1406860351562 20.8621788024902 26.3469772338867 19.1872692108154 17.4975185394287 14.1827116012573 13.9133996963501 13.9271383285522 16.9482917785645 18.1712913513184 16.0011730194092 15.7301540374756 8.95932102203369 4.39902830123901 4.05135726928711 7.38714981079102 24.2424640655518 14.7941484451294 31.6896724700928 19.314754486084 21.0128421783447 15.6600437164307 14.2970724105835
2.31049275398254 2.15200877189636 1.92796409130096 1.77845430374146 1.54939007759094 1.81684923171997 1.53554749488831 1.32757091522217 0.858469188213348 7.99297714233398 15.2134971618652 42.104907989502 17.9439277648926 21.3510513305664 2.82917332649231 10.7169332504272 33.4771041870117 26.2751560211182 21.5908966064453 13.7233848571777 11.9383573532104 9.0346736907959 7.41124200820923 6.03056001663208 6.57907915115356 5.80979251861572 5.41245460510254 4.77518367767334 4.44047784805298 4.13908624649048 4.29937791824341 3.9104597568512 3.78364276885986 3.82711696624756 3.64280247688293 2.71644139289856 2.73319458961487 2.50732660293579 2.05813360214233 0.113638430833817 1.65808463096619 1.50292038917542 1.59470546245575 1.9769002199173 2.43848943710327 2.421231508255 14.0118637084961 14.4028902053833 10.2430381774902 9.51254558563232 7.67692995071411 7.97012853622437 12.2999877929688 14.1897125244141 10.6536102294922 9.61008167266846 1.12958180904388 0.95439612865448 11.0537796020508 5.27835178375244 0.889344871044159 8.08374691009521 2.44561362266541 47.3784370422363 46.3429908752441 44.6436195373535 9.83416557312012 18.2922992706299 9.26611232757568 6.48792123794556 5.75645303726196 4.34111499786377 10.7200870513916 25.9630336761475 26.5525493621826 13.8739433288574 8.52376365661621 7.40704965591431 8.35171413421631 14.8778858184814 13.2498264312744 8.4928035736084 8.55547714233398 7.8622350692749 7.54026460647583 7.04886102676392 6.64779329299927 6.70248317718506 6.52562761306763 6.77339029312134 6.49577522277832 6.03313112258911 5.41790723800659 4.29669094085693 3.83393502235413 3.31299114227295 3.06404519081116 2.70285272598267 2.2212188243866 2.34375476837158 2.1741030216217 2.03849816322327 2.36921381950378 2.00993251800537 2.37550926208496 13.5203685760498 2.45972299575806 4.966872215271 28.6610374450684 26.1833248138428 25.1688480377197 16.7337036132812 13.4744138717651 10.3774337768555 8.26575469970703 7.51879978179932 6.85583734512329 6.36722373962402 6.61716032028198 5.85102319717407 6.46440172195435 5.58654975891113 6.28246259689331 7.3153977394104 7.97353553771973 8.80969905853271 31.9340667724609 17.9187984466553 23.9892425537109 15.8800277709961 15.3763866424561 13.1249322891235 12.5519247055054 11.1938552856445 11.0007410049438 9.77323150634766 9.39316463470459 9.58098697662354 8.35495090484619 8.28654003143311 8.27787113189697 7.23343992233276 6.8526759147644 6.62656116485596 5.43876886367798 11.1590099334717 9.36075401306152 4.09136962890625 11.2516288757324 6.99535417556763 17.1704406738281 15.5136213302612 15.988920211792 21.3632659912109 18.0916023254395 15.4974584579468 15.8247213363647 13.8343629837036 14.9663724899292 13.7090044021606 24.2886238098145 17.5682983398438 5.15833044052124 10.8708362579346 10.0279817581177 13.548095703125 11.1946954727173 25.4658336639404 10.0315809249878 24.4419860839844 30.6379089355469 19.807373046875 13.2999649047852 13.0328760147095
2.5123975276947 2.19170880317688 2.03465533256531 1.75804460048676 1.8999742269516 1.57282161712646 1.38985991477966 0.903571367263794 10.030966758728 22.7188129425049 1.62136161327362 33.0378761291504 38.9512100219727 43.5261154174805 10.472469329834 28.6572589874268 45.4200668334961 39.3369216918945 18.6215915679932 16.3244686126709 11.0779619216919 9.4919490814209 9.77328681945801 8.36244106292725 7.07683658599854 6.43900060653687 5.58364248275757 5.07363557815552 4.52285242080688 4.59056520462036 4.24429702758789 4.41024017333984 4.1669807434082 3.97982382774353 2.97083592414856 3.03101420402527 2.96876168251038 2.79433584213257 2.30530643463135 2.23009991645813 1.85410189628601 1.80090284347534 2.02965545654297 2.45315194129944 2.43775677680969 18.2123184204102 19.2458667755127 12.7580480575562 9.46182632446289 9.61028671264648 12.05774974823 16.5373249053955 21.0726470947266 13.3417625427246 18.1845359802246 2.4884181022644 0.610498607158661 1.31937098503113 0.903696119785309 1.27871823310852 1.10958826541901 6.38606452941895 7.5467963218689 13.6702404022217 11.0842981338501 8.97395896911621 8.60094451904297 17.4026489257812 6.62469911575317 6.00225019454956 5.80672121047974 9.22611808776855 3.91277384757996 4.77577304840088 13.2471446990967 10.5185918807983 13.8060750961304 11.7609014511108 12.5845441818237 19.4103374481201 10.8213920593262 10.643274307251 9.0667028427124 8.01312255859375 7.67092561721802 7.66200017929077 7.40210914611816 6.89182043075562 7.00212430953979 6.79842233657837 6.39541292190552 5.87533473968506 4.78518915176392 4.16976737976074 3.61015462875366 3.29883241653442 2.75429201126099 2.68199920654297 3.1545627117157 2.40396738052368 2.04919028282166 2.52032804489136 2.56644701957703 2.49275755882263 2.06773495674133 9.59982299804688 11.3170623779297 2.1516797542572 2.45755243301392 2.46311354637146 17.7741069793701 30.082649230957 21.9063472747803 12.1196670532227 9.15243339538574 7.41082286834717 6.80630254745483 21.0438613891602 8.25802898406982 7.60738706588745 7.13935565948486 8.09139060974121 8.85754013061523 8.51411819458008 9.03231430053711 9.61498832702637 32.6741676330566 40.9837188720703 22.4781036376953 21.7359676361084 16.7349243164062 15.7806158065796 12.6489238739014 13.3345708847046 12.1576919555664 12.3033676147461 10.9423561096191 8.97475528717041 8.67850399017334 8.57555866241455 7.46420049667358 7.08009338378906 6.82178401947021 6.41864490509033 12.2262182235718 5.04406070709229 8.8556079864502 3.52202868461609 3.67292475700378 5.91340351104736 18.2215023040771 17.4506607055664 12.5321826934814 8.83582401275635 8.75582599639893 7.63338613510132 9.21761989593506 16.6498870849609 12.3380346298218 36.3554267883301 2.95673727989197 14.8995313644409 12.3555374145508 5.3162407875061 4.7686128616333 2.20552325248718 11.5209007263184 10.559154510498 17.4680366516113 14.0276374816895 16.8799896240234 16.8372344970703 11.2476835250854 20.8328762054443
2.38146162033081 2.26196455955505 2.13148617744446 2.01823902130127 1.67174935340881 1.43453991413116 0.951931297779083 13.4921417236328 40.3679428100586 5.37800455093384 18.9151649475098 3.43392729759216 0.752693295478821 -1.26667928695679 -1.19562172889709 10.3838338851929 9.25425148010254 35.1029205322266 24.4427070617676 15.1597785949707 11.7989959716797 12.8181171417236 10.2544393539429 8.95942211151123 7.76832294464111 6.57353830337524 5.9748477935791 5.2358603477478 5.21066379547119 4.62388372421265 4.7668342590332 4.52170038223267 4.3555212020874 3.24509811401367 3.31071472167969 3.23945999145508 2.86146306991577 2.91416931152344 2.71940445899963 2.22837567329407 2.00420570373535 2.13592123985291 2.57379627227783 2.53713583946228 25.7055492401123 27.0724620819092 16.8140316009521 12.8296060562134 11.9869432449341 14.3424139022827 23.1405830383301 33.648494720459 17.6561870574951 7.36078119277954 3.64483141899109 1.57559132575989 1.63818764686584 2.65026712417603 6.81240606307983 4.55599737167358 2.63317227363586 0.96344918012619 2.42097067832947 5.14118623733521 21.0812549591064 10.7688770294189 6.89465951919556 7.44792222976685 6.65773153305054 5.285400390625 5.68339729309082 8.07821369171143 5.83038425445557 7.1440863609314 8.40641117095947 9.18890190124512 20.3905906677246 9.04644298553467 19.7113151550293 20.7163524627686 14.0581884384155 11.0262060165405 9.03058338165283 8.26296520233154 8.26135444641113 7.84824514389038 7.94048595428467 7.6646990776062 7.08911561965942 6.63144588470459 6.19888067245483 5.09884643554688 4.53241634368896 3.9195704460144 3.56273245811462 3.0149188041687 2.82905006408691 3.26614046096802 2.94033122062683 2.56456422805786 2.85153007507324 2.59226965904236 2.50139832496643 2.89436292648315 2.63607215881348 6.12166833877563 2.22830772399902 2.47792267799377 2.68371319770813 7.37358379364014 4.11547040939331 23.1768417358398 21.0578174591064 20.1107959747314 9.86629867553711 7.20298290252686 7.08562898635864 8.67699146270752 8.3087739944458 8.84876728057861 9.34638023376465 9.88895702362061 11.2732028961182 11.3086967468262 9.16381168365479 10.3553333282471 9.25179195404053 38.2019157409668 37.4426040649414 23.3692989349365 21.841272354126 15.5808191299438 16.8647403717041 14.6005668640137 14.8848171234131 11.1287307739258 11.2154693603516 9.92568969726562 8.91736793518066 7.78640794754028 7.32505035400391 6.99529647827148 6.69111156463623 5.1589207649231 5.0482029914856 21.6720905303955 6.45229196548462 4.18932056427002 2.65738129615784 1.83212268352509 3.9835512638092 19.9297008514404 11.3903131484985 11.432806968689 7.9632682800293 13.7734680175781 17.6103343963623 23.6810054779053 0.580315291881561 6.17518043518066 29.8502178192139 14.256365776062 12.9509429931641 12.4047985076904 6.19852113723755 6.64403820037842 25.2233486175537 7.88422346115112 26.5354232788086 21.8954524993896 16.2044811248779 12.3927984237671 13.1078472137451 17.7879295349121
2.33323001861572 2.24140310287476 1.89337551593781 1.76911759376526 1.51757991313934 1.01835215091705 19.9616394042969 6.25689697265625 8.21220684051514 0.436178177595139 7.86477327346802 3.34364604949951 2.38565158843994 -1.06816601753235 -1.3509110212326 8.15968418121338 18.355188369751 43.1649436950684 22.9388160705566 17.3079376220703 17.2815895080566 13.1442794799805 10.8860769271851 9.64641380310059 7.94538831710815 7.23080825805664 6.12798690795898 6.02612257003784 5.38393783569336 5.33081674575806 4.90721225738525 4.74901914596558 3.54365968704224 3.63428640365601 3.53369402885437 3.13341951370239 3.19553256034851 2.54626989364624 2.5709764957428 2.42823767662048 2.54225444793701 2.81639695167542 2.73474907875061 43.9703712463379 45.5268096923828 23.9143161773682 18.5910663604736 15.990535736084 18.9949111938477 40.2139739990234 4.65438318252563 25.4203338623047 7.98665046691895 4.55424356460571 4.13827848434448 3.4199116230011 2.56626987457275 8.7814826965332 10.5586595535278 6.69983673095703 4.50762414932251 7.27448511123657 6.70017719268799 7.01407194137573 7.73841142654419 8.34613227844238 8.59115123748779 19.2662296295166 5.36212396621704 6.02771854400635 20.0178489685059 14.2286443710327 11.9603786468506 11.2122840881348 11.4474697113037 6.7050724029541 10.6827774047852 5.75756120681763 11.8764963150024 21.3772144317627 10.9121980667114 9.94091320037842 8.66675472259521 8.72052669525146 8.45691394805908 8.50905418395996 8.03826999664307 7.74588441848755 7.04382276535034 6.51583003997803 5.395920753479 4.81311559677124 4.15165996551514 3.81561660766602 3.27932596206665 2.9736967086792 3.46217846870422 3.19923853874207 2.80736804008484 3.0320246219635 2.66954183578491 2.59144568443298 2.99162411689758 14.7590932846069 2.60768818855286 3.71855473518372 2.7196900844574 2.95925426483154 2.78022027015686 6.3176908493042 3.21727776527405 22.0093555450439 34.9887657165527 16.9156322479248 12.752103805542 10.0409173965454 9.21145820617676 8.91300964355469 13.4959945678711 17.1448841094971 12.7584257125854 13.1026134490967 13.7809448242188 10.0579986572266 11.7063045501709 10.0737686157227 10.0471048355103 9.90427494049072 39.6915512084961 37.5349349975586 21.5916614532471 23.4116802215576 18.4139213562012 18.7126502990723 12.9689874649048 13.5738725662231 10.5980091094971 9.33543300628662 8.11330795288086 7.64875459671021 7.23037147521973 6.87960052490234 6.65814542770386 24.0622158050537 8.8618049621582 13.8689336776733 13.6201953887939 3.89969301223755 2.42441821098328 1.7169371843338 1.62568032741547 3.39198184013367 4.43986415863037 7.98899793624878 1.40883469581604 0.499688118696213 0.721526682376862 1.06511092185974 9.5577449798584 8.92810249328613 26.0640621185303 13.8516321182251 7.96715068817139 8.73992824554443 11.5374202728271 5.12009477615356 7.99503898620605 1.50083887577057 23.8693428039551 24.7072296142578 23.8285598754883 19.117582321167 29.6446990966797 28.32470703125
2.29812002182007 2.04308295249939 1.71720993518829 1.42031693458557 1.29891216754913 36.3045387268066 -1.03913033008575 5.91502618789673 3.78423953056335 9.44019985198975 4.39514064788818 9.93634605407715 1.93351566791534 7.59870004653931 -1.0465772151947 -0.908873796463013 4.25466346740723 41.0841598510742 33.1507606506348 25.7654571533203 17.6914577484131 14.193042755127 10.8739023208618 9.98430156707764 8.8969030380249 7.41024971008301 7.10295295715332 6.32833003997803 6.170006275177 5.59767961502075 5.31250143051147 3.8802764415741 3.98220157623291 3.86137390136719 3.42779159545898 3.48020029067993 2.75451183319092 2.78898143768311 3.13658428192139 3.11142873764038 3.33048534393311 3.81175637245178 -0.232324004173279 -0.0316563695669174 41.968822479248 33.8321151733398 23.1229915618896 27.3276062011719 0.73602432012558 10.5012817382812 26.752628326416 14.0613031387329 5.82438898086548 4.92874002456665 4.87592744827271 2.95781493186951 1.76260530948639 18.4686889648438 10.9849290847778 6.45398664474487 7.43430185317993 8.41781234741211 9.2299633026123 17.5088806152344 10.223593711853 9.03451251983643 6.91529369354248 9.92486095428467 10.69358253479 4.13560199737549 16.9427719116211 15.7616529464722 14.9513263702393 6.4220175743103 7.31344747543335 5.96709728240967 8.83200073242188 7.47919273376465 21.2561321258545 17.5141258239746 16.6321659088135 10.6260261535645 9.29194164276123 9.11271286010742 9.0882511138916 8.61439609527588 8.00732421875 7.49018859863281 6.91199254989624 5.66332626342773 5.03533458709717 4.31491756439209 4.00069379806519 3.46183133125305 3.09880065917969 3.56902170181274 3.30616593360901 2.90194368362427 3.20186376571655 2.89664578437805 2.67517137527466 3.18647766113281 2.62119841575623 2.90421581268311 6.59069728851318 3.21471953392029 4.54321479797363 3.09453558921814 3.59736657142639 4.30745792388916 4.04988193511963 7.31896257400513 33.1003952026367 22.3808498382568 11.7346897125244 15.2321720123291 13.1368055343628 8.97546100616455 10.1554985046387 10.823878288269 13.1050796508789 13.9863691329956 11.1193008422852 12.2366352081299 11.4945840835571 10.9321517944336 10.8617639541626 9.38641357421875 13.6128797531128 36.919921875 39.6218528747559 25.6361083984375 26.0517139434814 15.4764595031738 17.1368370056152 12.7639112472534 9.8622407913208 8.67585182189941 7.97826051712036 7.48793268203735 7.19144916534424 7.15860033035278 5.76551723480225 12.5051240921021 6.17288208007812 5.39057874679565 4.147864818573 3.54850721359253 2.36781001091003 1.94252526760101 7.03682136535645 21.3617935180664 1.37735104560852 1.78918278217316 2.21392941474915 2.10342860221863 3.82101058959961 19.7620010375977 0.720020651817322 0.377038836479187 0.979480624198914 21.9201030731201 1.48971855640411 12.5740051269531 6.29171133041382 11.6283521652222 2.1357204914093 1.4222856760025 4.29692983627319 17.3003826141357 21.9520092010498 14.9911165237427 13.8089332580566 20.6547584533691
