NCOLS 175
NROWS 32
XLLCORNER 353888
YLLCORNER 6700016
CELLSIZE 16 
NODATA_value -3.4e+38 
2.19481563568115 2.87966752052307 3.11992645263672 2.68286657333374 2.32721710205078 2.38406300544739 0.53274142742157 0.588916063308716 0.666946232318878 0.728327572345734 0.792944550514221 1.04891920089722 2.066570520401 3.72196769714355 4.48820734024048 5.28127193450928 6.38568878173828 5.48923969268799 5.44775056838989 3.41497302055359 4.28031206130981 4.30755090713501 4.92158985137939 5.2785587310791 5.61845684051514 5.32725763320923 5.9918475151062 6.73388338088989 5.76857662200928 4.39368772506714 3.62684750556946 4.77326250076294 4.68874025344849 3.51618981361389 3.46291708946228 3.42701172828674 3.54553914070129 3.63656306266785 3.404128074646 3.48442554473877 3.72798180580139 4.51910734176636 4.27313947677612 4.35348558425903 4.08091259002686 4.07738780975342 4.2672290802002 4.23541975021362 4.06498289108276 4.36380004882812 4.39948511123657 4.20107793807983 3.97937226295471 4.87039279937744 13.235559463501 14.353666305542 12.8371124267578 27.2727222442627 15.1702909469604 11.6871662139893 6.01718091964722 5.17480850219727 4.42921495437622 6.06713485717773 3.53861832618713 3.90625 4.59759950637817 6.32993650436401 2.90754365921021 3.5802104473114 4.86490249633789 3.50624799728394 4.40053129196167 4.35928583145142 7.48784875869751 3.50882244110107 5.09512329101562 13.2342357635498 22.2081241607666 8.96921157836914 4.96392774581909 1.65292835235596 2.44115114212036 2.30763983726501 2.83743834495544 3.232741355896 4.98026371002197 10.554235458374 11.4474906921387 23.1334571838379 16.7427616119385 14.6876316070557 11.6628246307373 15.869215965271 16.596700668335 7.36259460449219 7.53505802154541 3.94921255111694 3.39376020431519 5.63296890258789 5.35811471939087 16.15260887146 14.5625495910645 1.42510366439819 0.903918325901031 4.75341320037842 3.55477333068848 -0.94067519903183 -0.810927867889404 -0.263118296861649 -0.0140387713909149 4.27637052536011 11.1805658340454 7.75272560119629 0.116860456764698 0.715240895748138 0.150583207607269 0.688731849193573 0.960940301418304 1.01223862171173 1.36680781841278 1.4527108669281 1.26080584526062 45.5592956542969 27.5643825531006 5.90667676925659 2.90875482559204 25.9994068145752 4.28002119064331 0.834912955760956 5.58147954940796 1.35979342460632 1.3243362903595 1.17201197147369 1.02467393875122 0.965567827224731 1.13167977333069 0.992725014686584 0.936554074287415 0.794874250888824 1.18046796321869 0.9187873005867 2.2144660949707 3.53440976142883 4.14720630645752 4.2661304473877 4.81482315063477 4.31665992736816 2.72150945663452 4.69354343414307 3.72283029556274 4.31776428222656 5.01731491088867 4.80175828933716 5.19309711456299 5.26110410690308 4.40512466430664 3.80188393592834 3.18107676506042 3.07342576980591 4.0279655456543 9.40807723999023 10.865665435791 10.9160661697388 11.1773071289062 2.55725622177124 2.43711233139038 2.64678382873535 4.36396837234497 6.95136022567749 12.625337600708 12.7906055450439 9.4451208114624 4.18298530578613 2.18729710578918
2.42357778549194 2.9151394367218 3.13060522079468 3.3680956363678 2.92519569396973 2.52647376060486 0.574016153812408 0.626943707466125 0.690795063972473 2.68426322937012 2.51979970932007 2.63420224189758 2.29866743087769 2.22585940361023 3.8786153793335 4.75830888748169 6.35113954544067 6.75323104858398 5.74596929550171 2.97978353500366 3.51081442832947 4.48356533050537 5.15431451797485 5.54210567474365 5.04179859161377 6.22268199920654 5.9296441078186 6.69588899612427 7.53825902938843 6.15510606765747 4.23559379577637 4.40647459030151 5.0643515586853 3.84974813461304 3.62140440940857 3.57095003128052 3.63886523246765 3.37671637535095 3.76526641845703 3.54741787910461 3.74078869819641 3.83989024162292 4.65618467330933 4.40887594223022 4.51011991500854 4.10797643661499 4.39445495605469 4.36086511611938 4.45339965820312 4.25618362426758 4.55942821502686 4.56640672683716 4.40828037261963 4.32064342498779 19.4530982971191 21.1330070495605 16.252965927124 19.7538967132568 3.74259734153748 18.3063373565674 6.95605134963989 9.14795875549316 4.82256937026978 5.83873748779297 8.42212009429932 4.24661636352539 5.17972803115845 7.2046422958374 3.29496550559998 3.74739956855774 3.98844909667969 5.02312135696411 2.84366345405579 12.1619806289673 5.21017980575562 23.7542419433594 0.929010033607483 15.2101068496704 11.6884317398071 0.963806092739105 1.1854612827301 1.79181599617004 2.16081833839417 2.56511664390564 3.34219431877136 3.82471776008606 6.7468729019165 11.4654674530029 13.4568319320679 15.2183351516724 22.2740058898926 18.7674388885498 22.5925388336182 18.7587623596191 15.2253360748291 22.4209537506104 15.3970489501953 23.123514175415 10.608097076416 13.2161159515381 7.65642690658569 8.59988689422607 10.45032787323 3.38523530960083 4.19537734985352 1.26004540920258 0.870191335678101 -0.088016115128994 0.548284590244293 4.35835599899292 3.02753067016602 0.634758055210114 3.78667831420898 0.606954216957092 0.21502947807312 0.671165466308594 1.65324521064758 1.89065802097321 8.39850425720215 10.9003229141235 9.11714458465576 1.73257970809937 41.5716705322266 40.6676635742188 1.20384240150452 1.50252318382263 3.97268629074097 2.51867151260376 2.1563413143158 1.15301465988159 1.45048725605011 1.19350159168243 1.6994457244873 1.45472526550293 1.26253354549408 1.45037996768951 7.6215615272522 1.336101770401 1.29912221431732 1.42755579948425 2.29619479179382 2.1599223613739 8.41181087493896 5.69267129898071 6.02851724624634 3.88583493232727 4.72125244140625 5.22027158737183 4.42994976043701 4.00301742553711 5.21168422698975 4.59926748275757 5.28964471817017 4.59522247314453 5.19351816177368 5.60528421401978 5.69565534591675 4.68419075012207 3.86327123641968 3.40110182762146 4.31972360610962 8.64812564849854 11.3422574996948 13.3623476028442 13.3702001571655 13.8862504959106 3.03309392929077 3.09077334403992 3.42593908309937 6.26497173309326 11.7950983047485 16.9915790557861 17.0345401763916 12.9035501480103 2.34466028213501
2.56546807289124 2.42040729522705 3.14638209342957 3.33048677444458 3.57025289535522 3.15484118461609 2.72581815719604 2.30722117424011 2.36824750900269 2.39047455787659 2.79541563987732 2.61960029602051 2.75944304466248 2.30831003189087 2.69666028022766 4.7362813949585 5.80071973800659 7.08651447296143 6.12742614746094 6.08511066436768 3.71593499183655 4.74027395248413 4.81670141220093 5.51278877258301 6.00503063201904 6.65908336639404 6.28620672225952 7.06750679016113 7.90865612030029 6.91505432128906 5.71734428405762 3.74835133552551 5.09355688095093 5.2403769493103 3.67798280715942 3.60588407516479 3.60572266578674 3.79047870635986 3.48008275032043 3.87958645820618 3.64115142822266 3.9228880405426 4.52734184265137 4.8283314704895 4.61156988143921 4.33874702453613 4.39616775512695 4.6241397857666 4.60959720611572 4.41914987564087 4.74389696121216 4.79302453994751 4.57833290100098 4.22026348114014 5.64273023605347 7.9247841835022 6.03160905838013 24.4565238952637 6.05514907836914 3.52950859069824 3.99610471725464 14.8715648651123 10.2308959960938 7.55473566055298 10.3255968093872 4.39278316497803 4.25437879562378 6.59645128250122 9.10157299041748 3.70471906661987 4.28713655471802 5.34209442138672 3.56013011932373 5.8055853843689 18.1705436706543 27.741512298584 0.231320574879646 6.51472473144531 10.3138570785522 0.982208609580994 3.35119700431824 4.91100454330444 8.47769927978516 2.49139904975891 4.32340717315674 3.96878147125244 9.67637538909912 15.2882347106934 10.1704654693604 15.4793663024902 34.3205413818359 13.362603187561 23.1734104156494 21.5474948883057 18.8548126220703 30.6944808959961 12.2981081008911 32.6925659179688 8.54456424713135 15.0293378829956 18.7947387695312 10.8049039840698 18.8592414855957 12.4352941513062 4.22131967544556 5.26321744918823 4.98808097839355 1.76770663261414 1.90310800075531 0.958814263343811 0.658315777778625 1.93491673469543 1.38853645324707 6.59373235702515 0.834226608276367 1.51086103916168 2.58012747764587 3.04629564285278 3.08206939697266 19.4977378845215 1.96724772453308 1.93993484973907 40.6430892944336 1.27984142303467 1.30000984668732 1.66299617290497 13.3851928710938 8.04048252105713 3.00504112243652 2.18298268318176 1.2881977558136 1.81241488456726 1.93161535263062 1.7406165599823 1.67972981929779 1.41163289546967 1.43833756446838 1.01841640472412 1.71800351142883 2.18569397926331 3.02536845207214 2.91474533081055 17.9234256744385 12.3605813980103 13.5627889633179 5.17335891723633 5.03055667877197 5.0830397605896 5.91423940658569 4.86735677719116 5.51414966583252 4.69915676116943 5.08991479873657 5.77032661437988 5.51449489593506 5.92059230804443 5.98974657058716 5.1000075340271 4.50484132766724 4.12466335296631 3.57683825492859 5.44397068023682 10.3799142837524 15.5098876953125 15.5217657089233 16.1460571289062 4.06708860397339 3.95386290550232 4.17351675033569 5.94499158859253 10.7290687561035 20.9310779571533 20.9342250823975 15.8395318984985 10.0237722396851
2.61949515342712 2.63894581794739 2.61779713630676 3.46772933006287 3.74484276771545 3.25962162017822 2.8138120174408 2.56432056427002 2.42362999916077 2.46907615661621 2.85584902763367 2.68471884727478 2.80147576332092 2.37841534614563 2.33052897453308 4.27858018875122 5.29045438766479 7.15657997131348 7.57186698913574 6.4799976348877 2.47739744186401 3.92306351661682 5.03445339202881 5.78068923950195 6.32098531723022 5.9515118598938 7.51706457138062 7.11801338195801 8.02901840209961 9.05283832550049 7.38478422164917 5.56697845458984 4.8376784324646 5.49848365783691 5.42107915878296 3.80005526542664 3.71749305725098 3.80134701728821 3.62668108940125 3.99393701553345 3.72580623626709 3.86832618713379 4.08710861206055 4.95453119277954 4.70592355728149 4.80770063400269 4.44436168670654 4.78561305999756 4.76236629486084 4.90607166290283 4.61735391616821 4.86828279495239 4.82422351837158 4.74872970581055 6.31408214569092 17.5245094299316 15.5600996017456 5.95369529724121 6.27350378036499 8.60155296325684 12.3555278778076 8.88199901580811 2.87360453605652 8.04881286621094 11.9355325698853 15.3841876983643 4.85297107696533 7.30283546447754 10.7656488418579 3.79641342163086 4.57723903656006 5.31530570983887 5.57046985626221 2.57000398635864 27.2758026123047 14.850284576416 -0.0219573490321636 1.59362542629242 13.6699285507202 0.992588579654694 8.7494535446167 2.27119708061218 10.5683374404907 2.47166395187378 2.62219762802124 2.70715403556824 17.0449905395508 8.44350433349609 8.90651416778564 20.8807678222656 30.5486717224121 18.6791553497314 21.573356628418 18.7289447784424 20.7552700042725 16.7794075012207 12.528862953186 19.7877311706543 3.52535843849182 20.0328178405762 26.2460556030273 9.86153793334961 16.8148002624512 25.7222576141357 10.1868505477905 5.05677509307861 6.37601137161255 7.62382125854492 6.92780590057373 5.66275835037231 8.01202297210693 8.67002010345459 4.34349346160889 12.7800302505493 4.73060941696167 5.80863857269287 2.84362006187439 2.80394601821899 3.33371829986572 3.30941796302795 2.50464296340942 2.16267561912537 2.29655861854553 1.67416322231293 1.61953830718994 2.33636069297791 1.71757102012634 13.367208480835 2.91279411315918 3.34458589553833 2.75083923339844 2.92408990859985 2.10509610176086 2.42744994163513 2.16718363761902 1.85772144794464 2.41064786911011 1.91159343719482 4.09406280517578 4.12658977508545 4.24964380264282 4.4078197479248 4.31841421127319 29.6039047241211 21.8995895385742 4.84628009796143 5.71687126159668 5.61539554595947 6.31236934661865 5.68009948730469 4.88649129867554 6.11524724960327 5.46608400344849 6.2066822052002 5.42013931274414 6.12689018249512 6.56125450134277 6.61850786209106 5.55344533920288 5.04402589797974 3.7824809551239 3.6151328086853 7.69141626358032 15.9037523269653 20.1763477325439 20.0652770996094 20.8387489318848 5.02985000610352 5.04754304885864 5.64968824386597 11.4980611801147 27.1306056976318 32.734375 32.668212890625 25.4873218536377
2.71403694152832 2.71933007240295 2.59946703910828 3.51466917991638 3.82506394386292 4.06102895736694 3.5019166469574 2.9966995716095 2.45564818382263 2.52790522575378 2.54842638969421 2.96871161460876 2.78293609619141 2.88393545150757 2.4662549495697 2.82706212997437 5.31387853622437 6.47851800918579 8.02106380462646 7.00565958023071 6.98490476608276 4.20144557952881 5.33016920089722 5.44963026046753 6.22405815124512 6.90079593658447 8.12491798400879 7.66180038452148 8.61885833740234 9.66273975372314 8.62945652008057 7.24443197250366 3.92841243743896 5.08306646347046 5.83732128143311 4.39858484268188 3.91671228408813 3.82859015464783 3.93123745918274 3.6113977432251 4.07273578643799 3.80867767333984 4.1381573677063 4.7965292930603 5.13836526870728 4.92536544799805 4.65626811981201 4.8093843460083 5.06772327423096 5.01560831069946 4.6687216758728 4.97667646408081 5.05365228652954 4.8520336151123 4.36310625076294 5.35729122161865 17.9529113769531 7.540198802948 20.5710678100586 18.2729721069336 6.7724084854126 5.64653730392456 13.7197513580322 2.86569166183472 18.8868141174316 22.660026550293 6.1838846206665 5.84651803970337 11.4434623718262 16.1538734436035 5.47272109985352 5.29205322265625 2.83255362510681 5.83310556411743 12.1774988174438 -0.0562777705490589 0.662479341030121 2.15492224693298 10.9384689331055 5.64150190353394 7.24977254867554 1.81293594837189 3.29222965240479 4.42587041854858 2.91903185844421 3.11392188072205 7.41459465026855 4.45717811584473 9.71835708618164 30.2274742126465 22.7714519500732 15.6934728622437 15.7741832733154 11.9877758026123 16.4632949829102 28.1655731201172 18.1882858276367 8.49716472625732 18.9614906311035 11.5487213134766 4.11528205871582 3.02138161659241 19.296215057373 27.7493877410889 13.564323425293 5.04033136367798 8.68385696411133 7.5518012046814 7.887451171875 8.62302303314209 5.64347648620605 10.6029462814331 4.713454246521 10.8948373794556 1.28885042667389 6.52316284179688 2.22566151618958 3.52094507217407 3.36180138587952 3.53235101699829 4.94424533843994 2.74570679664612 3.22317743301392 2.77411770820618 2.76407837867737 1.91715049743652 2.55271911621094 2.42591738700867 2.63888955116272 3.51427364349365 3.91202807426453 3.03296136856079 3.64971280097961 3.36663389205933 2.97590565681458 3.14601802825928 3.23143291473389 2.56501436233521 4.26573753356934 4.58151721954346 4.56514978408813 13.4913101196289 16.4961051940918 43.6492691040039 33.451343536377 6.26954317092896 6.08590459823608 5.98398447036743 6.16567039489746 6.97323751449585 5.82128477096558 6.51575136184692 5.59131383895874 6.1212272644043 6.87982034683228 6.66608619689941 7.08693170547485 7.08854961395264 6.72939252853394 6.13366365432739 4.53118515014648 4.34437799453735 7.94154596328735 16.4458694458008 24.5316123962402 24.3687839508057 25.1511783599854 12.6023750305176 6.14381980895996 6.71493339538574 10.1493062973022 27.0169563293457 25.085506439209 45.2752342224121 37.0045852661133
2.91867423057556 2.90468192100525 3.00869917869568 3.14691257476807 4.03296899795532 4.26089906692505 3.66585111618042 3.10049343109131 2.73316526412964 2.58205533027649 2.61161088943481 2.76790356636047 3.09187579154968 2.88408136367798 2.91351222991943 2.57234382629395 4.80694007873535 6.02329874038696 7.19632196426392 8.68278694152832 7.63108777999878 7.53809022903442 4.42771100997925 5.78734827041626 6.5833535194397 5.98925876617432 7.62516975402832 9.46302509307861 8.95213317871094 10.1325206756592 11.3409461975098 10.4019594192505 6.64992761611938 4.20366716384888 5.92420816421509 6.5088152885437 4.0023136138916 3.8914487361908 3.9195122718811 4.07412242889404 4.12328338623047 3.86379671096802 3.89030408859253 4.23728466033936 5.16870212554932 4.93415498733521 5.06314754486084 4.74604082107544 5.13104152679443 5.00900030136108 5.19483232498169 4.86235094070435 5.17012166976929 5.12975597381592 4.97285270690918 4.68856477737427 7.94889497756958 6.86582374572754 9.55240726470947 6.56666660308838 9.90171051025391 8.36666107177734 25.1353816986084 4.6596565246582 19.4845676422119 1.74981248378754 3.8711314201355 5.35848665237427 12.0198745727539 20.9641647338867 5.13153696060181 4.43167781829834 3.69491767883301 6.33720874786377 3.95274496078491 3.49521112442017 2.74369645118713 5.96939325332642 3.53006672859192 19.0106964111328 1.61035323143005 2.14215469360352 2.19781398773193 2.48584628105164 3.28358507156372 3.53500771522522 3.55622625350952 3.51230573654175 10.0480165481567 17.0386714935303 20.6490535736084 16.3088054656982 12.1650943756104 10.5643787384033 9.11464691162109 27.0348701477051 19.2314605712891 21.4057083129883 12.7332468032837 5.45916843414307 4.36117744445801 3.52035093307495 18.5495223999023 2.17419147491455 1.04967248439789 2.68783211708069 21.3540058135986 6.48756170272827 8.53586387634277 13.7018241882324 16.7190170288086 16.1480712890625 13.1999788284302 12.4619560241699 15.2786102294922 19.0313377380371 4.811598777771 3.19722628593445 3.73368740081787 3.6665723323822 3.7732527256012 3.48947882652283 3.96529817581177 3.99363994598389 5.48456859588623 14.4763708114624 3.14397239685059 2.87691044807434 3.77768802642822 3.72941970825195 4.17399454116821 4.14857244491577 3.76805090904236 4.03387355804443 4.28846073150635 4.0149302482605 16.2611846923828 4.03377485275269 4.75684309005737 4.5042872428894 5.06778240203857 10.0812473297119 29.0602951049805 4.97148370742798 2.141028881073 3.1943838596344 6.64888525009155 6.69674587249756 6.59404134750366 7.37337732315063 6.64191818237305 5.9122462272644 7.19205570220947 6.53556060791016 7.39599275588989 6.51716756820679 7.37729358673096 7.7481255531311 7.70803022384644 6.57777547836304 5.82803583145142 5.03033971786499 5.26353120803833 12.5273408889771 25.3948249816895 36.1714973449707 35.5060653686523 36.2285614013672 6.61136150360107 7.01226758956909 8.34775638580322 24.8276386260986 21.4138317108154 0.439724057912827 2.64770817756653
3.09589385986328 3.11196088790894 3.26431679725647 3.11451768875122 4.04906749725342 4.2676887512207 4.58249759674072 3.95136451721191 3.49366307258606 2.86292028427124 2.68581485748291 2.70494079589844 3.15418291091919 2.94778442382812 2.97775793075562 2.56491422653198 2.79001474380493 6.02492523193359 7.34678554534912 9.11081027984619 9.49060916900635 8.17706775665283 3.66395115852356 4.82120227813721 6.3775749206543 7.18335771560669 8.15608310699463 9.15663814544678 11.3326025009155 10.79714012146 12.1836776733398 13.5811138153076 10.9604825973511 5.21663999557495 5.8574652671814 6.63186120986938 4.83048963546753 4.15754175186157 4.00051927566528 4.15518999099731 3.77029728889465 4.25115823745728 3.93086719512939 4.27695465087891 4.96713924407959 5.31001091003418 5.1036171913147 4.82808399200439 5.02794408798218 5.32650518417358 5.21449184417725 5.37392234802246 5.2618465423584 5.31242179870605 5.25220108032227 5.09222936630249 6.89198398590088 10.2947559356689 11.380295753479 10.2963724136353 8.70706558227539 7.95668840408325 24.3391513824463 2.61169600486755 4.50975561141968 3.77759099006653 6.2636661529541 6.6958212852478 6.34172916412354 3.8547625541687 0.183447226881981 3.80952835083008 3.91430330276489 2.1886727809906 8.31140613555908 1.71967399120331 5.73470973968506 3.8365273475647 1.41539263725281 18.5994358062744 1.54976868629456 2.09721374511719 3.92033100128174 10.6023855209351 3.2595648765564 3.66774916648865 4.2196364402771 6.47343063354492 6.1434154510498 15.0399694442749 13.1212635040283 7.03340578079224 10.2026233673096 9.50573635101318 10.6681060791016 9.91237258911133 2.81645750999451 19.947473526001 18.1304302215576 3.35137128829956 6.43046903610229 6.89740180969238 4.79308938980103 1.96663928031921 21.0111198425293 1.34351325035095 4.31581878662109 5.68588781356812 10.3949632644653 15.2203760147095 20.8032341003418 14.9418077468872 23.8474521636963 4.20648765563965 26.5728397369385 8.80922317504883 1.79958772659302 3.1773157119751 3.9107985496521 3.79805827140808 3.99606895446777 3.99680185317993 4.11431837081909 4.2793493270874 4.19872760772705 3.06071257591248 2.67333388328552 4.30113124847412 3.6604106426239 4.16510248184204 3.85590982437134 4.62925672531128 4.58553457260132 5.28226137161255 5.72161674499512 5.5945930480957 4.83531951904297 3.51163148880005 4.70675563812256 5.0937614440918 5.55010032653809 20.7353591918945 37.546558380127 3.91377878189087 5.01048517227173 4.08315324783325 5.7949743270874 7.00438022613525 6.9383020401001 7.10603761672974 8.081618309021 6.8060245513916 7.57870388031006 6.53084278106689 7.22475528717041 8.04897785186768 6.80532026290894 7.95341634750366 8.28938102722168 8.1906795501709 6.9289870262146 5.00010013580322 6.10808515548706 12.7690982818604 36.7005767822266 48.483226776123 46.9728546142578 47.1727409362793 16.5546188354492 7.63627290725708 8.21086025238037 15.7376174926758 12.2314167022705 0.864473521709442 3.9811680316925
3.17983555793762 3.40746879577637 3.33777475357056 3.51705694198608 3.57554388046265 4.51070117950439 4.82481813430786 4.21368551254272 3.75443625450134 3.76131439208984 2.74667119979858 2.80190920829773 2.82886385917664 3.21908402442932 2.97946715354919 3.04405665397644 2.67371273040771 5.42344236373901 6.55510950088501 7.93826818466187 10.2297973632812 9.15347576141357 9.07166957855225 5.26953744888306 6.88972663879395 7.05354928970337 7.89709329605103 9.20242023468018 12.8701143264771 12.2135057449341 13.7632751464844 15.1982126235962 18.6912670135498 9.84163570404053 4.40607881546021 6.35017108917236 7.28371334075928 4.19509506225586 4.06513500213623 4.15523386001587 4.27982187271118 4.26606845855713 4.03917264938354 4.01113843917847 4.38102293014526 5.35065698623657 5.09440612792969 5.22768783569336 4.93155908584595 5.1608715057373 5.44574928283691 5.41650629043579 5.04362392425537 5.384202003479 5.45614957809448 5.24733924865723 4.98432540893555 12.6152486801147 12.1904230117798 11.5791215896606 22.5589065551758 12.5551462173462 8.30193424224854 4.91447734832764 9.40059471130371 5.59985399246216 2.98381900787354 6.82966566085815 6.23575592041016 14.0905847549438 3.32332396507263 4.02420806884766 1.31683719158173 4.77099895477295 10.0849123001099 3.60488486289978 16.5624198913574 1.39338374137878 1.32687342166901 11.8084859848022 1.82504522800446 2.249671459198 2.95942282676697 3.62089776992798 3.85058116912842 4.16621875762939 5.54845905303955 6.92922735214233 4.18896865844727 27.218599319458 16.1926383972168 20.4644832611084 8.89470386505127 10.4854946136475 12.6064233779907 12.9634981155396 10.083477973938 2.86193442344666 2.63061475753784 3.17760109901428 3.8632185459137 6.45957040786743 10.7764587402344 15.2584772109985 2.71494626998901 1.59697651863098 2.88088774681091 6.65832710266113 10.6572380065918 17.4802837371826 27.1192207336426 21.3561153411865 10.1428785324097 1.54546904563904 1.7336483001709 1.58332550525665 2.04859638214111 2.68164467811584 3.61854529380798 4.23220920562744 4.11484861373901 4.32130146026611 4.3242974281311 4.5707859992981 4.6307544708252 4.55309820175171 4.29675960540771 4.237633228302 4.70981931686401 4.39884233474731 4.37269735336304 4.61421632766724 5.07270622253418 5.06747722625732 5.69519472122192 6.15739011764526 6.04361581802368 5.04884052276611 4.96616077423096 8.64815616607666 5.56409692764282 6.06018495559692 4.64028310775757 3.54957628250122 5.53967905044556 5.41368818283081 6.16525554656982 7.6245002746582 7.70721912384033 7.61301803588867 8.49505138397217 7.6659836769104 6.86656093597412 8.33909797668457 6.8751802444458 7.81650733947754 8.63123416900635 8.34176063537598 8.66874122619629 8.53520679473877 7.35282373428345 6.62156057357788 6.9577579498291 7.82991027832031 28.9092102050781 23.2044410705566 8.33618927001953 11.4666376113892 6.24609613418579 6.74041414260864 6.0999870300293 6.61758232116699 8.54457759857178 8.41355895996094 2.66812252998352
3.16890430450439 3.54261255264282 3.32633876800537 3.55134010314941 3.71521639823914 4.52469778060913 4.86770629882812 5.20417261123657 4.55357313156128 3.97343420982361 3.05751276016235 2.8924880027771 2.92066335678101 3.30278611183167 3.02163505554199 3.10450434684753 2.89300537109375 2.7548246383667 5.78925609588623 7.57314920425415 11.07239818573 11.3993978500366 10.0487833023071 4.23951053619385 5.91401100158691 7.71010684967041 8.47522449493408 9.99448680877686 14.4446029663086 16.5762195587158 16.4565849304199 17.456169128418 27.0326042175293 18.57887840271 9.65925598144531 6.84526395797729 7.79720783233643 5.26839065551758 4.33053827285767 4.13450336456299 4.3362078666687 3.89338421821594 4.41636943817139 4.04548406600952 4.31056022644043 4.47983360290527 5.48204898834229 5.201575756073 5.32288217544556 5.00534105300903 5.48340797424316 5.37301397323608 5.58082294464111 5.1716251373291 5.58946084976196 5.62397050857544 5.75859403610229 11.0144205093384 19.8448390960693 13.7765407562256 22.1227340698242 11.0551261901855 14.9838333129883 9.13453674316406 3.64887976646423 5.46808576583862 5.85926532745361 4.25626707077026 11.0124235153198 7.28501415252686 3.04732394218445 2.52589702606201 4.63039493560791 6.39634370803833 4.19513654708862 18.371976852417 14.1296405792236 0.719161927700043 2.95218253135681 2.35684299468994 3.43351197242737 3.12810921669006 3.84353756904602 4.05166959762573 9.14040470123291 5.39264345169067 4.31483459472656 7.88429975509644 4.62249040603638 14.0198345184326 13.9332580566406 14.5430679321289 8.37554550170898 10.6853485107422 5.75732755661011 2.41534447669983 3.37151432037354 3.33950996398926 2.80777263641357 3.45690870285034 4.33436965942383 8.01274681091309 14.3121576309204 7.79044389724731 3.38410711288452 3.97571420669556 3.77069067955017 8.44069480895996 12.4625978469849 25.6988162994385 24.847131729126 13.1147022247314 3.88649439811707 1.56606411933899 1.7543785572052 14.0449800491333 2.78763151168823 3.09316873550415 3.83420920372009 3.95764493942261 4.57021570205688 4.54828262329102 4.66139984130859 4.75074052810669 4.98119115829468 4.95390748977661 4.90509223937988 4.71194124221802 5.07061624526978 4.3883900642395 4.87921762466431 4.53516912460327 5.30495548248291 5.28858375549316 5.97591114044189 5.97065305709839 6.58459424972534 6.34379196166992 5.91641235351562 6.36633491516113 5.3560266494751 6.51796007156372 6.47168350219727 5.48809099197388 5.27995634078979 6.07328605651855 6.55526161193848 7.93565607070923 8.03369140625 7.95179080963135 8.1220006942749 9.31375217437744 8.27213954925537 7.74701452255249 9.05247783660889 8.19347190856934 9.0302562713623 7.84870338439941 8.85051727294922 9.10354709625244 9.04642200469971 7.83257579803467 5.58409595489502 9.72234725952148 29.4631690979004 26.7652263641357 5.63258504867554 9.20298099517822 4.85838890075684 24.4867782592773 3.22191333770752 3.3887243270874 2.26184487342834 1.24303269386292 0.921622216701508
3.31792974472046 3.5035662651062 3.87393450737 3.6743221282959 3.98658466339111 3.5476188659668 4.87216472625732 5.26839399337769 5.55134630203247 4.76299524307251 4.320387840271 2.92716217041016 2.95153331756592 2.94096899032593 3.40429830551147 3.10659527778625 3.15664601325989 2.69922614097595 3.11732006072998 7.53389978408813 9.58770179748535 12.6882762908936 11.5158395767212 11.5339040756226 6.54511594772339 8.46903610229492 8.62826919555664 9.53592205047607 12.981595993042 22.5266437530518 18.8810291290283 25.2238426208496 23.6630191802979 10.8728170394897 14.0486812591553 4.80486822128296 8.15669250488281 9.20476722717285 4.37257242202759 4.14731168746948 4.29673528671265 4.48065376281738 3.97758603096008 4.52430725097656 4.12978935241699 4.51992845535278 5.26487064361572 5.62147760391235 5.35539579391479 5.01686143875122 5.29845523834229 5.65304136276245 5.66558170318604 5.28023195266724 5.72367191314697 5.90209197998047 5.75132608413696 9.51245975494385 29.6260070800781 14.9395742416382 14.9113330841064 10.8461389541626 17.1512641906738 16.1052989959717 15.0621185302734 4.95253753662109 6.35413551330566 10.7086420059204 15.3197898864746 18.7897815704346 5.74585008621216 8.69461917877197 6.52988958358765 4.47368192672729 12.8983631134033 29.2180309295654 13.6296157836914 1.7220470905304 2.03822016716003 2.94610548019409 3.25250458717346 3.45521664619446 3.93794178962708 4.43084716796875 4.51655292510986 4.11431694030762 4.21142816543579 18.4545345306396 4.99288892745972 10.244873046875 20.1327743530273 8.43250751495361 19.4673500061035 14.0861682891846 9.6480016708374 2.56436610221863 8.47819423675537 5.95685291290283 2.87812328338623 5.93128824234009 4.481520652771 7.88881635665894 10.396653175354 4.43090677261353 8.41277027130127 2.29328632354736 4.14829063415527 10.6647520065308 16.9576511383057 29.8886184692383 23.3721714019775 18.4801959991455 7.60364103317261 1.6984406709671 1.93215370178223 1.79385280609131 18.8971939086914 2.83021807670593 3.97277736663818 3.98067498207092 4.78047513961792 4.70295429229736 4.95690107345581 5.00871419906616 5.30481910705566 5.4131498336792 5.40705871582031 5.34893083572388 5.05567359924316 5.57167196273804 5.18907880783081 5.12180805206299 5.28963804244995 5.69532203674316 5.69252061843872 6.32187461853027 6.88001871109009 6.62619400024414 6.3887996673584 6.73351621627808 5.95876741409302 6.07811546325684 7.07550430297852 6.19658660888672 6.59153413772583 6.73859834671021 6.6501784324646 7.24331760406494 8.69192886352539 8.80621814727783 8.74729251861572 8.62643814086914 10.1727142333984 8.60355377197266 9.47758388519287 8.00813579559326 8.81643104553223 9.70780181884766 9.33385181427002 9.53411674499512 9.39290237426758 8.26729297637939 8.37983131408691 11.0774307250977 16.4133262634277 2.32520318031311 -0.263793140649796 -1.57662320137024 -2.87845706939697 -2.43538427352905 1.05825185775757 0.831229507923126 -0.486792296171188 1.72483694553375 3.15227913856506
3.48835873603821 3.58040452003479 3.73988080024719 4.19048929214478 3.90198469161987 4.30210256576538 4.45568227767944 5.63960361480713 5.86913919448853 5.12916231155396 4.48077487945557 3.1919002532959 2.97619724273682 3.03411555290222 3.15658712387085 3.49861454963684 3.1876962184906 3.21206307411194 2.79075050354004 6.69293546676636 9.11501979827881 11.0323028564453 14.8575716018677 13.5013694763184 13.5403938293457 7.46524381637573 9.72791385650635 10.3833675384521 11.2951784133911 33.0551834106445 30.4201641082764 36.3417320251465 33.9681434631348 23.7497615814209 12.534538269043 13.7575435638428 6.79242658615112 9.48874378204346 10.6624717712402 4.46326303482056 4.22477960586548 4.46835374832153 4.0732946395874 4.56173849105835 4.37688493728638 4.31148719787598 4.64224052429199 5.6998143196106 5.379638671875 5.49007749557495 5.18068885803223 5.73137807846069 5.63943481445312 6.00710391998291 5.5811915397644 6.13436651229858 6.28789710998535 13.2800769805908 26.4340038299561 5.22504806518555 17.2703247070312 14.4506120681763 17.1069068908691 25.8471546173096 12.3971538543701 9.28661441802979 6.17841243743896 9.35632038116455 3.15667796134949 6.94845056533813 3.77527713775635 10.7340421676636 4.60289859771729 12.3442392349243 22.6233787536621 17.9325389862061 0.724143385887146 1.96859323978424 2.4242799282074 3.38242888450623 3.83048486709595 4.32237672805786 4.62500095367432 4.89998245239258 4.58754014968872 15.8269033432007 4.15812873840332 4.69308471679688 4.68588161468506 4.69569301605225 4.61241245269775 19.9828567504883 17.3687057495117 2.98658299446106 2.42934513092041 2.46800994873047 2.6711905002594 2.23939299583435 2.9087188243866 15.8209161758423 4.49829578399658 4.84776782989502 8.67074489593506 5.67786884307861 4.01781845092773 5.55600166320801 8.6206169128418 23.3988971710205 18.2376461029053 27.427131652832 13.6214542388916 8.24305725097656 1.94299554824829 1.5804854631424 2.00546503067017 2.12514424324036 2.1381208896637 15.5130767822266 5.15842723846436 4.17655801773071 4.29980421066284 5.00479030609131 5.0875768661499 5.29295682907104 5.4545783996582 5.73910760879517 5.85507965087891 5.77206754684448 5.57390594482422 5.97120189666748 5.23537254333496 5.68306303024292 5.24056386947632 5.90894937515259 5.85093784332275 6.55401039123535 6.44574069976807 7.22946929931641 6.94399261474609 6.58345222473145 7.25814723968506 6.87081575393677 7.56651926040649 7.40324974060059 7.83317279815674 7.74792432785034 7.34072923660278 7.3639087677002 8.05194187164307 9.58594512939453 9.73520278930664 9.65397071838379 10.6644220352173 9.46954917907715 8.83461475372314 10.2081394195557 9.27910614013672 10.2310771942139 8.8858528137207 10.1108446121216 10.2998123168945 10.2168569564819 9.64588928222656 8.49900150299072 23.4049091339111 3.85547113418579 3.00939393043518 0.717027246952057 -0.574787080287933 -0.897457838058472 -1.52946472167969 1.34001076221466 0.312037825584412 1.32551324367523 1.90577435493469
3.6604642868042 3.72216796875 3.9084038734436 4.39324808120728 4.03508567810059 4.5771017074585 4.35181665420532 5.62703800201416 5.86236143112183 6.29599380493164 5.31797075271606 4.74958658218384 3.30091571807861 3.07727670669556 3.12703466415405 3.58447313308716 3.26801109313965 3.30731773376465 3.01331257820129 3.02361154556274 9.00991916656494 11.1457281112671 16.8801460266113 16.6571865081787 15.4826574325562 5.33122158050537 8.72674179077148 11.5055198669434 12.0427646636963 30.0866222381592 15.6178598403931 23.1568756103516 12.9916543960571 21.95627784729 4.44162750244141 25.5871734619141 4.97818470001221 10.4094161987305 11.7078227996826 6.02632522583008 4.44605684280396 4.31779098510742 4.62959241867065 4.07697534561157 4.69670915603638 4.27142524719238 4.71292066574097 5.52085161209106 5.87827348709106 5.58315753936768 5.23627710342407 5.61680603027344 6.0626335144043 6.19417476654053 5.77474975585938 6.34578323364258 6.68589544296265 6.65042066574097 4.99978494644165 3.91882801055908 16.0360069274902 20.4151973724365 22.27414894104 30.9358940124512 25.5144958496094 13.9984664916992 10.0677213668823 10.6690168380737 12.6447629928589 12.1237154006958 4.61965608596802 17.3278789520264 18.6511116027832 20.6547870635986 12.9838447570801 1.0893691778183 1.60494768619537 3.00953722000122 4.17409610748291 3.22942423820496 3.9581196308136 4.50232887268066 5.33027505874634 5.25196647644043 8.29416656494141 5.68358421325684 4.30210256576538 4.2495288848877 5.55039834976196 5.01769971847534 6.07487964630127 20.6993846893311 10.0120534896851 3.30773830413818 9.18169498443604 2.55432105064392 2.75560545921326 2.98557925224304 2.57036447525024 6.42114877700806 3.69848442077637 6.31046056747437 7.72511720657349 18.7072277069092 10.7783660888672 18.5958042144775 14.3666954040527 19.9757385253906 7.82481622695923 33.527774810791 16.936882019043 13.7830209732056 2.26606607437134 1.9835330247879 2.401447057724 2.4229462146759 2.29442238807678 2.36051988601685 4.2302713394165 6.40518188476562 4.37452268600464 5.05739545822144 5.00108861923218 5.38969087600708 5.58547878265381 5.8343448638916 6.15228271484375 6.212082862854 6.1832332611084 5.91447019577026 6.45166301727295 6.03475141525269 5.90807390213013 5.90712213516235 6.22239112854004 6.14459085464478 6.92578840255737 7.67905759811401 7.39302110671997 7.22798204421997 7.70003890991211 6.7625298500061 7.38464117050171 8.17588424682617 8.44949054718018 8.01830196380615 8.41807079315186 8.04073619842529 8.60092163085938 10.0663862228394 10.1427402496338 10.0775890350342 10.0618057250977 11.5146484375 9.74275398254395 10.7483320236206 9.04453182220459 10.0998458862305 11.1130933761597 10.8309755325317 13.3323011398315 12.3689413070679 13.0457544326782 12.9909868240356 27.693510055542 3.78197407722473 7.98577880859375 2.43393659591675 1.54603826999664 0.575438439846039 0.335137188434601 1.76571655273438 1.50074970722198 0.705799460411072 2.15629601478577
3.92701029777527 4.02103900909424 4.0550537109375 4.08169555664062 4.73237562179565 4.32384920120239 5.22736501693726 5.09502506256104 6.27333450317383 6.58001470565796 5.79055309295654 5.05247592926025 3.38626432418823 3.14937019348145 3.19947862625122 3.17605090141296 3.65766024589539 3.3098349571228 3.36358332633972 2.88639163970947 7.92735481262207 10.1915512084961 14.4672269821167 21.1664066314697 19.3056087493896 19.4820384979248 10.0760564804077 13.2346134185791 13.6104927062988 17.6451778411865 14.0258932113647 2.55661177635193 5.61086320877075 1.69089043140411 1.42882180213928 3.83473920822144 24.4854698181152 5.3773832321167 12.9293689727783 14.4757423400879 4.64550304412842 4.34131717681885 4.60908031463623 4.81778573989868 4.73898696899414 4.60862350463867 4.38150072097778 4.86539936065674 6.0067777633667 5.69265937805176 5.84923839569092 5.65942907333374 6.38953161239624 6.36388349533081 6.92821884155273 6.37857246398926 7.13365125656128 7.49855327606201 7.47998523712158 5.49361276626587 24.4364051818848 23.2472743988037 28.9602146148682 26.0218868255615 36.581600189209 17.3444881439209 17.1882591247559 13.2092256546021 15.8173027038574 15.799503326416 29.128454208374 28.3708000183105 29.6671257019043 16.9107913970947 1.40940654277802 3.25404977798462 2.3080632686615 5.99624347686768 3.93806290626526 5.27368974685669 4.33374691009521 4.68347263336182 5.16514253616333 5.49421453475952 7.95151710510254 6.93751239776611 4.61321115493774 4.59064149856567 4.77113199234009 12.9188051223755 5.19021415710449 7.07759666442871 4.29369831085205 3.4079258441925 6.49716234207153 2.65723276138306 2.89733028411865 2.78549075126648 2.91610336303711 3.03245210647583 4.10054540634155 4.67797946929932 5.02995872497559 21.489128112793 15.0827512741089 4.0664496421814 3.55276918411255 19.0655002593994 29.607551574707 19.9758548736572 15.976016998291 11.6370372772217 2.85208296775818 2.34241771697998 2.28701567649841 2.67762589454651 2.59692192077637 8.24659729003906 16.2926959991455 7.32200860977173 5.47154521942139 4.63088417053223 5.40246772766113 5.38905096054077 5.80111932754517 5.9746298789978 6.36208820343018 6.55658721923828 6.49563646316528 6.3297004699707 6.77035999298096 6.0105619430542 6.43115234375 6.2871036529541 6.44615697860718 6.26860904693604 6.63396644592285 7.32639217376709 8.13969135284424 7.92099714279175 7.60239124298096 8.34060859680176 7.81978130340576 8.19744682312012 8.80615901947021 9.19306373596191 9.08560085296631 8.76837635040283 8.87888526916504 9.52777290344238 11.1451978683472 11.1890420913696 10.9475135803223 12.1118097305298 10.8576822280884 10.2119197845459 11.6723985671997 10.7093267440796 11.8072443008423 12.3819217681885 17.5526275634766 19.0762329101562 16.9426937103271 16.7861061096191 10.7968740463257 3.80393385887146 10.1066656112671 4.51627969741821 3.762770652771 1.26813089847565 2.37768626213074 2.65861463546753 2.55947041511536 1.02925097942352 1.96225535869598
3.86315321922302 4.24931573867798 4.25415992736816 4.4119553565979 4.99436902999878 4.55907964706421 5.55622577667236 4.83775329589844 6.25843191146851 6.79076957702637 7.10620975494385 6.05096483230591 5.49464559555054 3.49753618240356 3.2414391040802 3.27920770645142 3.74798130989075 3.39799666404724 3.45508790016174 3.12994122505188 2.96553611755371 8.97117805480957 13.6488981246948 25.4605045318604 23.6201152801514 23.574821472168 6.43817043304443 12.7497205734253 16.6604080200195 17.0802612304688 18.9102935791016 3.08226275444031 6.44209098815918 2.38244009017944 4.8928656578064 6.96737957000732 4.8864312171936 7.62994050979614 15.1828651428223 17.1917591094971 6.87437152862549 4.85302352905273 4.48565149307251 4.8530650138855 4.19360113143921 4.86002492904663 4.41322660446167 4.94739055633545 5.86251068115234 6.28657865524292 6.03107213973999 5.71132946014404 6.43527412414551 7.15753698348999 7.19672966003418 7.91054582595825 7.47570991516113 7.98240566253662 8.41042804718018 8.30862617492676 8.57038116455078 12.3932733535767 30.1395320892334 25.8573207855225 55.4440689086914 9.71282577514648 20.1393165588379 15.1726064682007 21.0630226135254 26.4162940979004 42.6859092712402 34.5699348449707 1.9103467464447 1.88739621639252 2.18895626068115 8.28975486755371 4.2230372428894 2.27262187004089 6.80654573440552 5.36878681182861 7.59630441665649 4.61842060089111 4.91036415100098 5.59465980529785 5.65238237380981 20.5286655426025 4.90735864639282 8.60518550872803 4.66479730606079 8.82114791870117 5.02265977859497 5.08600378036499 22.2966213226318 12.762598991394 3.42057633399963 3.2649393081665 3.0500431060791 3.4006679058075 3.16775941848755 3.31776094436646 3.97271633148193 5.95050382614136 12.1111392974854 13.254204750061 3.79422068595886 4.61855411529541 3.750648021698 3.07665538787842 2.6384129524231 3.61426377296448 11.0737171173096 2.39938044548035 2.03154468536377 1.65427827835083 2.41574048995972 2.47198843955994 2.90366840362549 2.68825507164001 3.25033640861511 18.3119773864746 10.7935495376587 5.10738372802734 4.9897575378418 5.81780624389648 5.95118093490601 6.19197797775269 6.39921808242798 6.77452850341797 6.85558891296387 6.80085802078247 6.54811716079712 7.1162166595459 6.3336181640625 6.78503847122192 6.21141815185547 6.78871536254883 6.7836799621582 7.59493923187256 8.52808952331543 8.34516716003418 8.29053020477295 8.21772575378418 8.99309253692627 8.39201545715332 9.38198471069336 9.86631393432617 9.55321788787842 9.94610118865967 9.71065998077393 10.2987337112427 11.8105211257935 11.6773805618286 11.4858283996582 11.3510217666626 13.1715116500854 11.1424932479858 12.3527841567993 10.3888111114502 11.8645238876343 18.3776760101318 24.7573890686035 30.4535865783691 26.3768653869629 27.3781661987305 26.9165496826172 10.6408052444458 13.1344137191772 13.7522563934326 5.41506624221802 4.80775022506714 3.31496405601501 2.21554517745972 3.33346390724182 3.1523163318634 1.27199625968933
5.69687366485596 4.47618722915649 4.59742498397827 4.62506532669067 4.46427154541016 5.47285890579224 4.86596250534058 5.82082653045654 5.76755523681641 7.19353675842285 7.52878856658936 6.68698883056641 6.09499597549438 6.00424337387085 3.31583952903748 3.35731434822083 3.31546759605408 3.83075475692749 3.47337627410889 3.52015352249146 2.91234493255615 3.41426539421082 13.4400463104248 21.7131938934326 36.7459983825684 33.9537010192871 34.2246704101562 15.1709880828857 20.0817337036133 20.5833644866943 37.8158302307129 18.3914184570312 8.75364971160889 6.18541812896729 11.9821519851685 15.2490301132202 4.84516859054565 3.41262292861938 5.72969770431519 22.6198215484619 25.8918209075928 5.00498247146606 4.56461429595947 4.87258911132812 5.06061935424805 4.91184997558594 4.88812589645386 4.58002948760986 5.16255378723145 6.42726039886475 6.16876125335693 6.39111471176147 6.53574228286743 7.22430992126465 8.13912391662598 8.52092742919922 7.58289575576782 8.27706241607666 8.99282646179199 8.90858840942383 23.0239410400391 21.7009258270264 33.2934761047363 49.9669952392578 29.4277572631836 1.11398303508759 26.6346187591553 28.7300910949707 30.722146987915 37.8807067871094 2.61267232894897 1.5145400762558 1.91506004333496 2.65847086906433 2.48181414604187 9.51672267913818 1.72271728515625 7.90888357162476 8.3372220993042 7.24690914154053 8.88973522186279 4.46061372756958 5.01589965820312 5.42400026321411 5.77516603469849 20.7042808532715 4.97419500350952 6.33950185775757 4.73623275756836 5.03336143493652 5.23661756515503 5.65053844451904 9.15281200408936 4.34926843643188 4.01244926452637 4.23705720901489 4.2656683921814 4.00346612930298 3.9656298160553 3.97747397422791 4.586341381073 4.71185159683228 4.94840812683105 5.16899156570435 4.75757503509521 4.99375677108765 4.38248348236084 4.02570056915283 2.82013058662415 3.54229521751404 13.0810308456421 1.95721244812012 2.03727340698242 2.23324704170227 2.53747034072876 2.89324617385864 2.93994832038879 2.99259352684021 14.3252077102661 4.52047157287598 13.7000122070312 10.171781539917 4.99361276626587 5.9969654083252 6.00323677062988 6.41068935394287 6.58193111419678 6.98025131225586 7.14436149597168 7.032395362854 6.87226676940918 6.88243436813354 7.46994733810425 7.02089595794678 6.89295148849487 6.81749629974365 7.14351606369019 7.28728294372559 7.99328851699829 9.07020568847656 8.88938331604004 8.88767147064209 9.49264049530029 8.59228706359863 9.49632167816162 10.1972694396973 10.8351812362671 10.6800031661987 10.559383392334 10.678918838501 11.262188911438 12.8444795608521 12.6998281478882 12.4135665893555 13.9015083312988 12.6532773971558 12.0830535888672 13.6756553649902 15.0847883224487 28.3158016204834 26.933406829834 20.7122745513916 11.766092300415 20.735912322998 16.4718322753906 17.8439960479736 17.2054080963135 17.3082599639893 6.47020816802979 6.06606483459473 5.80238771438599 3.89969921112061 4.22822380065918 3.76942777633667 2.91258001327515
6.74058246612549 4.48249530792236 4.9044713973999 4.84506607055664 5.07018709182739 5.7700514793396 5.04396963119507 5.13578176498413 6.4441385269165 7.16355276107788 7.85485410690308 8.18757820129395 7.30849027633667 6.42856073379517 3.69284629821777 3.40527963638306 3.43187522888184 3.92669534683228 3.56230688095093 3.61228466033936 3.23078846931458 3.01041722297668 11.7005910873413 20.4182319641113 49.0524787902832 45.5207061767578 45.8023948669434 4.82412576675415 22.621000289917 29.7843780517578 30.6455707550049 19.1435222625732 3.33733034133911 11.9811334609985 15.3127679824829 9.16029453277588 1.18841981887817 5.94089794158936 8.753098487854 32.1798248291016 36.4927749633789 12.85533618927 5.20087242126465 4.6937141418457 5.14366340637207 4.3426513671875 5.13873624801636 4.6461935043335 5.04876756668091 5.44386529922485 6.82158231735229 6.60433053970337 6.89998483657837 7.35336208343506 8.78539276123047 8.76918792724609 9.73147678375244 8.49034023284912 9.46652221679688 10.1066389083862 10.6519804000854 10.1114225387573 43.4301490783691 52.9102516174316 10.515588760376 1.00942361354828 1.80285394191742 38.1235313415527 33.2297973632812 2.83000373840332 2.38787007331848 2.84499168395996 5.18072748184204 2.90684771537781 2.75177788734436 3.03459453582764 1.46134960651398 9.30930614471436 6.90601587295532 13.2979278564453 11.7939214706421 13.280499458313 5.20247745513916 5.16532850265503 5.45248413085938 5.84093284606934 5.19055223464966 5.04149675369263 5.13860893249512 4.80918741226196 12.8410654067993 5.24082040786743 20.6165161132812 5.26831817626953 4.86590909957886 5.18824195861816 5.20473384857178 4.75253534317017 4.83179950714111 4.9564790725708 5.76302862167358 8.066819190979 4.87664175033569 4.95863199234009 5.20599889755249 5.65385437011719 6.13161563873291 5.74148368835449 10.0123157501221 10.2923364639282 3.03700065612793 2.12591862678528 2.34750723838806 2.86010193824768 3.19789409637451 2.85367250442505 2.88226866722107 3.15029549598694 10.8796033859253 2.23699593544006 6.08443975448608 24.7548561096191 10.0177917480469 5.58630657196045 6.46516180038452 6.60911273956299 6.80740070343018 6.98545789718628 7.36076593399048 7.42250537872314 7.34632539749146 7.21938753128052 7.72163772583008 6.91023445129395 7.40104913711548 6.79857397079468 7.38263034820557 7.41019916534424 8.27370929718018 8.48307228088379 9.66623401641846 9.49092864990234 9.35474014282227 10.2499704360962 9.54791069030762 10.9184579849243 11.6079387664795 11.4634809494019 11.6425361633301 11.4591197967529 12.0963668823242 13.6959362030029 13.415581703186 13.2738742828369 12.8597202301025 15.293004989624 18.5828056335449 13.3518514633179 14.7489938735962 12.7013721466064 12.0220327377319 9.91407203674316 9.99122142791748 11.061092376709 10.7250185012817 8.85733413696289 26.4070091247559 25.4731388092041 26.7397632598877 7.7057991027832 7.99211359024048 4.05291128158569 5.06004047393799 5.19338417053223 4.41190099716187
7.28327798843384 8.90909194946289 5.12054014205933 5.25546884536743 5.30117559432983 4.90454626083374 6.40665245056152 5.35647916793823 6.94356393814087 5.97822284698486 7.81588172912598 8.61367034912109 8.93702411651611 7.56914234161377 7.12127637863159 3.47959661483765 3.50711965560913 3.46055793762207 4.03326463699341 3.64222502708435 3.6778872013092 3.26219820976257 3.8574013710022 20.1170616149902 42.7420959472656 10.491720199585 4.00397205352783 1.20429039001465 31.8870315551758 41.3980178833008 42.4520492553711 38.704288482666 0.27053102850914 17.1432666778564 9.63888359069824 7.41287326812744 -0.361284554004669 2.3878972530365 4.13379859924316 6.29381656646729 5.11281538009644 5.66186046600342 9.37821102142334 4.86622142791748 5.3578724861145 5.50428628921509 4.57387113571167 5.43258666992188 4.90413188934326 5.63168096542358 6.78950119018555 7.33943891525269 7.20950841903687 7.60403919219971 8.77071762084961 9.98982334136963 10.506498336792 9.10888862609863 9.7665548324585 10.866005897522 10.662166595459 15.7497291564941 42.9534873962402 37.1694374084473 0.889268815517426 1.08267509937286 2.16122794151306 2.18667078018188 2.42304420471191 2.67961001396179 3.56633687019348 3.58705067634583 3.44452905654907 7.07604217529297 12.9365921020508 2.98706889152527 2.86043310165405 5.80994129180908 13.1873531341553 20.8282699584961 10.8565320968628 9.10655403137207 4.67165756225586 5.38234901428223 5.52017688751221 5.90514612197876 6.55758619308472 5.34656095504761 5.33350849151611 7.16717720031738 5.02599477767944 5.38273429870605 6.77048873901367 5.70544815063477 13.1153125762939 5.52085494995117 5.63456773757935 5.43629693984985 5.12000417709351 5.74356889724731 5.68256568908691 4.87232685089111 4.94017648696899 5.48422145843506 6.74572515487671 6.10006284713745 6.19071006774902 6.41072988510132 6.06459283828735 4.59159708023071 3.24456572532654 3.38027048110962 2.8551721572876 3.66101813316345 3.8024959564209 3.70049142837524 3.46960592269897 3.4455509185791 3.40730834007263 3.01341199874878 11.725772857666 19.1918506622314 24.1100540161133 5.75831460952759 6.70588541030884 6.72664833068848 7.07757997512817 7.15890502929688 7.53848695755005 7.71132755279541 7.79313945770264 7.71121644973755 7.48552513122559 8.13103485107422 7.66529226303101 7.56186628341675 7.43434906005859 7.76966238021851 7.99575328826904 8.73827075958252 10.1149663925171 9.93521022796631 9.99997329711914 10.7529458999634 9.93397808074951 10.9870128631592 12.0127019882202 12.7630414962769 12.7228937149048 12.458722114563 12.6406421661377 13.3422708511353 15.1011543273926 14.7891445159912 14.7726564407349 14.9887294769287 16.9287528991699 12.3528337478638 14.5183305740356 12.1092948913574 12.2954206466675 13.8069829940796 12.7003231048584 13.0745630264282 14.6489534378052 13.9470710754395 13.8864107131958 14.7800464630127 38.8310508728027 13.2507953643799 10.3498458862305 9.55318069458008 6.50420331954956 4.86236524581909 6.53617382049561
20.2918643951416 11.0502805709839 5.10913991928101 5.53563213348389 5.48971939086914 5.8613429069519 5.67189836502075 7.17371845245361 5.78885889053345 7.83601379394531 7.48081970214844 9.23471450805664 9.59878063201904 8.69893550872803 7.69084501266479 3.86893391609192 3.56185412406921 3.58936047554016 3.68493342399597 4.13887453079224 3.72500228881836 3.75976490974426 3.09598565101624 17.2636814117432 41.2585105895996 11.3569068908691 0.637022733688354 1.22695183753967 5.32936811447144 1.38304579257965 0.836136937141418 12.4772729873657 11.7872314453125 1.23828101158142 6.90950727462769 6.16629600524902 -0.00107855931855738 0.0549978278577328 12.1767616271973 10.8407802581787 6.91149282455444 15.6103429794312 17.853178024292 5.69130945205688 5.08655309677124 5.83027839660645 4.86215019226074 5.61640167236328 6.01648950576782 5.26284456253052 6.08885478973389 7.58805274963379 7.48262739181519 7.91423511505127 8.81650447845459 10.8360652923584 10.7407207489014 12.2637662887573 10.5311861038208 11.3600940704346 12.38112449646 22.6110782623291 36.8030166625977 7.95886087417603 0.473587214946747 0.966719388961792 1.91970992088318 2.59584021568298 3.68406105041504 3.44898080825806 3.48301267623901 4.08502340316772 3.70257759094238 13.2897033691406 4.02154064178467 2.79708862304688 3.37821292877197 5.81987810134888 21.7991275787354 10.9715557098389 3.61624073982239 7.13980484008789 4.42131233215332 5.24931526184082 5.39266872406006 5.74837779998779 6.14680337905884 5.85102510452271 5.49876356124878 5.38760995864868 5.14690494537354 5.80404043197632 5.88071823120117 5.9840407371521 5.55160331726074 5.29798984527588 5.88337182998657 5.85290908813477 5.65175104141235 6.14203596115112 6.09301137924194 5.37394380569458 5.81167602539062 6.23760509490967 7.0471978187561 7.64222002029419 16.5088043212891 10.9009876251221 6.08389472961426 5.22538948059082 3.73337054252625 4.03537034988403 6.64948415756226 11.4715261459351 4.4152250289917 12.0605688095093 8.34555721282959 3.68752455711365 3.77359485626221 3.40038514137268 3.7552387714386 3.12149095535278 3.42379665374756 23.7833652496338 6.31363391876221 7.18210458755493 7.29227256774902 7.38882493972778 7.52091550827026 7.89289331436157 8.09270286560059 7.98099613189697 7.84268474578857 8.41844272613525 7.56965351104736 8.0984935760498 7.46976804733276 8.03470230102539 8.13126754760742 9.08323287963867 9.09610939025879 10.8593740463257 10.65380859375 10.6368446350098 11.646484375 10.893759727478 12.3745861053467 13.4306039810181 14.0869083404541 15.7311563491821 13.7922496795654 14.5045175552368 15.2907562255859 16.795618057251 16.4976825714111 18.2735462188721 22.2709827423096 20.4114513397217 14.6585378646851 16.7623996734619 26.1329288482666 14.4149532318115 11.875636100769 13.8356161117554 16.9917488098145 16.4219493865967 22.0019874572754 22.7231121063232 4.53524112701416 3.81874585151672 15.2309999465942 16.3214149475098 6.90966129302979 8.7595043182373 8.25151252746582
30.4394950866699 11.9194917678833 17.6485538482666 5.80030012130737 6.15692901611328 6.01355504989624 6.56640911102295 7.62764072418213 6.50733757019043 8.55877113342285 7.20191383361816 9.18560409545898 10.2717790603638 10.6277389526367 8.89973068237305 8.69113254547119 4.00678491592407 3.67520594596863 3.69975399971008 4.28261756896973 3.87830400466919 3.88461375236511 3.3683180809021 3.38088297843933 40.9997482299805 15.4039821624756 0.98802661895752 0.5763338804245 1.96815860271454 12.4310321807861 2.94603109359741 1.98622524738312 0.652108013629913 0.415432959794998 13.7447357177734 13.8204555511475 0.165754333138466 6.18424844741821 17.6438903808594 4.04814529418945 12.8405866622925 14.8605279922485 21.7891311645508 13.7037591934204 5.49934720993042 5.42737531661987 6.44446325302124 5.06124401092529 6.36856460571289 5.52909994125366 6.33009052276611 7.64289617538452 8.2675666809082 8.16823863983154 9.3817081451416 10.7615919113159 12.586784362793 12.4031457901001 14.3726196289062 12.2806186676025 12.879843711853 14.1701574325562 14.1605463027954 3.19182205200195 2.01488375663757 1.37785279750824 2.97266626358032 4.60665512084961 4.86638212203979 5.30189037322998 18.1338844299316 4.14221572875977 4.43610525131226 8.8283863067627 2.77143836021423 5.05115509033203 4.21937894821167 3.90046691894531 14.1559743881226 2.74214696884155 3.52538800239563 4.14470529556274 4.50125646591187 4.71120166778564 5.66183662414551 5.57589817047119 6.23279857635498 6.32885646820068 5.8674521446228 5.65525913238525 5.86881494522095 7.24598550796509 5.69294309616089 6.70479345321655 6.70037412643433 6.50528907775879 6.30909490585327 6.45972585678101 5.96976375579834 6.05990171432495 6.80127382278442 6.60562753677368 6.579909324646 7.07939147949219 18.8554382324219 15.6397647857666 24.1030292510986 7.14464092254639 7.11970281600952 5.99025917053223 6.55289030075073 11.8096284866333 4.24137020111084 4.32083892822266 4.13501739501953 4.04342699050903 3.7721004486084 3.71905922889709 3.7911388874054 7.17573165893555 4.15278291702271 4.85713243484497 6.98333120346069 3.68997192382812 7.01224136352539 7.42152500152588 7.2956690788269 7.71686172485352 7.73152780532837 7.9017071723938 8.35607624053955 8.47204399108887 8.37533187866211 8.19474220275879 8.89062118530273 8.41059017181396 8.34242630004883 8.16381454467773 8.49225902557373 8.62443161010742 9.62882709503174 11.3848266601562 11.1768836975098 11.3664512634277 12.2877283096313 10.920108795166 13.0615091323853 14.2222146987915 16.8571815490723 19.2602615356445 14.925500869751 17.7099208831787 18.6380748748779 17.9590854644775 17.5713958740234 17.7792358398438 31.3861351013184 24.1774654388428 15.2192182540894 17.2277393341064 14.8422327041626 12.7582149505615 17.3669681549072 16.6358108520508 19.8206958770752 20.7196044921875 23.0763626098633 19.3940563201904 9.79577827453613 7.11504077911377 5.21628904342651 24.9324722290039 19.1070823669434 11.2751541137695 8.26801013946533
30.2354831695557 2.46063375473022 27.3426494598389 5.92197322845459 6.5517315864563 6.73511409759521 6.97656965255737 6.21413660049438 8.73645877838135 6.58252954483032 9.89597797393799 9.08964252471924 11.1738243103027 11.5547828674316 10.6935157775879 10.4263277053833 10.4051065444946 3.8112428188324 3.83517074584961 3.77451276779175 4.40798091888428 3.94777607917786 3.95379972457886 3.20215845108032 36.8231239318848 7.13370132446289 0.583578586578369 1.30767524242401 1.81733644008636 7.36877393722534 18.2328491210938 30.4749641418457 1.99552440643311 4.45508193969727 11.071629524231 -0.628856778144836 -0.0482291951775551 2.66373419761658 -0.485736429691315 1.1313533782959 14.5347719192505 7.96659088134766 24.1066074371338 32.1372489929199 6.42575407028198 6.08919143676758 6.85669040679932 6.93438386917114 6.22784471511841 7.20305824279785 5.92358350753784 6.94609260559082 8.6204252243042 8.52515506744385 9.64766407012939 10.7584066390991 12.300609588623 14.7012100219727 16.0606136322021 13.6775302886963 13.4460592269897 15.6201333999634 14.7407569885254 6.24549198150635 8.43435192108154 2.7545862197876 2.9181694984436 4.88745737075806 5.45015144348145 5.96895933151245 26.1169300079346 4.55844354629517 5.42947006225586 14.8678283691406 4.12105989456177 5.24521207809448 5.64110517501831 3.71835446357727 11.6851282119751 3.13280153274536 3.40398502349854 4.74033689498901 4.89636468887329 5.20800876617432 5.23227548599243 5.79521608352661 6.07186365127563 6.50084447860718 6.55190515518188 6.08343648910522 6.05637693405151 6.15365505218506 6.75864744186401 10.2839412689209 6.98058748245239 6.73896217346191 7.17599821090698 6.68870306015015 7.08480834960938 6.9631519317627 7.03638124465942 6.75136709213257 8.22605895996094 18.6912364959717 14.8104133605957 8.44677543640137 8.03861045837402 7.5367488861084 8.68112277984619 7.25461626052856 6.39409112930298 4.34349346160889 4.24588537216187 4.49353218078613 4.24722957611084 5.64216804504395 4.14588832855225 3.80882596969604 3.78061175346375 4.43455839157104 3.98626804351807 5.1450572013855 4.07850027084351 4.44562244415283 4.70756483078003 7.33985280990601 7.9106183052063 7.89949512481689 8.1139669418335 8.13110637664795 8.54816055297852 8.79581546783447 8.72955131530762 8.57983875274658 9.21929931640625 8.35387325286865 8.93531227111816 8.8703498840332 8.79161930084229 8.56264591217041 9.42536735534668 10.2319364547729 12.2823429107666 12.047155380249 12.2650308609009 13.4037485122681 12.8493757247925 15.0247774124146 16.3824691772461 27.0862197875977 29.0565299987793 20.9748458862305 26.9569873809814 28.338415145874 20.1111125946045 19.7381649017334 39.4334411621094 16.9790744781494 15.628758430481 15.9629459381104 17.2678050994873 18.04225730896 18.8130073547363 20.3908538818359 27.5509967803955 41.7654838562012 32.0728378295898 28.9964904785156 21.4395866394043 21.5699062347412 14.2806730270386 6.70949554443359 4.8515510559082 13.6868715286255 17.6840515136719
27.505090713501 2.48366689682007 29.7573776245117 3.68177247047424 6.66718578338623 7.46976566314697 7.38384962081909 7.9181432723999 9.36019134521484 7.91491270065308 8.25149631500244 11.6175403594971 11.1166582107544 12.7563028335571 13.2106552124023 12.7151260375977 11.9507894515991 4.3415379524231 3.94539785385132 3.92870354652405 4.55324602127075 4.10381031036377 4.12683868408203 3.51734471321106 3.25257158279419 1.59987843036652 0.846285581588745 0.962850630283356 2.9047679901123 3.22807145118713 26.495813369751 3.05459856987 1.42357313632965 5.5454249382019 9.50758457183838 0.261251628398895 0.893672049045563 2.09203386306763 5.44210815429688 1.74994945526123 15.7349548339844 18.0772686004639 22.1505661010742 44.5256385803223 25.4144515991211 7.19491100311279 6.48130226135254 7.63196468353271 5.93653297424316 7.73476648330688 6.40157890319824 7.27462148666382 8.8005428314209 9.35748767852783 11.2536687850952 10.9030246734619 12.4601850509644 16.330114364624 16.0321788787842 19.7535381317139 16.3909072875977 16.0392799377441 18.2597923278809 16.3157424926758 8.48881053924561 2.74353837966919 4.0281834602356 5.37943363189697 5.97837543487549 6.52870845794678 20.1020317077637 3.59799408912659 6.92675685882568 15.316725730896 6.0528826713562 5.99985074996948 6.1097993850708 5.06000375747681 4.97527694702148 4.85906791687012 3.79978132247925 4.72139406204224 5.15857219696045 5.11498355865479 5.47200107574463 5.92298746109009 5.89536094665527 6.26133966445923 6.72016429901123 6.71879911422729 6.79330253601074 7.09718322753906 7.27968072891235 9.89645099639893 7.71220541000366 8.15290355682373 9.16961479187012 7.70870637893677 7.72814655303955 7.52839231491089 7.60320901870728 8.73186683654785 8.53681659698486 16.2670345306396 13.8815078735352 8.56489276885986 19.019359588623 19.5065021514893 10.2453870773315 16.2521686553955 6.57076358795166 4.43424558639526 4.39783000946045 4.71036958694458 4.2998423576355 4.81870174407959 6.96996593475342 5.2148494720459 5.06630182266235 5.04245471954346 4.80868864059448 5.12965202331543 4.14410781860352 3.85244560241699 4.50419759750366 13.6045722961426 9.871750831604 8.33887672424316 8.37471199035645 8.41541004180908 8.61648845672607 9.09836006164551 9.26047134399414 9.15605068206787 9.03613567352295 9.78080654144287 8.86503028869629 9.48404598236084 8.78734683990479 9.30837059020996 9.55352878570557 10.6910953521729 12.9134826660156 12.6655569076538 13.0219526290894 13.4000120162964 14.6336679458618 15.0418395996094 17.6005630493164 36.8847885131836 20.667387008667 30.5303173065186 38.3518333435059 40.1963958740234 21.759708404541 21.3848571777344 22.3273124694824 13.8869657516479 17.3909530639648 18.273717880249 19.9845237731934 22.8534278869629 29.2087821960449 27.7852611541748 27.7224235534668 23.0876770019531 22.3100490570068 22.2500629425049 19.2080497741699 6.32742214202881 18.8735847473145 6.6545934677124 11.1876020431519 2.53783655166626 26.3581275939941
4.60774374008179 2.80691003799438 11.707688331604 3.72182536125183 7.21238994598389 8.15012741088867 8.14627265930176 8.67043304443359 7.74053144454956 10.9801073074341 9.28148746490479 13.3135166168213 10.5174112319946 12.714747428894 15.025444984436 15.6725835800171 15.4767999649048 15.1970996856689 4.03146743774414 4.03885698318481 3.98993468284607 4.71640777587891 4.21831321716309 4.21724414825439 3.26508474349976 6.77401208877563 4.77225351333618 3.32509899139404 3.04693675041199 3.25351047515869 15.7013816833496 1.80430126190186 2.96283054351807 3.151771068573 5.60864162445068 7.46839666366577 2.29178595542908 0.772698760032654 0.871508836746216 0.256684333086014 19.0723838806152 21.0768184661865 8.34526252746582 45.0163955688477 1.69408226013184 7.53363752365112 7.13305044174194 8.11384773254395 8.25380229949951 7.09484338760376 9.14286327362061 7.13739490509033 8.1786937713623 9.68095397949219 9.50618076324463 16.2343063354492 13.682731628418 15.7937278747559 20.033239364624 22.5931797027588 18.5680694580078 17.3517265319824 21.0099334716797 19.7937622070312 17.7389907836914 9.21613025665283 3.14809656143188 7.46575403213501 8.41382312774658 8.04376125335693 10.4635457992554 4.54756927490234 9.16381072998047 13.9209003448486 4.15392446517944 7.84111881256104 6.75913763046265 7.09603834152222 6.01504182815552 5.53735685348511 4.0196590423584 4.38948726654053 5.25390338897705 5.22170209884644 5.6012167930603 5.54721975326538 6.13358640670776 6.3329930305481 6.87061977386475 6.93847227096558 7.01563453674316 7.02509832382202 7.41316223144531 7.87898778915405 7.32535362243652 7.68389797210693 8.00586318969727 8.04290008544922 8.22348308563232 8.67496204376221 8.50643634796143 8.697678565979 9.11656856536865 8.87777137756348 8.20389461517334 7.85468006134033 8.97397994995117 8.27261066436768 8.21327495574951 7.78954935073853 6.89908885955811 6.83417749404907 4.6172924041748 4.71605777740479 5.34404516220093 5.02293968200684 6.11057138442993 5.10521030426025 5.17886257171631 5.32531785964966 5.39160633087158 5.29604339599609 5.39259147644043 5.13044357299805 4.53058290481567 5.20431327819824 12.2336683273315 10.913911819458 8.87204170227051 8.82074165344238 8.90479469299316 9.29737281799316 9.60001373291016 9.60867977142334 9.43777847290039 9.58359527587891 10.3756494522095 9.86476612091064 9.89508438110352 9.55420303344727 9.87433815002441 10.5347423553467 11.6556224822998 14.040018081665 13.7085151672363 14.1687774658203 15.4385471343994 15.2222766876221 19.6378879547119 30.9787979125977 14.2933568954468 13.1642322540283 15.2581567764282 13.7455883026123 14.5883464813232 24.8404216766357 27.4118328094482 23.6878395080566 23.7482490539551 25.1225357055664 24.5041255950928 21.0417785644531 19.958833694458 21.1380424499512 24.0709075927734 21.3965663909912 21.3612155914307 20.4943962097168 8.17347812652588 3.29606890678406 5.02067756652832 8.05542373657227 23.1950531005859 4.18545866012573 6.20290088653564
4.09497976303101 6.16904592514038 2.7466561794281 11.3086595535278 10.2929000854492 8.39091491699219 9.57484149932861 8.86874771118164 10.5554370880127 9.59277820587158 13.0688734054565 9.92539119720459 16.7663917541504 13.9786834716797 17.2754669189453 17.9807052612305 18.818717956543 18.2045440673828 4.56527900695801 4.14994287490845 4.18604516983032 4.88675975799561 4.38870573043823 4.42321920394897 3.68757820129395 3.53121948242188 7.70697736740112 5.82951164245605 3.57568120956421 3.3668429851532 3.5138053894043 2.58994722366333 3.48746156692505 3.1568295955658 18.7879257202148 2.7333197593689 1.5645444393158 1.24530601501465 2.4448139667511 1.80861937999725 4.58037757873535 26.3386821746826 26.8965225219727 38.4367904663086 0.891592860221863 3.09715223312378 8.31282901763916 7.57699489593506 9.4605884552002 7.47683763504028 7.7519211769104 10.5525951385498 7.56829881668091 8.88029098510742 10.3162870407104 22.5840854644775 13.8466234207153 16.717098236084 22.6608142852783 22.0303344726562 32.133918762207 26.7268447875977 23.0058460235596 30.2800426483154 29.5255641937256 19.4360656738281 9.73025226593018 10.8260450363159 11.5143899917603 13.4875288009644 13.4328918457031 11.4932165145874 11.7145719528198 13.4879322052002 7.76698398590088 6.18136787414551 9.17905712127686 7.68617582321167 8.48560619354248 7.98672151565552 6.9701099395752 4.90833282470703 5.18940925598145 5.43378496170044 5.40329885482788 5.79278326034546 6.26564502716064 6.23724508285522 6.64999675750732 7.1463942527771 7.19406223297119 7.26452732086182 7.71426105499268 7.82294845581055 8.14168071746826 8.02268123626709 7.62146139144897 15.2595415115356 19.207426071167 11.1728839874268 8.95295238494873 9.0819787979126 9.62032222747803 9.57736015319824 9.2349681854248 9.56140327453613 9.08547782897949 9.6441650390625 9.11552047729492 8.40037250518799 8.52035140991211 8.10935688018799 7.88702774047852 5.18728733062744 5.7166895866394 5.79938507080078 6.38208723068237 6.88762378692627 6.55005788803101 5.96583700180054 6.42991542816162 6.45896291732788 5.31403398513794 6.10290718078613 5.32743740081787 5.62156391143799 9.69711780548096 19.3622360229492 10.5377521514893 10.0721664428711 9.22360038757324 9.4338846206665 9.9469575881958 10.1757459640503 10.2010269165039 10.0014352798462 10.7952423095703 9.85609436035156 10.5358047485352 9.81258583068848 10.2565536499023 11.1674528121948 11.8223390579224 12.6478872299194 15.2023162841797 14.9059143066406 15.5115566253662 16.9136505126953 17.1430912017822 24.1512432098389 17.6044101715088 15.6678905487061 15.4433946609497 23.9830627441406 16.9997653961182 21.1899433135986 25.8793125152588 23.6834754943848 27.8535041809082 27.0139636993408 23.0801239013672 22.7659549713135 24.3959312438965 21.3883686065674 22.9068584442139 26.3642444610596 22.5828838348389 19.3147392272949 12.2994356155396 1.29952621459961 9.17976665496826 5.34874439239502 10.850152015686 4.80426931381226 4.24535369873047
3.33085012435913 9.55624961853027 5.86866569519043 16.5123958587646 20.4648571014404 9.41236782073975 9.85251522064209 11.6338901519775 12.1540985107422 12.5702896118164 14.7222938537598 13.1271457672119 20.6213417053223 15.4288768768311 17.8838577270508 21.7591037750244 22.3770523071289 27.7049465179443 27.0734024047852 4.29194736480713 4.3288311958313 4.26604843139648 5.08854627609253 4.5539813041687 4.55826997756958 3.74739384651184 14.0690231323242 10.0864343643188 3.87160491943359 3.92242622375488 3.75849223136902 3.94400238990784 3.95616483688354 3.08410286903381 3.51061177253723 2.89106106758118 20.1418228149414 2.40572285652161 2.20415925979614 2.42746376991272 3.39356160163879 38.693603515625 38.9744071960449 9.36392021179199 1.33791816234589 7.22380638122559 8.72491073608398 8.63427925109863 8.79190349578857 11.2331218719482 8.36917877197266 10.7131376266479 7.71753549575806 9.20450401306152 10.7996768951416 11.1991052627563 8.48236274719238 18.7805786132812 21.2467861175537 32.0887870788574 43.1042900085449 36.8303146362305 33.8204078674316 43.0732421875 42.0180206298828 11.8112745285034 5.84586477279663 13.8096084594727 13.8247900009155 23.0483703613281 17.3078136444092 14.9315385818481 11.6646022796631 16.4154491424561 18.1229972839355 11.6746826171875 10.7487525939941 10.1329498291016 9.73740005493164 11.0567102432251 12.6181859970093 10.9931507110596 5.11007833480835 5.35619974136353 5.61928749084473 5.91775035858154 5.85893774032593 6.4985990524292 6.46436595916748 7.32130336761475 7.389723777771 7.46534442901611 7.68628120422363 8.12220478057861 8.17075538635254 8.5122594833374 9.06261253356934 8.24432563781738 8.12563228607178 8.43052196502686 9.05198669433594 9.12965488433838 9.69657897949219 9.70739269256592 10.4465188980103 10.4353322982788 10.3655366897583 10.4466743469238 10.6734466552734 9.94376277923584 10.3982839584351 10.1789741516113 9.78634452819824 7.10034227371216 6.28157186508179 6.62597227096558 6.45884656906128 7.87770795822144 7.61385822296143 7.51474809646606 7.37571239471436 7.63064050674438 13.1184158325195 19.4470634460449 21.8791923522949 14.6006832122803 12.7689714431763 11.4750032424927 20.2847576141357 11.538950920105 9.80016040802002 9.78969478607178 10.1544761657715 10.5261249542236 10.7936401367188 10.6356620788574 10.6181087493896 11.4732475280762 10.9394102096558 11.0321569442749 10.5713768005371 10.8424787521362 12.5495653152466 13.3153066635132 15.9924278259277 15.5311832427979 16.4552059173584 17.8785362243652 16.4675312042236 27.7876949310303 29.299654006958 32.4683380126953 27.8657684326172 24.7662220001221 15.3827791213989 18.7316246032715 25.6835842132568 28.0091667175293 28.479850769043 24.9165019989014 26.785831451416 25.5573539733887 28.6509456634521 23.1493301391602 24.6932754516602 24.8119869232178 20.4964141845703 23.5734615325928 18.0856266021729 1.97658431529999 2.50328493118286 6.54406976699829 9.4706974029541 6.9171929359436 14.2429542541504
4.28325748443604 5.0013279914856 5.07867622375488 7.41832160949707 4.98543500900269 6.12872743606567 11.3857908248901 13.587664604187 13.1371440887451 16.0597496032715 13.6860704421997 18.4376621246338 15.3585271835327 30.9491596221924 21.7374305725098 26.3824443817139 27.2666320800781 39.9895095825195 39.1488800048828 4.92081689834595 4.48042488098145 4.51296091079712 4.58071899414062 5.3297061920166 4.7334623336792 4.71417570114136 3.59974098205566 3.41838908195496 3.50559496879578 4.34847831726074 4.12192869186401 4.17752647399902 4.32732200622559 4.16057634353638 3.52267217636108 3.76280808448792 3.14454102516174 2.42415452003479 3.23142147064209 4.50039958953857 4.11304616928101 5.1043381690979 2.36377716064453 1.31823658943176 11.7535161972046 8.77709293365479 8.18017578125 10.0960187911987 10.2759504318237 12.5061321258545 11.6879358291626 8.22208881378174 13.7990703582764 9.28066158294678 9.39531517028809 13.366286277771 16.3795680999756 18.7086811065674 27.1439571380615 43.8798904418945 43.1300354003906 3.39425754547119 8.63781070709229 19.4533233642578 3.34623980522156 3.23537945747375 7.23759508132935 25.6724758148193 25.3433647155762 34.5716133117676 7.89821147918701 18.208890914917 14.3498306274414 16.0553512573242 34.6344223022461 26.3593311309814 12.6173162460327 16.1030082702637 14.8332080841064 16.7260322570801 20.3335494995117 15.5530862808228 5.06567096710205 5.12146329879761 5.73230838775635 5.6988959312439 6.13669443130493 6.0735387802124 6.73563098907471 7.08462429046631 7.6278223991394 7.69845104217529 7.9809775352478 8.08556175231934 8.54754066467285 8.91304206848145 9.26582908630371 9.35170459747314 10.3490285873413 9.87376117706299 10.386697769165 8.97801113128662 9.49686717987061 12.0926246643066 13.757513999939 13.5053834915161 11.7958641052246 10.8247919082642 12.3112707138062 12.8780164718628 16.1479187011719 18.312557220459 17.1418933868408 10.0732116699219 6.75641489028931 6.75345420837402 6.98523902893066 6.86520004272461 8.41554737091064 7.98942613601685 8.07733631134033 9.43091297149658 18.1354351043701 16.3834667205811 7.57230567932129 5.97092580795288 5.59241533279419 6.26095104217529 7.78099203109741 15.3463172912598 13.1277542114258 10.0463390350342 10.3605699539185 10.7189626693726 11.210657119751 11.2881412506104 11.0344390869141 11.8965835571289 10.881046295166 11.5890254974365 10.8031854629517 11.1749677658081 11.6591081619263 14.1615867614746 14.4231834411621 17.5515613555908 17.1777477264404 23.7879428863525 19.8795528411865 21.1706485748291 32.2691383361816 38.1828536987305 20.2607192993164 16.1980247497559 18.502254486084 24.979642868042 27.1902103424072 30.8683643341064 29.5983467102051 28.5026302337646 27.676887512207 25.6782455444336 23.2632713317871 26.5353412628174 22.9451751708984 24.2076930999756 9.09904098510742 -0.221710696816444 -1.52712070941925 -2.03808188438416 1.03998219966888 4.65538358688354 13.4671449661255 17.7296257019043 13.6774816513062
4.34138917922974 4.98507308959961 6.98930978775024 7.14625310897827 9.733323097229 11.5018901824951 13.9319257736206 14.3970890045166 18.1305980682373 19.2511882781982 17.6499729156494 22.4726543426514 24.2472152709961 43.0929336547852 27.9766445159912 32.2263259887695 38.311466217041 46.0413360595703 8.99254417419434 2.83003211021423 5.16593790054321 4.70576906204224 4.72937870025635 5.57392930984497 4.98483943939209 5.02281475067139 4.05927610397339 4.13553190231323 4.733482837677 4.76964807510376 4.80725574493408 4.57033443450928 4.5376148223877 4.56344556808472 4.32440233230591 3.91896748542786 4.20764017105103 3.63712525367737 3.23667645454407 4.77928972244263 4.41769456863403 4.34276390075684 4.96284770965576 2.60119128227234 15.2337102890015 16.2737407684326 11.340991973877 8.56954765319824 12.1148824691772 11.6571493148804 15.4568214416504 10.9694719314575 16.2818279266357 9.31258010864258 11.7726783752441 15.6438226699829 13.8270444869995 23.7200412750244 37.7567138671875 42.8285865783691 2.91179132461548 2.98420906066895 9.18053150177002 10.716272354126 3.20094609260559 5.14691066741943 3.57627463340759 38.1763725280762 38.0207099914551 37.5385665893555 5.79870843887329 15.5757141113281 10.731183052063 5.03155565261841 3.74532794952393 6.09914016723633 21.9047870635986 11.9458961486816 12.5381231307983 11.0505695343018 7.1645359992981 4.43962049484253 4.81269550323486 5.35746288299561 5.66299343109131 5.93402004241943 5.89542484283447 6.34956312179565 7.03664922714233 6.96853256225586 7.82772302627563 7.89775896072388 7.84747886657715 8.37985897064209 8.81045627593994 8.9593677520752 9.34271335601807 9.76620006561279 10.6459827423096 10.1496429443359 10.1487503051758 10.9485349655151 9.86918926239014 9.7056303024292 10.4435634613037 11.3578748703003 11.8980283737183 12.3937578201294 15.8876762390137 22.7217235565186 25.8622131347656 29.5565662384033 28.9924583435059 16.7145137786865 7.95978403091431 7.07535839080811 7.12773752212524 6.81347608566284 8.74081611633301 11.6848316192627 8.28895854949951 8.51554012298584 7.6513032913208 7.0116753578186 6.54876518249512 6.11468029022217 5.56978321075439 5.87312269210815 7.3540096282959 11.5341367721558 16.1569061279297 14.6504640579224 10.739275932312 10.9592590332031 11.5083961486816 11.8335695266724 11.5990295410156 11.6849269866943 12.6249084472656 12.016749382019 12.1650161743164 11.4930391311646 11.7144079208374 15.4011077880859 15.1812763214111 18.4378833770752 24.5046043395996 25.0680179595947 16.8511009216309 20.1733798980713 43.8708305358887 23.0197696685791 22.0345935821533 26.6461963653564 20.9792957305908 20.4000110626221 21.8661327362061 27.7796154022217 25.155424118042 26.9517478942871 23.5103721618652 29.6078701019287 13.0611953735352 22.3783226013184 11.3179416656494 -0.155704826116562 -0.929974794387817 9.48015785217285 9.5813102722168 4.03720998764038 0.938086032867432 11.6849708557129 10.2636260986328 19.6496448516846 8.09214401245117
3.60803747177124 4.77289819717407 5.79837799072266 8.5283899307251 9.13344478607178 11.4973659515381 16.0738182067871 17.6588077545166 21.5229454040527 19.4493618011475 28.9315071105957 25.1733245849609 35.2211875915527 34.2586326599121 3.1103048324585 44.8298988342285 51.3048973083496 52.4272232055664 3.40929555892944 10.051381111145 5.41457319259644 4.92355918884277 4.94371843338013 4.85753583908081 5.87832450866699 5.26647186279297 5.32517862319946 4.14014148712158 5.00023460388184 5.214759349823 5.19000959396362 4.90648698806763 4.78418874740601 4.92169380187988 4.77255916595459 3.89202094078064 4.16119623184204 4.64390850067139 3.15717124938965 3.42995834350586 5.19069528579712 4.83248090744019 4.44781684875488 7.59705400466919 20.4023246765137 21.4316215515137 13.7370338439941 10.8025131225586 13.5812644958496 14.6082038879395 18.60471534729 16.5169639587402 10.0769634246826 24.968620300293 13.8987369537354 16.7923984527588 23.3381958007812 34.757869720459 39.1296691894531 9.61705780029297 3.29825139045715 3.07580089569092 3.51391768455505 3.71352028846741 3.11765694618225 11.8998374938965 3.40552067756653 3.64824414253235 4.35660457611084 5.11656856536865 6.64244556427002 11.008584022522 7.76265144348145 6.04190397262573 5.66649103164673 13.5298194885254 3.47725176811218 3.34449768066406 11.0318174362183 7.72443199157715 13.9702196121216 4.49560832977295 4.72961521148682 5.55044031143188 5.55263757705688 6.06099510192871 6.0219988822937 6.57832860946655 6.61236667633057 7.31025552749634 7.75540208816528 8.27258110046387 8.32923221588135 8.59514999389648 8.76579856872559 9.28423309326172 9.77516269683838 10.2330055236816 10.1693992614746 11.6991186141968 10.9653167724609 11.2939214706421 11.081955909729 10.2351713180542 11.4799709320068 12.0385208129883 13.6130495071411 14.6654796600342 12.8674821853638 32.1576347351074 32.8942680358887 11.6764211654663 10.8553123474121 9.75667858123779 10.247371673584 8.5775032043457 9.29452133178711 7.80068683624268 8.02321720123291 14.6647176742554 8.7038516998291 9.18294620513916 8.35101222991943 8.30169010162354 8.11596965789795 7.40494108200073 13.1808423995972 8.36493873596191 7.82310247421265 13.8335103988647 27.6156330108643 18.4541511535645 14.1036653518677 11.2958450317383 11.5774669647217 12.1893587112427 12.3373603820801 12.1083793640137 13.1043996810913 12.0268964767456 12.808403968811 13.036750793457 12.229344367981 12.1206560134888 18.2749862670898 17.4473323822021 33.5673332214355 25.3031196594238 18.1577796936035 21.114465713501 28.8961868286133 12.3042774200439 31.9196586608887 21.2468452453613 18.0766181945801 17.5211544036865 16.3513450622559 19.2655715942383 28.0956249237061 23.9473037719727 18.4228839874268 30.3619155883789 9.54617881774902 6.10157346725464 -1.35224676132202 4.10694646835327 0.85357928276062 0.708554625511169 0.676937341690063 -0.370177417993546 12.4856853485107 7.14126396179199 8.36762619018555 4.13985633850098 6.31808137893677
3.57149624824524 3.96086740493774 5.17720890045166 6.74551820755005 10.1937055587769 12.6695289611816 17.4916095733643 20.8986473083496 21.6238136291504 31.7730827331543 40.8433570861816 36.6224136352539 46.0262756347656 7.95583248138428 12.1411504745483 5.26206731796265 14.9942932128906 3.31797289848328 1.5113308429718 1.77809989452362 2.27167320251465 5.71906614303589 5.18789625167847 5.20525169372559 6.18774557113647 5.57555770874023 5.69427108764648 4.52365398406982 4.4055552482605 5.58135271072388 5.6513466835022 5.66568994522095 5.35149383544922 5.25543308258057 5.28174686431885 4.90590620040894 4.32451105117798 4.82947111129761 3.98804926872253 4.18967723846436 5.51921892166138 5.0307559967041 5.28794813156128 6.20165729522705 11.6116991043091 30.8354167938232 32.8851203918457 17.952241897583 12.9284906387329 17.2979640960693 17.6151752471924 28.2881336212158 21.2651767730713 36.3929977416992 12.8647584915161 19.4727306365967 34.0411338806152 14.8311414718628 8.80971240997314 7.67237520217896 4.04019498825073 7.04231262207031 9.50842475891113 9.86737251281738 3.80607986450195 3.16947102546692 3.07979679107666 4.20931339263916 6.54217767715454 5.85436630249023 4.8195161819458 8.89389324188232 7.52810573577881 8.27922821044922 5.37972021102905 4.50936365127563 5.3327202796936 5.32181739807129 9.10377025604248 4.32815074920654 17.4517879486084 4.11372137069702 4.63361883163452 5.43533945083618 5.72953033447266 6.05293607711792 6.41510677337646 6.3656153678894 6.93882846832275 7.52138423919678 7.55324745178223 8.14116764068604 8.65430450439453 8.76254940032959 9.09641647338867 9.57749843597412 9.79372501373291 10.3277416229248 10.8623237609863 12.4025802612305 11.9958820343018 11.3513431549072 11.9012041091919 11.511531829834 12.1776571273804 13.8673448562622 13.9606924057007 21.3150482177734 14.3275508880615 20.6883220672607 12.043999671936 12.3690299987793 12.6617650985718 11.2759981155396 9.59571552276611 8.73277568817139 13.3447494506836 11.2287826538086 7.63572120666504 9.95159721374512 8.59867763519287 8.95207977294922 10.0710906982422 11.553539276123 8.57656574249268 14.9732303619385 26.6555557250977 13.5689172744751 6.16437005996704 11.4199104309082 6.91659164428711 28.5961322784424 20.355770111084 11.5847692489624 11.7544498443604 12.3754062652588 12.8158054351807 12.6018829345703 12.9007883071899 13.9932775497437 12.8740329742432 13.7205820083618 12.7590389251709 13.8091650009155 21.2279243469238 20.9690532684326 24.2970943450928 17.2928810119629 19.6010971069336 25.5405330657959 33.5404014587402 29.7481117248535 19.5386180877686 14.6441650390625 7.92103290557861 18.4613418579102 16.4470462799072 21.7168884277344 32.1050682067871 28.2644672393799 10.1781568527222 15.0151481628418 -2.19999623298645 3.15182375907898 11.2137641906738 -0.307699888944626 1.19702839851379 2.10558009147644 3.07106351852417 4.26219463348389 31.8457355499268 8.1325101852417 6.86834049224854 10.6978454589844 14.4129447937012
3.29324507713318 3.89628124237061 5.37237548828125 6.78025722503662 11.482048034668 13.2366533279419 16.0425796508789 25.7263889312744 30.7410678863525 44.5965538024902 41.803581237793 7.13412189483643 5.66628503799438 1.86118602752686 8.00000762939453 6.32381916046143 3.71446132659912 1.6178423166275 1.87571895122528 2.28821897506714 2.72512769699097 6.01532220840454 5.47179985046387 5.48353385925293 5.38779401779175 6.63005781173706 5.97062397003174 6.11181354522705 4.89925336837769 5.82225036621094 6.08004426956177 6.06855392456055 5.76309204101562 5.65939044952393 5.73223495483398 5.49256706237793 4.28767108917236 4.59936285018921 5.13197612762451 4.0063362121582 4.31131553649902 6.02724409103394 5.78050374984741 4.71271657943726 12.7723426818848 44.546802520752 46.1463508605957 23.0624961853027 15.4050779342651 20.8741931915283 26.8769493103027 40.395076751709 31.9421119689941 23.3014183044434 5.45194530487061 31.3053150177002 11.8157567977905 10.5420246124268 12.0042123794556 11.2925653457642 11.5541954040527 10.5160722732544 22.2365036010742 4.54547500610352 4.39685869216919 4.81582641601562 4.66455173492432 4.50666236877441 5.27880668640137 7.75478363037109 9.60636520385742 14.7983474731445 9.99090480804443 12.4532527923584 16.6278171539307 13.8136186599731 13.44553565979 10.6363162994385 8.0316686630249 2.93567514419556 4.32068252563477 3.42579889297485 4.49584007263184 5.57525634765625 5.83646774291992 5.85454177856445 6.19163751602173 6.58025169372559 7.11284399032593 7.1038990020752 7.85578298568726 8.13832950592041 8.94055366516113 9.10580062866211 9.39765930175781 9.57188034057617 10.145655632019 10.7168846130371 11.2978601455688 11.2224588394165 13.7316837310791 13.4213495254517 12.788610458374 12.8165407180786 12.5194568634033 14.8160676956177 16.958381652832 17.012767791748 13.9876537322998 16.4963111877441 13.3044910430908 14.0049428939819 12.3545808792114 13.0147008895874 11.3607511520386 12.7032594680786 15.8974332809448 11.6649789810181 10.9406595230103 14.7944927215576 11.4768285751343 14.4531669616699 15.0452814102173 12.2782049179077 15.0464744567871 31.0222358703613 23.8016719818115 7.50185775756836 14.882098197937 7.42567491531372 11.340781211853 8.55690860748291 30.5384750366211 18.4921398162842 12.1269760131836 12.3937358856201 13.2254018783569 13.5118160247803 13.2430410385132 13.898380279541 15.0043048858643 14.3624687194824 14.8074073791504 15.8930511474609 14.4960384368896 29.5174751281738 31.9955043792725 25.2322769165039 20.3680953979492 34.2891616821289 36.2912864685059 27.2252006530762 15.3598966598511 9.70721244812012 4.037184715271 13.175350189209 7.83040428161621 4.84316682815552 1.10761654376984 -2.79983162879944 -2.90229630470276 4.34244060516357 19.6500587463379 -1.63248944282532 -0.632732570171356 -0.270285904407501 -0.17341972887516 0.127036064863205 4.62828540802002 5.20669746398926 20.0839691162109 1.72093093395233 5.81193351745605 14.5281448364258 28.6698150634766
3.26112222671509 4.01023197174072 4.50139570236206 6.11408185958862 7.94937133789062 15.3566570281982 19.8360385894775 36.9327850341797 43.4666900634766 44.8884239196777 5.57803821563721 7.39952278137207 3.66196513175964 11.1758995056152 4.53735971450806 10.4242029190063 4.24225378036499 7.45799875259399 2.46167659759521 2.69956922531128 2.70024180412292 5.89440059661865 6.41562461853027 5.81706047058105 5.83186292648315 7.01653289794922 6.33099889755249 6.51344966888428 5.27079010009766 5.19032621383667 6.53662919998169 6.70777177810669 6.72356986999512 6.3956151008606 6.29355144500732 6.23125553131104 5.61293363571167 4.58652305603027 4.8955340385437 5.46005487442017 4.3946647644043 3.71482110023499 6.61924743652344 6.47528314590454 4.83248805999756 30.1105422973633 2.61659479141235 2.41570091247559 32.9850387573242 24.2145195007324 38.8740501403809 38.9950294494629 5.10370540618896 5.49245357513428 10.5235404968262 12.3956136703491 7.25353384017944 12.5105066299438 15.3078155517578 11.8027248382568 9.47835254669189 25.7874813079834 7.46177577972412 3.66153788566589 4.65558385848999 5.45147037506104 5.0196475982666 7.80692005157471 9.18435668945312 7.48031663894653 6.1863226890564 21.3078880310059 16.7507209777832 7.29107999801636 17.2449436187744 5.82614231109619 4.03775835037231 3.6738908290863 3.44738841056824 3.43119883537292 5.14792203903198 3.45062232017517 4.15076637268066 5.41546535491943 5.67445945739746 6.02606534957886 5.92046308517456 6.79986190795898 6.75442218780518 7.42990446090698 8.05581092834473 8.09108734130859 8.72474670410156 9.47489356994629 9.5592794418335 9.85279178619385 10.439640045166 10.7322158813477 11.3193321228027 11.9209127426147 12.5215978622437 15.1316633224487 14.3902044296265 14.1519222259521 13.7342920303345 20.0507946014404 14.6913805007935 14.510931968689 23.6145515441895 15.0438461303711 14.464638710022 13.8956470489502 14.2508239746094 15.5298328399658 13.5848121643066 12.1797952651978 18.8944568634033 22.1854629516602 13.6400880813599 15.7528705596924 18.8041439056396 11.8233652114868 8.96286201477051 9.13988590240479 19.2775173187256 14.0345449447632 7.22871398925781 9.86740779876709 11.6773376464844 10.7402286529541 19.4719924926758 8.65368556976318 10.2616767883301 32.8730735778809 12.518458366394 12.7673015594482 13.4669380187988 14.1170091629028 14.55588722229 14.6883840560913 15.7335729598999 14.610631942749 15.7104034423828 15.1831064224243 22.200231552124 40.3519477844238 13.8007497787476 16.3063354492188 25.8710536956787 30.173490524292 25.5942916870117 27.0403881072998 10.1255407333374 15.2572402954102 8.46554279327393 17.7909336090088 4.36386823654175 4.00457382202148 3.31731295585632 14.6896190643311 3.75135183334351 10.2812643051147 -3.40059781074524 -2.13980984687805 -1.70405983924866 7.76721239089966 0.142899855971336 1.89833521842957 4.17996549606323 7.19230794906616 6.51304483413696 -0.277158081531525 12.8504734039307 12.5296487808228 26.4276123046875
3.39082360267639 3.68086957931519 4.4253454208374 6.63874197006226 8.61607551574707 18.6952323913574 29.607889175415 29.997730255127 20.5561084747314 7.20661115646362 8.06302165985107 2.7327823638916 5.12989282608032 8.54183483123779 4.23661613464355 8.17390537261963 5.27195835113525 3.48434543609619 18.3579235076904 2.74414420127869 8.09477138519287 6.42580604553223 6.78818130493164 6.15674924850464 6.18066549301147 6.10385227203369 7.62750339508057 6.89772462844849 7.11273002624512 5.7377872467041 6.74500417709351 7.17003965377808 7.44042015075684 7.47573518753052 7.13086700439453 7.00323438644409 6.94687223434448 4.75977325439453 5.12497329711914 5.68666458129883 4.65659523010254 4.51339197158813 7.11584377288818 7.09714031219482 5.59324073791504 30.8724174499512 13.9974308013916 2.69729208946228 19.3818836212158 35.5298614501953 44.5811042785645 5.59854984283447 5.02686500549316 2.03846979141235 8.13031101226807 12.0036163330078 34.0233383178711 22.8734912872314 17.0517921447754 15.4095258712769 11.9177074432373 6.80082225799561 4.87344312667847 11.5989952087402 4.30029487609863 5.38660049438477 5.29726505279541 9.05769348144531 9.93744945526123 12.8765163421631 12.9035367965698 8.39436340332031 7.72390842437744 4.00942182540894 3.64101147651672 3.158358335495 5.88372135162354 9.25883388519287 5.53135395050049 4.05970048904419 4.09730625152588 3.151123046875 4.16434383392334 4.83074998855591 5.79746961593628 6.15489435195923 6.183434009552 6.65927600860596 6.99737930297852 7.51157760620117 7.51852321624756 8.36851787567139 8.45642280578613 9.83135032653809 9.85614585876465 10.1989250183105 10.4491176605225 10.9618883132935 11.3718414306641 12.013897895813 12.8117179870605 16.0508670806885 16.1827144622803 16.6707363128662 18.7375431060791 22.2095718383789 15.8038702011108 20.6178684234619 15.1475296020508 14.9365262985229 16.1473808288574 14.8501262664795 16.6428165435791 17.9160137176514 20.5788803100586 16.2559356689453 14.2278366088867 20.2767524719238 18.2301216125488 19.7658653259277 28.2327537536621 16.1332149505615 9.03085899353027 9.25417900085449 15.5386743545532 8.63465213775635 8.89505958557129 12.030309677124 20.7179508209229 13.0571489334106 16.7405242919922 6.50519418716431 13.2909021377563 10.2397193908691 30.2991008758545 13.3579406738281 13.6391687393188 14.4465656280518 15.2791976928711 14.9446859359741 16.4147434234619 17.2046165466309 16.6267261505127 17.5426921844482 30.6674938201904 25.3134307861328 10.0146522521973 22.0578365325928 36.0284576416016 37.5651359558105 28.8379135131836 33.290096282959 7.92504644393921 12.2754554748535 -0.450416475534439 8.20009613037109 2.33516669273376 18.9382133483887 7.68638944625854 8.42142200469971 -2.70228147506714 3.97870945930481 -2.88488817214966 -2.34893441200256 -1.28684520721436 0.619035243988037 0.0305080357939005 4.44866514205933 7.5560417175293 10.0002346038818 8.69032669067383 19.0459899902344 18.2238597869873 18.2762451171875 29.4653339385986
3.03416395187378 3.60138273239136 4.51228857040405 5.25035667419434 8.30642890930176 11.1375503540039 27.9569549560547 17.8653030395508 28.4331226348877 1.88882124423981 3.35865306854248 2.2646324634552 2.34413981437683 2.53519010543823 8.07436561584473 6.22289133071899 5.9498085975647 7.28745412826538 9.56478786468506 3.06709003448486 6.52000284194946 3.14915680885315 6.65593338012695 7.3263373374939 6.63695621490479 6.71487522125244 6.66266107559204 8.39409923553467 7.57680368423462 7.81598567962646 6.32529592514038 7.38505744934082 8.05706691741943 8.08758544921875 7.72011280059814 7.59930229187012 7.56903886795044 7.16227340698242 5.18835735321045 5.46738052368164 6.08209705352783 4.30449390411377 4.63878726959229 7.96151208877563 8.12975120544434 5.08305835723877 7.23537302017212 3.11457753181458 2.87047934532166 2.75360751152039 13.4032945632935 3.9296817779541 5.22473430633545 3.61161708831787 13.0232648849487 14.656195640564 27.522331237793 13.2466869354248 6.99694538116455 12.9798202514648 20.5763092041016 15.5513830184937 5.25458240509033 14.3495473861694 4.40754842758179 16.0593681335449 9.0697660446167 9.12637615203857 13.3572778701782 10.2876691818237 12.3917741775513 9.55892753601074 6.16685581207275 10.9834661483765 5.64510202407837 3.2087619304657 6.60783910751343 4.10044527053833 3.90861511230469 3.98092699050903 9.55837917327881 4.33997106552124 4.13689708709717 4.39279747009277 5.8419771194458 6.01821804046631 6.48049068450928 6.50956106185913 7.18575763702393 7.10892295837402 7.80599546432495 7.9336314201355 8.77307319641113 9.49868488311768 10.3373804092407 10.4157180786133 10.7080926895142 10.9978551864624 11.8889636993408 12.5233945846558 13.7229089736938 14.8042583465576 17.6362724304199 21.2595310211182 29.9340686798096 16.3024559020996 15.3159313201904 18.5721302032471 14.5483140945435 16.5374069213867 18.1459674835205 16.2686328887939 16.4405212402344 19.3294639587402 21.5709419250488 19.5837688446045 18.2063999176025 14.9011125564575 7.73667573928833 12.3701410293579 11.1300601959229 7.18832063674927 9.32430076599121 9.80496692657471 9.75222110748291 8.87649154663086 9.15091133117676 14.904613494873 11.1464805603027 5.7218713760376 5.97643041610718 6.58211278915405 7.2206563949585 8.60402870178223 8.47388172149658 13.5878429412842 14.4772434234619 14.824405670166 16.0469856262207 16.7736225128174 16.8594646453857 18.8165893554688 17.3760719299316 19.0413646697998 25.4063053131104 12.6229763031006 14.3234796524048 21.8541622161865 34.3442764282227 28.1458263397217 17.52512550354 6.85728311538696 0.422768145799637 18.2921581268311 12.4448862075806 8.16572093963623 5.50224208831787 14.4201784133911 17.9853420257568 23.6312236785889 15.0198163986206 13.5083332061768 -2.19951581954956 -2.8658926486969 8.00222206115723 0.0341914445161819 2.85441827774048 0.578346610069275 11.4939594268799 12.2084617614746 13.4314661026001 16.5680313110352 9.28249073028564 -1.77546775341034 12.5419940948486
