NCOLS 172
NROWS 31
XLLCORNER 353920
YLLCORNER 6700480
CELLSIZE 16 
NODATA_value -3.4e+38 
2.27570366859436 2.84025263786316 3.47763729095459 3.44681119918823 1.84142231941223 3.50451588630676 6.22143650054932 1.42927706241608 6.2590160369873 16.8228340148926 14.7942905426025 10.0336112976074 10.1786642074585 10.4019212722778 9.15841865539551 8.74590301513672 7.63973569869995 5.80517292022705 5.2149600982666 4.04956722259521 3.23122477531433 2.73007488250732 2.31250214576721 1.49926424026489 4.43613290786743 4.09096145629883 3.89326238632202 4.96669292449951 6.09493255615234 6.95217752456665 8.899658203125 11.9731464385986 9.21490001678467 6.02052927017212 4.7235746383667 4.35293436050415 3.63482856750488 3.16461944580078 3.29169821739197 1.69297051429749 1.43128299713135 1.02436256408691 1.01336324214935 0.99978905916214 0.72044712305069 0.342809498310089 0.303850471973419 0.376417309045792 0.429294645786285 0.331237643957138 0.348356157541275 0.365115106105804 0.358069479465485 0.350950568914413 0.360304236412048 0.359239667654037 0.337630778551102 0.310269802808762 0.307041704654694 0.291309356689453 0.255410730838776 0.228274032473564 0.193407937884331 0.118972532451153 0.0467613749206066 -0.0225000344216824 -0.0722517520189285 -0.0511239506304264 0.0557172819972038 0.202690869569778 0.324252188205719 0.389520168304443 0.518046975135803 0.524054348468781 0.532838463783264 0.58416748046875 0.448995500802994 0.263979643583298 0.0231020729988813 -0.28977033495903 -0.604718208312988 -0.810583770275116 -0.934626579284668 0.467453688383102 4.34316873550415 7.18452501296997 5.9774169921875 7.43097829818726 7.97070169448853 7.46574401855469 6.67992925643921 5.8822808265686 5.18049383163452 4.38361358642578 3.70730400085449 3.18846964836121 2.90116214752197 2.58412146568298 1.89858603477478 3.56835198402405 3.54030323028564 3.35962224006653 3.61318135261536 4.11984157562256 4.51890134811401 4.67441034317017 4.54670715332031 5.41112995147705 6.28480911254883 6.70273160934448 6.98622751235962 6.68218803405762 6.71012210845947 6.252121925354 5.89293909072876 5.4492449760437 4.84810495376587 4.37650728225708 4.02448272705078 3.73464298248291 3.57374978065491 3.43969011306763 3.19377899169922 3.01678109169006 2.87741470336914 2.68212032318115 2.36022448539734 2.26413679122925 2.02807593345642 1.72257602214813 1.63407135009766 1.63545262813568 1.71258807182312 1.91777873039246 2.06037282943726 2.12556552886963 1.96058559417725 1.69788384437561 1.09365546703339 0.647806465625763 0.358403265476227 0.124283537268639 0.133209675550461 0.459375649690628 1.54549789428711 3.91581630706787 4.68494176864624 6.2129077911377 8.15242481231689 10.7825155258179 16.9095420837402 17.3988437652588 13.1474533081055 12.2036581039429 8.32137584686279 7.99777555465698 7.10564279556274 6.38718175888062 5.55581426620483 4.6706600189209 8.31009197235107 20.748218536377 25.830358505249 29.077787399292 33.2111396789551 31.9009914398193 22.878454208374 16.9959087371826 15.3340950012207 12.1396245956421 10.0366411209106 7.93022584915161
1.42919456958771 1.23535120487213 1.45248341560364 1.23344314098358 0.223210692405701 -0.0821806639432907 3.76590466499329 3.20201969146729 1.55227303504944 9.49578666687012 16.366418838501 12.5289392471313 12.3527364730835 11.2353057861328 10.4339485168457 8.1897029876709 7.47256278991699 6.39889860153198 4.98287868499756 3.97492361068726 3.37339305877686 2.49710726737976 1.18693327903748 0.87848311662674 1.9302499294281 1.98284721374512 1.21879065036774 2.70936679840088 5.26394319534302 6.47100830078125 5.40823125839233 8.07364463806152 8.85157585144043 6.00134134292603 4.71788644790649 3.6629946231842 3.20875644683838 2.431964635849 2.26728415489197 2.7722499370575 2.86513113975525 1.50096595287323 1.51209318637848 1.20823287963867 0.636408150196075 0.397781729698181 0.496579498052597 0.462695300579071 0.438117772340775 0.443476140499115 0.385736793279648 0.370254516601562 0.362344741821289 0.3774194419384 0.37889951467514 0.362391531467438 0.338275343179703 0.324472934007645 0.307077795267105 0.303222894668579 0.294790506362915 0.269906669855118 0.223942875862122 0.159092143177986 0.0921112671494484 0.0269701723009348 0.0675512254238129 0.164194568991661 0.149128660559654 0.327504992485046 0.402392357587814 0.544390916824341 0.551009893417358 0.635513186454773 0.639737784862518 0.64928662776947 0.605541050434113 0.413650810718536 0.112046919763088 -0.260192215442657 -0.66158264875412 -0.842287659645081 -1.06497657299042 0.71164470911026 6.91559791564941 12.3635911941528 12.4240465164185 10.1338796615601 9.15431213378906 8.23906421661377 7.12211084365845 6.42026948928833 5.3526177406311 4.17905426025391 3.47420167922974 3.08845138549805 2.38611030578613 2.08286190032959 1.68030714988708 4.07442378997803 4.492835521698 4.07831335067749 4.89998722076416 5.45346164703369 5.76238346099854 6.58181810379028 6.95815992355347 6.975989818573 7.30181932449341 7.5904688835144 7.48119115829468 7.15602397918701 6.79723119735718 6.30809211730957 5.68536186218262 5.18076133728027 4.73701620101929 4.38691234588623 4.09115266799927 3.87267279624939 3.72226047515869 3.45998620986938 3.24444627761841 2.98952722549438 2.84782814979553 2.48966431617737 2.21683764457703 1.91208338737488 1.76838231086731 1.74979913234711 1.86333966255188 1.92435121536255 2.27061891555786 2.64637637138367 2.88617992401123 2.54033350944519 2.45782661437988 2.15946197509766 1.58146393299103 1.12754416465759 0.765265047550201 0.481736063957214 0.666609406471252 0.58961147069931 0.768516182899475 2.75228190422058 3.80532908439636 6.78171157836914 8.1214017868042 9.79212665557861 12.8909368515015 12.3083744049072 11.0244979858398 11.4247798919678 8.98780727386475 7.77138757705688 6.84327268600464 5.79273843765259 4.46605825424194 3.27329993247986 5.15771436691284 17.3642139434814 20.3005714416504 19.2093868255615 18.804178237915 25.551685333252 25.5233688354492 16.9791793823242 14.3234691619873 11.958779335022 9.24273204803467 7.46471357345581
1.55397188663483 1.3670402765274 0.767446458339691 0.791166067123413 0.0859481245279312 -0.353739440441132 -0.90380847454071 2.57904076576233 2.3576352596283 4.33062553405762 17.1620388031006 18.540075302124 14.9092473983765 13.3108282089233 10.6939249038696 9.13057899475098 7.09286880493164 6.14595556259155 5.00317096710205 4.07955026626587 3.29622673988342 2.17375826835632 0.926736235618591 0.188129290938377 0.0391674377024174 -0.0106176277622581 -0.278512507677078 -0.351400554180145 1.05823493003845 6.79932928085327 7.47302913665771 8.13711166381836 9.29318141937256 6.84528207778931 4.4445219039917 2.95712327957153 2.561443567276 1.64492762088776 1.38434958457947 1.81811881065369 2.02226161956787 3.05590486526489 3.57953262329102 1.7069388628006 0.941613554954529 0.629253685474396 0.628794729709625 0.667350351810455 0.584574103355408 0.501857101917267 0.542076766490936 0.470323354005814 0.393449187278748 0.391714125871658 0.388797998428345 0.367736220359802 0.336075752973557 0.330085515975952 0.314192086458206 0.306391179561615 0.305294692516327 0.287491619586945 0.254120856523514 0.202081575989723 0.144308313727379 0.101915113627911 0.197353839874268 0.369590073823929 0.434763252735138 0.420062214136124 0.570517003536224 0.58803403377533 0.669738709926605 0.659938097000122 0.695869743824005 0.721834480762482 0.697893917560577 0.498160600662231 0.137904360890388 -0.214068859815598 -0.603850841522217 -1.08484661579132 -1.37819004058838 -0.74629682302475 4.9041895866394 11.149959564209 14.5514335632324 12.5419921875 10.1482048034668 9.07946586608887 8.00026321411133 6.04493951797485 5.05170392990112 4.05875301361084 3.46191596984863 2.57415223121643 2.06399178504944 1.46612238883972 2.006507396698 4.54092836380005 7.47901153564453 6.9412317276001 6.51344966888428 7.29906225204468 8.10918712615967 8.97214889526367 9.10562801361084 8.32888317108154 8.41883945465088 8.12128829956055 7.68697690963745 7.26071882247925 6.84462070465088 6.21307945251465 5.48719549179077 5.0282735824585 4.74067258834839 4.40874052047729 4.23345184326172 4.02495527267456 3.76382279396057 3.5184473991394 3.22374296188354 2.7846155166626 2.63924479484558 2.34956836700439 2.02080750465393 1.88234758377075 1.928586602211 2.17273664474487 2.38564848899841 2.55414247512817 3.02940797805786 3.24210023880005 3.26847767829895 2.93950200080872 2.72934246063232 2.35027861595154 2.01009583473206 1.53899931907654 1.0735330581665 1.09332394599915 0.827884554862976 0.629829823970795 1.26972568035126 3.2225239276886 5.10023307800293 7.47028493881226 9.95459461212158 11.6925277709961 11.205265045166 10.0967102050781 10.6458129882812 10.2219753265381 8.52119445800781 7.36553382873535 6.41596126556396 5.00603723526001 3.37736988067627 2.41627645492554 2.02027201652527 10.4590282440186 18.3100051879883 19.8682956695557 18.5808200836182 19.4053859710693 21.4179267883301 16.6094665527344 12.7786779403687 11.0029611587524 8.6917667388916 7.25714206695557
1.0288233757019 0.893794655799866 0.633703231811523 0.376109600067139 0.151916399598122 -0.537995100021362 -1.14029407501221 -1.23695921897888 -1.17037320137024 -1.39670610427856 3.85164737701416 18.1851139068604 19.3423271179199 15.0936412811279 11.8649520874023 8.61399459838867 7.42058277130127 5.7961630821228 5.23405647277832 4.20009660720825 2.85356092453003 1.91951167583466 0.627844095230103 -0.0948562175035477 -0.105726830661297 -0.15077269077301 -0.243317887187004 -0.374003857374191 -0.554789423942566 1.61117911338806 6.59772825241089 8.46492671966553 10.3692970275879 6.86439228057861 3.80965113639832 2.10050773620605 1.86896538734436 1.25725877285004 0.813616991043091 0.659539997577667 1.18651962280273 1.69163250923157 2.28017854690552 3.17695426940918 2.81102705001831 1.22344899177551 1.01404774188995 0.941575706005096 0.870268583297729 0.694899439811707 0.660865247249603 0.574413776397705 0.526026546955109 0.457779765129089 0.391506910324097 0.376400411128998 0.35039284825325 0.327293455600739 0.330840021371841 0.320631831884384 0.30323600769043 0.290697276592255 0.26779842376709 0.216172769665718 0.176559284329414 0.237474113702774 0.408727616071701 0.473202913999557 0.623133182525635 0.621828079223633 0.611221373081207 0.713009059429169 0.728828728199005 0.7584028840065 0.769133746623993 0.762251257896423 0.667100131511688 0.535816967487335 0.219793438911438 -0.140581354498863 -0.578346371650696 -1.05767488479614 -1.77273559570312 -2.03602313995361 -0.274709701538086 9.3480110168457 12.0164556503296 15.7335443496704 12.6842470169067 9.87172603607178 6.99106979370117 6.00676488876343 4.55808782577515 3.79867100715637 2.78043818473816 2.29136514663696 1.64847016334534 0.812320053577423 2.50587058067322 4.53701210021973 7.79755544662476 11.1432371139526 12.061487197876 11.5056200027466 11.0694093704224 11.2874069213867 10.8510932922363 10.0330171585083 9.13562297821045 8.49745464324951 7.75037527084351 7.13856315612793 6.52376222610474 6.07685470581055 5.48836278915405 4.97986364364624 4.74437046051025 4.56279945373535 4.29046249389648 4.01937294006348 3.80945158004761 3.48890018463135 3.00762891769409 2.64860224723816 2.260413646698 2.11432957649231 2.16075444221497 2.22337698936462 2.42083096504211 2.82808232307434 3.1504430770874 3.23948788642883 3.565669298172 3.61894249916077 3.60187268257141 3.3057177066803 2.91265082359314 2.66734504699707 2.34987354278564 1.89018702507019 1.44239592552185 1.11969900131226 0.767986357212067 0.334793031215668 6.35367107391357 6.14972305297852 3.54703974723816 3.3579306602478 5.83316707611084 7.16631460189819 7.91913747787476 10.3174285888672 10.5966110229492 10.1475915908813 8.09273242950439 6.89657020568848 5.82505941390991 4.29551839828491 2.89630675315857 2.21807765960693 1.95550036430359 2.21227264404297 10.1910285949707 19.8417148590088 23.5579891204834 22.7709465026855 19.6204128265381 15.2354955673218 11.6288843154907 10.3405103683472 8.24438762664795 7.62602043151855
0.895046889781952 0.836488008499146 0.525794565677643 0.765749752521515 0.423963516950607 1.07574772834778 -0.653468728065491 -1.16956806182861 -1.14547526836395 -1.36136567592621 -1.47876453399658 5.99149084091187 17.6825332641602 16.2793254852295 11.23206615448 9.98377323150635 7.24827575683594 6.09643459320068 4.03945016860962 3.74015641212463 2.67245006561279 1.40796375274658 0.850679159164429 0.102963626384735 -0.0684027224779129 -0.118193171918392 -0.205220133066177 -0.335661292076111 -0.51775062084198 -0.504681050777435 1.75773918628693 6.95645093917847 9.3239688873291 6.25745487213135 3.32219982147217 1.83542239665985 1.14920139312744 0.864225745201111 0.525391340255737 0.332841455936432 0.473731845617294 0.582322597503662 1.12683963775635 1.51163625717163 2.0655574798584 3.64565777778625 3.43425130844116 1.33519065380096 1.20526385307312 1.11217927932739 0.923137128353119 0.684773087501526 0.554927349090576 0.468584448099136 0.399346321821213 0.371363580226898 0.364065766334534 0.346248149871826 0.333869785070419 0.331375598907471 0.312917083501816 0.293224304914474 0.263239234685898 0.327708899974823 0.269089043140411 0.459038227796555 0.526354372501373 0.668857634067535 0.675815880298615 0.773655652999878 0.750895857810974 0.775660574436188 0.808041930198669 0.808957040309906 0.808758199214935 0.710310876369476 0.654084801673889 0.560575544834137 0.330100804567337 -0.0999211072921753 -0.60809725522995 -0.969173192977905 -1.65326750278473 -2.16508078575134 -2.33926153182983 2.4318630695343 7.30168390274048 13.1424160003662 12.7807731628418 10.0760726928711 8.04874324798584 5.98398208618164 4.42373847961426 3.39126348495483 2.65314292907715 1.78371238708496 0.826683461666107 0.296321004629135 1.01501381397247 3.41928458213806 5.94885683059692 10.6082820892334 14.5148401260376 11.6071481704712 12.7681341171265 12.6108732223511 12.0917921066284 10.8209438323975 9.75637722015381 8.63665008544922 7.77519989013672 6.93713617324829 6.35910844802856 6.03374433517456 5.41237449645996 5.11295700073242 4.89533138275146 4.63924932479858 4.33669996261597 3.98348569869995 3.77193117141724 3.2535240650177 2.86224937438965 2.42254066467285 2.29281902313232 2.39144921302795 2.73345971107483 2.76362705230713 3.1165726184845 3.65141892433167 4.04510688781738 3.89118623733521 3.92455816268921 4.02419281005859 3.74352169036865 3.46366477012634 3.19203186035156 2.94666433334351 2.79224705696106 1.90982413291931 1.31945812702179 1.00890803337097 0.51997047662735 -0.134125843644142 0.0635083243250847 4.7139105796814 4.51320219039917 5.55463647842407 6.40159749984741 7.7820930480957 11.4315996170044 11.5070390701294 11.0636291503906 10.0302314758301 7.9835205078125 6.10125875473022 4.62339305877686 3.71621441841125 2.91170859336853 2.63111805915833 2.56075644493103 2.48275279998779 2.62506747245789 12.5066909790039 21.4109268188477 22.2745208740234 18.2940654754639 14.3813924789429 11.5826807022095 9.52358913421631 8.97431468963623 8.4068078994751
1.57922184467316 0.92603474855423 0.985641062259674 0.593847274780273 1.23295116424561 1.3984534740448 0.65675687789917 -0.921719789505005 -1.04007697105408 -1.21079134941101 -1.37116527557373 -1.28232097625732 11.8007173538208 17.0588760375977 14.0971155166626 9.55134582519531 7.94934320449829 4.89435720443726 3.97194242477417 2.64746069908142 2.06497383117676 1.60199534893036 0.845738410949707 0.422796964645386 0.0104405535385013 -0.060225322842598 -0.122475758194923 -0.2143345028162 -0.362441778182983 -0.42707833647728 -0.349061965942383 5.19609451293945 7.70834732055664 5.7112774848938 3.1674587726593 1.40394568443298 0.680683135986328 0.564792692661285 0.356613159179688 0.283755570650101 0.31002289056778 0.31517082452774 0.351962834596634 0.613084256649017 0.835667371749878 1.2853467464447 2.07977676391602 3.6270227432251 3.61560297012329 1.60596716403961 1.17890202999115 0.865763604640961 0.586736559867859 0.428602397441864 0.415784269571304 0.385961413383484 0.360222011804581 0.36040586233139 0.347564429044724 0.34466364979744 0.373600095510483 0.367388278245926 0.414401829242706 0.57529753446579 0.639352023601532 0.594805181026459 0.734101176261902 0.725006639957428 0.821617126464844 0.800269901752472 0.815363049507141 0.853496372699738 0.855605065822601 0.748340725898743 0.745653688907623 0.70556503534317 0.616305530071259 0.536054074764252 0.275943160057068 -0.154264837503433 -0.49587419629097 -0.927481710910797 -1.31143069267273 -1.89221394062042 -2.25235033035278 -2.24355888366699 -0.242370873689651 7.51711416244507 11.9674339294434 10.7507066726685 7.64139556884766 5.74398136138916 4.41402101516724 3.03082656860352 2.3939688205719 1.26869130134583 0.462922990322113 0.17880354821682 0.56178891658783 2.25288534164429 6.38358974456787 10.2928562164307 17.8332195281982 18.530158996582 14.2796621322632 13.3745174407959 12.1577816009521 10.9073171615601 9.62175941467285 8.68313980102539 7.46713352203369 6.8509087562561 6.29797077178955 5.81864023208618 5.51682758331299 5.24955034255981 4.97507381439209 4.64510250091553 4.28326416015625 3.71258139610291 3.50844812393188 3.10990762710571 2.74367165565491 2.61373710632324 2.71607756614685 3.0963499546051 3.390625 3.74359965324402 4.12519550323486 4.34783220291138 4.31648445129395 4.11238574981689 4.09438419342041 4.11729001998901 3.75253558158875 3.53867864608765 3.50840425491333 3.3087682723999 2.80860233306885 1.97085857391357 1.07563352584839 0.748223721981049 0.300178557634354 -0.000372485112166032 1.03117716312408 4.29124212265015 6.03765201568604 9.54419040679932 11.2140474319458 13.5847864151001 13.5040950775146 12.031457901001 10.6378812789917 9.76816749572754 7.29853773117065 5.32033109664917 4.19861459732056 3.75890159606934 3.28624248504639 3.04004144668579 2.88080406188965 2.83066511154175 2.71037101745605 6.70536422729492 14.9005527496338 17.4673023223877 15.6085081100464 13.7256259918213 11.1922826766968 10.0213308334351 8.95781803131104 8.96082592010498
3.63259315490723 2.26775574684143 1.8335098028183 2.13874673843384 1.37982487678528 0.91625189781189 0.440272390842438 -0.651791632175446 -0.94524472951889 -0.974865436553955 -1.08334612846375 -1.24000155925751 -1.01049911975861 11.3736295700073 12.7633371353149 10.524040222168 6.23025274276733 4.69926357269287 3.76064705848694 2.65874910354614 1.6277779340744 1.38115572929382 1.05679881572723 0.578128218650818 0.146829694509506 0.00526625011116266 -0.046208668500185 -0.116004414856434 -0.222683414816856 -0.321591198444366 -0.276650220155716 2.16555953025818 7.45094966888428 5.50601196289062 2.69392848014832 1.06659865379333 0.567903459072113 0.31296980381012 0.335805416107178 0.326629966497421 0.327698588371277 0.336441606283188 0.352994471788406 0.343783527612686 0.371303021907806 0.374470144510269 0.397744655609131 0.583124279975891 1.28074157238007 3.1578197479248 2.85899353027344 1.20591843128204 0.802500903606415 0.445021539926529 0.421966046094894 0.410464107990265 0.38004332780838 0.362204223871231 0.492022424936295 0.57168173789978 0.671369433403015 0.549744129180908 0.686807990074158 0.742406129837036 0.892109096050262 0.867547154426575 0.805473923683167 0.920460045337677 0.923488616943359 0.95281982421875 0.913811028003693 0.912071585655212 0.799500703811646 0.739278376102448 0.67150741815567 0.679843962192535 0.594826281070709 0.45221745967865 0.264337539672852 -0.132251113653183 -0.493141025304794 -0.805902540683746 -1.07146263122559 -1.48011457920074 -1.89380395412445 -2.12915849685669 -2.10613203048706 0.726537048816681 8.22486114501953 9.5323543548584 7.79703903198242 5.3994574546814 4.00231981277466 2.59794116020203 1.72551012039185 0.978010952472687 0.310229629278183 -0.0775873959064484 -0.122725777328014 -0.539900541305542 1.60322606563568 7.96419286727905 12.765643119812 17.5428524017334 18.1462993621826 14.1117057800293 11.4408464431763 9.94360542297363 8.84508419036865 8.29958724975586 7.47439861297607 6.78203582763672 6.11895036697388 5.79105520248413 5.49910926818848 5.09402894973755 4.8418755531311 4.44577646255493 3.86766910552979 3.46950244903564 3.28858804702759 3.23805379867554 3.13036823272705 3.79856276512146 3.93457818031311 4.12940740585327 4.57757806777954 4.84320688247681 5.12698554992676 5.17243576049805 4.94000101089478 4.80632162094116 4.5108470916748 4.14629983901978 3.80837750434875 3.75626230239868 3.37230157852173 2.88490271568298 2.48204374313354 1.61601793766022 0.9497030377388 0.58615243434906 0.235830754041672 1.17177963256836 2.65933513641357 3.95873427391052 7.54231023788452 17.8659858703613 15.7613096237183 15.9110555648804 13.9217367172241 12.5367059707642 9.7425365447998 8.5136194229126 6.32112598419189 5.04471969604492 4.33189678192139 3.95915651321411 4.0509238243103 3.36675715446472 3.01286911964417 2.91511225700378 3.35989952087402 6.16986227035522 11.8950901031494 14.7650499343872 13.8210296630859 12.6992082595825 11.3248596191406 9.75905418395996 9.96078681945801 9.53443717956543
3.71315813064575 7.80452442169189 4.29056787490845 1.96485614776611 1.26388204097748 0.720415830612183 0.721363723278046 -0.215172976255417 -0.316764891147614 -0.61740654706955 -0.745957374572754 -0.85889720916748 -1.01304233074188 -0.763516247272491 4.95793008804321 6.56736469268799 5.34834146499634 3.74206352233887 3.21481418609619 2.5127375125885 1.64168381690979 1.31489765644073 1.09038710594177 0.751373112201691 0.395153105258942 0.0566945783793926 0.0220813881605864 -0.0187183860689402 -0.0900061428546906 -0.175870507955551 -0.174610152840614 -0.0865274295210838 4.2224760055542 4.82935047149658 3.127769947052 1.24969637393951 0.358727544546127 0.35726335644722 0.365215659141541 0.362800598144531 0.353750497102737 0.37658154964447 0.394825398921967 0.383441805839539 0.387172847986221 0.397802829742432 0.402536630630493 0.398972660303116 0.411618769168854 0.50952273607254 0.961721360683441 2.02316832542419 2.239093542099 0.869546294212341 0.447659909725189 0.505822777748108 0.469410330057144 0.625583171844482 0.722435891628265 0.88532829284668 1.02190208435059 1.0102471113205 0.883122980594635 1.01846313476562 0.991342484951019 1.08398282527924 1.02691519260406 1.00460243225098 1.03035283088684 1.02379167079926 0.991677820682526 0.869097530841827 0.80861097574234 0.716677248477936 0.668118238449097 0.526440739631653 0.482727557420731 0.392982959747314 0.225001126527786 -0.101557418704033 -0.444498598575592 -0.665718257427216 -0.888595044612885 -1.15496826171875 -1.5689138174057 -1.84733867645264 -1.94237923622131 -1.9227648973465 2.91928815841675 6.53589677810669 6.8487663269043 5.30451726913452 3.53980231285095 2.36068201065063 1.27743017673492 0.830767810344696 0.726664006710052 0.287206143140793 -0.152163699269295 -0.856426358222961 -1.23886227607727 3.23468089103699 9.53795337677002 10.9189605712891 15.226035118103 13.7757892608643 10.2518062591553 9.12497425079346 10.1421222686768 8.15727996826172 7.20018196105957 6.58643913269043 6.36204195022583 6.0234227180481 5.58386707305908 5.03100633621216 4.80332565307617 4.17720699310303 3.88673543930054 3.89823412895203 3.83697962760925 3.92108058929443 4.44318723678589 4.8599271774292 5.42689037322998 6.04642295837402 5.90108299255371 5.81611967086792 5.82337093353271 5.8539981842041 5.31425285339355 4.94842529296875 4.35899448394775 3.97195482254028 3.94112634658813 3.92648983001709 2.90584778785706 2.13549327850342 1.87849402427673 1.53216159343719 2.00513768196106 1.97245073318481 2.16957426071167 2.81007671356201 3.82132744789124 4.43272495269775 3.77217292785645 10.3208875656128 11.9653816223145 13.3703908920288 13.2731027603149 11.0657196044922 8.2724609375 7.35582780838013 6.041335105896 6.05341339111328 6.53245067596436 6.20899105072021 4.81471920013428 4.47425889968872 4.25123023986816 4.09586429595947 5.17759847640991 6.07039213180542 8.94144439697266 11.1193742752075 10.8316030502319 11.7660579681396 10.4104509353638 10.889778137207 10.490083694458 9.6419563293457
0.279022663831711 5.62433338165283 4.40061521530151 2.17067503929138 1.30129945278168 1.84831213951111 0.697855114936829 0.855548739433289 -0.321400761604309 -0.500613808631897 -0.514910876750946 -0.506535947322845 -0.60996949672699 -0.566689372062683 -0.34895595908165 2.77934312820435 3.10103011131287 3.73540258407593 2.76382565498352 2.13017725944519 1.62074732780457 1.33467257022858 1.02684569358826 0.922366321086884 0.553113222122192 0.196342676877975 0.0806504040956497 0.0561270713806152 0.0105846766382456 -0.0560130476951599 -0.0809694677591324 0.0314280651509762 0.972255110740662 4.67124700546265 3.38691544532776 0.799679756164551 0.419318974018097 0.400366544723511 0.395619571208954 0.423820793628693 0.40097650885582 0.417971044778824 0.413835793733597 0.419293314218521 0.425509721040726 0.421116977930069 0.417988717556 0.424848943948746 0.429166615009308 0.475448668003082 0.468059033155441 0.463541090488434 0.479723513126373 1.49599897861481 1.27436947822571 1.08420789241791 1.09979736804962 1.02620601654053 1.13564443588257 1.25414073467255 1.27694380283356 1.32241582870483 1.27981805801392 1.15660798549652 1.23813927173615 1.16212391853333 1.14293968677521 1.15433311462402 1.12166440486908 0.973105847835541 0.937501728534698 0.887723326683044 0.791433990001678 0.723185837268829 0.594314813613892 0.478118538856506 0.343583285808563 0.275868743658066 0.161354392766953 -0.10491681843996 -0.348883390426636 -0.538167834281921 -0.726956427097321 -0.938683390617371 -1.23378705978394 -1.56698179244995 -1.73110806941986 -1.77340316772461 -1.68124711513519 3.50570917129517 5.66102123260498 4.76911783218384 3.27053427696228 1.75374794006348 1.19519901275635 1.35702919960022 0.981388509273529 0.754457354545593 0.106263048946857 -0.896708965301514 -1.3345535993576 -1.35052311420441 6.5182580947876 8.29618644714355 11.6714515686035 11.9990148544312 9.21679973602295 8.14829158782959 10.1526889801025 8.58732318878174 7.17295360565186 6.67253017425537 6.18121957778931 5.9189600944519 5.41244840621948 4.66591882705688 4.45399332046509 4.30408239364624 4.39191913604736 4.449143409729 4.52718448638916 5.27014017105103 5.68964767456055 6.36023950576782 7.00394582748413 7.17035102844238 7.23998785018921 6.62613439559937 6.56249809265137 6.26821231842041 5.57388114929199 4.71630573272705 4.40226650238037 3.96400451660156 3.55041003227234 5.94711780548096 4.28445529937744 2.78450775146484 2.70463466644287 4.16911506652832 3.20555067062378 3.8532657623291 4.89562225341797 4.7592134475708 4.65234088897705 4.40788698196411 4.01558208465576 8.84174060821533 10.9651823043823 14.8381719589233 12.4144992828369 8.96325492858887 7.75446701049805 9.3021297454834 13.3530778884888 8.47866916656494 9.23951435089111 6.68184804916382 5.84125900268555 5.90406608581543 6.41401481628418 6.50969457626343 6.64186382293701 8.06364917755127 9.51821994781494 10.6878051757812 10.266884803772 11.9271697998047 11.4482545852661 11.1082458496094 11.1487512588501 9.57906436920166
-0.0989385172724724 -0.598883986473083 1.42186319828033 4.08709001541138 3.16240167617798 2.48083519935608 2.33374953269958 1.4234881401062 0.302804052829742 -0.288829147815704 -0.262513816356659 -0.256188064813614 -0.301697224378586 -0.308467626571655 -0.168451443314552 -0.108097888529301 1.55134618282318 2.76283240318298 2.74343800544739 2.30366277694702 1.9440633058548 1.59500110149384 1.16019487380981 0.831238985061646 0.657054245471954 0.298462569713593 0.158934995532036 0.238220140337944 0.21363639831543 0.131070196628571 0.119491063058376 0.181930258870125 0.248017653822899 1.27032721042633 2.40970826148987 0.714649021625519 0.478156834840775 0.439625024795532 0.456348091363907 0.471927523612976 0.451727867126465 0.448322683572769 0.461112052202225 0.46236789226532 0.457004278898239 0.447714120149612 0.454325646162033 0.458402246236801 0.648948788642883 0.498481512069702 0.489769011735916 0.931899845600128 0.622963845729828 1.18200361728668 1.71017289161682 2.0375804901123 1.95186424255371 1.55189824104309 1.68129360675812 1.63500452041626 1.63346421718597 1.52405536174774 1.54739511013031 1.42109203338623 1.30993151664734 1.35804259777069 1.29987585544586 1.26422202587128 1.10487711429596 1.02081406116486 0.895005702972412 0.892293274402618 0.852968990802765 0.71229875087738 0.595724165439606 0.379199326038361 0.291021466255188 0.232919320464134 0.156385079026222 -0.0893089696764946 -0.276933252811432 -0.456615507602692 -0.606580555438995 -0.781164944171906 -1.01687943935394 -1.26067280769348 -1.46363580226898 -1.5547137260437 -1.57894337177277 0.803373098373413 4.20954465866089 4.17780113220215 2.51260828971863 2.00175213813782 1.98535561561584 1.58014476299286 1.41449761390686 0.928806304931641 0.627813160419464 -0.402592033147812 -1.15948760509491 -1.1576943397522 3.41884183883667 6.2330117225647 7.83268594741821 9.48837375640869 8.83149242401123 7.71926546096802 9.71781158447266 9.66310214996338 7.66366672515869 6.39976835250854 5.77621459960938 5.56007957458496 5.27055072784424 5.31884336471558 5.26591396331787 5.48160457611084 5.68924808502197 7.11737585067749 7.42569971084595 6.6048731803894 7.4094500541687 8.30244922637939 8.35514163970947 8.37753963470459 8.14694690704346 7.40265035629272 7.03449964523315 6.30620098114014 5.3350396156311 4.77075624465942 4.19911813735962 3.31700563430786 2.77268505096436 2.08617258071899 3.82866525650024 4.23306274414062 3.47191119194031 8.48545074462891 10.8516330718994 6.43636560440063 6.29632043838501 6.22390127182007 5.39624691009521 4.33629035949707 4.03525543212891 4.6770133972168 10.4414443969727 14.2065896987915 9.65148162841797 7.66863298416138 10.1199378967285 7.04923009872437 17.0623722076416 14.3831911087036 9.23508358001709 7.96700572967529 7.08220481872559 7.36911916732788 7.39522838592529 9.87550258636475 11.881067276001 11.6118726730347 12.4985761642456 10.8463773727417 12.2222280502319 11.6697435379028 11.4375619888306 10.3097810745239 13.3062782287598 10.4375915527344
-0.543436706066132 -0.865900874137878 -0.737671971321106 0.967204689979553 3.98353576660156 3.86260151863098 1.97165036201477 1.30913090705872 0.687217116355896 -0.0191703774034977 -0.0610550381243229 -0.030588436871767 -0.0717494189739227 -0.080926924943924 -0.0481452979147434 -0.0145817408338189 0.452406615018845 1.94474685192108 2.20755076408386 2.35984683036804 2.3238570690155 1.72050678730011 1.13098704814911 0.771598100662231 0.640028119087219 0.48612305521965 0.502508163452148 0.537616670131683 0.510471880435944 0.449039310216904 0.402973681688309 0.346629440784454 0.430048108100891 0.584674715995789 0.915512263774872 0.700062274932861 0.539963006973267 0.516219019889832 0.520402550697327 0.500517725944519 0.511750638484955 0.503795981407166 0.497371405363083 0.489970505237579 0.483962893486023 0.481679260730743 0.482484966516495 0.507611632347107 0.58497554063797 0.501412510871887 0.468172460794449 2.32732677459717 2.29478907585144 1.91821014881134 2.19452381134033 2.59667062759399 2.8038387298584 3.00739240646362 2.35721135139465 2.22112488746643 1.99724471569061 1.91677415370941 1.68592345714569 1.63416612148285 1.56566154956818 1.49382090568542 1.4339781999588 1.26177537441254 1.16972470283508 1.03104734420776 0.981351375579834 0.840895116329193 0.876591444015503 0.769124269485474 0.534966051578522 0.392787963151932 0.288889139890671 0.197727829217911 0.189944103360176 0.10931458324194 -0.12939915060997 -0.351741164922714 -0.519487798213959 -0.663830399513245 -0.85260146856308 -1.04917943477631 -1.21752071380615 -0.743759155273438 -0.883188724517822 -0.540636241436005 2.4515323638916 2.78101325035095 2.2777111530304 2.37358403205872 2.48155546188354 2.20484495162964 1.64432120323181 1.44872987270355 1.02652728557587 -0.0420284233987331 -0.487013548612595 -0.471525579690933 3.71419715881348 5.2804217338562 6.46275901794434 8.30264663696289 7.98845434188843 6.87844800949097 6.6323037147522 6.824462890625 6.88027286529541 5.89691209793091 5.38222455978394 6.00499057769775 6.025071144104 6.2073655128479 6.35948991775513 6.70856857299805 8.72489356994629 9.34497356414795 9.99565505981445 11.2013740539551 9.90898418426514 9.78302097320557 9.95086479187012 9.44958686828613 8.76338195800781 8.20398902893066 7.35248899459839 6.22594356536865 5.46151399612427 4.63468456268311 3.62554597854614 2.44934678077698 1.92829585075378 1.64125347137451 5.37356328964233 5.83584880828857 3.70436644554138 4.15360689163208 10.231071472168 12.25319480896 9.24692153930664 7.3141040802002 6.50720930099487 4.7149224281311 3.89400935173035 3.70679903030396 8.25014114379883 10.1796875 7.95153570175171 5.97045183181763 9.09479141235352 3.54821038246155 8.01557350158691 13.2586917877197 13.0486555099487 9.74868202209473 9.75930309295654 8.4918384552002 6.51817321777344 6.02778387069702 16.8631744384766 14.2479810714722 11.1431264877319 12.8841896057129 12.0137405395508 11.1941776275635 10.7600336074829 9.77145671844482 10.9164743423462 10.9752912521362
-0.287237584590912 -0.492875933647156 -0.594427227973938 -0.510529458522797 -0.036309476941824 2.15655255317688 1.72456252574921 -0.0425484739243984 0.617900013923645 0.468997895717621 0.322917848825455 0.465021103620529 0.0727194547653198 0.0642054527997971 0.0429601930081844 -0.00520471250638366 0.0271739438176155 0.579936027526855 1.23653268814087 2.07910346984863 2.34334945678711 1.76337432861328 1.17522096633911 0.827701210975647 0.729358077049255 0.884165465831757 0.952793836593628 0.851283967494965 0.792785346508026 0.698759257793427 0.694460511207581 0.635600924491882 0.671235084533691 0.748648285865784 0.818987846374512 0.798422038555145 0.642711579799652 0.580639600753784 0.562711954116821 0.567987322807312 0.565569281578064 0.534790456295013 0.533385097980499 0.524361133575439 0.512766599655151 0.516315162181854 0.535834968090057 0.5639368891716 0.550855219364166 0.473376870155334 0.398166656494141 2.38993859291077 4.0711464881897 3.41470313072205 3.17894506454468 3.14017081260681 3.59652423858643 3.62413883209229 3.68074607849121 3.13419437408447 2.60247683525085 2.24690318107605 2.11524271965027 1.94679534435272 1.81491184234619 1.62768089771271 1.50519585609436 1.44433057308197 1.29095232486725 1.18694317340851 0.995404779911041 0.873511493206024 0.71149206161499 0.610599219799042 0.467784106731415 0.39597824215889 0.344185829162598 0.328857839107513 0.366753727197647 0.334401249885559 0.156226798892021 -0.206299886107445 -0.443801164627075 -0.587429821491241 -0.744347035884857 -0.908172190189362 1.4241589307785 0.866791427135468 1.59368979930878 1.16413879394531 1.61878001689911 2.42467284202576 2.6508514881134 2.83769750595093 2.81093907356262 2.78492951393127 2.50384092330933 2.29107546806335 1.70922386646271 0.761693954467773 -0.129773408174515 -0.0543001443147659 3.420574426651 3.90296173095703 5.0535888671875 6.33499479293823 6.84731721878052 6.86224412918091 6.43773603439331 6.70550060272217 7.143150806427 6.57715749740601 6.46120452880859 7.27018785476685 7.99032974243164 7.97311735153198 8.16989803314209 11.0757694244385 12.3950548171997 12.5801677703857 14.1740570068359 13.1311864852905 13.4123029708862 11.8747873306274 11.2036542892456 10.2455539703369 9.43428421020508 8.1191291809082 7.04190301895142 6.18023777008057 5.21550750732422 4.06124925613403 2.77722454071045 1.72496771812439 1.00856709480286 0.253828674554825 2.97707176208496 5.09102153778076 9.2595682144165 7.52594375610352 7.16859817504883 9.37926864624023 11.5102386474609 9.25874328613281 6.48293018341064 5.65873241424561 4.55221652984619 3.87181806564331 4.29111242294312 6.36220026016235 4.11358499526978 3.60085010528564 5.64509201049805 3.333829164505 3.05476784706116 2.76832294464111 9.64730262756348 10.4835748672485 13.2389974594116 10.495213508606 6.23205327987671 4.18847227096558 11.1049127578735 20.4859066009521 16.3691368103027 14.1855878829956 12.5912981033325 10.5829620361328 9.50540256500244 9.14329242706299 11.1522102355957 11.855128288269
-0.190146461129189 0.0153802568092942 -0.364454239606857 -0.405879616737366 -0.418682247400284 1.38440847396851 0.102207846939564 0.161090612411499 0.190458118915558 0.14324314892292 1.00383734703064 0.306759774684906 0.199451893568039 0.14705915749073 0.0993848443031311 0.0576153136789799 0.0992261171340942 0.117974862456322 0.268872052431107 1.16317903995514 1.88371777534485 1.53519928455353 1.08617293834686 0.960597574710846 1.07339024543762 1.23554539680481 1.21266305446625 1.13569593429565 1.0204211473465 1.02675819396973 0.963153541088104 0.905311346054077 0.871846199035645 0.927959740161896 0.964947700500488 0.885672509670258 0.737093150615692 0.660219430923462 0.660356998443604 0.651675403118134 0.621122598648071 0.593392193317413 0.581631481647491 0.571302175521851 0.562441408634186 0.576608657836914 0.58433735370636 0.588932454586029 0.556843280792236 0.439866155385971 0.335287868976593 1.41320407390594 4.35635471343994 5.27195024490356 4.90564727783203 4.66785383224487 4.1190447807312 4.28218746185303 3.97050833702087 3.65916156768799 3.32782793045044 3.01299214363098 2.53857088088989 2.39192271232605 2.09238386154175 1.80459856987 1.67690742015839 1.56459093093872 1.4409943819046 1.20742917060852 1.00938427448273 0.74708503484726 0.603105783462524 0.531510949134827 0.459010601043701 0.435636103153229 0.446530967950821 0.467942208051682 0.49453067779541 0.322433024644852 0.100275337696075 -0.130451411008835 -0.387498199939728 6.76055383682251 3.03039908409119 4.25623369216919 3.64784669876099 3.65827512741089 3.04051375389099 2.99632930755615 3.11460018157959 3.29455089569092 3.38842058181763 3.479647397995 3.55140399932861 3.56162190437317 3.43157720565796 3.2038562297821 2.64828872680664 1.33665597438812 0.32793802022934 -0.0599569752812386 2.74181628227234 6.00387239456177 6.67212247848511 6.89665651321411 7.66844701766968 6.80996036529541 6.04147338867188 5.74399614334106 5.90323495864868 5.38627815246582 6.65799999237061 8.01303482055664 10.0819454193115 19.2457904815674 23.5579586029053 22.688684463501 16.685546875 19.0384483337402 16.8681697845459 16.9232730865479 14.9648017883301 13.2676544189453 12.0185594558716 11.2977724075317 9.43278884887695 7.82687377929688 6.5592360496521 5.14453744888306 4.49713754653931 3.11600661277771 2.01584911346436 1.11155915260315 0.294428169727325 -0.37173056602478 1.8078418970108 1.74667990207672 7.88943004608154 9.97353839874268 9.90392589569092 8.57525253295898 10.3545255661011 9.96542739868164 7.19906139373779 6.03808116912842 5.017662525177 4.5627703666687 4.34669351577759 4.34227895736694 4.08255243301392 3.53137516975403 3.52115702629089 3.11899948120117 2.82921981811523 2.21967506408691 2.22358655929565 3.8624746799469 9.12771415710449 9.32577705383301 6.22616767883301 3.83617329597473 6.55425930023193 15.842360496521 19.8923358917236 15.9341192245483 12.3798017501831 9.85863876342773 8.25404930114746 7.63719367980957 10.1124677658081 12.9377679824829
-0.276893109083176 -0.179438278079033 -0.1216741502285 -0.175957903265953 0.924160540103912 1.11358046531677 0.552936434745789 0.684211909770966 0.254478722810745 0.509412348270416 1.27113318443298 0.57503068447113 0.405160129070282 0.209501758217812 0.179151311516762 0.164117276668549 0.153087794780731 0.168926924467087 0.191244348883629 0.434562981128693 1.12511014938354 1.17758440971375 0.874901592731476 1.23571467399597 1.5230587720871 1.60375475883484 1.57234370708466 1.45477294921875 1.3369597196579 1.25890207290649 1.181809425354 1.1743803024292 1.12169861793518 1.13237845897675 1.11867392063141 1.02509558200836 0.964740633964539 0.936543166637421 0.809220790863037 0.739435195922852 0.698127508163452 0.672307074069977 0.651515126228333 0.637018382549286 0.632644057273865 0.624377906322479 0.615732908248901 0.61472100019455 0.570049703121185 0.412371695041656 0.26642319560051 0.204640582203865 3.55889368057251 6.39384508132935 6.39236640930176 6.88245868682861 5.66360235214233 4.83123540878296 4.5941162109375 3.94075751304626 3.56982183456421 3.11154294013977 2.8879292011261 2.44142031669617 2.0427930355072 1.8328549861908 1.67404353618622 1.42941772937775 1.25105452537537 1.10099732875824 0.808568239212036 0.638014018535614 0.560653150081635 0.505661904811859 0.513213753700256 0.5926753282547 0.652312934398651 0.603864550590515 0.502472698688507 0.348138213157654 0.139682784676552 -0.189239978790283 -0.701867520809174 12.8563213348389 12.7322969436646 8.12015914916992 6.53642129898071 5.37016248703003 4.86287260055542 4.66767835617065 4.27021932601929 4.58293914794922 4.55910110473633 4.5596079826355 5.06235694885254 6.56528615951538 5.57143497467041 4.49833965301514 3.46719145774841 1.84329354763031 0.425908863544464 -0.155308574438095 -0.263217598199844 6.1257119178772 8.54066371917725 8.86783981323242 7.80581188201904 6.27119445800781 4.85761880874634 4.40370082855225 3.86085915565491 3.87233996391296 3.56792879104614 5.36287784576416 4.30693101882935 6.84786796569824 15.9771766662598 30.7273368835449 35.3582992553711 25.3322715759277 22.5743980407715 18.7092189788818 16.0494079589844 15.3301830291748 13.5343418121338 11.3489770889282 8.96137523651123 7.43868732452393 5.50353717803955 3.85832595825195 3.46042799949646 2.27899026870728 1.2309068441391 0.364033311605453 -0.295997083187103 -1.03725206851959 -1.41290593147278 -1.64468932151794 4.02869367599487 7.78367376327515 10.570837020874 11.4412422180176 12.8735504150391 10.1238279342651 7.4008002281189 6.10335350036621 5.53542947769165 5.14356470108032 4.54741764068604 4.07654142379761 6.94074630737305 6.26744508743286 3.91627836227417 3.29432153701782 3.00213813781738 2.35557818412781 1.68810522556305 1.60634183883667 6.33546590805054 7.16281461715698 4.90886354446411 2.5334095954895 2.85705828666687 10.1494407653809 14.7767486572266 14.6918621063232 11.4373340606689 9.20024108886719 7.45774173736572 6.46650886535645 6.60192203521729 11.0257024765015
0.374444752931595 0.0253653936088085 -0.00324313342571259 -0.014569777995348 0.80799800157547 1.39418339729309 1.4187821149826 0.619170784950256 0.324805527925491 1.95586466789246 0.80197149515152 0.73469614982605 0.303705960512161 0.291438043117523 0.277285277843475 0.22338841855526 0.210856825113297 0.283700823783875 0.287290662527084 0.328615516424179 1.02317941188812 1.55203676223755 2.15632772445679 2.55134510993958 3.37999367713928 2.24452352523804 2.70808506011963 1.47299253940582 1.38679301738739 1.3185760974884 1.32778012752533 1.30022835731506 1.29222297668457 1.27221047878265 1.21056473255157 1.11788296699524 1.10097563266754 1.06205058097839 0.991497337818146 0.843237042427063 0.778841912746429 0.730069935321808 0.713770925998688 0.685878336429596 0.678972840309143 0.667218208312988 0.661300182342529 0.660579085350037 0.586526274681091 0.39873531460762 0.233464553952217 0.0958021879196167 0.296326786279678 4.54583358764648 6.34570407867432 7.04335021972656 7.63795852661133 5.95405006408691 4.8757266998291 4.36292886734009 3.67452931404114 3.359046459198 2.82455158233643 2.41533637046814 2.03996634483337 1.8443900346756 1.47187352180481 1.2674206495285 0.973439455032349 0.881364822387695 0.710476756095886 0.634621679782867 0.578190088272095 0.59002023935318 0.668551445007324 0.742627322673798 0.670125722885132 0.62755012512207 0.511123180389404 0.435427755117416 0.230630338191986 -0.351895987987518 -1.08372640609741 -0.0458818860352039 9.39650344848633 9.25074195861816 9.16016864776611 9.39944648742676 6.62350082397461 5.38380002975464 5.00175094604492 6.51076364517212 7.72256183624268 6.55275583267212 8.59578990936279 7.99668836593628 7.59264230728149 5.9244213104248 4.37606430053711 2.41836762428284 0.675600051879883 -0.554932773113251 -1.19025540351868 2.24916243553162 6.91220903396606 9.1671257019043 7.28465223312378 5.21193885803223 3.9787073135376 3.29204487800598 2.22672915458679 3.99524402618408 3.84712791442871 2.9309070110321 5.93416023254395 6.48200368881226 3.52191305160522 15.3228645324707 41.4025192260742 32.0943984985352 24.487756729126 21.1103096008301 18.9728813171387 15.2269659042358 13.4288167953491 10.6208162307739 7.89600133895874 6.5713996887207 4.32120609283447 2.93404221534729 2.43597054481506 1.7343852519989 0.461274355649948 -0.286707103252411 -0.831721484661102 -1.37072670459747 -1.84900104999542 -2.21153974533081 -2.05451202392578 2.3526017665863 6.09946155548096 9.81976890563965 10.4638004302979 9.73168849945068 8.68797588348389 6.8262300491333 6.20458316802979 5.70448207855225 4.57098436355591 3.16283655166626 3.33622622489929 4.75046634674072 6.11200094223022 3.53211784362793 2.99673795700073 2.2032105922699 1.17819082736969 0.913668692111969 3.74491858482361 5.8951301574707 4.15076303482056 2.94702816009521 2.35711717605591 6.33248901367188 10.9822025299072 12.7612781524658 10.6050281524658 8.93477249145508 7.29454565048218 5.56411361694336 3.91414713859558 5.80546712875366
0.269208550453186 0.0404064506292343 0.242231443524361 0.0766587629914284 0.504721343517303 1.63877904415131 1.13510072231293 0.742230951786041 2.65911841392517 1.21910035610199 0.983466982841492 0.457224756479263 0.384342610836029 0.382714986801147 0.337240010499954 0.271504491567612 0.326567500829697 0.363246977329254 0.387178540229797 1.48572754859924 2.06699442863464 2.74554228782654 2.75944256782532 1.7806099653244 1.84881377220154 1.67968189716339 1.90336155891418 1.65894436836243 1.5329841375351 1.46628618240356 1.4497035741806 1.42171430587769 1.39114475250244 1.3248815536499 1.27770066261292 1.25683045387268 1.18174147605896 1.10251653194427 0.998148918151855 0.898536801338196 0.828517913818359 0.804911077022552 0.77191174030304 0.743015706539154 0.731442391872406 0.725084185600281 0.723115086555481 0.706819832324982 0.62871789932251 0.520276427268982 0.299954742193222 0.0468993857502937 -0.0494856238365173 0.710939705371857 4.47819519042969 6.09542894363403 6.54656553268433 6.71283626556396 5.58601236343384 4.54612255096436 3.86703157424927 3.25395178794861 2.80345940589905 2.36327028274536 1.91738140583038 1.53638112545013 1.38676297664642 1.2160257101059 1.65925312042236 0.837859272956848 0.706262111663818 0.719718396663666 0.747966110706329 0.753788113594055 0.836414158344269 0.76243394613266 0.678564131259918 0.628087222576141 0.573411226272583 0.514858841896057 0.335661292076111 -0.441782414913177 -1.10740113258362 -1.33674848079681 1.17802309989929 5.96301794052124 7.87604761123657 8.49336910247803 7.01436853408813 5.25956583023071 4.88134860992432 7.54158878326416 10.4480619430542 10.8770341873169 10.7767839431763 10.0278329849243 8.33593559265137 6.90725040435791 4.5857310295105 3.32235407829285 1.00315570831299 -0.883748173713684 -2.01160740852356 -0.328974395990372 6.9466667175293 8.59709453582764 6.57222986221313 4.29882669448853 2.48657274246216 2.05304551124573 1.56403911113739 2.57134819030762 2.51001620292664 3.70915675163269 6.67608642578125 12.1958446502686 3.57710242271423 4.05164337158203 27.7535743713379 40.6108589172363 30.2691898345947 24.4594860076904 18.6738700866699 14.3338050842285 12.2562732696533 9.43142986297607 6.32321643829346 4.85006284713745 3.07253789901733 2.33985352516174 2.39778757095337 1.52236032485962 1.63600301742554 -0.819925904273987 -1.3165842294693 -1.7462512254715 -2.10793447494507 -2.38105916976929 -2.26390814781189 0.236826494336128 4.96349906921387 7.89807653427124 7.64934301376343 7.61064624786377 8.25697422027588 8.17208385467529 7.88014793395996 6.87481546401978 4.57675313949585 3.61999988555908 3.33935141563416 3.59809327125549 3.80383157730103 3.47098827362061 2.73670744895935 1.93631255626678 0.912648320198059 0.177808552980423 1.74114060401917 4.57333278656006 4.06763362884521 3.30019664764404 1.16184175014496 2.95582008361816 6.48134326934814 7.96519565582275 8.53588390350342 8.39059448242188 7.09086847305298 3.34368467330933 2.69683170318604 2.59367251396179
0.848365962505341 0.384432792663574 0.259755790233612 0.105547346174717 0.722797274589539 1.58917582035065 0.214850172400475 2.19536876678467 2.22358751296997 0.778520047664642 0.523675799369812 0.498010247945786 0.475269764661789 0.457833677530289 0.347166955471039 0.377666592597961 0.416311234235764 0.527736842632294 2.95429468154907 3.90125727653503 2.7567126750946 1.70760154724121 1.46547996997833 1.55338835716248 1.5905282497406 1.63190567493439 1.66965568065643 2.1113977432251 1.65772747993469 1.68560266494751 1.67879378795624 1.59195899963379 1.47512865066528 1.4532299041748 1.38818430900574 1.26983916759491 1.20631051063538 1.14381873607635 1.06731390953064 0.98374354839325 0.923805356025696 0.880342543125153 0.851478517055511 0.830063700675964 0.820804715156555 0.808493614196777 0.78084260225296 0.693286001682281 0.623767018318176 0.487755000591278 0.376104325056076 0.0147677659988403 -0.0677542462944984 -0.122031584382057 1.86745595932007 4.92637729644775 5.63010168075562 5.71089649200439 5.97202110290527 5.01940965652466 3.93552565574646 3.17337942123413 2.66161704063416 2.25484180450439 1.74609708786011 1.23633050918579 1.02024221420288 0.795785784721375 0.797582149505615 1.07481420040131 0.86772882938385 0.941848337650299 1.03915762901306 0.971014142036438 0.866735637187958 0.782472312450409 0.719616115093231 0.629739284515381 0.590323567390442 0.558398842811584 0.423733562231064 -0.432270228862762 -1.06365633010864 -1.34494161605835 -1.49033546447754 0.855484008789062 5.66450977325439 7.39424610137939 7.2097110748291 6.63444185256958 6.94152688980103 13.9795694351196 16.1594867706299 13.0948114395142 12.6881828308105 10.5047454833984 8.90159320831299 7.47013759613037 5.87611532211304 3.82241749763489 0.774725139141083 -1.3512499332428 -1.79915654659271 -1.89590358734131 3.96194505691528 6.34148788452148 5.71395063400269 3.15259599685669 1.56249976158142 0.963574409484863 1.61133360862732 1.1167494058609 -1.98851871490479 5.11216163635254 1.98958551883698 10.1502456665039 6.47939109802246 3.41553711891174 15.5564937591553 39.5643310546875 34.9901275634766 24.0633640289307 16.3328838348389 14.1156558990479 11.1173992156982 7.5784740447998 5.00274848937988 3.19027757644653 1.70430552959442 0.680779099464417 2.645667552948 1.31110465526581 0.424481868743896 -1.26224398612976 -1.72502946853638 -2.09227657318115 -2.08648014068604 -1.41132879257202 -0.83480316400528 1.2464771270752 5.72399950027466 8.20199680328369 8.58195972442627 9.37428188323975 9.75144863128662 9.81049823760986 7.59366273880005 7.10776901245117 5.22536945343018 4.51077461242676 4.279052734375 3.80011940002441 3.37822675704956 3.10784244537354 2.41194629669189 1.58921658992767 0.45357671380043 -0.564970195293427 0.94759202003479 4.44632959365845 5.746018409729 2.02090930938721 2.17010164260864 3.36630773544312 3.27734136581421 4.29185581207275 5.3848876953125 7.42703437805176 5.74417972564697 3.35932326316833 3.11748719215393 2.85391426086426
1.09829878807068 1.49061465263367 0.331164866685867 0.124268770217896 0.206548184156418 0.226028293371201 1.32978093624115 2.92257642745972 1.50258123874664 0.673369765281677 0.666499197483063 0.666380703449249 0.5341836810112 0.53529953956604 0.608938455581665 3.07145047187805 8.44723510742188 5.87283182144165 6.87744140625 3.38209223747253 2.50082850456238 1.6623477935791 1.63524949550629 1.64587342739105 1.75021767616272 1.78509294986725 1.81291210651398 1.98877501487732 1.8674920797348 1.91339695453644 1.75233745574951 1.65076768398285 1.61375999450684 1.48234295845032 1.42868685722351 1.3399863243103 1.25667250156403 1.21135568618774 1.1369696855545 1.05083179473877 1.00740945339203 0.957454442977905 0.926508605480194 0.900761842727661 0.860287845134735 0.858070433139801 0.816939473152161 0.76366263628006 0.68731278181076 0.582955360412598 0.36711585521698 -0.0131087088957429 -0.106046445667744 1.28183245658875 1.94930529594421 2.88431572914124 4.85406541824341 5.84749174118042 6.45012331008911 5.303542137146 3.63522458076477 3.16346836090088 2.6113395690918 1.99504971504211 1.39911770820618 1.10326969623566 0.922875881195068 0.808491766452789 0.894407868385315 1.01364147663116 1.00829839706421 1.14594149589539 1.03773283958435 0.996166944503784 0.928449153900146 0.865875959396362 0.769366800785065 0.648921370506287 0.632293701171875 0.594461917877197 0.49004665017128 -0.280345559120178 -1.00644266605377 -1.34075367450714 -1.53294289112091 -1.67373955249786 0.39432692527771 5.05213022232056 6.79011917114258 6.94137477874756 2.13305330276489 8.01907730102539 17.0440444946289 14.8084716796875 12.3560523986816 11.5165596008301 10.6207056045532 8.8408374786377 5.9614052772522 3.24870634078979 0.745817959308624 -1.43793225288391 -1.64812159538269 -1.73948931694031 -1.54330027103424 0.82309353351593 2.26516342163086 2.33481955528259 1.24719166755676 0.0862772166728973 0.693623065948486 -0.540694832801819 -2.20633554458618 1.73959648609161 3.54446983337402 6.47223854064941 7.20687770843506 2.81050658226013 5.9597692489624 31.374605178833 33.3584518432617 21.0711841583252 15.3832817077637 12.2124633789062 8.66444873809814 7.09411191940308 4.05070400238037 2.03833341598511 0.707527279853821 -0.158378019928932 -0.469495475292206 -0.755239844322205 -0.0146435685455799 -0.420541048049927 -0.655705749988556 -1.86438751220703 -0.51523494720459 0.523334741592407 0.982141315937042 2.33474254608154 7.18206214904785 11.2918539047241 13.6834020614624 12.6382751464844 12.4680471420288 9.01189041137695 6.74146699905396 6.3647837638855 5.57167434692383 4.97295665740967 4.77477931976318 4.08533143997192 3.25715780258179 2.49727988243103 1.9180634021759 0.875810861587524 -0.171066671609879 -0.964711666107178 -1.05061650276184 4.11566209793091 3.12435913085938 1.56566751003265 2.46750569343567 3.25075531005859 2.81656265258789 3.33282232284546 5.03953742980957 6.4783034324646 5.92243385314941 4.23033285140991 3.89425134658813 3.51414513587952
2.95914673805237 1.56173503398895 0.645841121673584 0.289022088050842 0.246685177087784 0.182768955826759 2.32798624038696 1.67358410358429 1.17991709709167 0.89570540189743 0.991427481174469 0.873406171798706 0.943708598613739 2.81279993057251 0.546697437763214 0.292962342500687 0.542085647583008 0.349712282419205 2.42891263961792 2.32838749885559 2.07197117805481 1.91465651988983 1.79333055019379 1.86645090579987 1.95688045024872 2.00265312194824 2.15014123916626 2.19712281227112 2.2017183303833 1.96825969219208 1.92286038398743 1.81524813175201 1.66003620624542 1.59045171737671 1.4907648563385 1.43678879737854 1.34428298473358 1.31377637386322 1.21877360343933 1.09791731834412 1.05363464355469 0.999872088432312 0.982596099376678 0.946987330913544 0.918034911155701 0.89130163192749 0.81733900308609 0.723832070827484 0.708975315093994 0.60786110162735 0.30583918094635 -0.0816424041986465 -0.190645202994347 0.906251192092896 2.56096601486206 2.57343983650208 3.03305983543396 4.40626525878906 6.38748550415039 5.45831155776978 3.57502269744873 2.59753727912903 2.35381484031677 1.59190249443054 1.31578719615936 1.09031081199646 0.98763769865036 1.02003288269043 1.13378846645355 1.32340133190155 1.23901617527008 1.1184606552124 1.03951215744019 0.958846271038055 0.912425994873047 0.806277215480804 0.720378398895264 0.679360389709473 0.663566470146179 0.64091819524765 0.572513163089752 0.0396883338689804 -0.782224535942078 -1.26423442363739 -1.49689590930939 -1.67271673679352 -1.83596587181091 -1.93173468112946 1.67895114421844 3.45146942138672 1.98474228382111 4.60362243652344 12.0996141433716 15.5921316146851 18.4131259918213 14.8502616882324 11.9830207824707 9.29650211334229 5.66611385345459 1.36291599273682 -0.325526028871536 -1.20024371147156 -1.43131399154663 -1.48895943164825 -1.60564780235291 -1.72744643688202 -1.4110996723175 -0.356038928031921 -1.51139497756958 -1.68294668197632 -1.47390353679657 -1.8593418598175 -2.14972925186157 -2.00118088722229 -0.731443226337433 2.94580101966858 5.0957555770874 4.39670705795288 6.70566177368164 27.0681285858154 27.0177421569824 19.2770290374756 12.6980028152466 9.46170234680176 5.61943292617798 6.36729526519775 5.66611671447754 0.990214705467224 0.0523135773837566 -0.667900085449219 -0.992862045764923 -1.05825424194336 -0.0700688585639 0.433445245027542 1.6941032409668 1.55815124511719 3.01228976249695 3.58697986602783 2.26584649085999 2.46331453323364 6.20102643966675 9.97528076171875 18.004358291626 16.8482189178467 12.136700630188 8.45042133331299 7.11537551879883 6.60985088348389 5.9668083190918 4.79264831542969 4.26741647720337 3.95385050773621 3.16516828536987 1.84487521648407 0.986490905284882 0.0170009694993496 -0.63038581609726 -0.8611701130867 0.918217897415161 1.88874018192291 2.05102586746216 1.71040821075439 1.73357129096985 2.49528646469116 3.58051609992981 3.89821863174438 4.9254674911499 5.55124759674072 4.63924407958984 4.15289258956909 3.97371792793274 3.82585120201111
3.19200086593628 1.65646255016327 0.620850324630737 0.386525183916092 0.186017692089081 0.555801331996918 0.737084150314331 0.82380336523056 1.2203905582428 1.76568138599396 2.05186772346497 0.952734410762787 0.638123393058777 0.554625511169434 0.367849409580231 0.229560121893883 0.170611590147018 0.12411667406559 0.895821690559387 2.45495533943176 2.09482574462891 2.04454660415649 2.14731621742249 2.13985347747803 2.19353580474854 2.46988558769226 2.49631476402283 2.36951518058777 2.36354064941406 2.13708710670471 2.00639319419861 1.91807329654694 1.81103551387787 1.69544839859009 1.64886808395386 1.57027065753937 1.49245166778564 1.38113236427307 1.31739342212677 1.16201090812683 1.09629261493683 1.0563896894455 1.01154816150665 0.98672616481781 0.954398691654205 0.908689498901367 0.870647132396698 0.824923276901245 0.736610054969788 0.579559683799744 0.213687643408775 -0.10395497828722 -0.251537799835205 -0.227226227521896 0.913117289543152 1.81937062740326 2.78275632858276 4.11555862426758 5.86924743652344 5.28118515014648 3.30077457427979 2.15970134735107 1.89882791042328 1.45768988132477 1.24859988689423 1.16964542865753 1.21759760379791 1.29743897914886 1.47638595104218 1.30011188983917 1.2211971282959 1.12373733520508 1.04483735561371 0.922876358032227 0.870980739593506 0.75131630897522 0.707475304603577 0.699462354183197 0.674171507358551 0.673834085464478 0.601621210575104 0.302336812019348 -0.335971802473068 -1.0166996717453 -1.38185679912567 -1.5890291929245 -1.79780197143555 -2.04470586776733 -2.24868392944336 -2.37473702430725 -2.47025489807129 -0.628701627254486 4.62644386291504 7.00900173187256 15.6662874221802 16.5212726593018 13.2630443572998 8.12834644317627 4.47630596160889 1.0159524679184 -0.845933556556702 -0.861998319625854 -1.10565674304962 -1.2481906414032 -1.41255247592926 -1.64246487617493 -1.91383063793182 -2.11267232894897 -1.9214403629303 -0.72858452796936 1.64702498912811 -1.56357419490814 -1.74199640750885 -1.8879919052124 -1.90085113048553 -0.914334058761597 0.564319372177124 7.10661029815674 14.1747417449951 24.831693649292 23.6798210144043 14.8257284164429 10.128568649292 6.11340713500977 2.86825203895569 1.15839791297913 2.03685784339905 0.882775068283081 -0.651025116443634 -1.15245568752289 1.54917466640472 -0.275907427072525 -1.59118056297302 -1.93246912956238 -0.867516875267029 0.45291730761528 1.22687780857086 1.74263501167297 1.31470561027527 0.443509668111801 0.810306787490845 2.25916147232056 9.8936710357666 14.3740835189819 11.1730127334595 9.22706031799316 7.86977434158325 7.2118353843689 6.04997396469116 5.01539325714111 3.78381299972534 3.04660844802856 2.31970405578613 1.42569208145142 0.567652523517609 -0.326794326305389 -0.773302733898163 -0.650107562541962 -0.59371429681778 -0.273368239402771 2.30422401428223 1.98524522781372 2.14408326148987 2.81902480125427 3.44813919067383 4.20394039154053 4.40197992324829 4.62622833251953 4.75906801223755 4.99992227554321 4.68172454833984 4.21976804733276
1.38818168640137 1.10576987266541 0.511630415916443 0.427996605634689 1.07311630249023 0.835434079170227 0.902727484703064 1.04404282569885 1.53138995170593 2.96186399459839 0.996760070323944 0.626863420009613 0.578979551792145 0.503016710281372 0.345473676919937 0.217611089348793 0.149510204792023 0.111290745437145 0.121954239904881 2.03442668914795 2.18445491790771 2.21021723747253 2.64806771278381 2.53604507446289 2.86788177490234 2.85113883018494 2.56504225730896 2.43736505508423 2.5483660697937 2.23901033401489 2.15376496315002 2.07381725311279 2.03285789489746 1.91760540008545 1.76901769638062 1.60007977485657 1.48206090927124 1.40267717838287 1.37581491470337 1.2179764509201 1.15176820755005 1.11652290821075 1.06734442710876 1.02251183986664 0.981330275535583 0.945592820644379 0.919363975524902 0.877981007099152 0.779700875282288 0.579805612564087 0.273373156785965 -0.000944072380661964 -0.174531266093254 -0.173544108867645 -0.0646459609270096 1.04277551174164 3.14111137390137 3.96541905403137 5.58605003356934 4.96753120422363 2.86767387390137 2.03201675415039 1.63700580596924 1.56129097938538 1.61468720436096 1.72838759422302 1.52584409713745 1.69852101802826 1.49469769001007 1.35204041004181 1.21283316612244 1.13289260864258 0.996551394462585 0.867884516716003 0.80777245759964 0.734060704708099 0.737134873867035 0.769287347793579 0.74566388130188 0.701349556446075 0.626106739044189 0.408394485712051 0.0822625681757927 -0.534536719322205 -1.10567319393158 -1.47228646278381 -1.76728665828705 -1.95187950134277 -2.14141082763672 -2.29033279418945 -2.35061812400818 -2.32859206199646 -2.29112696647644 -1.9332138299942 2.83793044090271 9.419677734375 9.19964408874512 7.03933525085449 4.47587394714355 0.923106849193573 -0.638388752937317 -0.827065527439117 -0.989366352558136 -1.18190145492554 -1.34976041316986 -1.59102022647858 -1.85120975971222 -1.76737070083618 -1.54463195800781 -1.43514788150787 1.59643125534058 2.1178126335144 -0.552420198917389 -1.89204597473145 -1.91814076900482 -1.91026902198792 -2.08519983291626 -1.34255790710449 8.65742111206055 18.865514755249 18.0251922607422 11.7377157211304 7.33733892440796 3.55763912200928 1.30476605892181 0.338243424892426 -0.307317316532135 -0.990423560142517 -1.44022607803345 -1.81990337371826 -1.39324057102203 -2.06198906898499 -2.44670009613037 -2.3674008846283 -2.45500016212463 -2.22975754737854 -0.202014729380608 0.592562258243561 0.210140123963356 0.129415094852448 0.763324379920959 3.54273104667664 8.24758338928223 11.2038660049438 11.4589653015137 11.6951293945312 9.55602836608887 7.15283870697021 5.97465562820435 4.66613483428955 3.30869555473328 2.50079894065857 1.77643263339996 1.39137744903564 0.967013537883759 0.496031731367111 -0.0433845147490501 -0.204373627901077 -0.383405745029449 -0.184429705142975 1.29174721240997 2.68985962867737 3.8353316783905 4.69360113143921 5.72973728179932 6.35228967666626 6.31245374679565 6.08052539825439 5.42268991470337 5.08116436004639 4.76501512527466 4.18280839920044
1.39501988887787 0.710116744041443 0.432818114757538 2.02688264846802 1.29293203353882 1.23868298530579 1.21168088912964 0.942487895488739 2.29497122764587 1.98732590675354 0.733242452144623 0.639928758144379 0.556884050369263 0.446307510137558 0.337571442127228 0.213221162557602 0.154995456337929 0.123487547039986 0.170557081699371 1.15505301952362 2.30983328819275 2.54783606529236 3.85626292228699 3.49138259887695 3.29029178619385 2.85534119606018 2.78552675247192 2.67698788642883 2.79490399360657 2.58117628097534 2.45288157463074 2.32064485549927 2.10976552963257 1.91606175899506 1.75986957550049 1.63328957557678 1.5348516702652 1.46814107894897 1.42122375965118 1.31081390380859 1.21461224555969 1.15547239780426 1.11364161968231 1.06402444839478 1.0341409444809 0.994878113269806 0.948804140090942 0.906025588512421 0.843156576156616 0.695049941539764 0.442436158657074 0.192083388566971 -0.0278193131089211 -0.00935404840856791 0.108391746878624 0.333079934120178 0.498539417982101 2.70353603363037 4.91477632522583 4.20673084259033 2.73154544830322 1.99761199951172 2.0064435005188 2.19675207138062 2.18346643447876 2.23222064971924 2.03655529022217 1.69182872772217 1.55426239967346 1.37522530555725 1.16300070285797 1.09184813499451 0.944851458072662 0.824986815452576 0.766838729381561 0.754585146903992 0.784649670124054 0.852063536643982 0.985304892063141 1.00561308860779 1.18137288093567 0.78306770324707 0.471691787242889 -0.114017657935619 -0.680067539215088 -1.21216487884521 -1.58316195011139 -1.66719734668732 -1.82725441455841 -1.97617018222809 -1.99694120883942 -2.04950475692749 -2.05000591278076 -2.02243614196777 -1.69603061676025 1.92906427383423 4.06691646575928 5.42083597183228 4.19406795501709 0.538427650928497 -0.651967525482178 -0.879966497421265 -0.975995182991028 -1.18524205684662 -1.407017827034 -1.62169229984283 -1.53797972202301 -1.18688690662384 -1.08717238903046 -1.44305872917175 -1.5801420211792 -1.63063168525696 -1.77256345748901 -1.89696550369263 -1.83719742298126 -1.76100170612335 -1.80124831199646 -1.4407114982605 5.44256973266602 13.3503704071045 13.6920385360718 9.05039978027344 4.87240695953369 2.69904327392578 1.00056779384613 0.200472980737686 -0.635692656040192 -1.3184118270874 -1.86081898212433 -1.869295835495 -2.05449151992798 -2.35695791244507 -2.25982570648193 -2.17164015769958 -2.24977087974548 -2.20322179794312 -1.69769334793091 -0.313381850719452 0.0756307020783424 0.827477991580963 3.22933220863342 4.65836143493652 7.59137916564941 9.10800361633301 9.40628051757812 11.0896148681641 9.45455455780029 6.46068811416626 5.45191287994385 3.89316058158875 2.90804958343506 2.41308546066284 2.29865503311157 1.66096580028534 0.999937891960144 0.40336349606514 0.132543042302132 -0.0165698528289795 0.0128919817507267 0.156324252486229 0.238085612654686 0.383126646280289 2.32120323181152 4.17681646347046 5.84640121459961 6.65097522735596 6.66258335113525 6.53869390487671 6.17142009735107 5.05692529678345 4.54615354537964 4.02860164642334
1.10444474220276 0.473183631896973 2.30569386482239 1.93337821960449 1.6276878118515 1.13345038890839 0.992555975914001 1.6043746471405 3.61388087272644 1.48067212104797 0.710278749465942 0.639638006687164 0.522103369235992 0.417885392904282 0.325967788696289 0.229477271437645 0.152788579463959 0.188007652759552 0.231134414672852 0.4675213098526 1.89398097991943 1.9196560382843 4.20986175537109 3.76005697250366 3.20851111412048 3.04625940322876 4.01912069320679 3.42147898674011 2.76972556114197 2.9166316986084 2.58483242988586 2.38157153129578 2.12799501419067 1.93224632740021 1.82219636440277 1.70438313484192 1.61225473880768 1.52405214309692 1.47275876998901 1.39057219028473 1.25699865818024 1.2112854719162 1.16479861736298 1.12175226211548 1.07941150665283 1.01697027683258 0.978540897369385 0.936999797821045 0.866932392120361 0.778219401836395 0.57099837064743 0.348368376493454 0.182667002081871 0.233610719442368 0.419130384922028 0.702172100543976 0.743364095687866 1.4979293346405 3.36763405799866 3.65622282028198 2.86819529533386 2.66324639320374 2.89319443702698 3.03980231285095 2.96235632896423 2.30291509628296 2.02784299850464 1.83751034736633 1.56433391571045 1.34243202209473 1.14112043380737 0.994973957538605 0.879151105880737 0.82405698299408 0.765502989292145 0.885841369628906 0.862369418144226 1.06188488006592 1.37503361701965 1.42754459381104 1.34357762336731 1.33246731758118 0.916163682937622 0.272866457700729 -0.359851688146591 -0.799702346324921 -1.13287115097046 -1.26148903369904 -1.37526917457581 -1.47881889343262 -1.58373808860779 -1.62760531902313 -1.64399743080139 -1.49927854537964 -1.26281678676605 -1.03472769260406 0.193144798278809 2.67612600326538 2.20949053764343 0.315330594778061 -0.698564887046814 -0.871196687221527 -1.04467666149139 -1.22325384616852 -1.44711148738861 -0.892163693904877 -0.417134135961533 -0.413004815578461 -0.565734624862671 -1.04424643516541 -1.51800489425659 -1.63456165790558 -1.66872346401215 -1.6774138212204 -1.64459335803986 -1.44076156616211 -1.14433515071869 -1.04624974727631 2.32375335693359 8.79220199584961 9.80994701385498 6.56856441497803 4.16813278198242 2.37182235717773 1.26737344264984 0.304681181907654 -0.99486631155014 -1.56736898422241 -1.72873139381409 -2.09936499595642 -1.86443793773651 -1.9550666809082 -1.8777688741684 -2.0114152431488 -2.1182849407196 -2.21123075485229 -2.24691820144653 -0.700704038143158 -0.906503617763519 1.0332555770874 2.96937036514282 5.54784631729126 8.6437349319458 8.87164497375488 8.26208686828613 8.32580661773682 7.36976194381714 6.54491662979126 4.15868949890137 2.84759068489075 2.77655148506165 2.71399974822998 2.10667371749878 1.49301743507385 1.07324635982513 0.701534330844879 0.38101464509964 0.389530956745148 0.352031022310257 0.391031682491302 0.386578351259232 0.182020843029022 0.692483425140381 2.84960532188416 4.77219343185425 6.11703777313232 6.16486835479736 6.26133632659912 6.29634523391724 5.59064912796021 4.46947860717773 3.88135075569153
0.564646482467651 1.97120642662048 3.03960871696472 2.31194710731506 1.17272007465363 1.07404470443726 0.901090681552887 1.85713136196136 4.39507436752319 1.46217215061188 0.691406667232513 0.617337465286255 0.52245306968689 0.425839304924011 0.379439443349838 0.341714024543762 0.34398940205574 0.279016494750977 0.443463027477264 0.448596477508545 0.964404284954071 0.977440655231476 2.99257135391235 3.45561742782593 3.30833435058594 2.63120555877686 2.70658659934998 3.79119849205017 3.11515545845032 2.98891448974609 2.85274958610535 2.49450278282166 2.22496199607849 2.07598495483398 1.94530022144318 1.79781198501587 1.69080543518066 1.61049401760101 1.56428730487823 1.47389936447144 1.36036550998688 1.29812395572662 1.23234832286835 1.16911387443542 1.13081204891205 1.07710707187653 1.00944101810455 0.951501429080963 0.913871467113495 0.839112877845764 0.691023886203766 0.486583441495895 0.396938264369965 0.525253057479858 0.802248299121857 0.90160745382309 0.920548021793365 0.933884918689728 1.96338188648224 3.13476490974426 4.51498222351074 5.84163188934326 4.45389556884766 3.8590030670166 3.21400237083435 2.63145399093628 2.06736040115356 1.85440742969513 1.56019413471222 1.30195832252502 1.07097327709198 0.951648771762848 0.871909976005554 0.830973982810974 0.952701926231384 0.912241280078888 0.997924029827118 1.14414799213409 1.54551899433136 1.61362516880035 1.68023240566254 1.51570856571198 1.24059736728668 0.614349484443665 -0.0303151085972786 -0.480988085269928 -0.689812123775482 -0.726857781410217 -0.918413937091827 -1.00820696353912 -1.08220839500427 -1.19392013549805 -1.16754341125488 -0.938511252403259 -0.811366319656372 -0.7005455493927 -0.478345721960068 -0.502496838569641 -0.398271441459656 -0.518991351127625 -0.652664244174957 -0.838556826114655 -1.05016255378723 -1.24686634540558 -0.672492384910583 -0.137515068054199 0.1444021910429 0.333140075206757 -0.102091081440449 -0.813296258449554 -1.19994008541107 -1.35190427303314 -1.36465179920197 -1.362921833992 -1.14058709144592 -0.95040225982666 -0.576704680919647 -0.524513244628906 1.70277857780457 6.63010215759277 6.17141437530518 5.47095155715942 4.19525384902954 2.38384032249451 0.877002060413361 0.222320228815079 -0.934278011322021 -1.3514803647995 -1.88251328468323 -1.57891821861267 -1.34225809574127 -1.44644165039062 -1.63409340381622 -1.9386727809906 -2.11633038520813 -2.24286937713623 -2.24699354171753 -1.32604932785034 -0.284523218870163 0.304096281528473 1.41666007041931 5.60896492004395 8.90664958953857 9.42975330352783 8.79158115386963 6.74127578735352 5.09422397613525 4.99063777923584 3.36200952529907 2.90660715103149 2.35887742042542 2.39535856246948 1.9011515378952 1.39784669876099 1.04328143596649 0.742669343948364 0.772090375423431 0.66021066904068 0.708055734634399 0.415605634450912 0.339889675378799 0.0222308989614248 -0.0430601127445698 1.61262691020966 3.82069253921509 5.47157526016235 5.85519790649414 5.62451505661011 5.85488319396973 5.7738676071167 4.72894668579102 3.9493293762207
1.00693142414093 3.6659369468689 3.43213939666748 1.52021050453186 1.18070697784424 1.02098643779755 0.787258982658386 0.753953099250793 3.80241179466248 2.23412823677063 0.692665874958038 0.602196156978607 0.532141506671906 0.475813060998917 0.473379850387573 0.468361854553223 0.614510595798492 0.547306001186371 0.47368922829628 0.431353121995926 0.609510719776154 1.33059644699097 3.0134072303772 3.28523826599121 3.19326138496399 2.80444383621216 2.80378246307373 3.27978992462158 3.23549485206604 2.93982195854187 3.31824636459351 2.64277267456055 2.39511871337891 2.22396397590637 2.0416898727417 1.92241871356964 1.81468236446381 1.74669134616852 1.66010820865631 1.58487343788147 1.47095990180969 1.35140311717987 1.29973661899567 1.25114774703979 1.21461224555969 1.14822375774384 1.06375014781952 1.01134204864502 0.959307372570038 0.902490019798279 0.829911053180695 0.911081552505493 0.746087670326233 0.919630229473114 0.973720371723175 0.941157579421997 1.07435488700867 1.0803564786911 0.989704549312592 0.918374001979828 1.38362550735474 4.6354546546936 5.07310962677002 4.85079526901245 3.52337193489075 2.8326621055603 2.22502255439758 1.76531791687012 1.51498770713806 1.1958931684494 1.06893992424011 0.985252797603607 1.10405111312866 1.08564531803131 1.04560983181 1.485555768013 1.92306864261627 1.84838700294495 1.66002535820007 1.95239782333374 1.80064761638641 1.51008915901184 1.38711249828339 0.864224374294281 0.232551947236061 -0.112753547728062 -0.285010397434235 -0.295261949300766 -0.445825129747391 -0.584723889827728 -0.527727782726288 -0.622162640094757 -0.517059028148651 -0.382533222436905 -0.296889662742615 -0.309175103902817 -0.385164827108383 -0.471277803182602 -0.443170636892319 -0.516893148422241 -0.654114663600922 -0.664830803871155 -0.831637322902679 -0.524121046066284 0.099220484495163 0.44417741894722 0.710012555122375 0.578370332717896 0.27861624956131 -0.505163490772247 -0.855077087879181 -0.777817070484161 -0.56001752614975 -0.512080311775208 -0.513623714447021 -0.598674595355988 -0.602334022521973 -0.504757106304169 1.82588672637939 5.32611513137817 5.49199295043945 6.47686815261841 3.96760582923889 1.99958622455597 -0.0996656343340874 -0.216794639825821 -0.464417636394501 -1.20192158222198 -1.32901692390442 -1.01302289962769 -1.05645155906677 -1.16131460666656 -1.47087407112122 -1.86626040935516 -2.15972137451172 -2.22495222091675 -2.39295530319214 -2.51347756385803 -1.5198335647583 -2.88819742202759 -0.334518671035767 3.26690435409546 6.29926681518555 8.32057952880859 8.89021492004395 5.45461845397949 4.40867614746094 4.58029556274414 3.8496835231781 2.6122031211853 2.01718735694885 1.85858726501465 1.64070188999176 1.31708633899689 1.02922248840332 1.11570584774017 1.00376296043396 1.03452360630035 0.712651550769806 0.398067057132721 0.178031086921692 0.0294035524129868 -0.182954758405685 0.0445682145655155 2.53554725646973 4.28274917602539 5.06329345703125 4.85725212097168 4.9179482460022 5.21683740615845 5.04648447036743 3.99173188209534
0.235665634274483 2.04727363586426 1.78342354297638 1.44498610496521 1.2451103925705 0.846515595912933 0.758250832557678 0.724488794803619 1.29962563514709 3.23483490943909 0.707381188869476 0.646203517913818 0.580849707126617 0.586580991744995 0.585448145866394 0.746726989746094 0.642166674137115 0.556349277496338 0.479449242353439 0.321440488100052 0.27460315823555 0.443673878908157 1.61206710338593 2.89298605918884 3.30073833465576 3.54470086097717 3.28165245056152 3.65531420707703 5.01193046569824 3.85270690917969 3.02558159828186 2.88466119766235 2.55076241493225 2.39682602882385 2.22706842422485 2.07142782211304 1.97281527519226 1.84738576412201 1.70879518985748 1.59568321704865 1.49251294136047 1.46415829658508 1.3990592956543 1.33688938617706 1.28446400165558 1.25648510456085 1.16233062744141 1.07310950756073 1.00855982303619 0.977280616760254 1.11430978775024 1.3328709602356 1.20294153690338 1.15443456172943 1.06340038776398 1.16816735267639 1.06073451042175 1.04583132266998 0.955465972423553 0.793205440044403 0.691387057304382 1.92421007156372 3.31557393074036 4.47950077056885 4.04905128479004 2.9400110244751 2.17601323127747 1.57592439651489 1.35355174541473 1.10181891918182 1.56817018985748 2.42636728286743 1.98890054225922 1.21461606025696 1.8274610042572 2.37478280067444 2.30315256118774 2.3407609462738 2.14732050895691 1.98447728157043 1.80307161808014 1.58684349060059 1.47522294521332 0.793168365955353 0.360690653324127 0.214466586709023 0.133304968476295 0.048846822232008 -0.0264498237520456 0.00647545279935002 0.0758559927344322 -0.0103273978456855 0.0429414063692093 0.13617630302906 -0.0486069247126579 -0.115579225122929 -0.311901271343231 -0.36727312207222 -0.405309706926346 -0.487175762653351 0.0435618422925472 0.335913956165314 0.553209900856018 0.643863022327423 0.624076306819916 0.9281907081604 1.15803647041321 2.55853962898254 2.26632833480835 1.96322214603424 1.4852933883667 0.824972867965698 1.07672023773193 1.37779712677002 -0.101351603865623 -0.405197620391846 -0.505798995494843 -0.441158354282379 0.586842715740204 3.19178152084351 6.7997579574585 7.73096323013306 3.74506831169128 1.24000179767609 0.262500196695328 -0.0657628104090691 -0.103758655488491 -0.592856645584106 -0.619068384170532 -0.747352600097656 -0.851305663585663 -0.911398947238922 -1.27920508384705 -1.66595244407654 -2.11485481262207 -2.17362451553345 -2.40345239639282 -2.64907932281494 -2.7861168384552 -2.80977773666382 -2.55803394317627 0.737890422344208 2.92076063156128 6.3895788192749 4.92535829544067 2.93092393875122 4.96624231338501 5.95454406738281 3.789959192276 2.60272479057312 2.2441074848175 2.03026914596558 1.61143231391907 1.2855578660965 1.18516445159912 1.32147920131683 1.35607206821442 0.984954953193665 0.670811176300049 0.444454282522202 0.0976681709289551 -0.0233803875744343 -0.10570365935564 -0.182020843029022 1.45727586746216 3.468022108078 4.36534881591797 4.36548852920532 3.98672842979431 4.0874547958374 3.98347592353821 3.86336779594421
1.31683921813965 1.74910461902618 1.72527050971985 1.58880352973938 0.966168940067291 0.814540028572083 0.818277537822723 0.782120585441589 0.803450703620911 2.45767426490784 0.774914145469666 0.760419070720673 0.797210812568665 0.723316133022308 0.89430445432663 0.83670836687088 0.706777334213257 0.500502645969391 0.371727734804153 0.293204098939896 0.15147502720356 0.185304254293442 0.887922286987305 1.79624283313751 3.08929753303528 4.01380491256714 4.02605056762695 2.61151146888733 3.35799837112427 3.71845459938049 3.05462598800659 3.11598491668701 2.76383972167969 2.57285618782043 2.42265343666077 2.22823333740234 2.03667259216309 1.87250351905823 1.75762021541595 1.65760767459869 1.59885811805725 1.52696979045868 1.52971720695496 1.46699500083923 1.41369783878326 1.31657409667969 1.231689453125 1.15076017379761 1.08942759037018 1.21156620979309 1.47481679916382 1.49202811717987 1.41575562953949 1.30002987384796 1.35210251808167 1.18664288520813 1.09554064273834 0.966730833053589 0.904359221458435 0.782613575458527 0.683139026165009 0.678610444068909 2.14599800109863 3.55364966392517 3.99126982688904 2.76959848403931 1.95974016189575 1.55101990699768 1.23127293586731 0.841738402843475 0.962259650230408 1.06464827060699 2.18381834030151 3.32324647903442 3.20393347740173 3.12383103370667 2.91646909713745 2.62011241912842 2.10053133964539 1.91244649887085 1.82945764064789 1.7164134979248 1.56986844539642 1.00697946548462 0.407608509063721 0.396573454141617 0.494000405073166 0.414939016103745 0.52172726392746 0.531631112098694 0.524793148040771 0.441481351852417 0.471631228923798 0.266812443733215 0.0561225041747093 -0.0207934658974409 -0.16706445813179 -0.30256000161171 1.0385262966156 1.25912749767303 1.33770966529846 1.56988453865051 1.29958581924438 1.46430134773254 0.972096383571625 8.54094696044922 10.56773853302 10.0599594116211 6.1662745475769 5.41732025146484 3.64001321792603 3.44533824920654 1.53735244274139 0.811530947685242 1.03461003303528 -0.0365957617759705 -0.557113707065582 -0.782710194587708 -0.832422316074371 -0.9557004570961 5.12925624847412 6.50060653686523 3.32036519050598 1.16551792621613 0.445361137390137 0.447597980499268 0.439817309379578 -0.124491266906261 -0.412103921175003 -0.620647430419922 -0.59554386138916 -0.494654327630997 -0.71936571598053 -1.32719790935516 -1.75711250305176 -2.26382279396057 -2.42198252677917 -2.54774856567383 -2.54741859436035 -2.42144131660461 -2.27509951591492 -2.08323001861572 1.26148557662964 3.19715309143066 1.2027553319931 0.461313128471375 3.54116106033325 4.97946977615356 3.7675085067749 2.58579802513123 2.5004448890686 2.04460740089417 1.69549071788788 1.57336533069611 1.56037485599518 1.68825781345367 1.35985171794891 0.936259090900421 0.673650860786438 0.420567363500595 0.281729698181152 -0.066291056573391 -0.13618041574955 -0.17545510828495 -0.175066933035851 2.22175145149231 3.52724862098694 3.88196420669556 3.87921547889709 3.52498459815979 3.10966157913208 2.93963098526001
0.97571212053299 1.36905908584595 1.90477120876312 1.49616503715515 0.842540502548218 0.827843248844147 0.953988194465637 0.954740583896637 0.815872669219971 1.28841948509216 0.937534093856812 0.903316855430603 1.10312962532043 1.08315932750702 0.991183817386627 0.873091578483582 0.66446590423584 0.505563020706177 0.270884186029434 0.194770976901054 0.142043933272362 0.0685593336820602 0.484056949615479 0.762260973453522 1.97239303588867 2.89217662811279 3.91279935836792 3.01020836830139 4.41209936141968 3.77528214454651 3.3130042552948 3.10588765144348 2.89475131034851 2.70341968536377 2.48607230186462 2.25305867195129 2.05865240097046 1.92835092544556 1.83893668651581 1.79585349559784 1.76446759700775 1.70648884773254 1.59546339511871 1.53596782684326 1.44948494434357 1.41797816753387 1.34694719314575 1.36283433437347 1.31478428840637 1.58664906024933 1.60490119457245 1.52216184139252 1.60026597976685 1.53906965255737 1.35915434360504 1.21730029582977 1.06252920627594 0.974872291088104 0.893877148628235 0.800274252891541 0.700321137905121 0.68931257724762 1.17249059677124 2.87879371643066 3.5461208820343 2.37673163414001 1.82217991352081 1.65308356285095 1.59058594703674 1.04767107963562 1.67949163913727 3.31469774246216 5.04052305221558 5.91990184783936 6.38654708862305 3.96104145050049 3.52977395057678 2.55761003494263 2.00754523277283 1.92633926868439 1.85377907752991 1.77695655822754 1.60265278816223 1.39934325218201 0.65070366859436 0.761738181114197 0.948577582836151 0.903708934783936 0.982522487640381 0.954236567020416 0.825635492801666 0.689840495586395 0.448581606149673 0.220774218440056 0.111556470394135 0.00475518917664886 -0.12769079208374 1.84139943122864 2.52429366111755 3.3957839012146 3.40208983421326 2.59103727340698 2.32106423377991 1.54022812843323 0.327311843633652 1.38588452339172 7.53088045120239 12.0099687576294 11.525541305542 8.26748371124268 6.17888975143433 2.91492342948914 2.14463353157043 3.20353555679321 3.10321068763733 0.504275262355804 -0.348202466964722 -0.923931419849396 -1.19693386554718 -0.982436716556549 0.42363440990448 2.51695680618286 1.95298457145691 1.79075348377228 1.36295008659363 1.32988858222961 0.700299918651581 0.308510482311249 -0.269330382347107 -0.412325382232666 -0.284952163696289 -0.354049563407898 -0.313983112573624 -0.781473934650421 -1.51281547546387 -1.98827052116394 -2.33783841133118 -2.27929949760437 -2.12122678756714 -1.64319229125977 -1.84365940093994 -1.78521144390106 -1.51333808898926 -0.0536745972931385 -0.545490086078644 -0.0340032838284969 1.65164041519165 2.70801830291748 2.80453824996948 2.441650390625 1.94259881973267 1.76048135757446 1.59162378311157 1.6937450170517 1.85001301765442 2.19593000411987 2.07908511161804 1.3350578546524 0.746227025985718 0.542737007141113 0.263094216585159 0.0943803265690804 -0.170368328690529 -0.174890547990799 -0.153213888406754 0.717721402645111 2.36100554466248 3.31396007537842 3.87087821960449 3.59156084060669 2.87721633911133 2.55447125434875
0.664608538150787 0.952273190021515 1.52250754833221 1.51514506340027 1.08981895446777 1.07814633846283 0.814487099647522 0.855720221996307 0.965823471546173 1.19077444076538 1.14018619060516 1.24337589740753 1.19843351840973 1.10404479503632 1.02396643161774 0.81745857000351 0.655689716339111 0.413081467151642 0.283766746520996 0.138204202055931 0.0783972665667534 0.0106942960992455 0.24216802418232 0.271010190248489 1.47133588790894 2.18751239776611 3.14111137390137 3.25421690940857 4.66309070587158 4.02339792251587 4.95393228530884 3.59321594238281 3.16824078559875 2.87444996833801 2.54447221755981 2.32157683372498 2.19231629371643 2.11023020744324 2.05259537696838 1.93230891227722 1.85604918003082 1.76787304878235 1.6583753824234 1.60105216503143 1.51303839683533 1.46267771720886 1.49299824237823 1.79801750183105 1.72766613960266 1.71707534790039 1.62399911880493 1.70161557197571 1.54407155513763 1.48344433307648 1.34758770465851 1.16745710372925 1.06246364116669 1.00349938869476 0.967216432094574 0.867071390151978 0.73365992307663 0.69477367401123 0.694889962673187 2.82683968544006 2.96365523338318 2.19672560691833 2.11777853965759 2.1245641708374 1.65212762355804 1.16386377811432 1.11944186687469 1.0540452003479 1.37215757369995 3.81323075294495 7.68506479263306 5.50951623916626 3.47078108787537 2.38063883781433 2.14341831207275 1.98175776004791 1.88085269927979 1.83883047103882 1.6179074048996 1.40884578227997 1.30632615089417 1.34359729290009 1.37728035449982 1.25583648681641 1.3393383026123 1.31616079807281 0.918686985969543 0.695550858974457 0.409683257341385 0.279444545507431 0.647695660591125 1.70551264286041 2.7555775642395 3.38329648971558 4.36283779144287 4.48812341690063 4.62901496887207 3.75471186637878 2.65433192253113 1.90228497982025 -0.239481434226036 -0.938167810440063 -1.16004741191864 2.2399423122406 10.7504348754883 11.0209312438965 6.8850474357605 2.34371995925903 0.694655776023865 2.18626737594604 3.63815832138062 1.12843823432922 0.306545168161392 -0.38173121213913 -0.389649569988251 -0.436282366514206 0.357611507177353 0.35290738940239 1.37053501605988 3.81408667564392 3.33523344993591 2.46277856826782 0.872232496738434 0.466077089309692 0.147379830479622 0.0335055589675903 -0.12575526535511 -0.0661249458789825 -0.682724177837372 -0.814716696739197 -1.14031445980072 -1.47321975231171 -1.76597046852112 -1.91540169715881 -1.75315463542938 0.0356649607419968 -0.506346225738525 -1.53621518611908 -1.40318894386292 -0.952835083007812 -0.114679999649525 1.0819286108017 1.79436039924622 1.99999308586121 2.42039251327515 2.16352534294128 1.3884209394455 1.54089605808258 1.07809543609619 1.26280450820923 1.74503982067108 2.23636674880981 2.38274097442627 1.67057490348816 0.754916846752167 0.453954726457596 0.330960541963577 0.095191091299057 -0.0129134515300393 -0.179564610123634 -0.146831676363945 -0.170834213495255 1.24900674819946 2.62313890457153 3.46690821647644 3.52594017982483 2.88398051261902 2.66816401481628
0.836714267730713 0.845232725143433 1.87035071849823 2.38504028320312 1.84247612953186 0.884085297584534 0.870576202869415 0.977618515491486 1.1351398229599 1.45961630344391 1.57038354873657 1.37979161739349 1.22846806049347 1.02264583110809 0.889217555522919 0.796318829059601 0.555815100669861 0.43029910326004 0.227283596992493 0.0841511338949203 0.0381792634725571 0.0178553219884634 -0.00329383695498109 0.269870489835739 1.0834949016571 1.77754127979279 2.82769727706909 3.36442875862122 3.60294604301453 2.83948016166687 5.09044647216797 3.86590957641602 2.92560601234436 2.86246585845947 2.77725076675415 2.44531106948853 2.29416751861572 2.25293040275574 2.14148139953613 2.00681972503662 1.91258299350739 1.80263912677765 1.7736622095108 1.70389199256897 1.63352978229523 1.5829336643219 1.88963425159454 1.91410911083221 1.85758113861084 1.81075286865234 1.82272958755493 1.59913527965546 1.48670172691345 1.3244903087616 1.6010833978653 1.74419009685516 2.27820134162903 2.80581378936768 1.48617720603943 0.911723852157593 0.774948358535767 0.690754175186157 0.72498232126236 2.32173347473145 3.74558210372925 2.91095638275146 2.72463917732239 2.32400584220886 2.01917576789856 1.62105882167816 1.16282844543457 1.44772613048553 1.31897294521332 1.54968011379242 6.8593225479126 5.45891666412354 2.98344850540161 2.54712343215942 2.23570990562439 2.07805037498474 1.91301763057709 1.65477406978607 1.51979219913483 1.6218409538269 1.56444621086121 1.5705418586731 1.59874057769775 1.50855386257172 1.49727714061737 1.08009886741638 0.649033665657043 5.12950563430786 4.11931228637695 1.88950383663177 5.07156276702881 5.2891993522644 5.60089254379272 5.58713483810425 5.72768974304199 5.93728733062744 5.32620477676392 4.31985330581665 2.98397588729858 1.96673369407654 0.186644211411476 -0.94581151008606 -0.839708924293518 -0.837497711181641 -0.216468557715416 5.94503450393677 6.78975915908813 3.19666576385498 1.15692913532257 1.06674671173096 1.58029389381409 0.935619950294495 0.636785089969635 0.00180316995829344 0.383660048246384 0.551711320877075 0.450928270816803 0.713590502738953 1.77028441429138 3.93200826644897 4.41506481170654 2.47087144851685 1.05080103874207 0.491742432117462 0.22370220720768 0.0123034194111824 -0.00987325143069029 -0.513044655323029 -0.734775424003601 -0.883213818073273 -0.939992010593414 -1.17985188961029 -1.47302222251892 -1.58327221870422 -1.57124066352844 -1.52391171455383 -1.57109129428864 -1.55177843570709 -1.53960335254669 -1.11855757236481 -0.500579714775085 1.28216075897217 1.75152158737183 1.43224442005157 1.95767092704773 1.9482616186142 1.89410185813904 1.19009852409363 0.739555060863495 0.598459303379059 0.726516664028168 1.42018032073975 1.9188187122345 1.54864180088043 0.53644335269928 0.453161686658859 0.238650798797607 0.125912860035896 -0.0144637413322926 -0.0342537574470043 -0.151540353894234 -0.011198777705431 0.885536193847656 2.11173129081726 2.90207839012146 2.84209132194519 3.02269124984741 3.40711522102356
0.918321847915649 0.803553700447083 0.767674207687378 1.8639760017395 1.73665976524353 0.951451361179352 1.03158056735992 1.16341817378998 1.49521625041962 1.5766464471817 1.5968097448349 1.43237626552582 1.16993165016174 0.996161818504333 0.769424438476562 0.666717112064362 0.569072961807251 0.372726827859879 0.193230345845222 0.109214648604393 0.0102463215589523 -0.0153355840593576 -0.0957850143313408 0.295650631189346 0.666078507900238 1.28259515762329 2.0023877620697 3.2055344581604 3.61574721336365 2.72487711906433 3.42138290405273 3.82656168937683 3.11009287834167 2.86985611915588 2.79380178451538 2.83257293701172 2.43947005271912 2.28980875015259 2.19459342956543 2.11378860473633 2.0913724899292 1.94839382171631 1.86831617355347 1.79036819934845 2.06382775306702 1.99856281280518 2.02497792243958 1.97037255764008 2.07397127151489 1.98752164840698 1.74719512462616 1.54675960540771 1.3451966047287 1.23072636127472 1.12124383449554 1.05628824234009 0.977480471134186 1.52995681762695 1.2063319683075 0.934135496616364 0.836300015449524 0.762501895427704 0.749966621398926 0.874914228916168 4.181480884552 4.90496635437012 3.41016411781311 2.91538453102112 2.45085072517395 2.9135479927063 2.12969279289246 1.74751377105713 1.62563669681549 1.47202980518341 5.49095439910889 4.69650793075562 3.19341444969177 2.68590497970581 2.38755798339844 2.11078119277954 1.7016099691391 1.58799684047699 1.76210343837738 1.83863639831543 1.74446713924408 1.77264130115509 1.79971623420715 1.70633137226105 1.30957591533661 0.731678366661072 0.323891788721085 3.05526924133301 4.56817865371704 5.41781091690063 6.4418773651123 8.24074363708496 8.69993591308594 7.92842388153076 7.19055271148682 6.65017795562744 6.1016993522644 4.78205251693726 3.13835954666138 2.6115837097168 1.86522591114044 0.93748140335083 0.411306917667389 0.0935752242803574 -0.102071367204189 0.402528762817383 3.03995418548584 4.0094108581543 2.70978593826294 1.83397483825684 1.663982629776 1.36707735061646 1.17531609535217 0.976155400276184 0.46378156542778 0.961600959300995 0.924335956573486 0.888894200325012 0.861054480075836 1.89433789253235 3.30824875831604 2.65597295761108 2.13037514686584 0.606007814407349 0.401929974555969 0.249128401279449 -0.137536689639091 -0.474839717149734 -0.527972877025604 -0.539091408252716 -0.681922256946564 -1.02426612377167 -1.33442234992981 -1.44950616359711 -1.32962810993195 -1.39390051364899 -1.492072224617 -1.47682154178619 -1.44710087776184 -1.36668395996094 -0.43438583612442 1.34235882759094 1.49430871009827 1.71906065940857 2.18751788139343 2.50384283065796 1.77920377254486 1.16241824626923 0.729234933853149 0.403197169303894 0.52649462223053 0.670647084712982 0.553608000278473 0.663889706134796 0.27093517780304 0.315180003643036 0.215528041124344 0.00597956404089928 0.0984672755002975 0.314102679491043 0.26111975312233 0.445198327302933 1.1683269739151 2.44178462028503 3.13471961021423 3.43206167221069 4.10644054412842 4.44482612609863
