NCOLS 172
NROWS 31
XLLCORNER 353680
YLLCORNER 6701264
CELLSIZE 16 
NODATA_value -3.4e+38 
5.24764966964722 5.8900318145752 6.4481053352356 6.80797815322876 7.06512546539307 8.35507488250732 9.45262241363525 10.436315536499 11.7008495330811 12.6499252319336 14.1898565292358 15.324239730835 16.4525508880615 18.9025650024414 22.5888233184814 27.7465858459473 31.3545742034912 20.3458766937256 20.4653606414795 24.7491359710693 28.0751647949219 16.4986248016357 9.41993618011475 -2.01003289222717 -1.91620111465454 -1.44316160678864 -1.02707171440125 -0.447858154773712 0.309779167175293 0.636386632919312 1.1754744052887 0.657982885837555 -0.349081873893738 -0.438454061746597 -0.334212273359299 0.531552851200104 1.46821010112762 1.1641458272934 1.40662491321564 2.11968207359314 2.67993712425232 3.51395797729492 3.90709209442139 4.58735179901123 5.04475021362305 5.91423463821411 6.98084878921509 7.99676370620728 9.41623878479004 9.82407760620117 15.365460395813 10.0243625640869 4.73942089080811 -1.44138491153717 -2.0679247379303 -1.97334659099579 -1.72485458850861 -1.57017064094543 -1.42147719860077 -1.32778537273407 -1.00419771671295 -0.504741311073303 -0.163992896676064 0.120487429201603 0.355251759290695 0.555850863456726 0.74746572971344 0.995262205600739 6.66453981399536 13.5707416534424 0.280084729194641 0.281375527381897 0.559388995170593 1.08763766288757 1.58036184310913 1.93854677677155 2.10539269447327 2.21901202201843 1.94358968734741 2.15925002098083 2.33464670181274 2.17136287689209 3.86309790611267 5.09649133682251 8.64687633514404 8.62727832794189 6.73398542404175 0.728349566459656 -2.18842816352844 -2.03548192977905 -1.75652420520782 -1.49141848087311 -0.255077958106995 0.780524551868439 0.191342622041702 -0.811136901378632 -0.675788700580597 -0.532645702362061 -0.412064373493195 -0.349627166986465 -0.275787681341171 -0.221711128950119 -0.151658862829208 -0.105651177465916 -0.0604409128427505 -0.020527645945549 0.0178907755762339 0.068636916577816 0.0829924866557121 0.112594321370125 0.218651786446571 0.357183635234833 0.424163460731506 0.421293258666992 0.429760158061981 0.439611047506332 0.448566883802414 0.458342552185059 0.471163153648376 0.488345384597778 0.509642720222473 0.816030323505402 1.0828697681427 1.21733129024506 2.36478400230408 1.28783369064331 1.60748970508575 2.08463716506958 2.97491860389709 3.4565966129303 5.03049325942993 6.56099939346313 9.15154933929443 10.9403448104858 5.37014245986938 2.4085009098053 1.79273676872253 2.12063384056091 2.68838906288147 3.75841736793518 4.14598512649536 3.90101909637451 4.57089900970459 5.29460191726685 4.56990337371826 3.02978849411011 2.46096253395081 2.30358958244324 1.45386242866516 0.715579748153687 0.764815270900726 0.845868349075317 0.928761601448059 1.0908077955246 1.16248631477356 1.26637983322144 1.4163773059845 1.49706673622131 1.59507238864899 1.70718014240265 2.03017997741699 2.13936567306519 2.22872829437256 2.09325337409973 1.91798102855682 1.97816598415375 1.98225057125092 1.76043248176575 1.59028780460358 1.63162791728973 1.68203556537628 1.71738088130951
5.6854453086853 6.47381639480591 6.91203260421753 7.23253631591797 7.79589366912842 8.89341068267822 9.8213472366333 10.9621067047119 12.0550136566162 12.9331407546997 14.1774053573608 15.157374382019 16.4726371765137 17.9385890960693 20.748104095459 26.3554916381836 32.868221282959 26.0052890777588 22.3787937164307 24.9294853210449 24.6019840240479 23.8377437591553 10.8302030563354 -2.16550707817078 -2.36317443847656 -2.12966775894165 -1.70349776744843 -1.33717226982117 -0.73681366443634 -0.615899324417114 0.0454070866107941 -0.048576295375824 -0.0209744162857533 0.0824543982744217 0.213373109698296 0.935740411281586 1.58454191684723 1.87245643138885 2.44864702224731 2.80468344688416 3.48505687713623 3.80318140983582 4.1355185508728 4.88030862808228 5.36592721939087 5.95631122589111 6.9353175163269 10.0079364776611 7.19901990890503 7.12829875946045 12.1297626495361 5.56207084655762 1.43311190605164 -1.96162581443787 -1.89985156059265 -1.80141377449036 -1.52937829494476 -1.25936079025269 -1.0234922170639 -0.906622111797333 -0.613587915897369 -0.101863622665405 0.236186146736145 0.48216712474823 0.685611426830292 0.703613221645355 3.59580731391907 5.14418792724609 13.615421295166 7.00969219207764 -0.206771612167358 -0.0899188816547394 0.251271992921829 0.929330170154572 1.37190937995911 1.31537413597107 1.50152003765106 1.79596984386444 1.08996665477753 1.24871599674225 0.261556595563889 0.27116984128952 2.71636867523193 3.88807344436646 5.43846273422241 8.50069046020508 6.75190353393555 2.40524435043335 -0.975310206413269 -1.70290970802307 -1.51606690883636 -1.2749125957489 -1.08091151714325 -0.909381031990051 -0.754844665527344 -0.622665286064148 -0.514397263526917 -0.427628308534622 -0.375047832727432 -0.298650950193405 -0.229914039373398 -0.173431813716888 -0.130399137735367 -0.0812978819012642 -0.0574281923472881 -0.0166693590581417 0.057159386575222 0.0939517691731453 0.116343706846237 0.126603364944458 0.138690620660782 0.245786815881729 0.369222402572632 0.418484389781952 0.428590714931488 0.439545959234238 0.448853552341461 0.457946389913559 0.706987917423248 0.93705826997757 0.982109606266022 1.15155959129333 1.39179491996765 1.46279406547546 1.66819798946381 2.27807855606079 2.28818702697754 2.75001502037048 3.39772081375122 3.89686155319214 4.59847450256348 4.72110414505005 5.97414207458496 7.86613321304321 5.17224884033203 3.33866739273071 2.35699439048767 2.64929533004761 2.61710071563721 2.35363507270813 2.71903133392334 2.66978693008423 2.37354397773743 2.5823290348053 2.6973876953125 2.35186958312988 2.68348336219788 3.09245371818542 2.34524178504944 0.817582249641418 0.834178924560547 0.928009450435638 1.08928787708282 1.21804237365723 1.29337823390961 1.36621558666229 1.59114825725555 1.68594741821289 1.7808051109314 1.91477084159851 1.83359682559967 1.69031357765198 1.75765299797058 1.79728543758392 1.56452250480652 1.55323815345764 1.67528104782104 1.46572554111481 1.30933785438538 1.00342798233032 1.06203949451447 1.14570379257202
6.05975151062012 6.7553129196167 7.12750101089478 7.71603441238403 8.38080596923828 9.35618591308594 10.2540225982666 11.0879554748535 12.0027437210083 12.8691291809082 13.5602378845215 15.265474319458 16.4349479675293 17.9129219055176 20.7540130615234 23.1638221740723 27.9664211273193 32.3547706604004 21.7657299041748 23.0114097595215 24.0885391235352 22.7205829620361 17.7625217437744 -1.21662902832031 -2.19003057479858 -2.0990948677063 -1.51272463798523 -1.18386232852936 -0.862160384654999 -0.140737622976303 0.850142002105713 0.557325839996338 0.502169966697693 0.24430838227272 0.488280028104782 1.29406797885895 1.99982011318207 2.46407270431519 2.77270483970642 3.11883354187012 3.54041981697083 3.84639143943787 4.3581371307373 4.84439039230347 5.32273578643799 6.45668268203735 9.58000659942627 9.64762496948242 6.71394395828247 8.07997035980225 6.63521337509155 3.39003849029541 2.48670268058777 -1.85075926780701 -1.69711148738861 -1.35345983505249 -1.11903774738312 -1.00460481643677 -0.885966300964355 -0.719870269298553 -0.378416836261749 0.18764291703701 0.50899338722229 1.9726722240448 2.5609142780304 4.93907022476196 6.20956897735596 5.78164005279541 8.09689521789551 1.87653791904449 -0.359003394842148 -0.358577698469162 0.0390484370291233 0.564899742603302 0.895061016082764 0.887225270271301 2.47756743431091 1.58553779125214 0.526784002780914 -1.16408741474152 -1.02363359928131 -0.786112785339355 0.770106494426727 2.55227160453796 2.45845127105713 5.00534009933472 3.77566528320312 3.07735919952393 0.444349199533463 -1.4478006362915 -1.34043645858765 -1.1418776512146 -0.97536438703537 -0.822612524032593 -0.67847353219986 -0.561957955360413 -0.468371242284775 -0.404591798782349 -0.329670429229736 -0.25983738899231 -0.19573900103569 -0.141570001840591 -0.0917458012700081 -0.0585125274956226 -0.0388471335172653 -0.00365901901386678 0.0798613652586937 0.0959542244672775 0.143535479903221 0.157995089888573 0.169944807887077 0.175917059183121 0.276408106088638 0.387294948101044 0.427947670221329 0.626180946826935 0.825519502162933 0.858367919921875 0.994008898735046 1.20294988155365 1.26124835014343 1.31288707256317 1.76740527153015 1.92742741107941 2.16086268424988 2.56621694564819 2.78799223899841 3.0065643787384 2.91930556297302 2.79418849945068 3.23740577697754 2.55051708221436 2.00146436691284 2.05067348480225 2.11361074447632 1.98805093765259 1.643275141716 1.78818929195404 1.77582001686096 1.61145889759064 1.53285264968872 1.47206711769104 1.39895701408386 1.57925450801849 1.84130680561066 1.64467668533325 1.92166388034821 2.69353532791138 2.66386723518372 1.29603362083435 1.12298893928528 1.16247510910034 1.2204030752182 1.41769528388977 1.49160301685333 1.56343853473663 1.51434063911438 1.38962543010712 1.46953475475311 1.5501115322113 1.5868753194809 1.37916243076324 1.37634873390198 1.42786240577698 1.3643456697464 1.26653516292572 1.38815236091614 1.45742237567902 1.2368643283844 0.709016919136047 0.691845238208771 1.0946444272995
6.55978536605835 7.16530084609985 7.44944953918457 7.95197343826294 8.5536413192749 9.50180530548096 10.4020147323608 11.0787487030029 12.2709140777588 13.1507215499878 14.0589895248413 15.5225248336792 16.7516632080078 18.1132068634033 19.5491199493408 21.5585861206055 25.2919788360596 26.9701614379883 21.9948463439941 21.189037322998 22.3249130249023 21.1889495849609 18.2837753295898 5.96539449691772 -1.67858183383942 -1.61193132400513 -1.0580016374588 -0.710025489330292 -0.401954114437103 0.0444476641714573 0.870248675346375 1.17786538600922 0.432861149311066 0.476773172616959 0.810379087924957 1.55021476745605 2.22688937187195 2.78536248207092 3.11341071128845 8.12032604217529 2.99890446662903 3.38632273674011 4.43974161148071 4.97612380981445 5.97450399398804 6.6571798324585 9.73111438751221 6.94533252716064 5.85256576538086 6.19585227966309 4.46902465820312 4.1372127532959 2.17737174034119 -1.42240595817566 -1.36119973659515 -1.15690183639526 -0.939251065254211 -0.886751294136047 -0.612633764743805 -0.326814442873001 -0.0568162277340889 0.578152716159821 2.20155477523804 3.40371179580688 7.08049201965332 11.0222949981689 4.31514120101929 2.37377095222473 3.95997333526611 -0.238071709871292 -0.660695672035217 -0.664242744445801 -0.51403146982193 -0.075932003557682 1.1846125125885 4.16909599304199 2.88042974472046 -0.91522216796875 -1.90996885299683 -2.52733182907104 -2.21624231338501 -1.99254274368286 -2.22597670555115 -0.973619163036346 -0.147471442818642 -0.372546404600143 0.883526742458344 0.913667798042297 0.649017810821533 -1.41165232658386 -1.34561765193939 -1.10240876674652 -0.92198383808136 -0.787110269069672 -0.654836535453796 -0.53223705291748 -0.450399488210678 -0.364958077669144 -0.296680599451065 -0.234310194849968 -0.182552590966225 -0.123706229031086 -0.0747743025422096 -0.0459347292780876 -0.000617577519733459 0.0387696921825409 0.0891445726156235 0.120345838367939 0.136559888720512 0.246149748563766 0.349059879779816 0.359429836273193 0.559601306915283 0.740502297878265 0.763059437274933 0.87465912103653 1.0638644695282 1.11427068710327 1.15493369102478 1.43157279491425 1.55759501457214 1.65668940544128 1.96761047840118 2.11297988891602 2.28355836868286 2.32951235771179 2.15572714805603 2.2781765460968 1.6141300201416 1.4852614402771 1.57333314418793 1.66806077957153 1.58323967456818 1.32706725597382 1.35513317584991 1.32543301582336 1.18801081180573 1.1247421503067 1.09940135478973 0.976197481155396 1.07427954673767 1.21161305904388 1.08771395683289 1.05779659748077 1.19318795204163 1.51855576038361 1.10136950016022 1.40972793102264 1.10951519012451 1.15643870830536 1.29576218128204 1.34745967388153 1.40920734405518 1.37731921672821 1.25100469589233 1.30526864528656 1.35196459293365 1.23820424079895 1.24488091468811 1.28944158554077 1.32673192024231 1.25184428691864 1.09904181957245 1.01154243946075 1.10883724689484 1.00875663757324 1.18906342983246 1.39799928665161 1.11534535884857 0.829367816448212 0.995402753353119 1.48316490650177
6.82740640640259 7.32647275924683 7.76809930801392 8.32996845245361 8.89880466461182 9.9286060333252 10.8373680114746 11.4654331207275 12.6132640838623 13.7518110275269 14.5007562637329 15.3869400024414 16.6526527404785 17.7591934204102 19.0751686096191 19.970085144043 20.9547805786133 21.1506614685059 21.7125434875488 18.8516044616699 20.5357494354248 21.178071975708 17.5138339996338 13.5840616226196 1.06230080127716 -0.87506777048111 -0.694425106048584 -0.431016176939011 -0.18404433131218 0.208843678236008 0.753527104854584 0.859511315822601 0.586197316646576 0.83177924156189 1.18984591960907 1.76886451244354 2.47040843963623 2.86582636833191 3.80681324005127 3.37939167022705 3.6215033531189 3.72326326370239 4.57629060745239 5.15769672393799 5.89339971542358 12.2191743850708 6.00503826141357 4.45405626296997 5.04638719558716 4.30891942977905 3.67714619636536 4.32977914810181 2.52131032943726 0.187817707657814 -0.990367591381073 -0.779278516769409 -0.711874425411224 -0.60488361120224 -0.359268814325333 -0.0743624418973923 0.948606610298157 2.07204294204712 4.35156488418579 5.90867233276367 12.0562038421631 9.92705154418945 3.09652161598206 0.220195561647415 1.79354071617126 0.0669631436467171 -1.11789345741272 -1.17233240604401 -1.33069479465485 0.736156523227692 2.45526480674744 3.21707940101624 1.49676942825317 -0.114117965102196 -1.53281235694885 -2.5624635219574 -2.45297837257385 -2.2946879863739 -2.1590793132782 -1.87260544300079 -1.63603401184082 -0.394683420658112 0.902545869350433 1.75448179244995 0.736571073532104 -1.28572082519531 -1.25044631958008 -1.05305933952332 -0.901934683322906 -0.780282258987427 -0.640190303325653 -0.535387396812439 -0.423083871603012 -0.34900426864624 -0.283703416585922 -0.228892117738724 -0.179801821708679 -0.126457825303078 -0.0713803172111511 -0.00538089033216238 0.0480258986353874 0.0825891494750977 0.201561197638512 0.291604816913605 0.300499200820923 0.490817159414291 0.665720820426941 0.686898052692413 0.767717599868774 0.936467707157135 0.993143320083618 1.14819312095642 1.25381326675415 1.3132666349411 1.37852263450623 1.59923958778381 1.68849229812622 1.79404401779175 1.82829475402832 1.69518351554871 1.69370055198669 1.34912717342377 1.36555123329163 1.41667938232422 2.65990781784058 1.25402402877808 1.08184289932251 1.04220128059387 1.04031813144684 0.942139565944672 0.901462316513062 0.875855147838593 0.780832648277283 0.826382398605347 0.864251852035522 0.821244716644287 0.790406286716461 0.821287631988525 0.832418382167816 0.855777978897095 0.943298399448395 1.00902545452118 1.04615449905396 1.18665313720703 1.2271249294281 1.27032780647278 1.23189175128937 1.11031913757324 1.15384125709534 1.19974160194397 1.09963619709015 1.0771381855011 1.11961078643799 1.11639320850372 1.08301091194153 1.0615394115448 1.18238377571106 0.998877465724945 1.6550680398941 0.79339337348938 0.836589634418488 0.960696041584015 1.06949484348297 0.975359082221985 1.01655912399292 1.16806292533875 1.37710523605347 1.44433438777924
7.22629928588867 7.5918493270874 8.25839042663574 8.82140731811523 9.40816879272461 10.2103471755981 11.1684885025024 12.1144533157349 12.9122552871704 13.7425079345703 14.6744089126587 15.2089433670044 15.9381551742554 16.8971519470215 17.8358993530273 18.2987651824951 17.8411693572998 18.2494583129883 20.9657211303711 16.1808700561523 15.2620525360107 15.2322206497192 15.8074407577515 10.9263381958008 6.10092353820801 1.29476356506348 -0.26336994767189 -0.174770876765251 0.0447615869343281 0.35142907500267 0.558105051517487 0.663746953010559 0.694908916950226 1.02860820293427 1.54038369655609 2.03411650657654 2.48871302604675 2.99302816390991 3.19890356063843 3.52976441383362 3.78931975364685 4.07972049713135 4.42034244537354 5.32473087310791 6.97809457778931 9.25599098205566 6.77224636077881 4.08067750930786 4.66368961334229 3.25302052497864 2.54430890083313 1.81041753292084 0.0419084653258324 -0.868930578231812 -0.794043064117432 -0.661579787731171 -0.555677592754364 -0.427413791418076 -0.27379697561264 0.791765093803406 2.23880171775818 3.41909313201904 6.22898530960083 8.09103107452393 12.7458925247192 6.55115032196045 0.5616694688797 0.201184287667274 0.695194482803345 -0.770781338214874 -1.66519701480865 -1.82751154899597 -1.50734126567841 0.129141584038734 1.37317419052124 2.6242241859436 1.80261790752411 0.152043089270592 0.650750756263733 -0.460714489221573 -0.268004566431046 -2.04655766487122 -1.86692631244659 -1.64237689971924 -0.511104881763458 0.117706328630447 0.86080002784729 0.644819557666779 0.435845822095871 -1.16838347911835 -1.0989865064621 -1.00422930717468 -0.901497066020966 -0.780184090137482 -0.662040114402771 -0.570736110210419 -0.466574043035507 -0.365309685468674 -0.294813632965088 -0.241642206907272 -0.165809169411659 -0.0804845169186592 -0.0257437378168106 0.110733695328236 0.230863869190216 0.257377654314041 0.420345813035965 0.582588076591492 0.58512556552887 0.674470543861389 0.835151731967926 1.80489492416382 0.848863184452057 1.01607823371887 1.13177502155304 1.27803933620453 1.34050440788269 1.41061913967133 1.48214197158813 1.50737118721008 1.39570188522339 1.32768630981445 1.15324521064758 1.17642998695374 1.22179043292999 1.14564096927643 0.957598626613617 1.03382360935211 0.941265881061554 1.07116305828094 0.747330904006958 0.728705644607544 0.699484884738922 0.666996836662292 0.690934777259827 0.712463021278381 0.728076100349426 0.738410413265228 0.76090133190155 0.778002142906189 0.800889074802399 0.859289467334747 0.895260632038116 0.918973088264465 1.02938485145569 1.0835919380188 1.13710689544678 1.10505032539368 0.994509637355804 1.02932047843933 1.06067264080048 0.974725842475891 0.942683577537537 0.97704416513443 0.984443426132202 0.904186248779297 0.856309473514557 0.873078167438507 0.854448199272156 0.899659097194672 1.31852650642395 0.850545108318329 1.1996898651123 1.25393176078796 0.69717276096344 0.893984735012054 1.07373309135437 1.1355391740799 1.14403676986694 1.05840575695038 1.29395663738251 1.55427277088165
7.66404628753662 7.99695301055908 8.55413150787354 9.0812520980835 9.6901330947876 10.5439262390137 10.9973964691162 11.9382562637329 12.7151479721069 13.3933916091919 14.4123401641846 15.0221128463745 15.7105741500854 15.7224473953247 24.9860286712646 18.1787071228027 13.4836359024048 13.8744316101074 14.7292461395264 14.8753242492676 15.2701072692871 13.9302024841309 10.8994255065918 5.32785940170288 3.61106944084167 3.05298852920532 -0.140379562973976 -0.0979986861348152 0.0801385268568993 0.365637242794037 0.585423588752747 0.707909941673279 0.926402628421783 1.37221992015839 1.79142355918884 2.17512989044189 2.55334091186523 2.95736932754517 3.21641564369202 3.31849217414856 3.57400369644165 3.85705065727234 4.11537313461304 4.69636249542236 5.67766094207764 6.97627687454224 5.99204683303833 5.08713245391846 4.3220043182373 3.32638072967529 1.62889647483826 1.66847133636475 3.1021876335144 -0.935013592243195 -0.829679489135742 -0.666275799274445 -0.521327793598175 -0.354757577180862 0.34036311507225 2.09660196304321 3.57918238639832 4.99225234985352 6.50729322433472 8.78667831420898 10.1302728652954 4.28751230239868 -0.140116453170776 0.0736294016242027 0.268479108810425 -2.41810536384583 -2.47049951553345 -1.70242154598236 -1.42492830753326 -1.02766668796539 -0.870355367660522 0.565452814102173 1.54886770248413 1.67582428455353 1.06580626964569 -0.012914652004838 -0.402296394109726 -1.56229174137115 -1.24733030796051 -0.946131944656372 -0.0228350888937712 0.738006472587585 0.70870578289032 -0.0114790117368102 -1.02508425712585 -1.10826110839844 -1.0497659444809 -0.971899449825287 -0.882915556430817 -0.775197327136993 -0.720242559909821 -0.648670971393585 -0.547235786914825 -0.421486616134644 -0.303052067756653 -0.234022125601768 -0.0812870785593987 0.0567924194037914 0.105762913823128 0.287750959396362 0.469541311264038 0.509812474250793 0.585989415645599 0.724481105804443 0.783629417419434 1.67488622665405 0.838507294654846 0.84852010011673 0.954382419586182 1.03826069831848 1.20575022697449 1.22560489177704 1.13862287998199 1.09302794933319 1.0990926027298 1.02516996860504 1.03549242019653 1.0766054391861 1.01855504512787 0.855908811092377 0.797802090644836 0.767534017562866 0.693124175071716 0.666548252105713 0.833968579769135 0.574587523937225 0.877911150455475 0.613043904304504 0.638754546642303 0.673852562904358 0.677384793758392 0.697082221508026 0.721167206764221 0.741509318351746 0.798653125762939 0.825973689556122 0.84475839138031 0.930717051029205 0.962505042552948 0.987969815731049 0.958759963512421 0.895070195198059 0.922065079212189 0.949922263622284 0.877694308757782 0.841342508792877 0.867735028266907 0.873663783073425 0.798796117305756 0.74874347448349 0.763645768165588 0.760249376296997 0.687001764774323 0.705298781394958 0.749939918518066 0.842452347278595 0.775840878486633 0.771472334861755 1.18289709091187 0.799342751502991 0.804302096366882 0.855853080749512 0.822257578372955 0.864651381969452 1.00377869606018 1.28606653213501 1.51451694965363 1.73371088504791
7.88490962982178 8.23555278778076 8.59731101989746 9.12647342681885 9.82771968841553 10.5794353485107 10.7683715820312 11.6952667236328 12.4678726196289 13.2275371551514 13.5582761764526 14.3168668746948 15.3517532348633 21.0857048034668 29.9969005584717 20.0765857696533 9.74343585968018 9.16206932067871 10.8842096328735 12.9697675704956 14.5324659347534 15.2485694885254 12.9584217071533 8.04469680786133 4.56267786026001 7.47504186630249 0.315934032201767 -0.32878240942955 -0.201430812478065 -0.00978075433522463 0.190385013818741 0.321687906980515 0.344576925039291 0.590291619300842 1.08147537708282 1.65872204303741 2.04955244064331 2.51861238479614 2.88665747642517 3.11515235900879 3.14871644973755 3.2847957611084 3.52880644798279 3.65712380409241 4.10859155654907 4.24686861038208 4.39259433746338 3.77781248092651 3.53232431411743 2.86318874359131 3.65786147117615 5.02065896987915 4.12830209732056 -1.0871639251709 -0.991590738296509 -0.782731950283051 -0.64738655090332 -0.166317969560623 0.916909635066986 2.81366419792175 4.11990070343018 7.72765827178955 12.0936937332153 1.51804256439209 3.21380829811096 2.88522601127625 -0.0991909429430962 0.304279536008835 0.201844051480293 -2.27274107933044 -2.53886890411377 -2.44276309013367 -1.78169476985931 -2.31902003288269 -2.10613965988159 -2.48705792427063 -0.525600612163544 0.591389417648315 -0.883636713027954 -1.18422830104828 -0.750931203365326 -0.873320817947388 -0.512280702590942 -0.191817089915276 -0.0570712573826313 0.180883944034576 0.105870701372623 -0.0715742558240891 -0.699372470378876 -1.04790413379669 -1.00673198699951 -0.946959674358368 -0.854579627513885 -0.804416060447693 -0.761345684528351 -0.677978575229645 -0.56380569934845 -0.400238424539566 -0.233447298407555 -0.149640813469887 0.0408430099487305 0.24176287651062 0.306361645460129 0.417337089776993 0.597135484218597 0.662590563297272 0.697726368904114 0.769950866699219 1.15893864631653 0.857595920562744 0.8656365275383 0.905755519866943 0.924385845661163 0.832480132579803 0.951726973056793 0.972229838371277 0.923766434192657 0.925996005535126 0.956041812896729 0.904333114624023 0.759441018104553 0.702037811279297 0.690141797065735 0.631491124629974 0.601557910442352 0.578754007816315 0.519776463508606 0.527113497257233 0.602541089057922 0.646694839000702 1.7408344745636 0.609894633293152 0.626658320426941 0.66386741399765 0.685433387756348 0.731848359107971 0.760545074939728 0.775729060173035 0.867731034755707 0.888960361480713 0.909484386444092 0.874226868152618 0.776755094528198 0.798304259777069 0.826382696628571 0.787023842334747 0.753311932086945 0.776415884494781 0.78154730796814 0.720314860343933 0.663983583450317 0.678640067577362 0.670264184474945 0.611240208148956 0.584652900695801 0.614484786987305 0.632631540298462 0.64160829782486 0.675145208835602 1.00972521305084 0.68869960308075 0.738730728626251 0.743771851062775 0.89287930727005 0.62097692489624 0.711210668087006 0.845743536949158 1.01569330692291 1.1514378786087 1.36697912216187 1.60285198688507 1.74664831161499
7.87798643112183 8.24160385131836 8.63855457305908 9.15819358825684 9.87027359008789 10.5157413482666 10.8358030319214 11.0092000961304 11.7195682525635 12.4423236846924 12.9219589233398 17.9058437347412 19.971658706665 28.6546573638916 34.4500617980957 15.5716762542725 6.29663562774658 6.32007932662964 7.56302690505981 8.83272075653076 11.486424446106 14.3402328491211 17.5562076568604 13.9950685501099 5.4487943649292 6.42678308486938 1.96978783607483 -0.350090712308884 -0.340871453285217 -0.227652862668037 -0.0951519459486008 0.115165315568447 0.139237701892853 0.0622300691902637 0.357347905635834 0.798463106155396 2.0267915725708 0.904159009456635 0.845176637172699 1.38580048084259 1.43428516387939 1.79438972473145 2.00637817382812 2.11821484565735 2.22291970252991 2.49141573905945 5.20068311691284 5.19201231002808 1.50520539283752 2.94279408454895 3.77650666236877 5.29008817672729 1.63527679443359 -1.15787148475647 -1.10023307800293 -0.98945540189743 -0.817738473415375 0.083063043653965 1.41755306720734 4.29687309265137 6.15522289276123 14.8034362792969 9.18366622924805 -0.937496721744537 -0.306923806667328 0.446248203516006 -1.5219794511795 -1.32519543170929 -0.615786492824554 -2.23076105117798 -2.93350672721863 -2.93081855773926 -2.07826161384583 -1.35632264614105 -2.37448024749756 -2.24068975448608 -1.3136248588562 -0.56048047542572 -1.34933769702911 -1.12921965122223 -0.283857315778732 -0.561299026012421 -0.516456782817841 -0.563041150569916 -0.572197616100311 -0.643982708454132 -0.696697056293488 -0.794933199882507 -0.786137759685516 -1.004887342453 -0.972458004951477 -0.906090438365936 -0.855904042720795 -0.811177492141724 -0.753816485404968 -0.647334456443787 -0.490517854690552 -0.287524580955505 -0.0925726369023323 -0.00578143075108528 0.11615789681673 0.317059606313705 0.423993617296219 0.497375279664993 0.576657235622406 0.668119132518768 0.744078695774078 0.791826903820038 0.817619502544403 0.813329815864563 0.750590324401855 0.783051192760468 0.95223194360733 0.703916549682617 0.678239583969116 0.805539131164551 0.812673151493073 0.682549953460693 0.622954070568085 0.614416778087616 0.561103701591492 0.535805463790894 0.527093231678009 0.477175146341324 0.468039840459824 0.481977939605713 0.445460289716721 0.443446755409241 0.696497440338135 0.911560654640198 1.63574087619781 0.610490381717682 0.682611107826233 0.703411221504211 0.716443777084351 0.7980095744133 0.811100363731384 0.829844892024994 0.816464304924011 0.720263659954071 0.726493954658508 0.74703311920166 0.683479070663452 0.635177433490753 0.668021082878113 0.696559071540833 0.647048532962799 0.592367351055145 0.605594396591187 0.603950500488281 0.551469922065735 0.513033449649811 0.523748159408569 0.539086639881134 0.562820434570312 0.592015981674194 0.619017243385315 0.651721060276031 0.673770844936371 0.783933877944946 0.550272345542908 0.557473003864288 0.589794039726257 0.668887078762054 0.758725583553314 0.882481276988983 1.10172843933105 1.16367340087891 1.28609240055084 1.44529724121094 1.64918291568756 1.790886759758
7.86781072616577 8.24056243896484 8.62362098693848 8.7809419631958 9.47802829742432 9.92734527587891 10.2847356796265 10.6016616821289 10.7198133468628 13.3796319961548 16.2580261230469 21.9990901947021 24.9125308990479 36.401985168457 33.5520095825195 13.2245845794678 8.91561985015869 4.43648862838745 4.60760021209717 5.46560430526733 8.039870262146 11.7223987579346 16.2293663024902 19.4172115325928 11.3480081558228 5.09038209915161 1.3953230381012 -0.369235247373581 0.0840112641453743 -0.379065841436386 -0.294558584690094 0.296263635158539 1.43846333026886 -0.262987017631531 -0.198049709200859 0.230098187923431 8.84851932525635 0.502798318862915 -0.791171193122864 -0.72948169708252 -0.794129312038422 -0.40051132440567 1.48556101322174 5.31923389434814 1.27443969249725 -0.54995059967041 0.160919412970543 0.974246263504028 0.0149257574230433 0.164748162031174 1.29425704479218 1.8412766456604 -0.91912180185318 -1.17850589752197 -1.36730372905731 -1.20156311988831 -0.720312595367432 0.312038451433182 2.97255253791809 6.75242614746094 8.7497034072876 13.8893766403198 6.62065649032593 0.516184389591217 -1.26758551597595 2.75047874450684 -0.527275741100311 -3.39919209480286 -3.26619005203247 -3.10971283912659 -2.99434161186218 -2.86450505256653 -2.58577108383179 -1.83198535442352 -1.43650591373444 -1.39276087284088 -1.12991607189178 -0.718063473701477 -0.991958022117615 -0.29330176115036 0.197360023856163 0.234342485666275 -0.0191928315907717 -0.994662463665009 -1.17155182361603 -1.14229190349579 -1.10526823997498 -1.06510865688324 -1.00042951107025 -0.984187126159668 -0.928070843219757 -0.890821754932404 -0.843430638313293 -0.776879727840424 -0.674046337604523 -0.543028950691223 -0.364692270755768 -0.188774809241295 -0.0262772478163242 0.0769048407673836 0.17121821641922 0.271246761083603 0.393656045198441 0.472452908754349 0.545067071914673 0.622013807296753 0.698010861873627 0.689242124557495 0.707441031932831 0.700274884700775 0.670373618602753 0.655815720558167 0.673389852046967 2.01479887962341 0.437829375267029 0.410102277994156 0.512942910194397 0.493852198123932 0.481191366910934 0.473420590162277 0.430023670196533 0.424531608819962 0.439589619636536 0.411896020174026 0.348490506410599 0.375846654176712 0.393126726150513 0.483092367649078 0.72224372625351 0.921802997589111 2.35677909851074 0.647294282913208 0.738721966743469 0.754830718040466 0.773928940296173 0.745343148708344 0.658755838871002 0.678123891353607 0.692327797412872 0.63574481010437 0.583536922931671 0.593983113765717 0.615049064159393 0.556294560432434 0.50403904914856 0.541165351867676 0.542736411094666 0.4940025806427 0.454917132854462 0.465106844902039 0.474437445402145 0.490426301956177 0.520879507064819 0.544510245323181 0.5648153424263 0.577621638774872 0.5243901014328 0.542679131031036 1.63681924343109 0.475028932094574 0.624533295631409 0.710217952728271 0.76722526550293 1.02574789524078 1.08563315868378 1.19911539554596 1.22220253944397 1.28779172897339 1.43088912963867 1.6451541185379 1.87941992282867 2.01526165008545
7.56963729858398 7.83387994766235 8.26327133178711 8.74762916564941 8.91293716430664 9.04793071746826 9.45904159545898 10.2901382446289 13.3771057128906 16.0259246826172 18.4798526763916 24.4110717773438 28.0110397338867 40.3852882385254 32.2420387268066 11.8081178665161 10.8978185653687 6.64103555679321 3.63213682174683 3.92069554328918 4.35843324661255 7.52094554901123 12.0640659332275 17.0482959747314 18.7173824310303 7.71676635742188 5.23089408874512 -0.297132074832916 2.12867307662964 -0.530219733715057 -0.472435116767883 -0.317438155412674 3.53259873390198 -0.672639548778534 -0.902192771434784 1.10906755924225 5.72868394851685 1.25122833251953 -1.66537392139435 -1.60357749462128 -1.16398799419403 -0.966638624668121 7.36212730407715 5.24641847610474 4.98299884796143 1.93668627738953 -1.69849765300751 -1.57585799694061 -1.33154201507568 -1.26867651939392 -1.31030106544495 -0.973624587059021 -0.355692058801651 -1.34414875507355 -1.3350191116333 -0.913829565048218 0.391845673322678 2.29022979736328 4.22744274139404 6.31140184402466 9.2117395401001 10.70458984375 7.92029333114624 3.50829315185547 3.22750735282898 3.42257452011108 -1.2673944234848 -3.47022461891174 -3.30413961410522 -3.08068585395813 -2.87262868881226 -2.62718534469604 -2.25626850128174 -2.09388446807861 -1.80052447319031 -1.10647213459015 -0.977747082710266 -0.652204513549805 -0.193194478750229 0.580748498439789 0.82636433839798 1.04972362518311 0.329949140548706 -0.813297986984253 -1.17901146411896 -1.14713907241821 -1.10565841197968 -1.05157792568207 -0.999944746494293 -0.946587383747101 -0.913647592067719 -0.847172439098358 -0.778591156005859 -0.702327132225037 -0.566373527050018 -0.412422329187393 -0.233270883560181 -0.0980038642883301 -0.0332165956497192 0.0538068078458309 0.136394560337067 0.232400387525558 0.313741415739059 0.377193480730057 0.451170027256012 0.526471972465515 0.57460230588913 0.584908962249756 0.58188259601593 0.615239500999451 0.631168484687805 0.801182568073273 1.15935027599335 0.398435652256012 0.34737840294838 0.32635509967804 0.354518353939056 0.354115843772888 0.357858896255493 0.379691958427429 0.360997557640076 0.318199872970581 0.321439236402512 0.329896867275238 0.340194344520569 0.382086336612701 0.430375784635544 0.665766358375549 0.894119799137115 1.15619921684265 0.925888121128082 0.721030652523041 0.700038254261017 0.614318668842316 0.627091467380524 0.640382051467896 0.581785798072815 0.540454745292664 0.547816872596741 0.555396378040314 0.494212031364441 0.450641721487045 0.459538877010345 0.463422834873199 0.422598212957382 0.398109048604965 0.415846794843674 0.415488928556442 0.436125338077545 0.459999829530716 0.471981734037399 0.488092720508575 0.498232662677765 0.460817247629166 0.440855026245117 0.461033314466476 0.567057728767395 0.875493824481964 1.02215230464935 0.650244057178497 0.957814991474152 1.01631677150726 1.12324512004852 1.14518702030182 1.19985914230347 1.32244789600372 1.38297069072723 1.47450876235962 1.694948554039 1.91559970378876 2.11280202865601 2.26896572113037
7.51915645599365 7.48809146881104 7.89269876480103 8.37598133087158 8.4538049697876 9.26373863220215 11.1538114547729 12.7109928131104 15.6933917999268 17.794958114624 20.3252449035645 25.9927940368652 29.8879947662354 44.8564796447754 28.6768054962158 10.9469680786133 5.7332329750061 5.87076139450073 3.99526500701904 6.71191835403442 3.17855072021484 3.9379723072052 6.69958734512329 12.0493431091309 16.4862384796143 12.9247350692749 7.17579889297485 7.12165355682373 0.499028325080872 -0.603990256786346 0.359453737735748 0.873986542224884 2.2589111328125 0.660723209381104 -0.274947792291641 1.62668681144714 7.76164484024048 3.40945267677307 -1.53134620189667 -1.12044334411621 1.03438544273376 3.23638224601746 8.31735038757324 3.57151746749878 7.34428358078003 2.57946634292603 -2.02062034606934 -2.04848098754883 -1.83043217658997 -1.74210917949677 -1.68635785579681 -1.76889503002167 -1.64524400234222 -1.46829509735107 -1.22408044338226 -0.713113248348236 0.926559269428253 2.60028696060181 4.26969337463379 5.34342002868652 7.24187564849854 9.07878112792969 7.59544134140015 5.09456300735474 4.63811492919922 3.20797991752625 0.935789287090302 -3.4204249382019 -3.28795647621155 -3.04211616516113 -2.6405942440033 -2.33987236022949 -2.05195593833923 -1.90060985088348 -1.48893773555756 -0.945951998233795 -0.630950629711151 -0.214148312807083 0.273912459611893 0.663935124874115 1.00686657428741 1.14218413829803 0.06239228323102 -0.554811775684357 -0.92596834897995 -1.12450742721558 -1.09708094596863 -1.04831004142761 -0.989139318466187 -0.928141057491302 -0.842509984970093 -0.620640993118286 -0.525897979736328 -0.466179817914963 -0.302265375852585 -0.230147272348404 -0.211056768894196 -0.0786552801728249 -0.00438170786947012 0.0370447933673859 0.0826493129134178 0.158358663320541 0.229719698429108 0.294569492340088 0.328259468078613 0.367071658372879 0.444045335054398 0.459592312574387 0.395885914564133 0.340267360210419 0.352586597204208 0.320611536502838 0.302137404680252 0.298622637987137 0.269353181123734 0.263420134782791 0.274906247854233 0.280126392841339 0.247943058609962 0.250569701194763 0.276499032974243 0.239367723464966 0.26465904712677 0.285001248121262 0.405375719070435 0.459231466054916 0.529694557189941 0.509310483932495 0.628888785839081 1.64072287082672 0.517988741397858 0.581636726856232 0.605843067169189 0.542180359363556 0.502293407917023 0.51385897397995 0.518726348876953 0.46723860502243 0.420691102743149 0.413661986589432 0.410067439079285 0.377016603946686 0.327823907136917 0.356796085834503 0.348797559738159 0.370836764574051 0.390868186950684 0.405002743005753 0.427758872509003 0.443060606718063 0.405971467494965 0.393764644861221 0.41026297211647 0.388456642627716 0.327487945556641 0.468737572431564 0.576093792915344 1.70491290092468 0.632715940475464 0.934029400348663 0.987024128437042 1.12067401409149 1.23419189453125 1.29094290733337 1.34816813468933 1.45895266532898 1.66474759578705 1.70410358905792 1.91128718852997 2.1334707736969 2.32222151756287 2.64003109931946
7.11265707015991 7.18069124221802 7.25629663467407 8.6566743850708 9.54986572265625 11.1920757293701 12.506420135498 13.7140560150146 16.5243015289307 18.7944946289062 22.0390434265137 27.3154392242432 31.7479858398438 41.8014450073242 27.4077663421631 13.8821411132812 6.54683589935303 5.30314922332764 5.20012712478638 7.23108720779419 5.01211881637573 2.66647720336914 4.00164031982422 5.52289485931396 10.2061824798584 15.0062227249146 13.7838220596313 13.0636186599731 5.86865234375 -0.113459967076778 0.551307439804077 0.84425413608551 1.65161597728729 0.380033046007156 0.942453622817993 1.71537733078003 4.62272357940674 6.85208559036255 0.83714759349823 1.07462930679321 2.34285092353821 5.16258716583252 7.13878917694092 4.29401206970215 4.164231300354 4.76761198043823 -2.27559471130371 -2.35070395469666 -2.29433274269104 -2.14232921600342 -2.35838913917542 -2.0927677154541 -1.74248766899109 -1.52701926231384 -1.43556725978851 -0.650909781455994 1.12975370883942 2.70943260192871 4.00532579421997 4.87998867034912 7.14578247070312 4.01925992965698 4.09197044372559 3.58595037460327 4.12319803237915 3.7752091884613 0.287382185459137 -3.27990078926086 -3.20494771003723 -2.90777182579041 -2.44178605079651 -2.13463282585144 -1.89426469802856 -1.7041836977005 -1.17740380764008 -0.565516889095306 -0.195662438869476 0.0580990090966225 0.338448524475098 0.649711906909943 1.17014062404633 0.776358902454376 0.0861261263489723 -0.20067723095417 -0.453060239553452 -0.669792473316193 -1.0846494436264 -1.05365192890167 -1.0081228017807 -0.877417147159576 -0.561705112457275 -0.364243865013123 -0.279072701931 -0.256090372800827 -0.224485233426094 -0.194327548146248 -0.177022069692612 -0.135667383670807 -0.0353937707841396 0.0291044451296329 0.0728935524821281 0.0972700789570808 0.115717865526676 0.186345860362053 0.222527354955673 0.19859017431736 0.169056385755539 0.211038783192635 0.223539739847183 0.231742233037949 0.232584908604622 0.204695746302605 0.213158205151558 0.225127980113029 0.203049123287201 0.167298540472984 0.158015564084053 0.183627396821976 0.156045392155647 0.129226326942444 0.186669886112213 0.234645441174507 0.25380477309227 0.290465891361237 0.277278691530228 0.341477602720261 0.457553178071976 0.576128363609314 1.22905421257019 0.420056730508804 0.448662757873535 0.471299588680267 0.491258770227432 0.599791646003723 0.433874398469925 0.383932024240494 0.391728281974792 0.387363314628601 0.344888240098953 0.310037016868591 0.337612330913544 0.295413583517075 0.311160892248154 0.331048160791397 0.341511756181717 0.373186200857162 0.386066824197769 0.353844255208969 0.336245477199554 0.346117109060287 0.334081649780273 0.264953941106796 0.233591884374619 0.265293747186661 0.407763034105301 0.520192205905914 1.02011752128601 0.641751408576965 0.687943756580353 0.949503064155579 1.08985435962677 1.20101451873779 1.36258912086487 1.55412542819977 1.59201776981354 1.64459884166718 1.86643302440643 2.00346708297729 2.16338872909546 2.44468307495117 2.69458985328674 2.87469267845154
6.46462392807007 7.00053882598877 8.09800243377686 9.50598526000977 10.368800163269 11.8895025253296 13.1514682769775 14.3739128112793 17.3553733825684 19.7240123748779 22.4211730957031 26.534460067749 31.1068668365479 40.9253921508789 26.8162860870361 15.0460720062256 8.37955856323242 5.92280197143555 5.77323246002197 6.78205251693726 5.58729314804077 2.29466462135315 2.38316655158997 4.13974237442017 6.09382057189941 8.88394737243652 12.676589012146 14.2927198410034 9.64658832550049 6.602783203125 5.8940372467041 0.438317865133286 0.820894181728363 1.14342403411865 1.29199814796448 0.984124362468719 2.01092720031738 3.21359038352966 2.7071099281311 2.52253603935242 3.4479284286499 5.29373550415039 5.77387809753418 4.56510353088379 5.01003837585449 3.33297395706177 -1.35379207134247 -2.49471712112427 -2.59177470207214 -2.34672522544861 -2.34070372581482 -1.96564912796021 -1.78863847255707 -0.940495610237122 -0.307548880577087 0.714698970317841 2.55142736434937 3.53468775749207 6.42840194702148 11.802830696106 5.12713527679443 1.19149935245514 1.74872827529907 1.6221330165863 3.24180388450623 3.59678173065186 1.64296042919159 -3.12045860290527 -2.95823359489441 -2.51803684234619 -2.24519920349121 -1.93774950504303 -1.6314150094986 -1.21188819408417 -0.647490382194519 -0.127261579036713 -0.0289995092898607 0.159644827246666 0.290085852146149 0.463518381118774 1.05329298973083 0.652137339115143 0.427275240421295 0.278841882944107 -0.0805729553103447 -0.382021218538284 -0.24150039255619 -0.783797264099121 -0.975604236125946 -0.633846700191498 -0.41237336397171 -0.293962091207504 -0.234799891710281 -0.20585235953331 -0.193172603845596 -0.217878103256226 -0.346698194742203 -0.315636456012726 -0.184984043240547 -0.0758016332983971 0.00503687607124448 0.0397276692092419 0.0142449419945478 0.017244029790163 0.0646465718746185 0.0578101985156536 0.0754256695508957 0.104266367852688 0.11738583445549 0.132701620459557 0.155149236321449 0.157661005854607 0.125255465507507 0.162148252129555 0.124580770730972 0.080416813492775 0.0177691001445055 0.0286924093961716 0.0461517721414566 0.0935752242803574 0.140664488077164 0.182434812188148 0.209658965468407 0.221867099404335 0.235430732369423 0.332786738872528 0.494465559720993 0.671879351139069 1.57752525806427 0.346924513578415 0.381748378276825 0.380378216505051 0.368566393852234 0.3879214823246 0.36385053396225 0.327361702919006 0.28127321600914 0.287035375833511 0.371557086706161 0.267099112272263 0.287420213222504 0.289011597633362 0.315873652696609 0.324458003044128 0.296524286270142 0.290109813213348 0.303976088762283 0.299764841794968 0.234670892357826 0.202117457985878 0.210235595703125 0.17177614569664 0.20017397403717 0.273661345243454 0.381925165653229 0.462872803211212 1.77274250984192 0.333636730909348 0.632907450199127 0.887001931667328 1.11004245281219 1.32589900493622 1.5330411195755 1.74120163917542 1.86855053901672 2.01767802238464 2.26844620704651 2.3965756893158 2.55533385276794 2.94685554504395 3.24750423431396 3.32408142089844
6.8965916633606 7.5505428314209 8.85640144348145 10.040488243103 10.897988319397 12.5218229293823 13.834400177002 15.0660800933838 16.9655513763428 19.259614944458 21.7979736328125 25.3098201751709 29.1352367401123 39.6266212463379 29.479434967041 11.757866859436 11.4121541976929 7.64547204971313 7.56776428222656 7.9310941696167 4.17819976806641 3.47905969619751 1.08388042449951 2.41063976287842 4.5541410446167 5.70501804351807 6.60690832138062 9.87805271148682 12.5732049942017 10.578106880188 5.03424167633057 3.32848143577576 0.89351087808609 1.93004071712494 1.42515087127686 2.00077867507935 2.17465710639954 2.4421911239624 2.70376825332642 2.8986222743988 3.78298020362854 5.33918476104736 5.83011960983276 3.93297553062439 4.38828229904175 5.48618173599243 3.9327564239502 -0.469291090965271 -0.722326993942261 -1.50044453144073 -0.109511718153954 -0.353077471256256 -0.392140299081802 0.384217143058777 1.16348588466644 2.2057318687439 4.36026096343994 6.3521556854248 14.5431566238403 11.5999345779419 1.20999300479889 -0.614626526832581 -0.0277765188366175 0.217721208930016 1.28598320484161 1.90809690952301 -0.553321242332458 -2.84686946868896 -2.52058696746826 -2.28221535682678 -2.0364453792572 -1.73952603340149 -1.16052484512329 -0.657836973667145 -0.199528902769089 0.041510321199894 -0.00317686796188354 0.115758173167706 0.213807195425034 0.606434524059296 0.853745579719543 0.770098209381104 0.731434166431427 0.585280954837799 0.282751619815826 0.430030286312103 0.292489290237427 -0.14258673787117 -0.890688121318817 -0.525949120521545 -0.367077559232712 -0.281350314617157 -0.262188166379929 -0.358153223991394 -0.250239640474319 -0.483410775661469 -0.532795131206512 -0.483125478029251 -0.393022805452347 -0.285399883985519 -0.176817983388901 -0.107844315469265 -0.0688991919159889 -0.0110546331852674 0.0132574383169413 0.0138109475374222 0.013580727390945 0.0428479984402657 0.0637545362114906 0.0522210113704205 0.0624584890902042 0.0863877758383751 0.0456053540110588 -0.0213085301220417 -0.0100062973797321 -0.0171890649944544 -0.0216976925730705 -0.00535538885742426 0.0305553190410137 0.0661339536309242 0.10957770049572 0.149321302771568 0.182191759347916 0.2122603058815 0.225564494729042 0.406467646360397 0.615395367145538 1.64361655712128 0.229801282286644 0.261497318744659 0.287744611501694 0.295369416475296 0.28459557890892 0.275112688541412 0.637093782424927 0.259011447429657 0.246829867362976 0.257496684789658 0.502402186393738 0.267095059156418 0.277016669511795 0.257169812917709 0.247456982731819 0.255758583545685 0.245253458619118 0.192446753382683 0.168835818767548 0.179113492369652 0.137274488806725 0.112945109605789 0.160386085510254 0.141564503312111 0.16208028793335 0.398400574922562 0.553209781646729 0.702353298664093 0.634635210037231 0.427845746278763 0.630951941013336 0.878086566925049 1.18859076499939 1.49211585521698 1.86212122440338 2.11320447921753 2.2355043888092 2.37031984329224 2.73200654983521 3.00742101669312 3.07504630088806 3.33187890052795 3.57243037223816 3.86521553993225
7.14676189422607 8.05484390258789 9.52229785919189 10.528697013855 11.298511505127 12.2601623535156 13.57448387146 14.718656539917 16.3781814575195 18.5947170257568 20.9457015991211 24.6014957427979 27.8591632843018 31.8489875793457 33.4148712158203 13.6033430099487 10.3868169784546 11.3811750411987 10.9656658172607 6.08908987045288 4.93055486679077 2.90389323234558 0.632454037666321 1.38094902038574 2.93022155761719 4.82741451263428 7.02292680740356 8.63636684417725 12.556827545166 12.3988361358643 9.08178329467773 8.41664409637451 1.86972773075104 1.95404577255249 2.71111464500427 2.97351408004761 2.41092801094055 2.55610871315002 2.99115562438965 2.93727588653564 3.7897207736969 5.64709424972534 5.82941818237305 2.79954075813293 2.74418759346008 5.18083477020264 3.48150420188904 0.620123445987701 -0.769896626472473 -0.847115516662598 -0.176342681050301 0.521202385425568 1.00840497016907 1.41009080410004 2.50550127029419 4.13582229614258 7.41623449325562 9.32727527618408 13.6962718963623 8.62074089050293 -0.105703890323639 -1.42753803730011 -1.27374064922333 -2.13554501533508 -1.89340245723724 -2.87081813812256 -2.82400226593018 -2.44236135482788 -2.26175117492676 -2.03112387657166 -1.80755543708801 -1.32570254802704 -0.703779816627502 -0.333355367183685 0.360151559114456 0.391300529241562 0.164584994316101 0.0987422615289688 0.296569406986237 0.544537842273712 0.589318633079529 0.404458910226822 0.628632426261902 0.520719826221466 0.314951837062836 0.286948472261429 0.49835005402565 -0.156032308936119 -0.826723337173462 -0.662430286407471 -0.512209892272949 -0.528521776199341 -0.523180961608887 -0.487537741661072 -0.231845453381538 -0.287638783454895 -0.581483244895935 -0.554772257804871 -0.502929091453552 -0.421857982873917 -0.324436455965042 -0.243529632687569 -0.179058775305748 -0.101289197802544 -0.0359847173094749 -0.0230023097246885 -0.0306293312460184 -0.0202735215425491 -0.00369558110833168 -0.0313120000064373 -0.0716723874211311 -0.050759382545948 -0.043455071747303 -0.0457658730447292 -0.0508636720478535 -0.0476013086736202 -0.03858782351017 -0.0178286414593458 0.019328759983182 0.0556985028088093 0.0890100821852684 0.113030642271042 0.151804015040398 0.187839388847351 0.208386942744255 0.307989478111267 0.996055424213409 0.606033742427826 0.194046288728714 0.222210377454758 0.241516351699829 0.249794647097588 0.255164057016373 0.358673185110092 0.475684434175491 0.250535309314728 0.281428843736649 0.254696846008301 0.234695255756378 0.210592091083527 0.212412148714066 0.208090260624886 0.159768849611282 0.140944764018059 0.146046310663223 0.110250748693943 0.0850900039076805 0.0732633024454117 0.0750473216176033 0.0850585028529167 0.159316971898079 0.181100144982338 0.208475187420845 0.239491403102875 0.329155802726746 1.31295597553253 0.442660480737686 0.599862635135651 0.745973765850067 0.992684245109558 1.43616354465485 1.81622350215912 2.20802736282349 2.54346203804016 2.80280542373657 2.86274194717407 3.08920955657959 3.31203246116638 3.58101630210876 3.66449284553528 3.85739088058472 4.16090393066406
7.45721626281738 8.44431972503662 9.57854557037354 10.5184001922607 11.3023443222046 12.2834358215332 13.1898984909058 14.3736906051636 16.1299324035645 18.3180484771729 20.5828800201416 22.9720363616943 25.8890037536621 29.7121448516846 36.3977546691895 15.6873683929443 11.7939558029175 16.3048038482666 6.77325391769409 6.35907220840454 5.93069124221802 4.52122068405151 0.660103976726532 1.45270526409149 2.41434550285339 4.00500345230103 6.59866523742676 8.13710498809814 10.3348197937012 11.5075435638428 10.7856512069702 8.0328311920166 3.74113297462463 2.58684110641479 4.16729402542114 4.38584089279175 2.32125234603882 2.52619409561157 2.87823295593262 2.81307935714722 2.33961272239685 2.97844839096069 2.11852765083313 1.16063594818115 0.392797201871872 0.313088625669479 2.42658829689026 1.19990968704224 -0.277527123689651 0.0281409993767738 0.710402309894562 1.14697766304016 1.9696272611618 3.8376042842865 5.32409620285034 6.86582279205322 8.49212646484375 10.0975503921509 11.9643297195435 5.8807692527771 2.34330677986145 1.94485664367676 1.04899978637695 -2.17510747909546 -3.0437593460083 -2.89647817611694 -2.51917910575867 -2.19752526283264 -2.00322198867798 -1.79043054580688 -1.28750681877136 -0.779769659042358 -0.241589814424515 0.263887107372284 0.777690410614014 0.864757835865021 0.452211141586304 0.304568767547607 0.236002698540688 0.14437010884285 0.120899982750416 0.210375130176544 0.403035581111908 0.341812700033188 0.0441382899880409 -0.0431119576096535 0.275164276361465 0.128871396183968 -0.710257232189178 -0.854276716709137 -0.796282291412354 -0.727817952632904 -0.699276387691498 -0.670702695846558 -0.451844602823257 -0.328281491994858 -0.599667906761169 -0.580264031887054 -0.53579193353653 -0.476745307445526 -0.392958015203476 -0.327077776193619 -0.264771640300751 -0.200795441865921 -0.115591399371624 -0.0807019919157028 -0.0972081646323204 -0.140473276376724 -0.134047478437424 -0.124266363680363 -0.11332380771637 -0.0951749831438065 -0.0819339975714684 -0.0687114223837852 -0.0776369646191597 -0.0658154413104057 -0.0515538118779659 -0.0287859328091145 0.0019830719102174 0.0383977517485619 0.0707111954689026 0.0952752083539963 0.12110947817564 0.154222205281258 0.186076641082764 0.183398976922035 2.11021590232849 0.140119850635529 0.17818446457386 0.211908102035522 0.232302114367485 0.23844113945961 0.242914691567421 0.248514786362648 0.252835720777512 0.485532879829407 0.198212578892708 0.199338600039482 0.187785625457764 0.143524423241615 0.117334477603436 0.163186445832253 0.0858928561210632 0.0641557052731514 0.135797560214996 0.130989134311676 0.0623294487595558 0.0623929016292095 0.0634091049432755 0.0834298953413963 0.0793064162135124 0.123777367174625 0.309038996696472 0.425072580575943 0.493086516857147 0.461360782384872 0.603925406932831 0.763956129550934 0.882423043251038 1.19129800796509 1.74222636222839 2.15222024917603 2.61167001724243 2.87788128852844 3.08471822738647 3.33662366867065 3.40749716758728 3.5755467414856 3.8317859172821 4.05217790603638 4.23448944091797 4.33760023117065
7.50833177566528 8.7006664276123 9.5943489074707 10.2554426193237 11.0654048919678 12.016487121582 12.7226152420044 13.9973726272583 15.2368125915527 17.3179397583008 19.4575347900391 21.7432651519775 24.4642009735107 28.2320995330811 33.4781074523926 19.0108852386475 15.8297557830811 12.7830018997192 8.22038078308105 7.76016235351562 7.02939462661743 3.98319339752197 0.810616195201874 1.1024386882782 2.61907601356506 3.94635963439941 6.46761798858643 8.56057643890381 9.2975902557373 8.81266498565674 9.91516590118408 9.25295066833496 6.52741765975952 4.96193504333496 7.30904293060303 7.89093160629272 5.1518702507019 2.86753964424133 2.02636408805847 1.57280516624451 0.979170083999634 0.16152435541153 -0.417142689228058 -0.386382937431335 -0.951707422733307 -0.845446348190308 0.178861856460571 2.82133436203003 0.446561306715012 0.820121109485626 2.07827258110046 2.92234754562378 3.72313714027405 4.86854410171509 6.35387086868286 7.88298177719116 9.09410762786865 11.873064994812 12.3303337097168 8.20090770721436 6.06882429122925 8.23873996734619 8.12192821502686 5.79274034500122 -0.479565918445587 -2.37753176689148 -2.20353603363037 -1.98429369926453 -1.65482091903687 -1.20740723609924 -0.721262574195862 -0.19545678794384 0.672404646873474 0.812688887119293 1.09949815273285 1.0504287481308 1.00592601299286 1.03296780586243 0.00761041324585676 0.0851230546832085 0.15127420425415 0.172459572553635 0.211264178156853 0.0680981799960136 -0.171275347471237 -0.168250426650047 0.0619768649339676 -0.059429369866848 -0.260496646165848 -0.843694090843201 -0.816056430339813 -0.785956263542175 -0.741544902324677 -0.698692977428436 -0.660690486431122 -0.621729969978333 -0.603275954723358 -0.590155899524689 -0.542569994926453 -0.478958606719971 -0.416265577077866 -0.372321844100952 -0.332233995199203 -0.284762024879456 -0.228027880191803 -0.231580719351768 -0.209085881710052 -0.200656354427338 -0.189817830920219 -0.184861063957214 -0.169154450297356 -0.149406537413597 -0.136906877160072 -0.12027720361948 -0.107444018125534 -0.0865838080644608 -0.0525058917701244 -0.0308579914271832 -0.0132476463913918 0.0251659490168095 0.0472417995333672 0.0711656361818314 0.0970788598060608 0.125040575861931 0.167222946882248 1.49372434616089 0.0967920199036598 0.0999641790986061 0.134389892220497 0.181005552411079 0.224809691309929 0.233760163187981 0.214747324585915 0.198016002774239 0.258633404970169 0.286899596452713 0.299828916788101 0.52872359752655 0.0987709239125252 0.0805165320634842 0.0686433687806129 0.0460641458630562 0.0694629922509193 0.0956498831510544 0.131207704544067 0.0531596653163433 0.342362493276596 0.329741507768631 1.47832584381104 0.0696218088269234 0.110958009958267 0.179752811789513 0.299009293317795 0.312147885560989 1.05001032352448 0.577169895172119 0.748646259307861 0.882463574409485 1.06550896167755 1.51294302940369 2.08229851722717 2.58062863349915 2.98143768310547 3.16420674324036 3.3320894241333 3.54861855506897 3.74982213973999 3.92504262924194 4.01311683654785 4.14494562149048 4.24552583694458 4.3534722328186
7.43575286865234 8.60713291168213 9.40062236785889 10.0361833572388 10.6748447418213 11.480525970459 12.2322549819946 13.3473234176636 14.7201490402222 16.4967060089111 18.7140827178955 20.0539989471436 22.2505989074707 25.1300621032715 26.2680187225342 21.3462314605713 17.8189125061035 13.7067937850952 9.85078716278076 8.13228607177734 6.71307706832886 3.04830265045166 1.43039393424988 1.6697713136673 2.68683266639709 4.36791229248047 6.35259485244751 8.12868309020996 9.15312480926514 6.38744306564331 6.60982465744019 8.60428619384766 7.44770383834839 7.74779462814331 10.8497066497803 11.8305835723877 9.85477256774902 6.1220269203186 4.3874077796936 2.85600996017456 2.29788064956665 0.56342476606369 0.234246864914894 -0.955443799495697 -0.916400611400604 -0.421411782503128 0.279090851545334 2.48061561584473 2.02340817451477 2.58948135375977 3.09565854072571 3.4577944278717 4.08035326004028 4.68245458602905 5.77715969085693 7.00875854492188 6.80833625793457 8.6822566986084 9.81400394439697 6.65788841247559 4.87856483459473 4.29995346069336 3.55150675773621 1.00601768493652 -0.803392648696899 -2.00628995895386 -1.81775653362274 -1.51304745674133 -1.10848486423492 -0.679159104824066 -0.18830694258213 0.758938848972321 1.40178465843201 1.48718464374542 1.5858428478241 1.67023921012878 1.81923019886017 0.783181488513947 0.119420647621155 0.0631325840950012 0.0763220191001892 0.338397830724716 0.240489542484283 -0.246494829654694 -0.36357581615448 -0.131913706660271 -0.207293316721916 -0.295097798109055 -0.325178146362305 -0.480030179023743 -0.795883238315582 -0.772873163223267 -0.74117112159729 -0.705472886562347 -0.66558849811554 -0.634978055953979 -0.609764158725739 -0.570357978343964 -0.52727609872818 -0.473386198282242 -0.4718097448349 -0.439480006694794 -0.402655482292175 -0.364112287759781 -0.345824718475342 -0.305868536233902 -0.284122407436371 -0.263530433177948 -0.250792503356934 -0.234307318925858 -0.2199517339468 -0.206870436668396 -0.19288370013237 -0.173276647925377 -0.148197874426842 -0.124529875814915 -0.0935351997613907 -0.0524094179272652 -0.0189503468573093 -0.00197788816876709 0.0233110301196575 0.0347000136971474 0.0550303757190704 0.101329229772091 0.491980105638504 0.629936635494232 0.0462021715939045 0.0513424277305603 0.0652483999729156 0.100190252065659 0.14814430475235 0.171449691057205 0.167801216244698 0.135688692331314 0.261543154716492 0.295501321554184 0.413939774036407 0.21199443936348 0.0471289083361626 0.189259439706802 0.143074989318848 0.124478965997696 0.258657515048981 0.0831937566399574 0.0529604256153107 0.31021049618721 0.547873735427856 0.0342565625905991 0.0361595265567303 0.337325483560562 0.139266908168793 0.299722731113434 0.63408887386322 0.400365233421326 0.847455382347107 0.709760904312134 0.851337909698486 1.07803225517273 1.37336456775665 1.98628783226013 2.54736042022705 2.97110533714294 3.3060896396637 3.49621558189392 3.65492177009583 3.73188734054565 3.8417763710022 3.92939949035645 4.01736068725586 4.10537195205688 4.14325666427612 4.15428495407104
7.3470025062561 8.41259479522705 9.05715084075928 9.72243022918701 10.302677154541 11.1608514785767 11.8493280410767 12.9434852600098 14.3979396820068 15.7747554779053 17.6640701293945 19.4655494689941 20.4255447387695 21.8537292480469 22.7397594451904 22.0634937286377 16.8343963623047 13.9361352920532 11.6744718551636 10.1759538650513 8.44512748718262 3.4935188293457 1.75945377349854 2.05464363098145 2.70465803146362 4.7341742515564 5.96242904663086 8.35024356842041 9.67653846740723 4.74907827377319 4.46342277526855 5.2488694190979 6.70912551879883 7.50646448135376 9.29268741607666 11.4048986434937 10.9448194503784 10.2648448944092 5.28445386886597 3.63630867004395 2.65610694885254 2.10082292556763 0.269763946533203 -0.740652799606323 -0.63106244802475 0.220109328627586 1.19450485706329 2.09346151351929 2.70341873168945 3.14177465438843 3.10517168045044 2.83550620079041 3.47869515419006 3.78020644187927 3.84143829345703 4.11335945129395 4.16984701156616 3.68959999084473 4.70124101638794 3.2960467338562 1.81578814983368 2.89781284332275 3.17296266555786 2.55748438835144 1.20895946025848 0.150442525744438 -0.997467517852783 -0.872582018375397 -0.490839272737503 -0.226324066519737 0.293991208076477 1.2195417881012 1.9869110584259 2.0750584602356 1.98631918430328 2.32325339317322 1.97816109657288 1.1405234336853 0.532875895500183 0.25535175204277 0.123217523097992 0.320205509662628 0.261449635028839 -0.493136495351791 -0.549681723117828 -0.223549410700798 -0.204758062958717 -0.428332060575485 -0.416200011968613 -0.429987519979477 -0.616256833076477 -0.752250373363495 -0.731452345848083 -0.698094367980957 -0.676455914974213 -0.641767084598541 -0.61108124256134 -0.566586911678314 -0.536457717418671 -0.523356020450592 -0.520611584186554 -0.505490660667419 -0.471384704113007 -0.433072686195374 -0.397253423929214 -0.364646762609482 -0.331367462873459 -0.304820001125336 -0.289386391639709 -0.268930345773697 -0.254068851470947 -0.24685637652874 -0.228092968463898 -0.21144300699234 -0.182190895080566 -0.161294236779213 -0.0934642255306244 -0.0997234210371971 -0.0390218161046505 -0.0170222800225019 -0.0177624374628067 -0.0136749753728509 0.012201969511807 0.134609118103981 0.0487265586853027 0.56728333234787 0.000987504259683192 0.0218839254230261 -0.00887889787554741 0.0861559435725212 0.0123885842040181 0.0357091166079044 0.0641137361526489 0.0676424205303192 0.110953219234943 0.157417103648186 0.317231714725494 0.0405658259987831 0.0685297474265099 0.0878342762589455 0.479345142841339 0.049801729619503 0.207090437412262 0.243493586778641 0.26562637090683 0.529302418231964 0.393508344888687 0.235981702804565 0.0493247993290424 0.665025651454926 0.166455194354057 0.429064452648163 0.321639627218246 0.871833682060242 0.629959404468536 1.24300861358643 1.05203711986542 1.44370555877686 1.96357214450836 2.46692633628845 2.88259863853455 3.21145367622375 3.39957284927368 3.57337307929993 3.65351891517639 3.73366975784302 3.81021475791931 3.85267353057861 3.83541083335876 3.92320346832275 3.9515061378479 3.91103315353394
7.39612436294556 8.26369762420654 8.92048072814941 9.65255546569824 10.3231658935547 11.3982429504395 12.082932472229 12.9761037826538 13.9133272171021 15.4049949645996 16.6875820159912 18.0760078430176 19.7424716949463 21.8200740814209 24.2119216918945 21.3015556335449 15.166407585144 13.1997528076172 10.1002750396729 9.7246732711792 8.48168087005615 3.09739327430725 2.01693654060364 2.25695204734802 2.88296461105347 4.28254270553589 5.98791837692261 11.891282081604 4.83790397644043 4.23773097991943 4.4612455368042 4.85637617111206 6.37366962432861 7.96386671066284 8.41543769836426 9.51869106292725 10.503270149231 12.7213802337646 3.18074607849121 3.21891856193542 2.22501492500305 1.21868073940277 -0.864456474781036 -0.838767886161804 -0.482488036155701 0.439542204141617 1.74252092838287 2.3882520198822 2.47111511230469 2.80697226524353 3.74783444404602 1.91108798980713 2.16974711418152 2.45632338523865 2.10318517684937 1.5163277387619 1.44230985641479 1.22143387794495 2.56140470504761 0.646924436092377 -0.679937303066254 -0.124338455498219 1.82180571556091 2.75479912757874 2.09359335899353 1.05321359634399 -0.179955363273621 -0.298045605421066 -0.0716482028365135 0.382506042718887 1.17789566516876 1.90048122406006 2.51690793037415 2.4405529499054 2.44987058639526 2.28671884536743 1.76767718791962 1.3981397151947 1.11050879955292 0.666711747646332 0.445647209882736 0.174237295985222 0.0584702417254448 -0.41899785399437 -0.62503570318222 -0.310076922178268 -0.267155408859253 -0.376211732625961 -0.560333847999573 -0.736363410949707 -0.672758936882019 -0.731928944587708 -0.719842612743378 -0.704024255275726 -0.683573067188263 -0.653895199298859 -0.609858214855194 -0.611601293087006 -0.587503492832184 -0.565207898616791 -0.55322128534317 -0.541621625423431 -0.517942070960999 -0.478507101535797 -0.444103062152863 -0.406073719263077 -0.371564775705338 -0.34629037976265 -0.322600603103638 -0.30741611123085 -0.291706323623657 -0.273721754550934 -0.265504539012909 -0.232175394892693 -0.214680790901184 -0.179951816797256 -0.133043274283409 0.171068415045738 -0.102891258895397 -0.0441367365419865 -0.0663513839244843 -0.0675997212529182 -0.0576037764549255 -0.0513493493199348 -0.050414826720953 0.383768916130066 0.268178582191467 0.00189879257231951 0.753394722938538 1.45954155921936 0.670338809490204 -0.111313387751579 -0.0851674973964691 -0.0541237965226173 0.00978403817862272 0.063223123550415 0.216324716806412 0.0666866153478622 0.109472006559372 0.138175517320633 0.368866086006165 0.145796954631805 0.24586509168148 0.211752519011497 0.187760934233665 0.264430820941925 0.424123108386993 0.107975013554096 0.14495325088501 0.886187374591827 0.193434029817581 0.27706778049469 1.22569537162781 0.499584406614304 0.695004403591156 0.948812365531921 1.43184304237366 2.05506420135498 2.4269688129425 2.69868564605713 3.00703763961792 3.28505682945251 3.47244048118591 3.54900026321411 3.58182191848755 3.55669903755188 3.63426208496094 3.66507267951965 3.63648319244385 3.63049364089966 3.68084001541138 3.67289972305298
7.69155216217041 8.33996391296387 9.01766014099121 9.66475391387939 10.3699979782104 10.970178604126 11.6674175262451 12.4896860122681 13.1571912765503 14.4629850387573 15.8709096908569 17.3665714263916 19.7789669036865 22.1537113189697 26.3119964599609 20.0376396179199 14.8229513168335 15.2625303268433 12.3452405929565 8.23579597473145 8.00641632080078 2.63186836242676 1.99524962902069 2.29722428321838 3.01646661758423 3.90294575691223 6.82257413864136 12.971887588501 7.07072496414185 3.4607994556427 4.03116798400879 5.73927116394043 7.55046892166138 8.82872676849365 10.9788599014282 11.3173036575317 11.7120943069458 5.70972871780396 4.25989437103271 3.57896447181702 2.41240382194519 1.19602608680725 -0.760038673877716 -0.564490556716919 0.107634015381336 0.848005354404449 1.81687796115875 2.07128596305847 2.49866652488708 5.73539161682129 6.94759368896484 0.498409748077393 -0.273256838321686 0.0793220400810242 -0.152371913194656 -0.228007420897484 -0.429571002721786 -1.03609919548035 0.106725975871086 -1.44696414470673 -1.5006890296936 -1.21645271778107 -0.730779647827148 0.689318358898163 0.385051220655441 0.652473270893097 0.349961936473846 0.308936059474945 0.725480735301971 1.30036115646362 1.67879390716553 1.91160356998444 2.10790276527405 2.34243988990784 3.0041663646698 1.67641484737396 1.29936754703522 1.17094051837921 1.11830711364746 1.0204244852066 0.512247204780579 -0.0345103405416012 -0.18291825056076 -0.457366913557053 -0.494853675365448 -0.339839518070221 -0.229872241616249 -0.261663436889648 -0.511963665485382 -0.766932189464569 -0.750071823596954 -0.736732006072998 -0.718525528907776 -0.704756498336792 -0.685856461524963 0.0194113962352276 -0.654198706150055 -0.644309401512146 -0.622284054756165 -0.606037437915802 -0.600230932235718 -0.584547102451324 -0.559872269630432 -0.525903940200806 -0.496218115091324 -0.459577590227127 -0.424567192792892 -0.392697691917419 -0.365605711936951 -0.349364221096039 -0.334259331226349 -0.313657164573669 -0.294328957796097 -0.271093934774399 -0.248657703399658 -0.211205139756203 -0.170899346470833 -0.156191736459732 -0.129720792174339 -0.0974224209785461 -0.100874789059162 -0.105836398899555 -0.102773271501064 -0.100952543318272 0.310866177082062 0.0151083776727319 0.326044768095016 0.470671415328979 1.38683128356934 2.44575643539429 1.83670508861542 -0.212695449590683 -0.201926350593567 -0.155149802565575 -0.082033634185791 -0.00444364175200462 0.0379862450063229 0.34989258646965 0.0757878050208092 0.134688079357147 0.140774771571159 0.119074121117592 0.14987912774086 0.200426444411278 0.128638833761215 0.163295716047287 0.137103617191315 0.20543110370636 0.836638689041138 0.14659121632576 0.307941973209381 0.855800032615662 0.424042522907257 0.581507384777069 0.844784200191498 1.34582316875458 1.9820681810379 2.35272884368896 2.63794755935669 2.84276366233826 2.98006844520569 3.19291067123413 3.30283403396606 3.3811514377594 3.41782259941101 3.38370561599731 3.36214208602905 3.41278529167175 3.40535759925842 3.42477107048035 3.47722315788269 3.54486203193665
7.65681934356689 8.23325347900391 8.67316150665283 9.20142078399658 9.90283584594727 10.5674543380737 11.1247901916504 11.8994588851929 12.6964683532715 13.7258768081665 15.0842666625977 17.1589736938477 19.7842922210693 22.6919479370117 23.8302593231201 23.2605247497559 15.6209344863892 14.8874931335449 12.9264516830444 8.42425346374512 7.53439092636108 4.2998194694519 1.5837459564209 1.84184467792511 2.94517540931702 3.76050806045532 6.90541362762451 10.7572574615479 7.86081075668335 3.74138903617859 4.31126689910889 7.25553226470947 8.8172721862793 10.6878252029419 13.6955451965332 13.1552801132202 9.25345039367676 6.13265609741211 5.9802041053772 3.44589638710022 3.04389142990112 0.0871402323246002 -0.516503393650055 -0.356152087450027 0.310216307640076 1.15495526790619 1.99985313415527 4.29263591766357 5.26446151733398 13.417085647583 9.99985504150391 1.31045746803284 -2.40385389328003 -2.28009223937988 -2.01475596427917 -1.97295606136322 -1.94652962684631 -1.85123264789581 -1.57763850688934 -1.42850399017334 -1.29404819011688 -0.998146533966064 -0.525012910366058 -0.281355500221252 -0.0934855937957764 0.108727380633354 0.428936421871185 1.02325654029846 1.21902227401733 1.74403810501099 2.45100474357605 3.03302931785583 3.09023809432983 3.30382823944092 3.28534936904907 2.3085560798645 1.14712727069855 0.844376266002655 0.925467550754547 0.92561411857605 0.566417932510376 -0.113543711602688 -0.478203684091568 -0.499361008405685 -0.426000267267227 -0.324518412351608 -0.321653306484222 -0.210305064916611 -0.0336181856691837 -0.384233355522156 -0.761161684989929 -0.746235370635986 -0.715456068515778 -0.631807863712311 -0.302082806825638 -0.198744043707848 -0.315264701843262 -0.556438028812408 -0.660558342933655 -0.648071765899658 -0.644988715648651 -0.629160583019257 -0.602558970451355 -0.567923009395599 -0.54767519235611 -0.515392184257507 -0.48754546046257 -0.450479835271835 -0.423098832368851 -0.405964851379395 -0.374839037656784 -0.361304819583893 -0.339336335659027 -0.326113909482956 -0.290967106819153 -0.245836645364761 -0.219605073332787 -0.194650188088417 -0.172333791851997 -0.148409247398376 -0.143847301602364 0.0776728615164757 -0.141875177621841 -0.0346927046775818 0.0683777630329132 0.159294798970222 0.736106812953949 1.21311283111572 1.29073822498322 2.13021445274353 2.25288271903992 1.18646645545959 -0.269075214862823 -0.235858678817749 -0.186558723449707 -0.0987563729286194 -0.012014202773571 0.144635781645775 0.320892602205276 0.034750409424305 0.122765630483627 0.0560122355818748 0.0858712419867516 0.112368419766426 0.134105503559113 0.267967909574509 0.255492329597473 0.34906393289566 0.579917907714844 0.336109757423401 0.264348894357681 0.347437977790833 0.476607948541641 0.685027718544006 1.12689220905304 1.80066013336182 2.25810384750366 2.50280976295471 2.74848413467407 2.83942198753357 2.87178039550781 2.93253874778748 3.07754778862 3.13386344909668 3.17898368835449 3.17884969711304 3.17101883888245 3.23031711578369 3.31729054450989 3.37181735038757 3.44449067115784 3.60956692695618
7.36578702926636 7.84446144104004 8.355637550354 8.82004928588867 9.39929962158203 10.21213722229 10.6769752502441 11.2616844177246 12.0529356002808 13.2045698165894 14.5439100265503 16.6932601928711 18.9495582580566 21.7775325775146 23.5100631713867 21.2268810272217 18.9826717376709 16.1275672912598 16.465389251709 9.00839138031006 8.53032112121582 4.63389110565186 2.08273935317993 2.25310206413269 3.06320524215698 3.6034848690033 4.84594774246216 7.95178556442261 7.19268798828125 4.27798223495483 5.1411509513855 7.27728891372681 9.04716396331787 10.5681076049805 14.3468160629272 14.5435705184937 11.1895809173584 9.03781604766846 7.22791433334351 5.2464747428894 2.44538235664368 0.992129743099213 -0.062113631516695 0.249887213110924 0.540138721466064 2.48760294914246 5.91871929168701 8.30626964569092 11.4862422943115 10.7381925582886 4.15830659866333 2.54622888565063 -1.64245629310608 -2.4008207321167 -2.26080703735352 -2.18143701553345 -2.0257089138031 -1.8033139705658 -1.55404627323151 -1.44739878177643 -1.29626631736755 -0.967641472816467 -0.378588646650314 0.926640152931213 0.374866753816605 0.66530168056488 0.841861248016357 1.2272424697876 1.91150116920471 2.44851660728455 2.840416431427 3.55963110923767 4.23433446884155 4.19126033782959 3.48581337928772 3.26747179031372 1.5235652923584 0.826040506362915 0.70003217458725 0.738012611865997 0.552750051021576 -0.11534807831049 -0.549548029899597 -0.478176295757294 -0.41038790345192 -0.265811443328857 -0.189089521765709 -0.145653009414673 -0.0102327540516853 0.143064841628075 -0.523205280303955 -0.747871160507202 -0.594539403915405 -0.473329246044159 -0.203798323869705 -0.10349091142416 -0.0882323160767555 -0.0125675480812788 -0.536386430263519 -0.687299609184265 -0.679448246955872 -0.670786201953888 -0.640724122524261 -0.611714422702789 -0.59760183095932 -0.576851427555084 -0.551039457321167 -0.515919983386993 -0.493774145841599 -0.46929532289505 -0.430042386054993 0.34169664978981 -0.417685568332672 -0.380345970392227 -0.33958312869072 -0.295198649168015 -0.273114114999771 -0.245512083172798 -0.221764281392097 0.00214467942714691 -0.196510255336761 0.234520062804222 -0.182206720113754 0.121712327003479 0.381668567657471 0.478623867034912 0.54610538482666 1.19687569141388 1.38415455818176 1.52722644805908 2.3067421913147 0.937305212020874 0.87101423740387 -0.285892635583878 -0.266959428787231 -0.198317646980286 -0.0924883708357811 -0.00885326787829399 0.0529107972979546 0.297902852296829 0.40485954284668 0.0418676733970642 0.0308558735996485 0.03957499563694 0.0931978598237038 0.157988756895065 0.301659345626831 0.250554919242859 0.443341255187988 0.386969387531281 0.445998549461365 0.386895328760147 0.529953837394714 0.807621538639069 1.48417592048645 1.98478698730469 2.36012840270996 2.60521221160889 2.70308232307434 2.77444219589233 2.78892683982849 2.78554463386536 2.83249497413635 2.94775223731995 3.0022349357605 3.04940009117126 3.11099481582642 3.19812917709351 3.32829117774963 3.44758820533752 3.61697173118591 3.83797883987427
7.14764213562012 7.52619314193726 8.06433868408203 8.58973121643066 9.03376388549805 9.63783073425293 10.0759086608887 10.863639831543 11.5804433822632 12.6532192230225 13.9430809020996 15.4278831481934 17.6392478942871 19.4718322753906 22.1695327758789 22.6897487640381 20.1205577850342 18.7314491271973 15.1430377960205 10.7061281204224 8.03704833984375 4.68752670288086 2.3997495174408 2.71405458450317 3.59684896469116 7.02304124832153 3.73782181739807 3.83473420143127 4.62837076187134 4.78290557861328 5.62337112426758 5.76451921463013 7.94803285598755 9.18654155731201 10.6855745315552 12.5798387527466 10.7262516021729 10.4381942749023 9.1021785736084 5.47580623626709 1.49598789215088 1.21888840198517 0.0467516481876373 1.68164336681366 4.10850954055786 5.83733415603638 8.63651084899902 11.3115768432617 9.62351417541504 8.10648250579834 5.26243114471436 4.66919040679932 1.58742141723633 -2.38187956809998 -2.28610992431641 -2.08244657516479 -1.89518857002258 -1.75387930870056 -1.62436544895172 -1.48870801925659 -1.30934703350067 -1.00933194160461 -0.496790856122971 0.325479805469513 0.660652697086334 0.838035404682159 1.32948648929596 1.82304739952087 2.09729528427124 2.34093570709229 2.70489311218262 3.11662149429321 3.90596556663513 4.43682956695557 4.13769292831421 3.19750785827637 2.57999801635742 1.23807954788208 0.669970035552979 0.578928112983704 0.426572740077972 0.402236878871918 -0.533247351646423 -0.50477534532547 -0.374587059020996 -0.249494999647141 -0.0931650921702385 -0.0412064790725708 0.0139837451279163 -0.0138187995180488 -0.0344241484999657 -0.383372783660889 -0.401458293199539 -0.477576404809952 -0.310538351535797 -0.176682770252228 0.069176122546196 0.188826724886894 -0.255925476551056 -0.719212293624878 -0.719652831554413 -0.701024174690247 -0.680325031280518 -0.658344328403473 -0.643190979957581 -0.62738311290741 -0.605526924133301 -0.451630085706711 -0.572282135486603 -0.534136474132538 -0.499920159578323 0.0687936320900917 -0.485776215791702 -0.455855339765549 -0.39247190952301 -0.367502599954605 -0.333283364772797 -0.308602869510651 -0.276571601629257 -0.250922381877899 0.75146895647049 -0.082233265042305 0.0633431449532509 0.0165142770856619 0.252006024122238 0.405730366706848 0.580423951148987 0.764432489871979 1.12045407295227 1.24864423274994 1.42325520515442 1.09488749504089 0.88915091753006 0.237497970461845 -0.271258682012558 -0.244243532419205 -0.166358426213264 -0.0788833647966385 -0.00486285053193569 0.23455174267292 0.211600169539452 0.0559842884540558 0.0652400478720665 0.0670353025197983 0.0730821862816811 0.246131435036659 0.257987588644028 0.21421305835247 0.228416711091995 0.253334492444992 0.29936945438385 0.407107800245285 0.574182391166687 0.979467868804932 1.58091056346893 2.04258370399475 2.32867860794067 2.47341871261597 2.57094526290894 2.63423538208008 2.66410541534424 2.69939470291138 2.76106643676758 2.84510135650635 3.00390481948853 3.10209941864014 3.20298433303833 3.34071612358093 3.5550582408905 3.87414193153381 4.02954578399658 4.21547508239746
6.91215801239014 7.21501588821411 7.62363624572754 8.14340305328369 8.69567012786865 9.25261306762695 9.8558292388916 10.5807209014893 11.4250087738037 12.257661819458 13.4234113693237 14.7862501144409 16.5540657043457 18.3701667785645 20.7600631713867 23.0273475646973 20.9745311737061 18.384973526001 15.128191947937 11.4097003936768 8.07404899597168 5.21690988540649 2.93368625640869 3.19101643562317 5.6995062828064 8.63650989532471 9.61435031890869 3.51584005355835 4.04204320907593 5.15470027923584 5.89402055740356 6.29618120193481 6.79747676849365 8.16870784759521 8.7161169052124 7.94452428817749 7.52487325668335 8.46841335296631 8.62601184844971 3.9042751789093 1.34698092937469 2.01176118850708 3.00532150268555 4.19020223617554 5.73783493041992 7.59511566162109 10.2321271896362 13.4545106887817 9.64881992340088 6.53599548339844 6.67844676971436 5.81008815765381 0.696481049060822 -2.33677458763123 -2.22371816635132 -1.93335485458374 -1.7342232465744 -1.58093619346619 -1.33729803562164 -1.14162230491638 -1.04744815826416 -0.79259318113327 -0.369721442461014 0.435802042484283 0.650190055370331 1.2059154510498 1.58409869670868 1.84493231773376 2.05710101127625 2.21710395812988 2.5416214466095 2.98318862915039 3.41750955581665 4.34368896484375 4.00734996795654 3.66893577575684 2.74261498451233 1.94359040260315 0.943792104721069 0.45953893661499 0.423799335956573 0.195697814226151 -0.204727217555046 -0.470364689826965 -0.382408142089844 -0.235510587692261 -0.127667903900146 0.0650370344519615 -0.124249950051308 -0.0950148552656174 0.163186445832253 0.226815730333328 0.1416305154562 -0.324758350849152 -0.408438861370087 -0.299692302942276 -0.100799828767776 0.104993551969528 0.148242101073265 -0.568567276000977 -0.750308275222778 -0.736343562602997 -0.530690550804138 -0.710992753505707 -0.690279245376587 -0.668319404125214 -0.648216009140015 0.011174188926816 -0.632536828517914 -0.600087463855743 -0.567930221557617 -0.548023998737335 -0.537606656551361 -0.502276003360748 -0.463924169540405 -0.450913786888123 -0.419115334749222 -0.388984858989716 -0.346944957971573 -0.271789491176605 -0.095431312918663 0.171601161360741 -0.0333151631057262 0.0732332468032837 0.0655582472681999 0.0975406616926193 0.356544643640518 0.524857223033905 0.654551267623901 0.705362558364868 0.825895428657532 0.90750527381897 0.683655858039856 0.16274930536747 -0.262164831161499 -0.235447436571121 -0.198356047272682 -0.127692371606827 -0.052502416074276 0.011043812148273 0.0608466155827045 0.231869995594025 0.0466911643743515 0.0608604252338409 0.0788436979055405 0.17752705514431 0.176938012242317 0.197921946644783 0.218027696013451 0.255341738462448 0.312364727258682 0.41410955786705 0.593913376331329 1.00193786621094 1.5451785326004 1.96527659893036 2.22814464569092 2.35115242004395 2.45683765411377 2.51857972145081 2.58492970466614 2.6679961681366 2.7833034992218 2.92991161346436 3.10528755187988 3.34676766395569 3.58838510513306 3.74955010414124 3.89571833610535 4.16098165512085 4.29667901992798 4.43492555618286
6.55134868621826 6.87667369842529 7.35711526870728 7.90976095199585 8.4707498550415 9.19583606719971 9.52193355560303 10.2430114746094 11.0861930847168 11.8451948165894 13.0002937316895 14.3445062637329 14.8410148620605 16.9291515350342 18.4515438079834 21.0980224609375 21.562707901001 19.6405639648438 16.3354206085205 11.229564666748 6.9666223526001 3.71488952636719 3.26816034317017 3.53883600234985 7.12110233306885 12.6388683319092 9.04622936248779 4.54429721832275 4.70291090011597 5.12877655029297 6.19909334182739 7.05697631835938 7.49984502792358 11.9178457260132 6.99825716018677 6.25586843490601 4.94917726516724 5.66488075256348 4.50063419342041 2.20536088943481 2.04220795631409 2.80321168899536 4.06700658798218 5.41733646392822 7.00904655456543 9.16278076171875 13.8258047103882 14.2405204772949 11.6573972702026 10.5735006332397 8.95387935638428 6.34572696685791 -1.00741004943848 -2.02531337738037 -1.83291983604431 -1.69694304466248 -1.51998043060303 -1.28982436656952 -0.617643415927887 -0.650133788585663 -0.586092233657837 -0.334771066904068 0.0860156118869781 0.516675472259521 1.07124626636505 1.35173535346985 1.57692277431488 1.74323332309723 1.92266130447388 2.08422803878784 2.26811623573303 2.6210629940033 3.12165951728821 3.78787040710449 4.43071508407593 3.28817987442017 3.10743141174316 2.24244856834412 1.15720677375793 0.934601187705994 0.408506691455841 0.125297576189041 -0.00375660392455757 -0.432165771722794 -0.443550825119019 -0.308216273784637 -0.15863524377346 -0.00730649195611477 0.176177337765694 0.0285227205604315 0.0454441905021667 0.444499790668488 0.63269567489624 0.448365449905396 -0.299828916788101 -0.292247593402863 -0.240994974970818 -0.0321975089609623 -0.0840385854244232 -0.145100235939026 -0.58079206943512 -0.775188148021698 -0.557148277759552 -0.711259365081787 -0.73929089307785 -0.713354170322418 -0.246185824275017 -0.505188703536987 -0.676583468914032 -0.663540601730347 -0.634586453437805 -0.608794569969177 -0.233399927616119 -0.49488952755928 -0.539044439792633 -0.524918794631958 -0.504197597503662 -0.484508574008942 -0.447512298822403 -0.389752745628357 -0.277700990438461 -0.187506690621376 -0.169779673218727 0.410050243139267 -0.0971491262316704 -0.0832460299134254 -0.0335129946470261 0.142228737473488 0.228122636675835 0.328779071569443 0.4421366751194 0.393043905496597 0.725463926792145 -0.165686264634132 -0.261699765920639 -0.232029095292091 -0.206147879362106 -0.162600234150887 -0.0942041873931885 -0.0132845090702176 0.0233334936201572 0.116250038146973 0.0780776664614677 0.0704879313707352 0.0815597549080849 0.138329640030861 0.219507545232773 0.155450969934464 0.224687308073044 0.273621529340744 0.334393799304962 0.424122005701065 0.571374773979187 0.940673470497131 1.38370609283447 1.75127017498016 1.99604427814484 2.21049523353577 2.35243368148804 2.46164679527283 2.56189250946045 2.71605110168457 2.91485667228699 3.03938269615173 3.30039262771606 3.63573789596558 3.88281798362732 3.99777698516846 4.08971452713013 4.31844425201416 4.45749616622925 4.57504224777222
6.26994466781616 6.60327005386353 7.20972204208374 7.75732517242432 8.26342678070068 8.8961763381958 9.24037933349609 9.86508750915527 10.6782693862915 11.1624526977539 11.647274017334 12.8465194702148 13.7413063049316 15.3571872711182 17.1182708740234 18.3336753845215 20.3906059265137 18.5889549255371 16.7280883789062 13.0805130004883 8.31986141204834 3.55820083618164 3.60251474380493 3.94167709350586 4.98672485351562 9.42528820037842 11.6341209411621 8.83279895782471 5.68293190002441 5.82453441619873 6.36617279052734 8.08528518676758 12.1192169189453 14.2192163467407 10.7502965927124 4.6333327293396 4.17423391342163 5.09098720550537 6.59064197540283 3.60969424247742 3.16170167922974 3.77951407432556 5.17394256591797 6.31802463531494 8.43438625335693 10.4765424728394 14.5021047592163 15.9539890289307 16.8493499755859 16.1136646270752 15.206919670105 9.55359268188477 4.86076974868774 2.65537548065186 -0.327395707368851 -1.40265083312988 -1.1996454000473 -0.987815499305725 -0.771722853183746 -0.530800700187683 -0.181285366415977 0.101207658648491 0.345415592193604 0.988994598388672 1.30254244804382 1.4198751449585 1.5364944934845 1.61432325839996 1.74635219573975 1.82854342460632 1.9594144821167 2.22541928291321 2.75670838356018 3.36123633384705 4.45036315917969 3.08708715438843 2.74008560180664 2.69210338592529 1.64156866073608 1.2325633764267 0.758735001087189 0.236647129058838 0.207691475749016 -0.109255574643612 -0.436209827661514 -0.259798556566238 -0.0624202080070972 0.00165879970882088 0.127123266458511 0.441276133060455 0.21841362118721 0.290881603956223 0.981170058250427 0.77366316318512 0.188813060522079 -0.327367395162582 0.0226762276142836 -0.251745492219925 -0.436795800924301 -0.107438750565052 -0.0528929680585861 -0.383482068777084 -0.81062924861908 -0.67720901966095 -0.777603328227997 -0.759524524211884 -0.236418828368187 -0.555823385715485 -0.724466860294342 -0.709683477878571 -0.688173234462738 -0.663062930107117 -0.308967441320419 -0.499533712863922 -0.279639393091202 -0.59983891248703 -0.583175539970398 -0.56243485212326 -0.53655219078064 -0.501103103160858 -0.45529580116272 -0.372646898031235 0.311767727136612 -0.0253946408629417 -0.156848073005676 -0.368159204721451 -0.208369329571724 -0.25252765417099 -0.156045585870743 0.0491303689777851 0.237839475274086 0.347679674625397 0.624213635921478 -0.0929314717650414 -0.279758095741272 -0.255703419446945 -0.239603087306023 -0.194168657064438 -0.115903459489346 -0.0432080216705799 0.00902034062892199 0.0265038143843412 0.05892513692379 0.0619339384138584 0.0712630152702332 0.132092922925949 0.154639795422554 0.144554063677788 0.227350845932961 0.277695864439011 0.326088279485703 0.38221663236618 0.521854639053345 0.856053471565247 1.27021241188049 1.59665155410767 1.84702670574188 2.12297701835632 2.38425421714783 2.61177587509155 2.72563171386719 2.86022973060608 3.00147700309753 3.2263503074646 3.53557634353638 3.80311298370361 4.036057472229 4.15174388885498 4.25493478775024 4.3376636505127 4.55395317077637 4.6664776802063
6.23014354705811 6.55065822601318 7.09885263442993 7.63334465026855 8.11120986938477 8.61150932312012 8.8253116607666 9.08725929260254 9.51536273956299 10.2963256835938 10.7030897140503 11.6132440567017 12.619255065918 13.3349943161011 15.4816827774048 16.6922588348389 19.6410675048828 18.474292755127 16.8251953125 14.8899631500244 11.8476419448853 4.69212627410889 4.13762760162354 4.58392143249512 4.82781267166138 5.41211938858032 7.84766864776611 8.55772590637207 6.10385656356812 6.26329898834229 7.84381914138794 9.31209659576416 12.6306428909302 16.6955184936523 14.1786470413208 9.2871265411377 2.76644706726074 2.91624164581299 5.33074235916138 6.85606527328491 4.7234959602356 5.48691511154175 6.46100568771362 7.82638454437256 9.0774040222168 10.9992141723633 12.8621301651001 13.5570583343506 14.696795463562 13.8847398757935 11.0916385650635 9.48978233337402 8.07002544403076 5.69607067108154 5.82231426239014 1.25333380699158 -0.86422997713089 -0.687726378440857 -0.491919755935669 -0.13665147125721 0.125328049063683 0.384343326091766 0.911977708339691 1.19836854934692 1.28874623775482 1.33712995052338 1.42036056518555 1.42679417133331 1.39394021034241 1.54789257049561 1.70484006404877 1.8812563419342 2.2689950466156 2.81483292579651 4.39094066619873 3.39499640464783 2.22857737541199 2.30185747146606 2.6623067855835 1.53767776489258 1.10617566108704 0.520249485969543 0.298268347978592 0.219125062227249 -0.29638683795929 -0.251837521791458 -0.0453281179070473 0.0861153081059456 0.105171672999859 0.438516914844513 0.559374749660492 0.84057205915451 0.662061750888824 0.661269545555115 0.146712139248848 0.340153098106384 0.0950078442692757 -0.328774362802505 -0.331916153430939 -0.443352401256561 -0.0759516581892967 -0.0604061707854271 -0.473936021327972 -0.840058505535126 -0.721311807632446 -0.672988593578339 -0.363675355911255 -0.516006827354431 -0.712693452835083 -0.759568274021149 -0.735462784767151 -0.120101869106293 -0.512250542640686 -0.570793688297272 -0.115061208605766 -0.621167719364166 -0.657952427864075 -0.633904039859772 -0.603368699550629 -0.565149426460266 -0.526728928089142 -0.481526702642441 -0.443016827106476 0.410050243139267 -0.436848521232605 -0.401314973831177 -0.384517252445221 -0.374367922544479 -0.359121412038803 -0.295326322317123 -0.199065208435059 0.167626023292542 0.393658578395844 0.618476927280426 -0.311716198921204 -0.304538667201996 -0.260757476091385 -0.204526260495186 -0.144744962453842 -0.0711207091808319 -0.0153432674705982 0.0183156579732895 0.0207907930016518 0.0603502951562405 0.0674874559044838 0.108121298253536 0.145759344100952 0.155074074864388 0.199659928679466 0.22893762588501 0.264010518789291 0.358916372060776 0.46964493393898 0.762146174907684 1.16673231124878 1.58674359321594 1.9400806427002 2.31339454650879 2.57668566703796 2.68776154518127 2.84454202651978 3.15187454223633 3.29503870010376 3.3550546169281 3.70875096321106 3.91269516944885 4.04471397399902 4.25759696960449 4.34986734390259 4.41711902618408 4.576904296875 4.69185018539429
6.30267333984375 6.61513662338257 6.90593671798706 7.3374662399292 7.64365911483765 7.7877402305603 8.14124488830566 8.46674823760986 8.67961502075195 9.40193748474121 9.58056926727295 10.3097295761108 11.418568611145 11.8744220733643 13.3671751022339 15.1532020568848 17.1658535003662 18.5385780334473 15.8145217895508 13.7244672775269 10.9495716094971 5.51069068908691 4.5495719909668 4.70835638046265 4.73030042648315 5.13597297668457 5.44105768203735 5.69012451171875 6.4405632019043 7.25540018081665 8.62830829620361 9.48027896881104 11.0470838546753 15.7813930511475 17.801700592041 14.3163242340088 6.79774045944214 3.96431589126587 4.29715776443481 4.96385669708252 5.75037670135498 6.62845849990845 7.33388805389404 8.88272190093994 9.55074310302734 9.05980014801025 10.1599016189575 10.0531940460205 11.2089920043945 10.0854530334473 8.90457439422607 8.71191883087158 6.0407452583313 7.30433082580566 8.44117069244385 5.06122875213623 -0.50797826051712 -0.265760272741318 0.0116666750982404 0.156350135803223 0.511924803256989 0.946685254573822 1.09299314022064 1.133260846138 1.15033686161041 1.26885533332825 1.11081838607788 1.10448801517487 1.15531229972839 1.22038531303406 1.38225448131561 1.5683925151825 1.84751069545746 2.45780873298645 3.9301176071167 3.46031832695007 2.28190588951111 2.31282997131348 2.62371826171875 3.23409795761108 1.35754990577698 0.883600056171417 0.885641098022461 0.184851601719856 -0.112320460379124 -0.0876585766673088 0.00260913232341409 0.0417967401444912 0.159279599785805 0.185985118150711 0.723210334777832 1.22233641147614 0.724603474140167 0.0508439131081104 0.127095952630043 0.54393994808197 0.0982590019702911 -0.0783558785915375 -0.219480231404305 -0.64923632144928 -0.448406428098679 -0.0693263858556747 -0.00139335857238621 -0.50469696521759 -0.859420418739319 -0.154047712683678 -0.335317492485046 -0.715015411376953 -0.531332492828369 -0.773239731788635 -0.581638932228088 0.16802217066288 -0.646408975124359 -0.622096478939056 -0.0479205958545208 -0.450305104255676 -0.721735239028931 -0.705977916717529 -0.677942872047424 -0.636969566345215 -0.587353765964508 -0.544570982456207 -0.51592606306076 -0.49164667725563 -0.4812171459198 -0.467260271310806 -0.434387534856796 -0.414543509483337 -0.397363722324371 -0.107793919742107 -0.277740627527237 -0.302082806825638 0.258725821971893 -0.351325064897537 -0.0753779262304306 -0.342071264982224 -0.304394960403442 -0.235381782054901 -0.185058608651161 -0.112999826669693 -0.0483122430741787 -0.0099721597507596 0.0122722378000617 0.0632364898920059 0.0808181911706924 0.117370955646038 0.112763822078705 0.131220623850822 0.14875166118145 0.189975649118423 0.284761160612106 0.404485255479813 0.533344566822052 0.748271107673645 1.17705166339874 1.68347764015198 2.1781222820282 2.49265456199646 2.61854934692383 2.76902890205383 3.07731461524963 3.26084804534912 3.37356162071228 3.49478983879089 3.72391128540039 3.9344117641449 4.12749910354614 4.26909494400024 4.37165403366089 4.46930027008057 4.67489624023438 4.78043127059937
5.99640989303589 6.20674133300781 6.37783813476562 6.79318809509277 7.16819763183594 7.15829372406006 7.4222526550293 7.57682943344116 7.81229877471924 8.45029449462891 8.80764579772949 9.05695343017578 10.0321826934814 10.8833618164062 11.0853967666626 12.5172929763794 13.6952819824219 16.7159233093262 15.5850954055786 12.8109121322632 9.20476913452148 6.22727632522583 4.74011659622192 4.84144687652588 4.47755765914917 4.93666362762451 5.08007097244263 5.64219188690186 6.1836371421814 6.33174657821655 7.51465511322021 9.32447528839111 9.84069538116455 10.5485610961914 14.1912651062012 13.5957050323486 9.26834487915039 5.37823867797852 5.31329870223999 5.71972703933716 6.49628210067749 7.56663608551025 6.87805652618408 7.13744354248047 6.99790859222412 6.53057479858398 6.88522291183472 7.07538223266602 7.49355840682983 6.92825841903687 5.46045446395874 4.43976497650146 3.44342446327209 4.39005470275879 6.53147029876709 3.37217044830322 -0.0116439573466778 0.107452511787415 0.337983429431915 0.694503843784332 0.914820849895477 1.02833640575409 1.75531470775604 1.44530284404755 1.11364507675171 0.917480170726776 0.912783920764923 0.931879758834839 0.982694923877716 1.06972372531891 1.14370238780975 1.29051077365875 1.49696660041809 1.83080172538757 3.07129192352295 3.6872091293335 2.6732120513916 2.41592645645142 2.80025386810303 3.12940239906311 3.57789921760559 1.41535711288452 1.24644947052002 0.463117718696594 0.215901255607605 0.826354622840881 0.924672663211823 0.584616601467133 0.229356527328491 0.249887719750404 0.300006479024887 0.840080380439758 0.969848871231079 0.212786734104156 -0.0122806802392006 0.298544853925705 0.0872214511036873 0.190151765942574 -0.192337408661842 -0.73509293794632 -0.722369492053986 -0.393508344888687 -0.0602695681154728 0.0789296180009842 -0.610568463802338 -0.28340956568718 -0.319308042526245 -0.86446624994278 -0.559552311897278 -0.157312527298927 -0.201749294996262 0.369726657867432 -0.634416699409485 -0.413383185863495 -0.200533539056778 -0.332804054021835 -0.484645009040833 -0.779878556728363 -0.752658665180206 -0.721008777618408 -0.67011821269989 -0.625580191612244 -0.592123746871948 -0.55732673406601 -0.524652183055878 1.77080452442169 -0.518727362155914 0.0336318463087082 -0.458474665880203 -0.0799268186092377 -0.149649098515511 -0.373278230428696 -0.374452948570251 -0.391918450593948 -0.157640367746353 -0.368256807327271 -0.343614220619202 -0.291283577680588 -0.226078823208809 -0.177439451217651 -0.0961495265364647 -0.0576605498790741 -0.0116326212882996 0.0266975536942482 0.0533330850303173 0.0943124666810036 0.115237161517143 0.116910062730312 0.135789796710014 0.206945076584816 0.274458706378937 0.424065858125687 0.568139553070068 0.767440974712372 1.17773628234863 1.63700079917908 2.0796263217926 2.37012386322021 2.66959834098816 2.99430251121521 3.17455697059631 3.28807830810547 3.4070143699646 3.58501148223877 3.8156852722168 3.95753812789917 4.16882133483887 4.36341381072998 4.46268749237061 4.58243036270142 4.78145265579224 4.90979814529419
