NCOLS 172
NROWS 32
XLLCORNER 353840
YLLCORNER 6699120
CELLSIZE 16 
NODATA_value -3.4e+38 
1.82298338413239 1.61504137516022 1.37025451660156 1.09957647323608 0.916509449481964 0.836335003376007 0.928106248378754 1.14641296863556 1.3398369550705 1.48609972000122 1.62039697170258 1.54587256908417 1.55028820037842 1.43202877044678 1.31541633605957 1.12649571895599 0.86562305688858 0.609159290790558 0.456420600414276 0.492075979709625 0.591509938240051 0.545825242996216 0.587655544281006 0.913063108921051 1.09966909885406 1.18060719966888 2.79791975021362 2.80757331848145 2.91984057426453 3.29418349266052 3.6891405582428 3.5851104259491 3.67106413841248 3.45247840881348 3.34143018722534 3.1199905872345 2.96402907371521 2.80282187461853 2.6833291053772 2.25188207626343 1.76719415187836 1.31084179878235 1.37234473228455 1.91523468494415 2.54106283187866 3.15694570541382 3.5257248878479 4.03003549575806 4.36018514633179 4.63397264480591 4.78869295120239 5.03941440582275 5.30107927322388 5.61761999130249 5.9352912902832 6.06061935424805 5.97165107727051 5.84997415542603 5.85392570495605 5.79892158508301 5.81164407730103 5.85519361495972 5.97270917892456 6.30946779251099 6.9868688583374 7.96665620803833 8.86264610290527 9.1831579208374 8.88236236572266 9.47955131530762 9.40988063812256 8.82894897460938 8.20771598815918 7.90518236160278 8.39006805419922 7.44369077682495 7.30987548828125 8.04676055908203 7.5856237411499 7.09604358673096 6.71830701828003 6.58948993682861 6.38478565216064 6.19493675231934 6.07847023010254 5.83570671081543 5.5458779335022 5.31715726852417 5.08285331726074 5.02652978897095 4.97327375411987 5.14300775527954 5.29738235473633 5.28878879547119 9.12579154968262 11.4876136779785 11.9461135864258 10.9085550308228 9.06778812408447 8.33597087860107 7.43497610092163 7.97863101959229 22.417013168335 13.9410800933838 7.43433713912964 3.81112670898438 0.896248579025269 -0.0962988436222076 -0.783515155315399 -1.21017730236053 -0.929495275020599 -1.33366429805756 -1.24560534954071 3.25644111633301 1.40752780437469 0.223540171980858 -0.860373497009277 -2.08191561698914 -2.17939686775208 -2.19734835624695 -2.26122856140137 -2.36213397979736 -2.40527820587158 -2.42670774459839 -2.45687437057495 -2.06280827522278 -2.10857152938843 6.14998531341553 12.4296655654907 10.4964256286621 7.74077987670898 5.01922798156738 2.44496941566467 1.89896667003632 1.16706335544586 0.0223918650299311 -0.761194348335266 -1.14693701267242 -0.769543349742889 -0.428700864315033 0.0220961421728134 0.419361591339111 0.618612170219421 0.601890444755554 0.462592989206314 0.244080051779747 0.115613110363483 0.218189612030983 0.203926965594292 0.2666195333004 0.243398383259773 0.142654746770859 0.108637422323227 1.52485907077789 2.1664662361145 2.79123401641846 1.28821611404419 0.871548175811768 0.895469486713409 0.726202547550201 2.03749465942383 2.67375421524048 6.9477710723877 4.20312690734863 2.07020807266235 1.90893697738647 1.66481590270996 1.57559871673584 2.08953619003296 4.62836790084839 6.30088424682617 7.92278146743774
1.94608175754547 1.82710444927216 1.69310438632965 1.43093991279602 1.16112303733826 1.06707894802094 1.11482918262482 1.29506897926331 1.49250543117523 1.58710777759552 1.67289388179779 1.72042119503021 1.68034303188324 1.79849898815155 1.43765914440155 1.25989997386932 0.922195255756378 0.633542597293854 0.529522001743317 0.567361533641815 0.715537369251251 0.688389837741852 0.642473101615906 0.683820962905884 1.32098853588104 1.45866775512695 3.06961059570312 2.60427069664001 2.95178651809692 3.26888346672058 3.72604036331177 3.81582093238831 3.80563116073608 3.86532783508301 3.56252241134644 3.33658385276794 3.17339277267456 3.06666398048401 2.73523020744324 2.30594635009766 1.73252630233765 1.45218992233276 1.62153446674347 2.56090760231018 3.29834342002869 3.73248672485352 4.04152870178223 4.47435331344604 4.81790590286255 5.03489685058594 5.30279541015625 5.64499568939209 5.77563810348511 6.04480791091919 6.280433177948 6.36724901199341 6.38427305221558 6.28448247909546 6.20532369613647 6.22756290435791 6.20693159103394 6.45085430145264 6.87100791931152 7.26730871200562 8.05513477325439 9.02650833129883 9.84667301177979 9.51138019561768 9.60696601867676 10.1422309875488 10.8697729110718 9.62623691558838 9.15765571594238 9.10669231414795 7.8599214553833 7.35245943069458 7.33433675765991 7.39254140853882 7.5335431098938 7.19773864746094 6.90255069732666 6.79305791854858 6.67492580413818 6.50311136245728 6.35538959503174 6.21496152877808 5.99541854858398 5.77981567382812 5.54302597045898 5.39428234100342 5.33034324645996 5.41982316970825 5.84443235397339 8.30547046661377 11.93687915802 14.0134363174438 13.5659322738647 12.4112739562988 9.74439525604248 7.77540111541748 7.10552501678467 8.74083805084229 16.4862499237061 13.6784410476685 5.8674750328064 4.48726606369019 1.13790917396545 -0.283910274505615 -1.00602829456329 -1.34332001209259 0.316436976194382 -1.03532588481903 -1.15291488170624 1.02971065044403 1.56703126430511 0.0521553307771683 -1.3641996383667 -1.95418095588684 -2.02804088592529 -2.08920311927795 -2.13958239555359 -2.2229220867157 -2.31156921386719 -2.42343854904175 -2.4542498588562 -2.31134748458862 -0.0729280263185501 5.09408807754517 9.85056304931641 9.7450008392334 8.98037815093994 6.17440176010132 2.67869234085083 1.84093034267426 1.32695353031158 -0.378257721662521 -1.01834082603455 -1.06398618221283 -0.462003320455551 -0.0309330467134714 0.484872788190842 0.759685814380646 0.781813681125641 0.646176278591156 0.389743238687515 0.271549731492996 0.279911011457443 0.429803520441055 0.511013686656952 0.478629559278488 0.366966366767883 1.7038551568985 2.09388136863708 1.40223038196564 3.36079955101013 2.66836524009705 2.42412090301514 1.22958397865295 0.911198318004608 0.749484360218048 1.10200011730194 1.37862586975098 2.27963852882385 2.8118748664856 2.19008636474609 2.02516674995422 1.71427237987518 1.63091421127319 1.71901440620422 4.70736932754517 9.72813892364502 13.0464210510254
2.00676321983337 1.87305295467377 1.79503273963928 1.61579561233521 1.36438810825348 1.30658936500549 1.34426093101501 1.47529494762421 1.63728272914886 1.77899873256683 1.70934879779816 1.80201470851898 1.9671071767807 1.88717401027679 1.64595460891724 1.36078727245331 0.988903045654297 0.756812691688538 0.753894865512848 0.877398192882538 0.770923733711243 0.725399255752563 0.596856594085693 0.365859806537628 0.143496990203857 0.481453478336334 1.81922852993011 2.0631856918335 2.96376490592957 4.06816244125366 4.20684051513672 4.06460666656494 4.03832244873047 3.96250867843628 3.80936765670776 3.53360223770142 3.4071900844574 3.14665365219116 2.77164554595947 2.26859426498413 1.61076068878174 1.85323786735535 2.38994026184082 3.07420635223389 3.77230405807495 4.20632314682007 4.52466249465942 4.85527896881104 5.23814630508423 5.47124004364014 5.71059560775757 5.93417072296143 6.30560159683228 6.64887571334839 6.8303599357605 6.84196901321411 6.81031322479248 6.79927015304565 6.89696931838989 7.06133508682251 7.2048602104187 7.42648839950562 7.87740802764893 8.28749370574951 9.03793334960938 10.0558757781982 9.98172092437744 10.9136753082275 11.5766258239746 12.0436792373657 12.641884803772 11.7847633361816 9.78014755249023 9.821702003479 7.89201831817627 7.51662254333496 7.55209875106812 7.86096143722534 7.75532150268555 7.49763870239258 7.12707614898682 6.97314929962158 6.89472007751465 6.79286193847656 6.62628126144409 6.52970600128174 6.30875492095947 6.08105325698853 5.83814239501953 5.70814228057861 5.65285730361938 6.19915342330933 7.98212146759033 13.6212587356567 17.2113018035889 17.9316749572754 16.9703330993652 14.0446882247925 10.9167327880859 8.26765060424805 7.06518840789795 6.97936868667603 13.3742361068726 13.1144380569458 5.57380723953247 4.58108520507812 1.52663004398346 -0.262678354978561 -1.02104568481445 -1.42324435710907 1.82920622825623 0.0633269771933556 -0.793838858604431 -0.704588890075684 1.14119744300842 -0.329206198453903 -0.926733434200287 -1.67526483535767 -1.87052488327026 -1.96721196174622 -2.06240677833557 -2.10494923591614 -2.18488073348999 -2.34322166442871 -2.42746543884277 -2.49105525016785 0.832306623458862 6.26606893539429 10.9731321334839 13.0886716842651 11.5041551589966 6.56268882751465 4.42033338546753 2.00051879882812 0.945010483264923 -0.182331189513206 -0.656343162059784 -0.315451741218567 0.46669065952301 0.832190752029419 0.75252491235733 1.04108381271362 1.01778554916382 0.769868195056915 0.551559388637543 0.509265899658203 0.554039895534515 0.58756023645401 0.660761058330536 0.635365128517151 4.33026504516602 4.7204155921936 3.74888610839844 2.05389475822449 5.9493727684021 5.65957403182983 2.06683540344238 1.39561307430267 1.14618587493896 1.07363796234131 1.33428680896759 1.76885604858398 2.02287292480469 2.31752467155457 2.19926047325134 2.00236630439758 1.85781264305115 1.58325266838074 1.37458598613739 1.78952658176422 8.74617862701416 13.2053470611572
2.00837659835815 1.8931690454483 1.78973376750946 1.64646327495575 1.47625589370728 1.42073369026184 1.46296977996826 1.64903473854065 1.73719441890717 1.83739495277405 1.97568809986115 2.02074837684631 2.32316374778748 1.91951334476471 1.70684802532196 1.38047385215759 1.09979903697968 0.999475240707397 1.14241063594818 0.978470146656036 0.947884559631348 0.872051656246185 0.494360715150833 0.209886983036995 -0.10272055119276 -0.324549168348312 1.28233170509338 2.0486159324646 3.04088807106018 3.92004227638245 4.36854362487793 4.0946569442749 4.20348930358887 3.97711658477783 3.93827939033508 3.85893845558167 3.54939079284668 3.14820456504822 2.73606157302856 2.32776665687561 1.81084978580475 2.33310341835022 2.8161780834198 3.56133079528809 4.17445135116577 4.50328159332275 4.94301557540894 5.30375909805298 5.601891040802 5.99630355834961 6.36224842071533 6.51242017745972 6.78239059448242 7.06441879272461 7.17058372497559 7.23955678939819 7.22094631195068 7.41497182846069 7.64294052124023 7.77157640457153 7.9778003692627 8.53465938568115 9.53103160858154 10.1430969238281 11.4462099075317 11.107349395752 11.177134513855 14.8576698303223 12.6797351837158 13.4178981781006 13.9777507781982 12.1371793746948 11.7715425491333 9.67384052276611 8.35071659088135 7.59966230392456 8.14987468719482 8.28812789916992 8.17403221130371 7.9040641784668 7.52396726608276 7.28435802459717 7.19337749481201 7.09654378890991 7.0015754699707 6.76332092285156 6.57666921615601 6.31412553787231 6.06634378433228 6.18310451507568 5.81791400909424 7.71943378448486 11.764178276062 19.7244491577148 23.8552150726318 23.3735008239746 18.8255977630615 15.3888254165649 11.1651630401611 9.33241748809814 6.92858219146729 6.03402662277222 12.2646512985229 11.4197063446045 5.47797155380249 3.99968528747559 1.66843450069427 -0.284578830003738 -1.10720980167389 -1.49861514568329 1.43405544757843 2.52285766601562 -0.563977062702179 -1.05411612987518 0.357700258493423 -0.448802679777145 -0.41082426905632 -1.4086434841156 -1.58158147335052 -1.7413250207901 -1.93584477901459 -1.97871220111847 -2.02885222434998 -2.13835573196411 -2.26869797706604 -2.42434501647949 -1.92938160896301 6.16520500183105 11.6540155410767 17.3893413543701 13.5704565048218 9.17723560333252 5.3810453414917 1.79770338535309 0.418678045272827 -0.438977837562561 -0.731299102306366 -0.193570733070374 0.251736432313919 0.801312685012817 1.17933773994446 1.29923713207245 1.31556797027588 1.0900274515152 0.879775762557983 0.820898175239563 0.79909735918045 0.774493634700775 0.648075103759766 0.472166508436203 6.78712844848633 8.4054012298584 2.96588540077209 0.843199253082275 2.71978521347046 6.87576580047607 2.73994660377502 1.48938477039337 1.77374732494354 2.01617908477783 1.97848415374756 2.04922676086426 2.42003917694092 2.34241819381714 2.15497064590454 2.01854252815247 1.84155023097992 1.64502716064453 1.16508162021637 0.611949443817139 0.330181777477264 6.14269018173218
1.97140979766846 2.01779532432556 1.94037866592407 1.75332474708557 1.59724545478821 1.52288854122162 1.75308454036713 1.82490456104279 1.93931412696838 1.85582172870636 2.05148339271545 2.34544086456299 2.34061622619629 2.0873122215271 1.77382409572601 1.40821421146393 1.23633706569672 1.19096124172211 1.27474105358124 1.18995845317841 0.928572475910187 0.914150893688202 0.537291705608368 0.170951932668686 -0.193666189908981 -0.439876854419708 0.722174286842346 1.18770289421082 1.88835573196411 3.19257950782776 4.47869110107422 4.60958909988403 4.31095790863037 4.27256441116333 4.0374927520752 3.9877073764801 3.65271234512329 3.10548329353333 2.80374765396118 2.46006655693054 2.29160976409912 2.68626236915588 3.50222206115723 4.25578308105469 4.69373559951782 5.10454893112183 5.50249195098877 5.87879943847656 6.1622200012207 6.4577112197876 6.68760442733765 7.28910827636719 7.73541879653931 7.7688159942627 7.77338409423828 7.69786596298218 7.85888814926147 8.17238140106201 8.27851486206055 8.27682304382324 8.59492301940918 9.82960319519043 10.7214164733887 11.7290277481079 11.890606880188 10.9141187667847 10.9144821166992 14.5870199203491 15.9124145507812 16.1147556304932 15.1973638534546 14.3183717727661 11.7451725006104 10.096697807312 8.94661331176758 8.401780128479 8.52331733703613 8.79947376251221 8.69387626647949 8.2379903793335 7.98430061340332 7.83392477035522 7.61232280731201 7.5002908706665 7.27170372009277 7.03733825683594 7.2582950592041 7.24986219406128 6.89433622360229 6.52166509628296 8.92772006988525 10.254566192627 18.7394046783447 22.9832229614258 23.9118900299072 28.9918231964111 23.2764377593994 16.6172714233398 13.2897109985352 9.52319717407227 7.39071559906006 5.43671560287476 12.7921743392944 9.28261852264404 5.32498168945312 3.57300734519958 1.0015617609024 -0.485552400350571 -1.13318538665771 -1.52433252334595 -0.76706862449646 3.08980798721313 -0.3116135597229 -1.55778133869171 -1.35678791999817 -1.31875932216644 -1.16624748706818 -1.18891859054565 -1.41921901702881 -1.72005128860474 -1.7906266450882 -0.832422494888306 -1.34234058856964 -1.83828628063202 -2.12517762184143 -2.28876352310181 -2.51119589805603 1.19374179840088 8.00604438781738 17.5347728729248 17.5424308776855 10.8719472885132 5.79527521133423 2.52697324752808 0.33469358086586 -0.178297117352486 -0.212562128901482 0.232902780175209 1.22589302062988 1.17063999176025 1.54202592372894 1.58358573913574 1.52863526344299 1.30802583694458 1.15808045864105 1.04459142684937 0.972499966621399 0.882254838943481 0.674818992614746 0.204600587487221 0.877135336399078 8.04955387115479 5.9784779548645 0.607658803462982 0.833990931510925 3.86105155944824 3.06823348999023 1.88818681240082 2.26565194129944 2.49803042411804 2.58169627189636 2.50139212608337 2.63386821746826 2.48187804222107 2.15484666824341 1.98157727718353 1.93495571613312 1.7559403181076 1.14046156406403 0.338658154010773 -0.0357275195419788 -0.235945507884026
2.07769680023193 2.03195881843567 1.97044587135315 1.90168750286102 1.78640925884247 1.72248518466949 1.91546642780304 1.94685363769531 2.02694439888 2.25861787796021 2.61615204811096 2.70280742645264 2.32168698310852 2.09705352783203 1.70209777355194 1.44659554958344 1.43079733848572 1.59604120254517 1.30306327342987 1.2206426858902 1.18089413642883 0.914719879627228 0.576874852180481 0.0611490122973919 -0.312542051076889 -0.58797550201416 -0.0493860095739365 0.732118308544159 1.31604886054993 2.46638369560242 3.91742753982544 4.77360725402832 4.33505773544312 4.16569709777832 4.21821165084839 4.00919198989868 3.77927827835083 3.22926926612854 2.90633368492126 2.63114404678345 2.96655559539795 3.41139245033264 4.11626672744751 4.70272207260132 5.0738468170166 5.58255338668823 6.01925992965698 6.29236888885498 6.88537788391113 7.28766298294067 7.93081092834473 8.28417205810547 8.43082714080811 8.41223812103271 8.32419013977051 8.22941017150879 8.19659996032715 8.25340270996094 8.23711585998535 8.53049659729004 9.34826755523682 10.6315202713013 11.0894737243652 12.6902942657471 11.7573547363281 11.9871129989624 9.98537349700928 12.4023561477661 14.7200880050659 18.0495281219482 17.9809226989746 16.3221778869629 13.0517244338989 11.0274896621704 10.0865459442139 9.88788509368896 9.73910808563232 9.71716022491455 9.48546695709229 8.46625518798828 8.3692045211792 8.25811576843262 8.05272483825684 7.8480167388916 7.56713008880615 7.20609617233276 8.22363090515137 8.19571304321289 8.05187797546387 7.9438157081604 9.37338447570801 9.99686908721924 11.5575952529907 10.829776763916 13.1785926818848 27.5426406860352 29.0652294158936 19.1626930236816 14.2176485061646 9.64330101013184 6.6414966583252 5.0180287361145 9.37374019622803 6.13312721252441 5.09054517745972 2.45946264266968 -0.0885936096310616 -0.746510565280914 -1.11941874027252 -1.47012138366699 -0.773500323295593 -0.293660879135132 -0.701815664768219 -1.57246148586273 -1.10805118083954 -0.966348052024841 -1.03735554218292 -0.999432921409607 -1.26012778282166 -1.83691143989563 -1.87536871433258 -0.39726322889328 -0.322618752717972 -0.448130518198013 -1.95901334285736 -2.07063984870911 -2.30339121818542 -2.41708660125732 2.14246773719788 13.2595338821411 18.1772937774658 13.8093929290771 6.91811943054199 3.81450796127319 1.03209316730499 0.460354745388031 0.251124799251556 0.548082053661346 1.10457158088684 2.56575703620911 1.87681937217712 1.90211057662964 1.68123149871826 1.46989953517914 1.4329981803894 1.28613901138306 1.12281084060669 0.889958739280701 0.54252701997757 0.127065777778625 -0.145206198096275 1.18227136135101 5.08398723602295 1.84011006355286 1.18975639343262 1.64890956878662 1.84668159484863 2.30724310874939 2.77391648292542 2.89092040061951 2.81726121902466 2.86666202545166 2.63806891441345 2.34723901748657 2.20978116989136 2.1225917339325 2.16747856140137 1.9080947637558 1.56151902675629 0.937712788581848 0.0232564136385918 -0.364195615053177
2.116943359375 2.03684830665588 1.98894989490509 1.90798342227936 1.73327422142029 1.95880961418152 2.03115677833557 2.1470410823822 2.39728426933289 2.56930875778198 3.047532081604 2.71345233917236 2.48211288452148 2.09641909599304 1.68693709373474 1.56736171245575 1.63654851913452 1.70745027065277 1.5303955078125 1.24339056015015 1.28001940250397 0.934808075428009 0.574355483055115 0.0820809975266457 -0.404236435890198 -0.593271791934967 -0.582368671894073 0.918089628219604 1.20430028438568 1.54822063446045 3.34005546569824 4.69484090805054 5.03925848007202 4.67588138580322 4.34811735153198 4.20158720016479 3.643070936203 3.44734191894531 3.198490858078 2.85541677474976 3.55394053459167 4.29335784912109 4.83277177810669 5.44161748886108 6.06499767303467 6.39475393295288 6.78649950027466 7.52600479125977 7.9977822303772 8.16318416595459 8.59616184234619 9.00973987579346 8.87519836425781 8.7441463470459 9.09665584564209 8.85259532928467 8.89209938049316 8.81183815002441 8.94723892211914 9.22768402099609 10.312858581543 11.5491857528687 13.1811170578003 13.1675758361816 11.7961206436157 12.7656774520874 12.463830947876 14.5823030471802 17.1110382080078 17.3645915985107 18.4322147369385 19.2674236297607 14.7682266235352 13.489218711853 11.4887037277222 11.0754375457764 11.4395380020142 11.1490936279297 10.0570793151855 9.71516132354736 8.94450378417969 8.69602584838867 8.45502471923828 8.15427112579346 7.79643678665161 9.98292636871338 9.45611190795898 8.8098201751709 6.80833578109741 5.56989431381226 5.47231960296631 4.11870956420898 3.54842758178711 3.85630702972412 4.89329671859741 8.79403209686279 22.3742656707764 23.0611400604248 15.3255777359009 9.9750862121582 6.6432032585144 5.54782629013062 6.86390256881714 5.85212278366089 4.35761308670044 1.01920020580292 -0.365892589092255 -0.815712928771973 -1.17965698242188 -0.55872118473053 0.516703069210052 0.627975821495056 -0.742355644702911 -0.722922742366791 -0.020671185106039 -0.200532659888268 -0.529911696910858 -0.797172725200653 -1.15067291259766 -1.77994668483734 -1.86661100387573 -1.85053491592407 -1.71765112876892 -1.66022789478302 -1.84606540203094 -1.8905440568924 -2.01875400543213 -2.19189667701721 -2.00224328041077 7.09949588775635 15.9137172698975 16.0856761932373 7.66478490829468 3.86945033073425 2.1364414691925 0.850866079330444 0.75799572467804 1.12538301944733 1.65202116966248 2.04104733467102 2.14723515510559 2.0278525352478 1.78685867786407 1.63159811496735 1.55709087848663 1.44022715091705 1.18480324745178 0.748450100421906 0.466410398483276 0.200090363621712 -0.102659039199352 0.0536434724926949 1.2355672121048 2.70889449119568 1.70740163326263 1.84604442119598 2.37474513053894 2.79173254966736 2.98926758766174 3.06490778923035 3.00139999389648 2.96766328811646 2.73194694519043 2.33248281478882 2.13370418548584 2.17113828659058 2.26016330718994 1.97809433937073 1.82092452049255 1.42756128311157 0.708933413028717 0.0407379604876041
2.13282680511475 2.06869530677795 2.00202393531799 1.87106084823608 1.92862975597382 2.13372278213501 2.26502561569214 2.45304226875305 2.73508715629578 3.16871285438538 3.19901895523071 2.93222808837891 2.42733001708984 1.96393227577209 1.63000762462616 1.65340197086334 1.96785950660706 1.94099116325378 1.55660283565521 1.63299942016602 1.32596743106842 0.960988938808441 0.448026537895203 -0.0323780663311481 -0.502169609069824 -0.534972131252289 -0.625923097133636 -0.00576699711382389 0.535948514938354 0.685445725917816 2.07435083389282 3.76780915260315 5.1763014793396 5.4401068687439 4.91127729415894 4.3417501449585 3.70274996757507 3.71559524536133 3.40897703170776 3.43577527999878 4.21092081069946 4.83687925338745 5.35380029678345 6.39512872695923 6.92215061187744 7.38667631149292 7.68812608718872 7.99683427810669 8.39677906036377 9.29907989501953 9.62185287475586 9.69849491119385 9.55214977264404 9.69428062438965 9.63608646392822 9.65815448760986 9.68542385101318 9.45495414733887 9.34303379058838 10.4183282852173 11.7299680709839 13.1964464187622 16.0020942687988 12.1852493286133 10.5016279220581 11.0029544830322 11.389705657959 14.8204164505005 19.4904499053955 19.0223999023438 17.733814239502 16.5800228118896 19.043478012085 16.2439937591553 13.2409534454346 13.3767395019531 12.9077997207642 11.7471113204956 11.1542701721191 11.2127685546875 9.44182777404785 9.15369129180908 8.79770660400391 8.42634677886963 11.4198198318481 13.4678659439087 13.5031747817993 12.5122356414795 5.81957674026489 5.33501291275024 4.62860107421875 3.69394135475159 3.38335633277893 3.33601140975952 3.92770981788635 4.31726598739624 9.25123119354248 18.2708358764648 16.7322540283203 11.06591796875 6.9094123840332 6.40704345703125 6.29576444625854 5.41720676422119 3.21030712127686 0.275667369365692 -0.482242345809937 -0.908680856227875 -1.28875088691711 0.0134644713252783 2.03294110298157 1.67815971374512 0.703841149806976 3.40309500694275 1.24765503406525 0.854148685932159 -0.119633957743645 -0.847644090652466 -1.57195663452148 -1.55040609836578 -1.82544147968292 -1.85249555110931 -1.8921582698822 -1.7637197971344 -1.79765594005585 -1.88417673110962 -1.90684974193573 -1.99359405040741 -2.04657673835754 3.57316303253174 12.652271270752 16.1571884155273 7.80605840682983 4.82383966445923 3.08229804039001 1.57403469085693 1.2556483745575 1.73808419704437 2.130530834198 2.31708598136902 2.26651096343994 2.10247755050659 1.98459327220917 1.87297534942627 1.72069680690765 1.52030324935913 1.19432377815247 0.611644268035889 0.368098556995392 0.261337161064148 0.374539434909821 0.756466448307037 1.12610054016113 1.56657123565674 1.98604655265808 2.52986216545105 3.10107970237732 3.2964198589325 3.35231828689575 3.19184708595276 3.21777844429016 2.97435879707336 2.58823537826538 2.37271475791931 2.22285532951355 2.27492237091064 2.13317251205444 2.68533945083618 2.11329913139343 1.62757039070129 1.25998365879059 0.601724624633789
2.13164663314819 2.08633279800415 2.00513386726379 1.93409109115601 2.22032356262207 2.3016836643219 2.58582854270935 2.8929545879364 3.10243964195251 3.66389489173889 3.17732667922974 2.86545205116272 2.23771333694458 1.87057304382324 1.68112778663635 1.79425406455994 1.92047870159149 1.85900974273682 1.99663007259369 1.65802824497223 1.38124001026154 0.948126256465912 0.392550438642502 -0.0635974332690239 -0.482909679412842 -0.525100529193878 -0.681271314620972 -0.76506519317627 0.0356527417898178 -0.0424216315150261 1.92191863059998 3.12873220443726 3.7407557964325 5.07921457290649 5.87716150283813 4.62207412719727 3.67775726318359 3.74000453948975 3.83042669296265 4.76761102676392 5.53407859802246 5.90637397766113 6.43386220932007 7.18713617324829 7.52070569992065 7.87832641601562 8.66477584838867 9.12365055084229 9.92325210571289 10.8774108886719 10.3960580825806 10.0452251434326 10.6907453536987 11.3418970108032 10.9716644287109 10.9503955841064 10.7863712310791 10.2901029586792 9.4719820022583 10.1961936950684 11.4847345352173 13.6617136001587 14.6500864028931 11.2480888366699 9.8274564743042 9.19911956787109 7.50259590148926 8.44389629364014 22.1864681243896 22.7123012542725 17.1815071105957 14.5512256622314 18.4341583251953 17.7936477661133 15.4947872161865 15.2713098526001 14.515772819519 13.920015335083 14.4460277557373 11.9183368682861 10.3303022384644 9.58084774017334 9.03187370300293 8.20383453369141 13.463475227356 11.9996109008789 11.6333904266357 11.1845264434814 5.70438623428345 5.15872669219971 4.3443021774292 3.66110730171204 3.32685971260071 3.31179428100586 4.11136484146118 4.22783660888672 5.87901592254639 12.9485483169556 13.7932500839233 11.1543111801147 8.50123023986816 6.7000412940979 5.91783332824707 4.58735799789429 2.43883872032166 0.370173871517181 -0.423834711313248 -0.960098743438721 -1.31865215301514 1.24081945419312 3.07578468322754 1.0040248632431 -0.437386006116867 2.4018759727478 2.13116264343262 1.81896841526031 -0.198157161474228 -1.46870648860931 -1.76713216304779 -1.80601644515991 -1.26395213603973 -1.82231950759888 -1.85174131393433 -1.77602589130402 -1.75579333305359 -1.80940008163452 -1.86644184589386 -1.93643414974213 -2.03449702262878 0.337802737951279 10.0165767669678 14.5118160247803 9.45035839080811 5.17594051361084 3.32445740699768 2.63822627067566 1.95936501026154 2.48483800888062 2.58240962028503 2.65871953964233 2.42298793792725 2.26572465896606 2.15778994560242 2.02323532104492 1.88518667221069 1.60542356967926 1.08342504501343 0.604595184326172 0.383748650550842 0.549447417259216 0.951756238937378 1.41912388801575 1.618607878685 2.07867336273193 2.73767781257629 3.14401531219482 3.6480541229248 3.69165349006653 3.49935460090637 3.39957237243652 3.33945965766907 3.04993891716003 2.52399802207947 2.29480624198914 2.25141954421997 2.28093266487122 2.00126385688782 2.16896104812622 3.05995011329651 2.08335471153259 1.68195116519928 1.24923896789551
2.14835906028748 2.13411450386047 1.9836106300354 2.19558882713318 2.4251708984375 2.80096888542175 3.08290576934814 3.43066143989563 3.98174524307251 3.81937217712402 3.3286554813385 2.72291040420532 2.19408631324768 1.97128784656525 2.06695532798767 1.98949646949768 2.16553473472595 1.96044766902924 1.99560546875 1.73900711536407 1.35779881477356 0.808979094028473 0.305333465337753 -0.181310728192329 -0.381558120250702 -0.573676407337189 -0.716399967670441 -0.801509976387024 -0.568458199501038 -0.449792087078094 1.55382466316223 2.48400473594666 2.40116238594055 3.72895216941833 5.71017074584961 4.83559799194336 4.2972559928894 3.44312357902527 4.32225751876831 5.42724084854126 6.01878643035889 6.48380374908447 7.40362882614136 7.9407320022583 8.39838314056396 8.63516044616699 8.92820453643799 10.1079368591309 11.3991422653198 11.6833143234253 11.2221784591675 11.645619392395 13.2119874954224 12.8774976730347 12.7728481292725 12.3931837081909 11.7621879577637 10.3628778457642 8.91607570648193 8.36489486694336 9.38708591461182 9.00893974304199 11.3548755645752 9.8303747177124 8.17690658569336 8.07674407958984 5.9545202255249 4.63772249221802 8.71024322509766 21.2356567382812 15.1786670684814 14.0850305557251 19.503978729248 20.970142364502 17.9883060455322 18.0439567565918 15.3884906768799 16.9255065917969 17.450963973999 13.8529396057129 11.0380573272705 9.86980533599854 8.5520076751709 7.26333570480347 6.44270610809326 6.12499475479126 5.83275079727173 5.8812313079834 5.39897346496582 4.93431425094604 4.23442268371582 3.65902280807495 3.46063113212585 3.18120408058167 3.18723297119141 3.65182423591614 3.93694996833801 7.31774377822876 10.2082262039185 9.44406127929688 8.10254096984863 7.22894144058228 5.24010801315308 3.70966768264771 2.20810961723328 0.570124089717865 -0.217877119779587 -0.678831994533539 -1.12634575366974 -0.46800422668457 2.03707003593445 0.0190868675708771 -0.46618840098381 1.97787308692932 3.97165417671204 2.51035833358765 -0.0147076938301325 -1.67847859859467 -1.78867483139038 -1.8087705373764 0.562735438346863 -0.868191599845886 -1.62173938751221 -1.68830978870392 -1.73543453216553 -1.73596119880676 -1.75284171104431 -1.84868443012238 -1.96198689937592 -1.94465470314026 5.67725038528442 12.1965646743774 10.6242389678955 6.3449501991272 3.68964624404907 2.27984261512756 2.49101328849792 2.94366717338562 3.00375175476074 2.90269041061401 2.64689922332764 2.4465320110321 2.34922003746033 2.18975257873535 2.04520702362061 1.80946087837219 1.1754287481308 0.678068041801453 0.506938219070435 1.19769787788391 1.84815716743469 2.00721287727356 2.29658150672913 2.73467445373535 3.4364857673645 3.85912871360779 3.85613632202148 3.8947548866272 3.76224422454834 3.65071415901184 3.3014121055603 2.85532641410828 2.67786478996277 2.54101896286011 2.48029327392578 2.19884181022644 2.16766667366028 2.1927182674408 2.38525223731995 3.2220287322998 2.12152481079102 1.93956625461578
2.18807506561279 2.12624716758728 2.22903537750244 2.5640983581543 3.35463690757751 3.69631028175354 4.12592077255249 4.82274055480957 4.61030864715576 3.85503387451172 3.31486439704895 2.50772500038147 2.16743898391724 2.13881492614746 2.34799861907959 2.02133560180664 1.95947062969208 2.35369038581848 2.0612096786499 1.77201294898987 1.18625319004059 0.752639055252075 0.264113515615463 -0.305968970060349 -0.360090762376785 -0.53203958272934 -0.731018960475922 -0.844640135765076 -0.831140160560608 -0.9173264503479 0.0958013087511063 1.18499410152435 1.12152540683746 2.38409519195557 3.58799004554749 4.57300615310669 4.41820430755615 4.05719661712646 5.07269763946533 6.10078763961792 6.50495386123657 7.19216156005859 8.02044105529785 8.62653350830078 8.97253227233887 9.67225933074951 10.1521053314209 11.9569997787476 13.0807046890259 12.3772792816162 11.515926361084 12.4117727279663 13.7026958465576 13.1810998916626 13.5649156570435 12.3936614990234 11.4703950881958 10.1499338150024 7.67662143707275 6.33915853500366 5.13498687744141 5.06651210784912 7.48502206802368 6.62838077545166 4.34080410003662 5.39144563674927 5.98634243011475 5.1988730430603 4.87606000900269 11.832200050354 11.8941459655762 9.68850231170654 13.2998476028442 20.0871829986572 21.1104526519775 20.3991928100586 23.2397232055664 24.2439250946045 20.8687610626221 15.1177320480347 10.2452526092529 9.66726493835449 8.221360206604 6.5079231262207 6.11545038223267 5.91623783111572 5.8905029296875 5.73851490020752 5.25173044204712 4.69510984420776 4.20990419387817 3.67724823951721 3.38896870613098 3.20872807502747 3.03298807144165 2.83498287200928 2.79955983161926 4.74791431427002 5.9980640411377 7.19364309310913 7.62608242034912 7.15351581573486 4.19549417495728 3.04707837104797 1.58430159091949 0.89202207326889 0.179845362901688 -0.392668783664703 -0.831220746040344 -1.0432847738266 0.79462343454361 0.533798635005951 -0.0565071552991867 1.95853853225708 6.78682374954224 3.88139748573303 0.125489369034767 -1.67175245285034 -1.75066697597504 -1.802374958992 1.45123815536499 0.518905222415924 -1.49285912513733 -1.6163238286972 -1.64155447483063 -1.67466700077057 -1.66023290157318 -1.70934092998505 -1.86370635032654 -1.85554492473602 0.636930346488953 6.84822988510132 9.76579475402832 8.37764549255371 4.80117702484131 3.63369631767273 3.12620544433594 3.24830555915833 3.3392162322998 3.01293897628784 2.7918393611908 2.58658027648926 2.43081498146057 2.33694863319397 2.16774320602417 1.78199112415314 1.31594085693359 0.752631366252899 1.21960520744324 1.61650168895721 2.15039253234863 2.52056646347046 3.45837450027466 3.85441827774048 4.07922220230103 4.38692712783813 4.40630102157593 4.02507495880127 3.96636080741882 3.61855411529541 3.08359980583191 2.88273119926453 2.78666281700134 2.81497764587402 2.40334153175354 2.32053709030151 2.26364684104919 2.14299917221069 2.20206022262573 2.30603051185608 2.29861903190613 2.39292097091675
2.22623991966248 2.44073367118835 2.81059789657593 3.07995820045471 3.90402173995972 4.35125350952148 4.65884685516357 5.55633926391602 4.89810132980347 4.11459732055664 3.21441197395325 2.54916954040527 2.44668126106262 2.45365285873413 2.40050578117371 2.56603693962097 1.98716831207275 2.18442487716675 2.12654805183411 1.76523017883301 1.15747594833374 0.614212691783905 0.0966728702187538 -0.242008984088898 -0.35829496383667 -0.50476086139679 -0.694985508918762 -0.84377521276474 -0.866222202777863 -0.94700300693512 -0.786217153072357 -0.2741379737854 0.944638907909393 2.39930462837219 2.47033333778381 2.70035552978516 3.63751339912415 4.45255184173584 5.64065742492676 6.27618360519409 7.83842182159424 8.5977840423584 9.00582885742188 9.64495754241943 10.6781721115112 11.2345447540283 11.8810682296753 13.0177888870239 13.4609909057617 12.3337917327881 10.4126081466675 9.9665060043335 11.1190509796143 11.1626644134521 10.8124256134033 9.85927963256836 9.23878574371338 9.24126148223877 7.07862520217896 5.32563066482544 4.16832733154297 4.00365161895752 3.71726226806641 3.79123640060425 4.26104259490967 4.87600517272949 5.56408739089966 5.54505109786987 6.53637790679932 7.39839124679565 9.55897521972656 11.402081489563 13.5517644882202 20.3952159881592 22.0398235321045 15.9586877822876 21.384349822998 29.9640331268311 26.8502006530762 15.1858510971069 9.88893890380859 9.16381072998047 8.52328300476074 6.56139469146729 6.13346576690674 5.99764204025269 6.08142852783203 5.94145822525024 5.22443962097168 4.59360837936401 4.27435398101807 4.01180791854858 3.56007218360901 3.19361519813538 2.93179559707642 2.82159519195557 2.81156730651855 5.48943281173706 6.85829019546509 9.21466541290283 9.6520357131958 6.37834358215332 3.84066700935364 2.42709922790527 1.27143824100494 1.00270521640778 0.39448019862175 -0.165409296751022 -0.586791038513184 -0.818474471569061 -0.690744996070862 0.236981049180031 -1.2132762670517 -1.21129465103149 4.18049097061157 5.01670408248901 0.555369198322296 -1.61685001850128 -1.71923303604126 -1.7926412820816 0.110908471047878 -0.588272154331207 -1.49709904193878 -1.61498534679413 -1.59133207798004 -1.59066498279572 -1.61178803443909 -1.64813303947449 -1.72933208942413 -1.70558297634125 -0.602083504199982 4.33626317977905 7.88008546829224 10.3284797668457 7.767174243927 3.67710447311401 3.40107321739197 3.51660513877869 3.38357925415039 3.14398574829102 2.85555195808411 2.64393305778503 2.51119518280029 2.40247559547424 2.26972579956055 1.86654043197632 1.3925746679306 1.65560281276703 2.21113443374634 2.5838577747345 3.16037964820862 3.88813638687134 4.83257341384888 5.0296483039856 4.80249357223511 4.69459581375122 4.58433103561401 4.14536666870117 3.94045114517212 3.68004250526428 3.15683507919312 3.61328434944153 2.906254529953 3.02553009986877 3.10868072509766 2.66509318351746 2.45475292205811 2.37278175354004 2.32940483093262 2.54517793655396 2.69885873794556 2.60372233390808
2.34413146972656 2.74556136131287 3.02867984771729 4.74974870681763 5.27848339080811 5.90531063079834 6.92440891265869 6.01841449737549 5.18154811859131 3.94982600212097 2.96025228500366 2.5395359992981 2.54169845581055 3.02670860290527 3.58424854278564 2.78586864471436 2.60091876983643 2.17507719993591 2.00424981117249 1.470085978508 1.06054067611694 0.549622535705566 -0.0599505230784416 -0.22883702814579 -0.326344311237335 -0.50336742401123 -0.672859668731689 -0.766918420791626 -0.895817220211029 -0.896356642246246 -0.757886052131653 -0.536815941333771 0.209742099046707 2.07750988006592 1.65101778507233 2.41780066490173 3.70837235450745 5.3790922164917 6.40954971313477 7.20814037322998 8.65756416320801 9.26583194732666 10.0427618026733 10.3652362823486 10.7727966308594 11.9949111938477 14.4972553253174 16.3484439849854 14.5951309204102 11.7869176864624 9.58572387695312 8.45510959625244 8.34670352935791 8.3272066116333 8.248122215271 7.18421173095703 6.51846885681152 6.93316507339478 6.87960433959961 5.01983547210693 4.06664037704468 3.71329474449158 3.50126886367798 4.35015201568604 6.13399696350098 7.40633916854858 8.41951847076416 9.79426193237305 8.24365329742432 7.61816692352295 9.14799499511719 12.5147275924683 12.9728603363037 16.2444095611572 21.3219947814941 9.74238204956055 8.52151203155518 12.5494565963745 25.6611633300781 15.0096998214722 10.494176864624 9.36571407318115 8.77291393280029 7.51620960235596 6.779869556427 6.53576183319092 6.5581488609314 6.20597124099731 5.23177814483643 4.63911151885986 4.49988985061646 4.07728004455566 3.739089012146 3.38062000274658 3.152015209198 3.07860732078552 5.30078744888306 10.0342416763306 12.5584754943848 12.6916790008545 9.70083236694336 5.04586458206177 3.67423534393311 2.23366403579712 1.33761286735535 0.989162266254425 0.479115277528763 -0.0535713993012905 -0.421450585126877 -0.639884233474731 -0.743921399116516 0.0340974889695644 -1.15561890602112 -1.39584696292877 3.12268829345703 4.17561006546021 0.532774865627289 -1.60725343227386 -1.71628499031067 -1.75573229789734 -1.51018083095551 -1.37763857841492 -1.38204348087311 -1.43493902683258 -1.50071108341217 -1.57220816612244 -0.99517959356308 -1.51864087581635 -1.54539942741394 -1.00705695152283 2.51240706443787 4.65302515029907 7.21878051757812 9.22985076904297 9.63087272644043 4.42382335662842 3.61146664619446 3.74415922164917 3.37547826766968 3.15514373779297 2.91082572937012 2.72967386245728 2.5513608455658 2.42196273803711 2.09357070922852 1.78066790103912 1.99498152732849 2.22004675865173 3.18966221809387 5.5069317817688 5.51336002349854 6.06648683547974 5.59384393692017 5.74464750289917 5.61856126785278 5.282151222229 4.59654569625854 4.28734683990479 3.82591700553894 3.28333878517151 2.93580865859985 3.91132879257202 4.05315446853638 3.36866998672485 3.60516047477722 3.32247805595398 3.03048872947693 2.76430106163025 2.80832505226135 2.94242072105408 3.07343745231628 3.05411005020142
2.83045601844788 3.27440357208252 4.21170711517334 5.44201946258545 7.17223262786865 7.21384477615356 7.40793991088867 6.45592021942139 5.49143314361572 3.96663022041321 3.13858580589294 2.75489258766174 3.29384875297546 3.4972710609436 3.67413282394409 3.56903100013733 2.65627217292786 2.32083344459534 1.8951278924942 1.56184601783752 1.36554825305939 0.592515408992767 0.111696735024452 -0.197774723172188 -0.336869299411774 -0.467695713043213 -0.608368635177612 -0.767398238182068 -0.871428847312927 -0.806009769439697 -0.588001847267151 -0.41899299621582 -0.0962753593921661 1.4907865524292 2.43035697937012 3.17918300628662 5.93318223953247 7.23155784606934 7.8043007850647 9.36881637573242 10.283052444458 10.4190263748169 10.6335973739624 11.897780418396 12.0426645278931 11.1863708496094 13.2819919586182 15.066575050354 13.4724426269531 10.8089008331299 8.44979000091553 7.46547031402588 6.78722953796387 6.10025310516357 5.91116142272949 5.7851939201355 5.25972938537598 5.2521448135376 5.22207164764404 4.52833127975464 4.15720653533936 3.65056300163269 3.84109091758728 5.5748610496521 6.01625204086304 5.80638456344604 9.64195156097412 13.2543907165527 8.84848022460938 5.65837240219116 5.98946523666382 10.3139314651489 7.62698936462402 8.49554252624512 13.3059034347534 11.7559881210327 9.17292785644531 10.6046800613403 18.2235813140869 20.7386798858643 12.3456134796143 10.6206836700439 9.95345115661621 8.89027118682861 8.11115646362305 7.59719467163086 7.35352611541748 6.81335258483887 5.42484092712402 4.70482158660889 4.59556150436401 4.20183372497559 3.62552642822266 3.24520015716553 6.20226764678955 3.0940146446228 2.65995192527771 7.30248212814331 11.6150226593018 17.242883682251 7.82778978347778 5.01938819885254 2.74261951446533 1.72052180767059 1.38520193099976 1.08498764038086 0.468410938978195 -0.0675043761730194 -0.392250716686249 -0.533442139625549 -0.603232502937317 -0.565470457077026 -0.870891213417053 -1.29745435714722 2.71662402153015 3.00903391838074 2.52603912353516 -1.57315266132355 -1.69482696056366 -1.67026782035828 -1.38126850128174 -1.21071517467499 -1.2123829126358 -1.33927071094513 -1.48359835147858 -1.49851393699646 -0.562503635883331 -1.43933570384979 -1.53836333751678 -1.55907964706421 -0.910613417625427 0.194007217884064 4.29659605026245 5.88010549545288 6.79703378677368 5.80669069290161 4.08332300186157 3.77157807350159 3.49579334259033 3.16292381286621 2.94816398620605 2.7758092880249 2.59367775917053 2.24033975601196 1.93553376197815 2.17008399963379 2.65394282341003 2.55223512649536 2.70321750640869 5.27619361877441 7.04942035675049 6.43606233596802 6.49389410018921 6.21019458770752 6.190833568573 5.40259075164795 5.02538251876831 4.53189086914062 3.95121955871582 3.06585454940796 2.62168192863464 3.31911659240723 4.55572938919067 4.6217885017395 3.65348410606384 3.98530459403992 3.8245849609375 3.61157751083374 3.42045593261719 3.38991928100586 3.37359857559204 3.32965779304504
3.14842796325684 4.6897234916687 7.72179126739502 8.2837495803833 9.15858745574951 10.6383953094482 7.70875549316406 6.9930477142334 5.40365219116211 4.09361124038696 3.49084091186523 3.64085578918457 3.70301461219788 5.10035753250122 4.22006797790527 3.85190105438232 3.09713983535767 2.33116912841797 1.52503097057343 1.14783918857574 1.44258058071136 0.661815941333771 0.294649809598923 -0.209545314311981 -0.346776247024536 -0.486307322978973 -0.596664786338806 -0.775020122528076 -0.846982598304749 -0.64474755525589 -0.408048927783966 -0.188642203807831 0.57826030254364 2.11742949485779 3.30053639411926 5.11653137207031 6.93585824966431 7.7432918548584 8.73242092132568 10.1807479858398 9.96916103363037 10.4075374603271 10.7893533706665 11.013521194458 10.1418237686157 10.8135099411011 9.74413871765137 11.273157119751 11.1521854400635 9.8794994354248 8.80170059204102 7.18630456924438 5.93795251846313 5.15151262283325 4.94552707672119 4.94900751113892 4.61557340621948 3.98961615562439 4.16239643096924 4.56192684173584 4.08764314651489 3.5799503326416 2.94011855125427 1.86522090435028 0.912037074565887 0.735055208206177 1.49264943599701 11.1676998138428 9.98245811462402 4.27563714981079 2.03452229499817 4.141770362854 6.63920402526855 7.71972942352295 8.67959403991699 9.45104694366455 9.56599712371826 10.0817775726318 13.0470237731934 17.7127437591553 14.1743764877319 12.5878496170044 11.1089487075806 10.1901922225952 9.17170906066895 8.54024314880371 7.98387861251831 7.39368677139282 6.09706926345825 5.01347160339355 4.52708196640015 4.16323232650757 3.72260427474976 3.26715350151062 6.70718622207642 3.09449815750122 2.51110339164734 3.17900538444519 7.41364288330078 15.3723945617676 5.23487377166748 4.27173805236816 2.78470253944397 1.7473326921463 1.30431950092316 1.05297803878784 0.446592569351196 -0.116979956626892 -0.334726810455322 -0.457654803991318 -0.533508837223053 -0.466697305440903 -0.599996328353882 -1.06223928928375 -0.531017005443573 -0.109787993133068 2.28519344329834 -1.40530300140381 -1.51017272472382 -1.26150524616241 -1.08274233341217 -1.05888950824738 -1.10889148712158 -1.17825353145599 -1.35599505901337 -1.418004155159 -0.622385144233704 -1.29199874401093 -1.40476810932159 -1.06420421600342 0.184830397367477 0.781046628952026 1.56408584117889 2.68420243263245 3.5017294883728 3.84583735466003 3.86863660812378 3.71188449859619 3.49162721633911 3.19814372062683 3.00256037712097 2.79296898841858 2.64748740196228 2.23743462562561 2.24501514434814 2.64217281341553 3.05755758285522 2.88747596740723 2.74018812179565 4.98328971862793 7.65838003158569 7.89480352401733 7.32539033889771 7.21834230422974 6.40958738327026 5.76841878890991 5.17593336105347 4.56369352340698 3.50255799293518 3.00963354110718 2.75114989280701 2.84246134757996 3.01971817016602 5.10861587524414 4.218421459198 3.95876002311707 4.41958332061768 4.65058755874634 4.09666681289673 3.82355737686157 3.65554046630859 3.52264928817749
3.84863948822021 5.6855092048645 5.78959608078003 4.53625392913818 5.13076066970825 8.87688732147217 7.64870691299438 6.58822631835938 5.05977153778076 3.94434857368469 3.43120193481445 4.84885740280151 5.36787176132202 5.40642738342285 5.34146213531494 3.95254755020142 3.3452513217926 2.13377451896667 1.14983630180359 0.779420375823975 0.979890704154968 0.839334309101105 0.120585106313229 -0.259252786636353 -0.39871147274971 -0.461352109909058 -0.596089422702789 -0.708406627178192 -0.713991403579712 -0.434593439102173 -0.174331858754158 0.138878062367439 0.989576935768127 2.22920346260071 4.39730739593506 7.49324607849121 9.12606811523438 9.17479419708252 10.6683397293091 10.9206848144531 10.1571674346924 10.7536964416504 13.7713060379028 14.0580492019653 10.3908357620239 7.63461637496948 6.99160099029541 8.10896015167236 8.79522037506104 8.42329692840576 8.28337287902832 7.86633110046387 6.44480323791504 5.4111967086792 4.53935623168945 3.70692014694214 3.82209134101868 3.96444630622864 4.5215802192688 4.64424467086792 3.96216011047363 3.2742235660553 1.57833981513977 0.402529925107956 0.50898265838623 0.449581444263458 0.464483290910721 2.93874907493591 5.71699905395508 2.9277663230896 3.06910705566406 5.40041923522949 7.79933547973633 8.44731140136719 9.14443969726562 9.55977439880371 10.0572938919067 10.8276071548462 12.2699718475342 14.4312772750854 15.7680912017822 13.3820266723633 12.3969631195068 11.1337966918945 10.0822420120239 8.88907146453857 8.27801513671875 7.5222053527832 6.62393379211426 5.25430631637573 4.61480569839478 3.96291494369507 3.45211172103882 3.19020485877991 6.27026844024658 2.784991979599 1.99217069149017 1.23015069961548 3.99199485778809 12.2421808242798 7.46234607696533 3.74630355834961 2.13730907440186 1.3419144153595 1.20151782035828 0.949910759925842 0.432096987962723 -0.127487733960152 -0.369179606437683 -0.430399060249329 -0.34742596745491 -0.46861532330513 -0.570404171943665 -0.860027015209198 -1.12766218185425 -1.33792304992676 -1.34216475486755 -1.1967294216156 -1.0915048122406 -0.954640090465546 -0.877353072166443 -0.911397397518158 -1.01841831207275 -1.10214936733246 -1.23431956768036 -1.34884023666382 -1.22481024265289 -1.15168642997742 -0.922683000564575 -0.0783760249614716 0.967347681522369 1.81186771392822 2.54515695571899 3.65761661529541 3.84200477600098 4.13678503036499 3.84154844284058 3.71377611160278 3.51769137382507 3.26837396621704 3.03735017776489 2.81939744949341 2.41310214996338 2.36832928657532 3.08836627006531 4.0006685256958 3.3969419002533 2.9235999584198 2.54814624786377 3.70492482185364 7.0309591293335 8.29704761505127 8.51551532745361 8.07317161560059 6.82273101806641 5.87715578079224 5.05522918701172 3.96672415733337 3.49620819091797 3.37872719764709 3.20499706268311 2.46056270599365 2.38760352134705 3.6165554523468 4.95736455917358 4.33861112594604 4.17366790771484 5.68769502639771 4.92651128768921 4.34153175354004 3.91861748695374 3.7682831287384
3.41356897354126 2.31353855133057 1.88325452804565 2.12110447883606 1.42392289638519 6.91540765762329 7.57620668411255 5.54929304122925 4.4053053855896 3.92813849449158 3.98157906532288 4.35041332244873 7.91864585876465 6.98079109191895 5.64799451828003 4.36467742919922 3.04989719390869 1.88658118247986 0.928294956684113 0.367136120796204 0.804779171943665 0.820797026157379 0.0936219766736031 -0.305492371320724 -0.335518032312393 -0.524427652359009 -0.58562558889389 -0.579800724983215 -0.462378472089767 -0.24152547121048 0.0123343141749501 0.739527404308319 1.5216588973999 3.40607929229736 6.28049516677856 8.55647659301758 8.91568851470947 8.10125923156738 9.84784603118896 10.1560077667236 10.1495904922485 10.1988916397095 11.6675605773926 10.9089403152466 4.57298707962036 3.37727832794189 3.22965478897095 4.2879900932312 5.21805143356323 5.12521266937256 5.52641248703003 6.69460964202881 5.52418184280396 4.66370153427124 4.10652112960815 3.24230313301086 3.57340240478516 3.06309270858765 4.10404253005981 4.63863086700439 4.04931306838989 3.23309564590454 1.46675705909729 0.434372395277023 0.529294490814209 0.506302714347839 0.763286292552948 1.1072084903717 2.05482053756714 2.09799313545227 5.33911228179932 9.17935466766357 10.1193513870239 10.1188249588013 10.5443353652954 11.0598592758179 11.5531358718872 13.0820474624634 15.1973962783813 16.8012809753418 16.6284561157227 14.7982883453369 13.2582845687866 11.9229278564453 10.9375143051147 10.0023403167725 8.21623039245605 7.86771678924561 7.1380934715271 5.60087776184082 4.76866245269775 4.04287242889404 3.4941577911377 3.26121735572815 4.11430549621582 2.88440489768982 1.6736695766449 1.06165480613708 1.36785125732422 6.76327848434448 7.3930869102478 4.78607368469238 2.44081091880798 1.34707379341125 1.08520352840424 0.766542375087738 0.429390221834183 -0.046018797904253 -0.374136447906494 -0.342136204242706 -0.201105788350105 -0.22974705696106 -0.518955945968628 -0.669101297855377 -1.01611649990082 -1.15461802482605 -1.13823699951172 -0.970621824264526 -0.703816592693329 -0.588867604732513 -0.674438416957855 -0.723446190357208 -0.851760387420654 -0.904328465461731 -1.05858731269836 -1.03223395347595 -0.941119313240051 -1.00283408164978 0.00729253143072128 1.39272284507751 2.14496541023254 3.20875358581543 3.70232176780701 4.51607275009155 4.67977142333984 4.45923948287964 4.14286994934082 3.83067965507507 3.52604961395264 3.28839063644409 3.02022290229797 2.88241481781006 2.69189143180847 2.94914221763611 3.67011308670044 4.40809297561646 5.07397937774658 3.58839654922485 2.666583776474 1.99978303909302 4.74974536895752 7.39744806289673 9.45409107208252 9.16795921325684 7.40554428100586 5.89423084259033 5.20839262008667 4.03945589065552 3.40677762031555 3.50108051300049 3.3690230846405 2.22701144218445 2.26955080032349 2.48012828826904 4.46754789352417 4.90543603897095 3.77999329566956 4.83355140686035 5.44752788543701 4.54261350631714 4.43384027481079 4.03641796112061
2.78291273117065 2.09910368919373 2.65261387825012 1.53940749168396 0.918350219726562 2.71992969512939 7.05151319503784 4.881760597229 4.1043267250061 3.67436289787292 3.82160186767578 3.01138401031494 7.04001092910767 8.15153884887695 6.04102897644043 4.61771154403687 2.83735990524292 1.54133784770966 0.586593449115753 0.690375089645386 1.05439829826355 0.840100824832916 0.113415420055389 -0.21319268643856 -0.27625098824501 -0.540230751037598 -0.639336347579956 -0.456289142370224 -0.251382946968079 -0.0153827304020524 1.00352585315704 1.48302102088928 2.5666663646698 5.2222113609314 11.2055950164795 11.7718725204468 10.2138156890869 5.58765363693237 5.81268215179443 7.19760990142822 6.9787449836731 3.84107875823975 1.84310472011566 2.42461228370667 1.52801668643951 0.264007389545441 0.327506214380264 0.453168421983719 1.00894963741302 1.53622126579285 1.44328391551971 2.60674500465393 3.40873551368713 2.96564650535583 2.38608169555664 1.79485332965851 1.41382193565369 0.620723962783813 2.2073814868927 3.68058776855469 3.10113430023193 2.29514598846436 1.10520124435425 0.886816263198853 0.80284196138382 0.775444388389587 1.00356018543243 1.50372684001923 1.91827952861786 4.42410707473755 7.58759117126465 11.1703758239746 11.854154586792 13.9228992462158 13.9546756744385 13.6802854537964 15.0096197128296 15.8725070953369 21.0821914672852 21.1516036987305 18.1761779785156 16.7291469573975 13.9474964141846 12.8311433792114 12.0954513549805 10.8210744857788 9.36322402954102 8.27209281921387 7.5244026184082 6.19654750823975 4.80225610733032 3.91168308258057 3.39801716804504 3.23604035377502 3.53496289253235 3.31274342536926 1.59163618087769 1.11886775493622 2.11592197418213 3.29720520973206 3.40898561477661 2.14671182632446 1.35625457763672 1.25887131690979 1.00323188304901 0.687618315219879 0.421932429075241 0.039435550570488 -0.263256520032883 -0.0959047377109528 -0.133336305618286 0.0964528173208237 -0.32835590839386 -0.456569105386734 -0.818730354309082 -0.990786373615265 -0.783263862133026 -0.42288476228714 -0.243561536073685 -0.235693112015724 -0.334189623594284 -0.386212766170502 -0.320382177829742 -0.448403298854828 -0.539601624011993 -0.546337425708771 -0.566092908382416 1.10217571258545 2.14236307144165 3.38916277885437 3.98989605903625 4.77300500869751 5.31509256362915 5.2853684425354 5.25137042999268 4.61522006988525 4.36146402359009 4.03155851364136 3.50730037689209 3.33316922187805 3.11749219894409 2.9771101474762 3.1804051399231 3.20897173881531 3.18532276153564 3.44016218185425 3.82758951187134 3.08545303344727 2.44211506843567 1.53886568546295 3.30106401443481 7.02940654754639 8.77150344848633 8.45362663269043 7.4847469329834 6.26655197143555 4.70701169967651 3.99995112419128 4.23879384994507 4.25355768203735 2.88110661506653 2.75304388999939 2.48987197875977 2.18495607376099 3.21777296066284 5.0126781463623 4.74465274810791 4.82165861129761 5.31149530410767 4.83393621444702 4.61790800094604 4.51324605941772
3.44555854797363 1.9158923625946 4.03831481933594 1.60538291931152 0.792349517345428 0.596876859664917 4.98672914505005 4.09344244003296 4.59833574295044 5.85637044906616 3.26493000984192 1.76123511791229 1.44899153709412 7.99916791915894 6.77840423583984 4.08865213394165 2.54008746147156 1.43400275707245 0.365152567625046 0.0629848688840866 1.0445659160614 0.940595805644989 -0.166377931833267 -0.137080773711205 -0.192128464579582 -0.202636703848839 -0.489901125431061 -0.26483753323555 -0.0293512511998415 0.337512046098709 1.1023256778717 2.08661985397339 5.33328580856323 9.00358867645264 10.5849294662476 9.92319202423096 7.57285451889038 4.86194658279419 3.92671251296997 2.35971260070801 2.20799875259399 0.51737916469574 -1.04529571533203 -1.27036285400391 -1.1561826467514 -1.17342710494995 -1.28051948547363 -1.80060040950775 -1.79404640197754 -1.65336811542511 -1.50300860404968 -1.25281071662903 -0.841326534748077 -0.679966747760773 -0.318600594997406 -0.56524658203125 -0.746311128139496 -0.507991015911102 -0.577684938907623 -0.452718406915665 -0.106262318789959 0.327947974205017 0.523564517498016 1.07476854324341 1.24853193759918 1.38657808303833 1.54204261302948 1.94689536094666 3.757483959198 9.18879699707031 15.1093463897705 15.15256690979 13.5613594055176 14.8436803817749 15.2501878738403 13.2160396575928 14.5143146514893 14.8633890151978 19.962230682373 22.3419284820557 22.4926586151123 17.5596389770508 15.3058433532715 14.0896501541138 12.9333028793335 11.4868440628052 10.132435798645 8.91569805145264 8.06668949127197 6.74777841567993 5.24374341964722 4.07406282424927 3.36302590370178 3.00671029090881 2.4465537071228 2.73190927505493 1.59453940391541 1.52351856231689 1.0778636932373 1.20933294296265 1.35098206996918 1.52439880371094 1.41306245326996 1.1531857252121 0.907129049301147 0.644129037857056 0.415606826543808 0.104346551001072 -0.0851273089647293 1.11400723457336 1.92540645599365 5.8937349319458 -0.146792948246002 -0.276261419057846 -0.619038462638855 -0.659854769706726 -0.391138911247253 -0.0538499280810356 0.0116141047328711 0.0651291683316231 0.086935892701149 0.188426211476326 0.281350433826447 0.19308266043663 0.256024777889252 0.374261766672134 2.36287546157837 3.73107576370239 4.80080032348633 5.56584453582764 6.34713888168335 6.05847263336182 6.01336860656738 5.79481029510498 5.24731779098511 4.80866575241089 4.48134756088257 3.87253475189209 3.54996943473816 3.32142210006714 3.45461893081665 3.7548987865448 3.48640179634094 3.73951888084412 3.55815625190735 3.69371461868286 3.34334325790405 2.96013736724854 2.03004169464111 1.27361750602722 0.566063821315765 3.86907076835632 7.45773077011108 8.10896015167236 6.57876682281494 6.75002717971802 5.18392992019653 4.17911720275879 4.4672532081604 4.47458124160767 2.78941965103149 2.86370062828064 2.63898253440857 1.74473464488983 1.9943128824234 3.87159013748169 5.46879720687866 6.58878707885742 5.6320629119873 5.72567319869995 5.21924877166748 5.13895034790039
2.46026754379272 0.971250474452972 3.05021238327026 1.6657772064209 0.717216789722443 0.419243782758713 2.76004981994629 3.05355453491211 3.9034481048584 7.16453456878662 5.21410465240479 1.86457896232605 0.30248960852623 3.2001805305481 6.16395425796509 4.07071399688721 1.83601152896881 0.981535017490387 -0.0286305695772171 -0.13654088973999 0.281393796205521 0.536907553672791 -0.067470982670784 -0.173144564032555 -0.388236850500107 -0.395159423351288 -0.348527878522873 -0.0778951421380043 0.118539564311504 0.201895147562027 0.541751682758331 2.83260869979858 6.23252868652344 1.95703625679016 1.01205158233643 2.09414863586426 3.00105810165405 1.93491983413696 0.118056364357471 -0.691308259963989 -0.773420035839081 -0.879379689693451 -1.1457906961441 -1.39170944690704 -1.5932000875473 -1.64856910705566 -1.60384380817413 -1.73689353466034 -1.65916299819946 -1.41675174236298 -1.32694780826569 -1.21352636814117 -1.00252485275269 -0.947539150714874 -1.10015678405762 -1.10977840423584 -0.749922871589661 -0.62607616186142 -0.458647191524506 0.0216031726449728 0.421010494232178 1.01858675479889 1.41889679431915 1.62548649311066 1.72042191028595 1.80560433864594 2.34787273406982 3.12580871582031 6.73171997070312 9.09771156311035 12.3121433258057 11.3056011199951 8.42461204528809 9.24528408050537 10.547947883606 9.99082565307617 12.2304458618164 15.1545333862305 22.7605648040771 21.6875343322754 21.7743377685547 19.2422180175781 17.0935802459717 15.0201606750488 13.4519100189209 12.471851348877 10.8178663253784 9.66094303131104 8.45072841644287 7.17937803268433 5.80252504348755 4.62438774108887 3.87074756622314 3.27047395706177 2.0980761051178 1.42201435565948 1.01501667499542 2.14719414710999 1.28404009342194 1.43721508979797 1.59507501125336 1.49285578727722 1.34906244277954 1.06306421756744 0.811053216457367 0.655712187290192 0.451615005731583 0.152561292052269 0.00615280820056796 0.2929847240448 1.46743607521057 5.77548360824585 0.731854200363159 0.0439178384840488 -0.392246693372726 -0.294038593769073 0.127044707536697 0.249844714999199 0.252528518438339 0.413142055273056 0.707388162612915 0.867719531059265 1.20621919631958 1.23887634277344 1.6354832649231 2.73337960243225 4.08989858627319 5.50525045394897 6.58631134033203 6.7518367767334 7.30925703048706 6.82262372970581 6.36476421356201 6.10416746139526 5.39143657684326 5.01097059249878 4.22567892074585 3.92363095283508 3.50910258293152 3.90803909301758 3.88964152336121 4.09823083877563 3.93042778968811 4.08179998397827 4.26878452301025 3.91869854927063 3.26471590995789 2.71239042282104 1.68432068824768 0.835653066635132 -0.0279863160103559 0.0184347070753574 4.54862689971924 8.24204254150391 7.35107660293579 5.68022203445435 5.31155490875244 6.4572172164917 6.6321759223938 4.16635847091675 3.74640083312988 3.33899617195129 2.94154286384583 2.26430416107178 1.70412075519562 1.89020824432373 4.35093832015991 7.31403779983521 7.28431129455566 5.8333215713501 5.96324396133423 6.04970693588257
2.70037436485291 0.752870500087738 0.869418859481812 3.71004176139832 0.979353308677673 0.511776745319366 0.708134472370148 1.01802444458008 0.910436868667603 5.82288551330566 5.62455129623413 1.9546138048172 -0.129043146967888 -0.296206563711166 3.47834944725037 2.99693512916565 1.15685713291168 0.41363251209259 -0.0794666260480881 -0.145715609192848 -0.0304314941167831 0.355722606182098 0.424913167953491 0.0891155079007149 0.151326447725296 -0.328869819641113 -0.130190446972847 0.0321860872209072 0.127890229225159 0.335514664649963 0.404181122779846 1.03108143806458 0.58132266998291 -0.0723936855792999 -0.322334289550781 -0.59231698513031 -0.822910606861115 -0.676372289657593 -0.619356453418732 -0.533291459083557 -0.59319269657135 -0.701022803783417 -0.908378422260284 -1.14632475376129 -1.41272687911987 -1.55760955810547 -1.59726214408875 -1.37753474712372 -1.35111749172211 -1.15889608860016 -1.11129140853882 -0.793941020965576 -0.737386345863342 -0.88832038640976 -1.09390151500702 -0.667435467243195 -0.632358610630035 -0.313061118125916 0.302438974380493 0.764750957489014 1.98351442813873 2.47183918952942 1.9276282787323 2.02714109420776 2.30147218704224 2.46086716651917 2.75320434570312 2.69782662391663 3.96386241912842 4.11509084701538 6.4661922454834 7.1484522819519 7.00303602218628 7.75283575057983 9.5385913848877 9.09600830078125 8.25149726867676 8.58756828308105 20.3740825653076 23.9665927886963 21.429141998291 22.0680198669434 18.7941570281982 16.1620025634766 14.4849462509155 12.8496770858765 11.2853879928589 10.2566003799438 9.16652870178223 7.72462558746338 6.31069850921631 4.88916969299316 3.83735203742981 2.99393916130066 2.02078533172607 1.39589953422546 1.21531891822815 2.47709608078003 1.76926386356354 1.65878081321716 1.55746603012085 1.42574238777161 1.2582323551178 0.986413478851318 0.727330923080444 0.625632107257843 0.487242609262466 0.274875491857529 -0.0602623149752617 -0.0626313164830208 0.380456745624542 3.54610562324524 2.09902763366699 0.249845564365387 -0.0149658368900418 0.128419414162636 0.520677864551544 0.74380350112915 0.91337925195694 1.04513990879059 1.37619411945343 1.58288753032684 1.58973217010498 1.65716457366943 2.52389693260193 4.70570087432861 5.75818061828613 6.68343305587769 7.89098978042603 8.54863834381104 7.95468950271606 7.09553241729736 6.72655487060547 6.05289554595947 5.81721544265747 5.36738634109497 4.41290903091431 3.86059951782227 4.48737382888794 4.89929389953613 4.47462320327759 4.27200841903687 4.71402597427368 4.30464315414429 4.36731052398682 4.24681997299194 3.92502784729004 2.70633387565613 1.7882719039917 0.58631706237793 0.0242014490067959 0.0263569839298725 0.290088474750519 6.45928764343262 8.28253078460693 6.04724264144897 4.25871181488037 6.06372928619385 7.41352891921997 3.14127516746521 2.7044997215271 2.61925673484802 1.20318448543549 1.29297375679016 1.2152339220047 1.04321694374084 2.27458500862122 6.35046482086182 9.68053340911865 7.62852668762207 6.94330263137817 6.75382328033447
2.40665912628174 2.17105937004089 1.35351407527924 2.97774600982666 2.00792551040649 0.929341793060303 0.561224043369293 1.43383181095123 -0.692804515361786 1.29430603981018 5.07180643081665 1.72265815734863 0.188733771443367 -0.607322156429291 1.55460894107819 2.55737996101379 0.637818932533264 0.301426768302917 -0.0966117680072784 -0.141492009162903 -0.0634186118841171 0.478148698806763 0.641462028026581 0.7662073969841 0.182065024971962 -0.0575452782213688 0.0620573163032532 0.197288289666176 0.215172722935677 0.502856373786926 0.345796376466751 0.155985355377197 0.0835678651928902 -0.0684492290019989 -0.313470870256424 -0.572147607803345 -0.693925321102142 -0.467136919498444 -0.371392607688904 -0.291441977024078 -0.33429953455925 -0.493994355201721 -0.67451548576355 -0.896047830581665 -1.12497758865356 -1.29472923278809 -1.03332281112671 -0.0252688471227884 -0.927155256271362 -0.971778929233551 -0.828778564929962 -0.507336556911469 -0.385064959526062 -0.510700464248657 -0.549690008163452 -0.399019360542297 -0.1131372153759 0.393194109201431 1.06487834453583 1.40338432788849 2.82161474227905 3.36639308929443 1.87256097793579 1.99871182441711 2.69088554382324 3.31353998184204 2.53724837303162 1.70708394050598 1.58185660839081 1.78794598579407 5.4880223274231 6.4702935218811 6.86211729049683 6.26457214355469 8.72749423980713 9.1532678604126 7.53623485565186 6.89372205734253 14.7283458709717 25.6410522460938 23.6577053070068 22.0947399139404 19.9141998291016 18.1936454772949 15.2005634307861 13.2364063262939 11.5916862487793 10.7151947021484 9.52773189544678 7.98428678512573 6.65962791442871 5.21350574493408 4.14507865905762 2.8262152671814 1.93962967395782 1.2338273525238 3.55030107498169 3.50936579704285 2.712965965271 1.7666187286377 1.62888872623444 1.32811558246613 1.07179427146912 0.903712213039398 0.732219994068146 0.614645838737488 0.540626049041748 0.399321228265762 0.0822880864143372 0.266731262207031 2.53537106513977 7.1800274848938 3.94833254814148 0.810335695743561 0.55108654499054 0.90969306230545 1.12795877456665 1.23996531963348 1.20602595806122 1.31000375747681 1.53922855854034 1.74352049827576 1.74305355548859 2.40576267242432 3.80376005172729 5.22938823699951 8.01993942260742 9.40135669708252 10.2268400192261 9.54411888122559 8.25943088531494 7.6084156036377 6.91119527816772 6.60736227035522 6.11784982681274 5.00139665603638 4.2702465057373 3.64141583442688 5.05731058120728 4.04216432571411 4.07450199127197 4.19760417938232 4.47431325912476 4.97528028488159 4.72660446166992 4.45347595214844 3.64366722106934 2.877281665802 1.78036773204803 0.643182039260864 0.147827297449112 0.0895701050758362 0.0741235166788101 0.154841735959053 3.45772528648376 4.17689752578735 0.988613247871399 0.326238811016083 2.97073292732239 0.286012232303619 0.497298836708069 0.699270188808441 0.840492725372314 0.977621138095856 0.985813140869141 1.12617087364197 1.26112914085388 2.76342272758484 5.7474479675293 7.48084402084351 7.55288505554199 8.79025840759277
1.00138831138611 1.05342614650726 1.63564586639404 2.11502480506897 3.24947023391724 0.912493109703064 0.352882593870163 0.372448682785034 -0.925064086914062 -1.01012575626373 1.83031582832336 2.16012907028198 0.766201257705688 -0.043063085526228 1.23746919631958 1.99692738056183 0.420174032449722 -0.0227380990982056 -0.0674257427453995 0.281096071004868 0.44683849811554 0.829916059970856 0.800631880760193 0.949210703372955 0.190878361463547 0.16080941259861 0.272902131080627 0.271911799907684 0.398764908313751 0.527942836284637 0.396414756774902 0.152626037597656 0.0815540924668312 -0.0945515409111977 -0.250203460454941 -0.449635982513428 -0.349667012691498 -0.199972465634346 -0.0901551097631454 -0.129504531621933 -0.116278938949108 -0.268545776605606 -0.453662842512131 -0.651290595531464 -0.625278949737549 -1.14142537117004 -0.954787075519562 -0.560309410095215 -0.0994443371891975 -0.00403201067820191 0.254619091749191 0.322916388511658 0.121443033218384 -0.149130821228027 -0.0894859284162521 0.234710574150085 0.83591902256012 1.35079491138458 1.51585733890533 3.25109648704529 4.31632471084595 3.82005262374878 2.56519103050232 2.53989458084106 3.76850605010986 3.81740832328796 2.97595047950745 1.10119926929474 0.341833561658859 0.70155918598175 4.58081769943237 6.00613737106323 6.87700366973877 5.50128412246704 6.16352796554565 9.12067031860352 7.46726512908936 7.2724347114563 8.79175662994385 21.3263034820557 26.2340087890625 22.0992660522461 23.0298919677734 19.390100479126 17.3044662475586 13.2463026046753 12.4114999771118 11.0202541351318 9.82206153869629 8.55523109436035 7.0494179725647 5.08156728744507 3.79030823707581 2.76644468307495 1.9439959526062 1.26089680194855 6.18107318878174 5.26766872406006 3.00679922103882 1.68899261951447 1.56470370292664 1.27885568141937 0.999232172966003 0.83703076839447 0.692820072174072 0.645039618015289 0.644489228725433 0.373140811920166 0.125490099191666 4.27732801437378 4.79524374008179 6.44696521759033 3.87049388885498 0.648288190364838 1.1296797990799 1.32825016975403 1.34998762607574 1.25313818454742 1.42236602306366 1.75163567066193 1.98636531829834 1.97835695743561 2.94136953353882 4.59184694290161 6.08852672576904 8.53450775146484 10.0968618392944 11.6560211181641 11.9036884307861 10.9501419067383 8.61670398712158 8.25813770294189 7.64029932022095 7.18476295471191 6.63217496871948 5.3470516204834 4.01207208633423 3.4047372341156 2.71689319610596 2.8424813747406 3.7179069519043 5.57402610778809 4.84866333007812 5.30594635009766 5.65495920181274 4.63370704650879 3.77391219139099 2.82580065727234 1.85631513595581 0.670073568820953 1.36649465560913 2.40729331970215 0.195228531956673 0.194730177521706 0.524156391620636 1.30287909507751 0.582419455051422 0.0562351606786251 0.144170820713043 0.457135856151581 0.665203630924225 0.890020370483398 0.960183024406433 1.07062101364136 1.1044397354126 1.27857649326324 1.46201884746552 1.64943778514862 3.3452627658844 4.35948133468628 6.85552358627319 8.37272930145264
-0.0295314192771912 -0.254191398620605 0.845092833042145 1.74942052364349 2.60559797286987 0.876320898532867 -0.200386226177216 -0.523207664489746 -0.915239691734314 -0.99921327829361 -0.880981683731079 0.204033508896828 0.434855401515961 0.156664550304413 0.30018076300621 0.581308484077454 0.0226125288754702 -0.0905330404639244 -0.086968906223774 0.351125687360764 0.793931484222412 1.10936677455902 1.72432136535645 1.02651941776276 0.123873345553875 0.39024344086647 0.493258893489838 0.37819916009903 0.618716716766357 0.455869168043137 0.388949185609818 0.248677134513855 0.181791305541992 0.0714026093482971 -0.107707560062408 -0.0935089513659477 -0.0756890773773193 -0.0286118481308222 0.0297637619078159 0.0280934106558561 -0.0717887058854103 -0.158222034573555 -0.256653398275375 0.406151056289673 -0.138053327798843 -0.347713887691498 0.137568145990372 0.366567194461823 0.254548519849777 0.777934730052948 0.776549458503723 0.832759857177734 0.657781779766083 0.657706081867218 0.84781289100647 1.00883507728577 1.26623606681824 1.53230357170105 2.73641014099121 4.98935270309448 5.58609247207642 3.19107508659363 2.49288415908813 2.70785355567932 3.65413594245911 3.59721994400024 2.88181114196777 0.723595082759857 0.343335151672363 0.0473250560462475 3.09531712532043 5.00767469406128 6.27425813674927 5.59287643432617 5.71422910690308 7.98514842987061 8.95446491241455 9.18591594696045 8.59628295898438 16.0720119476318 26.7072086334229 23.0061016082764 23.9200458526611 21.8444328308105 17.6895141601562 14.5819053649902 12.6623077392578 11.3236303329468 10.0955743789673 8.74217700958252 7.38259935379028 5.67674589157104 3.67957210540771 2.5576114654541 1.54583334922791 1.25607323646545 3.59538888931274 5.23241996765137 3.44760036468506 1.99921381473541 1.47264266014099 1.21511518955231 0.944155156612396 0.824762165546417 0.747086882591248 0.771564483642578 0.566871047019958 0.346379190683365 -0.11488077044487 2.53286457061768 9.08392238616943 5.43592929840088 3.54100584983826 1.07128536701202 1.26854825019836 1.3992178440094 1.40624511241913 1.5298091173172 1.63105642795563 1.93935227394104 2.23367619514465 2.18964457511902 3.87564992904663 7.16849803924561 8.76543235778809 11.816780090332 13.9034013748169 15.0723171234131 14.5726318359375 11.3385944366455 9.59663963317871 9.48249435424805 8.37480449676514 7.76458406448364 6.42387056350708 4.90489435195923 3.69108557701111 3.13191628456116 2.43137359619141 1.72569167613983 2.72084307670593 5.14498615264893 5.98259592056274 4.49246168136597 6.00421667098999 4.54707813262939 3.85018229484558 2.89703392982483 1.83823835849762 0.223912224173546 0.239548742771149 4.20170497894287 2.68208169937134 0.835719525814056 0.677987396717072 0.714593768119812 0.762904644012451 0.167507037520409 0.470034569501877 0.778726279735565 0.944774389266968 1.03823471069336 1.14393591880798 1.08482873439789 1.20974743366241 1.31497061252594 1.48534536361694 1.56475818157196 2.86169147491455 3.42748498916626 5.58539485931396 7.36428308486938
-0.0908190235495567 -0.367909789085388 0.239328980445862 1.38387644290924 1.94542682170868 0.980609357357025 -0.40696519613266 -0.805000782012939 -0.726751923561096 -0.794750928878784 -0.802821338176727 -0.826136529445648 -0.895068287849426 -0.526265025138855 -0.214648991823196 -0.241211771965027 -0.0722582638263702 0.120153740048409 1.10150122642517 1.5105847120285 1.72688186168671 1.78873324394226 1.88720726966858 0.681552529335022 0.307078301906586 0.626671254634857 0.718420743942261 0.630327105522156 0.740078270435333 0.690271139144897 0.637961685657501 0.491389513015747 0.342905044555664 0.212133646011353 0.0144217265769839 0.147057130932808 0.164047673344612 0.156505510210991 0.0672330260276794 0.0668866634368896 -0.0678739249706268 -0.19451679289341 -0.270831078290939 -0.413651764392853 -0.617560684680939 0.982452392578125 0.135829478502274 0.405104577541351 0.597736120223999 1.03684663772583 1.20855104923248 1.07690417766571 0.949874997138977 0.984129190444946 1.33721780776978 1.66594815254211 1.77384757995605 1.55657780170441 4.51214551925659 5.65100288391113 4.67162132263184 2.74654030799866 2.44916319847107 2.95038509368896 3.33895945549011 3.48320841789246 2.96296072006226 0.715603411197662 0.255328416824341 -0.140133574604988 0.469207316637039 4.03940105438232 5.5023341178894 4.61394882202148 5.84609603881836 7.37537956237793 7.05488109588623 9.73892402648926 9.16411304473877 13.4962635040283 25.5118980407715 28.6033210754395 25.157133102417 24.6253833770752 18.9517860412598 14.8579330444336 12.6909208297729 11.5428953170776 10.0543699264526 8.90358638763428 7.10080718994141 5.24018812179565 3.57596659660339 2.51658821105957 1.37494111061096 1.37348794937134 1.59436571598053 2.8158643245697 1.74786150455475 1.71300053596497 1.44024384021759 1.16159105300903 0.971960544586182 0.853814482688904 0.859349191188812 0.898210048675537 0.701858162879944 0.13974367082119 -0.170701906085014 -0.114037871360779 12.6715631484985 6.64202785491943 1.91556107997894 1.55916476249695 1.46512031555176 1.47120976448059 1.84063100814819 2.01187086105347 2.33766961097717 2.59508538246155 2.47945189476013 4.15843725204468 6.61274194717407 8.83299255371094 12.4178037643433 18.5034141540527 21.801290512085 22.3983955383301 17.1430397033691 12.3357706069946 12.2229537963867 10.4646396636963 9.408203125 7.71789979934692 5.83235454559326 4.81778478622437 3.86713004112244 2.60423302650452 1.96394693851471 0.847867071628571 0.128549337387085 1.27468812465668 2.93871092796326 3.51159524917603 5.06498908996582 5.76188659667969 4.04561138153076 3.13305926322937 1.27301573753357 0.217005327343941 0.146065473556519 0.206148877739906 3.05031824111938 2.2942008972168 1.26732301712036 1.11868536472321 0.950847208499908 0.827128291130066 0.865684449672699 0.985805809497833 1.1814843416214 1.16651499271393 1.24737322330475 1.26444435119629 1.38861811161041 1.54901313781738 1.51270473003387 1.54484105110168 1.53410935401917 3.34037256240845 4.91475629806519 6.3112096786499
0.360457003116608 0.361910909414291 0.696025192737579 1.26140153408051 1.58608186244965 1.19127798080444 -0.363274693489075 -0.780189633369446 -0.444538533687592 -0.513895511627197 -0.607742547988892 -0.704275190830231 -0.745378911495209 -0.496989876031876 0.11521652340889 -0.0645437240600586 -0.0659744814038277 -0.0382613316178322 0.82608950138092 0.856610119342804 1.57400631904602 3.02707147598267 2.17894721031189 0.170052826404572 0.476606041193008 0.735462248325348 0.987959265708923 1.0018835067749 0.868183374404907 0.959490895271301 0.911615788936615 0.7218057513237 0.514537155628204 0.230006709694862 0.279045552015305 0.298640161752701 0.329514384269714 0.197130665183067 0.160279214382172 0.0517264939844608 -0.0539313666522503 -0.183857679367065 -0.36370313167572 -0.408932358026505 -0.571379363536835 -0.457630783319473 0.737951517105103 0.462009519338608 1.13824570178986 1.46675705909729 1.33728086948395 0.852601408958435 1.72705280780792 2.18164348602295 2.54951572418213 2.04842662811279 1.89184725284576 1.23425793647766 1.67346811294556 1.55479228496552 2.52476644515991 2.37069034576416 2.73083925247192 2.17118740081787 2.36264657974243 2.67810082435608 3.70701766014099 1.29472088813782 0.4461570084095 0.1326944231987 0.705441534519196 1.37398457527161 4.16359996795654 2.57198882102966 3.75190591812134 5.64528322219849 5.41255664825439 8.13758659362793 8.1532039642334 9.61196231842041 18.4358196258545 28.236177444458 31.3643665313721 27.7481117248535 20.8536624908447 16.4085159301758 13.5543613433838 11.6488389968872 10.395170211792 8.62812805175781 6.55754613876343 4.53038549423218 3.25557446479797 2.01756548881531 1.45599865913391 1.48405385017395 1.67551851272583 1.91807723045349 1.92025804519653 1.6089164018631 1.36062383651733 1.118448138237 1.05765736103058 1.02358949184418 1.11819696426392 1.02718865871429 0.875225245952606 0.287036716938019 -0.0370469391345978 -0.169935196638107 10.8826923370361 7.83710861206055 2.55768895149231 1.4334329366684 1.53684949874878 1.83881437778473 2.38788628578186 2.77895522117615 3.00598835945129 2.89804244041443 2.95296049118042 5.43028688430786 10.1706504821777 12.2076549530029 18.1356391906738 19.5989360809326 22.9702625274658 30.0791702270508 18.3191528320312 15.7285003662109 14.7509450912476 12.0474348068237 10.4527597427368 8.52205467224121 6.15815019607544 4.84701108932495 4.09447145462036 2.72665095329285 1.45918834209442 0.515581548213959 -0.0421667620539665 -0.320394724607468 0.906735718250275 5.51736688613892 3.77978205680847 5.29986810684204 4.55966472625732 3.30562686920166 1.10242331027985 0.311798602342606 0.204284161329269 0.210036888718605 1.37672770023346 2.20900869369507 2.30373787879944 1.36111581325531 1.14852154254913 0.770140409469604 1.04779481887817 1.19254040718079 1.27440977096558 1.39767253398895 1.3352667093277 1.49554920196533 1.64271581172943 1.57092940807343 1.59324610233307 1.54678344726562 1.50362741947174 1.48354089260101 2.68578267097473 4.83677387237549
0.325844019651413 0.891478896141052 1.60234296321869 1.66701018810272 1.5242805480957 0.967446148395538 -0.387223452329636 -0.526793718338013 -0.346946805715561 -0.415879637002945 -0.498301208019257 -0.590466737747192 -0.588038921356201 -0.382891356945038 -0.117698781192303 -0.0471343658864498 -0.0569250211119652 -0.248949661850929 -0.384420722723007 -0.452480107545853 0.0033711118157953 3.02801966667175 2.38638043403625 0.413770377635956 0.77297705411911 0.984343230724335 1.33657121658325 1.28969979286194 1.26355409622192 1.19135677814484 1.07127130031586 0.908487617969513 0.610613882541656 0.399775952100754 0.43451201915741 0.424831658601761 0.383461177349091 0.307437717914581 0.135372176766396 0.00600062403827906 -0.0970209836959839 -0.132423922419548 -0.298495292663574 -0.502862513065338 -0.59112149477005 -0.654474973678589 0.763545453548431 1.21077907085419 1.58338272571564 1.6086757183075 1.37917375564575 1.51732456684113 1.92102158069611 2.99467897415161 3.14959931373596 3.33466100692749 2.32683944702148 0.618295013904572 0.584951162338257 0.65408319234848 1.44317483901978 1.83203816413879 2.16703104972839 2.62493944168091 2.27075862884521 1.757856965065 2.74106693267822 2.11265850067139 0.843745052814484 1.21027255058289 1.44161224365234 1.76421773433685 2.56394481658936 3.84143161773682 4.1432900428772 4.87767744064331 5.6152172088623 6.62834215164185 6.79188203811646 6.60419702529907 13.259241104126 20.7777690887451 28.2927055358887 25.9501419067383 23.0393371582031 18.2979545593262 13.8662042617798 11.9959554672241 10.2370367050171 8.62216281890869 6.07906150817871 4.31240034103394 2.55723452568054 1.62375974655151 1.5799480676651 1.77983963489532 1.95936048030853 2.01712322235107 1.93869543075562 1.60914599895477 1.3740873336792 1.27873539924622 1.24847042560577 1.28888237476349 1.39234960079193 1.27606201171875 0.78373908996582 0.516121089458466 0.0344927608966827 -0.301879703998566 7.31896018981934 6.71703767776489 2.72117638587952 1.65911281108856 2.44790387153625 2.93997526168823 2.98130583763123 3.00518250465393 3.44198536872864 3.13922715187073 7.07455253601074 9.63839435577393 11.5604448318481 14.0058507919312 10.5985298156738 7.65365171432495 10.6643943786621 23.8324851989746 21.4759483337402 20.9847106933594 15.9142274856567 14.1037511825562 10.9917478561401 7.42061901092529 5.46457958221436 4.79613542556763 3.75828623771667 2.59191608428955 1.27629363536835 0.455541580915451 0.0256623234599829 -0.148743391036987 0.226344555616379 6.87283325195312 3.86207222938538 4.01508331298828 3.88432049751282 1.94784843921661 1.50075769424438 0.44539338350296 0.354848295450211 0.383822679519653 2.84759449958801 2.87369441986084 2.86521601676941 1.74468612670898 0.840498864650726 1.06616568565369 1.5657764673233 1.45267868041992 1.51572716236115 1.42115569114685 1.47549724578857 1.57545268535614 1.71766984462738 1.73329877853394 1.66316306591034 1.60911297798157 1.5253289937973 1.45943188667297 1.70213234424591 2.02869629859924
-0.365368515253067 -0.240617975592613 2.18791770935059 2.78745651245117 1.72752845287323 0.561661660671234 -0.0611969381570816 -0.328897356987 -0.179896533489227 -0.197417736053467 -0.298748075962067 -0.294360756874084 -0.407191693782806 -0.260376006364822 -0.0467986837029457 0.0183644220232964 -0.0833178386092186 -0.28518158197403 -0.416679412126541 -0.511296987533569 -0.530054688453674 -0.291977107524872 0.207201734185219 0.615076184272766 0.922175049781799 1.24992954730988 1.47225248813629 1.61889219284058 1.53412902355194 1.42506384849548 1.20704782009125 0.903913855552673 0.67947256565094 0.62315046787262 0.625941336154938 0.628870844841003 0.446034163236618 0.360753268003464 0.146097078919411 -0.0184927154332399 -0.0685379952192307 -0.180957034230232 -0.253428846597672 -0.447487384080887 -0.611164569854736 -0.784140408039093 0.323864758014679 2.21659708023071 2.11696577072144 1.87944602966309 2.15049481391907 2.68022227287292 1.80575478076935 1.33702850341797 1.42281174659729 1.91911566257477 1.58958888053894 1.20495367050171 1.06182444095612 1.19012308120728 1.42778551578522 2.07778978347778 2.41059470176697 2.61833500862122 2.09703636169434 1.3311140537262 1.72713208198547 1.34194982051849 1.38117241859436 1.76079118251801 1.96212017536163 2.26179838180542 2.75030827522278 4.28632116317749 5.28961658477783 5.65631484985352 6.24983549118042 6.75903606414795 7.09303665161133 6.82116889953613 8.11680603027344 12.8902044296265 21.6656627655029 22.5474529266357 19.3842144012451 22.5849323272705 14.5020017623901 12.6581125259399 10.2441720962524 7.92213201522827 5.52269887924194 4.24288415908813 2.50934290885925 1.84323489665985 1.88171339035034 2.34191703796387 2.15646314620972 2.08795475959778 1.95744800567627 1.74466156959534 1.50953924655914 1.45930957794189 1.43031823635101 1.50129425525665 1.38031208515167 1.26767301559448 1.05157947540283 0.837420105934143 0.339713454246521 -0.14277420938015 3.84730100631714 6.82973718643188 2.27347588539124 2.71298599243164 3.67349576950073 3.24631953239441 3.63719701766968 4.19584512710571 3.89984512329102 3.41198110580444 5.52243900299072 11.3584928512573 11.2632150650024 6.18085813522339 4.79120635986328 3.09542012214661 6.36890172958374 14.8423986434937 12.7316255569458 22.2958526611328 19.0117092132568 15.3828620910645 11.5966749191284 7.74648952484131 5.4528021812439 5.35027980804443 3.35561299324036 2.0807089805603 2.79015517234802 0.754819750785828 0.357817351818085 0.425657749176025 -0.334594458341599 4.02061986923218 3.98326659202576 3.08928799629211 3.51165628433228 0.481135040521622 0.509298741817474 0.532075166702271 3.97455739974976 8.17679977416992 5.80473709106445 4.90035581588745 2.93505167961121 2.33803987503052 0.927172064781189 1.09478402137756 1.71799850463867 2.03004693984985 2.15317463874817 1.51004600524902 1.7182469367981 1.89459919929504 1.78254306316376 1.78186309337616 1.75951755046844 1.66352069377899 1.56834053993225 1.43258142471313 1.77338755130768 2.07779812812805
-0.632904648780823 -0.74737948179245 0.578280627727509 2.57064461708069 1.40616154670715 0.369878768920898 0.799880623817444 0.275182604789734 0.169268608093262 0.105351887643337 0.0501463077962399 -0.0197511706501245 0.000618441903498024 -0.0203414876013994 0.0210751984268427 0.0561573877930641 -0.0184811800718307 -0.242940440773964 -0.385369211435318 -0.470318377017975 -0.31265988945961 0.0507619939744473 0.4345623254776 0.905279576778412 1.18651366233826 1.55280125141144 1.58959722518921 1.80212497711182 1.7315970659256 1.57899796962738 1.31877517700195 0.916882276535034 0.890335023403168 0.79969447851181 0.82532125711441 0.745924413204193 0.605120003223419 0.385946184396744 0.21212013065815 0.0610265135765076 -0.144352942705154 -0.155134782195091 -0.347901880741119 -0.501364350318909 -0.601069986820221 -0.854155719280243 -0.0968659073114395 3.10749077796936 2.49415230751038 2.10998463630676 2.14252758026123 1.81187009811401 0.40577232837677 -0.248749047517776 0.045350831001997 0.938519239425659 1.67508566379547 1.95612668991089 1.86927914619446 2.61816430091858 2.26569414138794 2.69560170173645 3.12910985946655 2.47232890129089 1.84129214286804 1.0403733253479 0.88686203956604 1.15921652317047 1.99208104610443 2.23278737068176 2.27296733856201 2.64177250862122 2.82371759414673 4.06924629211426 5.80295133590698 6.80380201339722 7.178053855896 7.19466543197632 6.89016246795654 8.01595211029053 8.94504833221436 10.2769021987915 13.9337911605835 16.5969371795654 14.459641456604 17.6297512054443 18.4892845153809 12.7798862457275 10.6952476501465 7.24210500717163 5.26363897323608 4.98593330383301 2.36839747428894 2.11898350715637 2.25566673278809 2.5357391834259 2.48831582069397 2.1631236076355 1.89720690250397 1.7527984380722 1.59861922264099 1.5413144826889 1.55852806568146 1.61900103092194 1.50801253318787 1.42799961566925 1.19699203968048 0.858109712600708 0.650704979896545 0.36703434586525 1.28994226455688 5.64223146438599 1.81791293621063 3.8078715801239 5.08815050125122 5.25822687149048 5.12253904342651 6.10046434402466 3.88324594497681 0.740968942642212 1.86309719085693 5.67856454849243 5.3669695854187 2.27531290054321 2.97165775299072 4.22102785110474 7.1730170249939 9.02468490600586 6.94836854934692 14.4791488647461 20.0149345397949 16.7281436920166 9.30783557891846 5.70095109939575 5.37838888168335 5.30379009246826 2.47210597991943 1.32666957378387 1.40565502643585 1.51115250587463 1.89593517780304 1.20070910453796 -0.0568652264773846 0.0543633140623569 2.2223117351532 1.00966417789459 2.90770769119263 0.98497200012207 0.568214595317841 0.458787381649017 0.402779906988144 13.3471164703369 12.6546258926392 6.01857089996338 3.89018893241882 1.70629072189331 1.18960762023926 1.25253772735596 1.34936475753784 1.53195643424988 2.20799875259399 1.6471506357193 1.80517947673798 2.00492238998413 2.03569531440735 1.9717128276825 1.86174488067627 1.74006199836731 1.63020777702332 1.82278025150299 2.05586981773376 2.10283136367798
-0.699492335319519 -0.75895881652832 0.805391550064087 3.02329993247986 1.15935933589935 0.534393906593323 1.1304657459259 0.958333134651184 0.692556202411652 0.392367541790009 0.354266673326492 0.496368795633316 0.235731780529022 0.136382073163986 0.150450468063354 0.0796149745583534 -0.0037477056030184 -0.162611946463585 -0.330610305070877 -0.31878000497818 -0.0643832162022591 0.373421937227249 0.787086069583893 1.14692091941833 1.46699118614197 1.69690334796906 1.87133717536926 1.94390118122101 1.85993206501007 1.68194317817688 1.33995687961578 1.09560203552246 1.06532442569733 1.05460822582245 1.03467547893524 0.808227241039276 0.658819794654846 0.424435198307037 0.246032640337944 0.13648509979248 -0.0593555793166161 -0.297244757413864 -0.43948295712471 -0.584800958633423 -0.734124064445496 -0.891530394554138 1.01509296894073 2.66420245170593 2.50470113754272 0.94029039144516 -0.404135167598724 -0.467577934265137 -0.365781515836716 -0.0601391158998013 0.563659846782684 1.63472592830658 2.86219525337219 3.15894246101379 4.16137504577637 4.70831632614136 3.31812453269958 3.39496946334839 3.56625819206238 2.62368774414062 1.67746007442474 1.09625446796417 0.879523158073425 1.70977318286896 2.46862602233887 2.77114748954773 2.78849840164185 3.00265789031982 3.69149208068848 4.97183036804199 6.36988115310669 7.68555736541748 8.031813621521 7.00974321365356 7.83968305587769 11.1898803710938 11.1954946517944 12.6161956787109 15.1042919158936 13.7700796127319 14.0443849563599 15.5009164810181 16.5038509368896 13.7573575973511 9.36441993713379 6.49992227554321 5.07689666748047 4.19597911834717 2.51383662223816 2.59444952011108 2.78643012046814 2.65992569923401 2.5306990146637 2.24902653694153 1.96524977684021 1.74137949943542 1.67322158813477 1.67667508125305 1.71204781532288 1.57868266105652 1.4938485622406 1.766322016716 1.21038579940796 1.02561318874359 0.779211699962616 0.752631306648254 1.32099318504333 3.33744597434998 1.67816627025604 1.43205511569977 4.26074838638306 5.48973894119263 5.91689157485962 7.20773315429688 3.74254417419434 0.0870424881577492 -0.84204512834549 -0.735044062137604 1.47722411155701 1.16306304931641 5.6253137588501 11.2071704864502 10.1312274932861 9.1099271774292 5.58842134475708 8.71634006500244 12.824761390686 14.7562065124512 9.97245121002197 5.42947387695312 4.32470226287842 3.37735533714294 1.75482642650604 0.684225142002106 1.14825654029846 3.07685136795044 3.09739279747009 1.93885946273804 0.38250595331192 0.155323147773743 0.189040243625641 1.14121675491333 2.79493451118469 2.0613489151001 0.680784285068512 0.416198492050171 0.138630151748657 4.36411428451538 14.3097543716431 7.12279844284058 4.7901611328125 1.35883975028992 1.29431164264679 1.44607663154602 1.35530710220337 1.60527563095093 1.57959926128387 1.87610304355621 2.14330053329468 2.12148690223694 2.19761633872986 2.13628339767456 1.95416605472565 1.79297590255737 2.02686929702759 2.24156808853149 2.21822953224182 2.16932034492493
-0.727373659610748 -0.834858119487762 -0.548112511634827 2.06335806846619 0.655570507049561 1.38137400150299 1.77341735363007 1.72675371170044 0.901248633861542 0.62021267414093 0.541123032569885 0.6881103515625 0.43256339430809 0.220891952514648 0.174959629774094 0.0892886146903038 0.41264471411705 -0.102126888930798 -0.26028436422348 -0.108577370643616 0.331066161394119 0.781726956367493 1.16311478614807 1.39011895656586 1.80517411231995 1.85886132717133 2.0499746799469 2.05657362937927 1.95046091079712 1.66341650485992 1.28956937789917 1.35035336017609 1.26001298427582 1.29231142997742 1.09286677837372 0.920360028743744 0.625796914100647 0.459895431995392 0.333897233009338 0.135597452521324 0.0051314914599061 -0.265227645635605 -0.474297732114792 -0.679063498973846 -0.819875121116638 -0.83566153049469 0.32711985707283 2.20686078071594 2.19927954673767 -0.478483110666275 -0.585754334926605 -0.42641207575798 -0.269481748342514 0.153091967105865 1.17837834358215 2.68091726303101 3.95125269889832 4.0505166053772 4.91661405563354 5.03211736679077 4.43630695343018 5.34788131713867 5.21847295761108 3.39321613311768 1.704097032547 0.941929996013641 1.70964324474335 2.57483315467834 3.13999819755554 3.41630434989929 3.80778646469116 4.55932855606079 5.33105707168579 6.87031888961792 8.54687690734863 9.02204990386963 8.88070964813232 7.08044195175171 7.27224111557007 9.81029605865479 13.1752405166626 16.3242645263672 15.9352169036865 15.1846580505371 14.0776901245117 17.5921401977539 15.2096300125122 13.1824674606323 10.3152008056641 6.37996482849121 4.62578201293945 3.67713928222656 2.74574303627014 3.03550362586975 3.06127333641052 2.89128041267395 2.51285576820374 2.2023777961731 1.9092276096344 1.83832919597626 1.79638183116913 1.84567296504974 1.68469095230103 1.58494639396667 2.15721964836121 1.90649604797363 1.56015968322754 1.02845895290375 0.929420948028564 1.08312821388245 1.55501627922058 1.86451244354248 1.49776995182037 1.21148121356964 1.21513736248016 3.00115442276001 2.59091687202454 4.00662469863892 1.11195003986359 -0.685225784778595 -0.903488457202911 -1.16113042831421 -1.04457664489746 1.45955300331116 4.68836402893066 11.9061880111694 11.0269498825073 9.71816825866699 4.57844543457031 3.43172287940979 4.42685794830322 6.50626277923584 5.87144565582275 5.25603485107422 4.23968124389648 2.56099057197571 1.51640546321869 0.968547999858856 2.03477787971497 4.18023347854614 3.83168864250183 2.63832473754883 1.0362663269043 0.257817029953003 0.22987687587738 2.72080683708191 3.10321450233459 0.829660534858704 0.729619026184082 0.526117265224457 0.0505121536552906 0.0108611853793263 9.87216472625732 11.4661769866943 4.09314632415771 1.6740790605545 1.67390084266663 1.64242744445801 1.8515237569809 1.69279801845551 1.74524211883545 1.95334661006927 2.26169013977051 2.37922024726868 2.37114953994751 2.27824664115906 2.0874617099762 1.99701011180878 2.25698351860046 2.51391768455505 2.52288317680359 2.44256067276001
-0.714600145816803 -0.825087785720825 -0.795397520065308 0.526873528957367 0.919005751609802 2.11819195747375 2.4083423614502 2.13191390037537 1.27933371067047 1.05511891841888 1.21557867527008 0.741495311260223 0.787121117115021 0.317155808210373 0.175236240029335 0.0412774309515953 -0.0519197471439838 0.276587665081024 0.531367123126984 0.539451777935028 0.714316844940186 1.15199530124664 1.46586716175079 1.70546770095825 1.97430729866028 2.15111947059631 2.2085599899292 2.13360071182251 1.91564929485321 1.62819457054138 1.58424508571625 1.56020998954773 1.55726552009583 1.4643771648407 1.31183838844299 0.977421879768372 0.676175355911255 0.458093613386154 0.383004128932953 0.826236069202423 0.576083838939667 -0.131604298949242 -0.416504859924316 -0.707700133323669 -0.787783443927765 -1.04080724716187 -1.13971877098083 -1.15150845050812 -0.828269898891449 -0.491284430027008 -0.387618333101273 0.0107388626784086 0.7213374376297 1.00446021556854 3.03595972061157 4.13220500946045 2.7956280708313 1.61129188537598 1.55720663070679 3.61626577377319 3.69951033592224 3.5672926902771 4.42873954772949 3.19306063652039 1.93912065029144 1.85225880146027 3.33629679679871 4.02590560913086 4.21023893356323 4.09346580505371 3.89037418365479 6.54191398620605 9.06492519378662 8.969162940979 9.84489917755127 9.99817085266113 9.57355308532715 9.23569107055664 9.46987819671631 10.6274700164795 15.7959814071655 22.4033660888672 18.7626705169678 15.8775491714478 14.1031675338745 16.5937614440918 15.6091384887695 13.6157941818237 9.89301490783691 6.92277383804321 3.9723699092865 2.87504744529724 2.93221735954285 3.77517604827881 4.48611545562744 2.98248553276062 2.51206922531128 2.19877862930298 1.9649795293808 1.91642224788666 1.93642914295197 1.96889245510101 1.84369742870331 1.94625127315521 2.61137628555298 1.85938262939453 1.56344878673553 1.32021641731262 1.18935084342957 1.73120963573456 2.01345229148865 1.89559161663055 1.35249245166779 1.14728176593781 0.789407551288605 0.368270188570023 0.871843218803406 0.306739270687103 -0.436204254627228 -0.5374636054039 -0.881686627864838 -1.08660531044006 -1.15189409255981 2.24355840682983 0.760245978832245 4.33610963821411 9.11373901367188 8.31202125549316 4.97027397155762 4.24011850357056 5.0257420539856 5.64496946334839 5.64827394485474 4.66087341308594 3.72920250892639 2.00545310974121 1.13393759727478 2.27361726760864 4.98124647140503 4.93534326553345 4.7065806388855 4.2729926109314 1.17144346237183 0.309277594089508 0.252223819494247 2.70145416259766 5.12914133071899 0.799193620681763 0.773505032062531 0.44695833325386 0.151168540120125 -0.0274336319416761 3.75976872444153 10.9802265167236 6.59311485290527 1.92222189903259 1.9665242433548 1.86108016967773 2.16754198074341 2.02495312690735 2.13894891738892 2.39367771148682 2.70139265060425 2.60956358909607 2.49811029434204 2.42157936096191 2.35372400283813 2.540372133255 2.76501846313477 2.70926117897034 2.85899829864502 2.79745030403137
