NCOLS 175
NROWS 32
XLLCORNER 353792
YLLCORNER 6700064
CELLSIZE 16 
NODATA_value -3.4e+38 
0.299078494310379 0.369826406240463 0.441212922334671 0.98775988817215 0.98466283082962 2.05218601226807 2.63713717460632 2.76487231254578 3.22776651382446 2.55727076530457 4.15984201431274 3.59715390205383 3.70814371109009 2.54595065116882 3.24589896202087 3.80943846702576 3.63927507400513 4.29600811004639 3.60874152183533 3.69653534889221 4.21495246887207 4.019700050354 4.17396306991577 4.42641258239746 3.38171339035034 3.38777160644531 2.44652843475342 1.52308392524719 1.55383920669556 0.516356647014618 0.878740131855011 2.19879817962646 2.19002246856689 2.46921730041504 2.58211231231689 2.75340247154236 2.77523446083069 2.83697104454041 3.00301671028137 3.03998303413391 2.98256468772888 2.95508098602295 2.37396311759949 2.12811040878296 2.16483306884766 2.91512084007263 2.97094917297363 3.54392647743225 5.31852054595947 4.78069686889648 4.79083776473999 5.08827018737793 5.40764236450195 3.6595413684845 5.04556465148926 3.97006154060364 4.7334303855896 4.97973251342773 6.29788255691528 6.70634126663208 7.11203479766846 3.35347938537598 2.37011504173279 3.21644592285156 2.09402394294739 2.00641298294067 2.63007068634033 1.21835196018219 2.42926144599915 1.1922482252121 1.43583607673645 2.859614610672 3.04433393478394 5.66637802124023 1.80839848518372 14.9937305450439 19.0432834625244 21.6939888000488 1.09095072746277 1.43690645694733 2.32355666160583 3.98721742630005 5.0728120803833 6.17219877243042 7.05438947677612 6.25917148590088 6.25487470626831 6.68395233154297 7.30524921417236 12.6594829559326 9.03115940093994 27.2352542877197 9.22564220428467 7.23284721374512 3.35678100585938 7.91002368927002 2.76406383514404 3.36402630805969 8.17353057861328 2.91191816329956 5.21294260025024 7.32504940032959 3.49278116226196 3.2401978969574 11.503547668457 2.6914074420929 10.1868963241577 15.5550870895386 21.4025917053223 43.6084365844727 25.1078758239746 33.7294769287109 30.6577205657959 15.2279090881348 11.7932758331299 6.77104997634888 6.12492370605469 11.0168209075928 -0.573367357254028 -1.8906192779541 -2.08924150466919 -1.78035879135132 -1.72261440753937 -1.08126521110535 -0.682489037513733 -0.51637989282608 -0.196708768606186 0.335932701826096 0.626775801181793 1.37582755088806 6.54781675338745 6.10298442840576 26.7601337432861 1.79951989650726 3.39643049240112 4.66671228408813 0.184355244040489 -0.182001948356628 0.384272754192352 3.39688873291016 -0.542146146297455 -0.58326131105423 -1.14313495159149 -0.93995875120163 -0.638192594051361 -0.53877180814743 -1.22857320308685 -1.86608302593231 -2.43415927886963 -2.47246217727661 -1.91877198219299 -1.55781352519989 -0.341665744781494 0.0697694197297096 -1.78984105587006 0.0443888306617737 -0.479957520961761 -0.644356310367584 0.575716137886047 3.06095600128174 4.24170160293579 5.25669002532959 4.94058322906494 5.10565662384033 0.685845613479614 1.46652054786682 1.6263176202774 1.71403777599335 2.61209297180176 2.95174169540405 3.65740871429443 3.66134285926819 2.14407658576965 2.21130037307739 2.52106118202209
0.269453883171082 0.309318244457245 0.374196618795395 0.445582866668701 1.02260315418243 1.01954007148743 0.738194644451141 2.2499315738678 2.92912650108337 3.53719711303711 3.71359300613403 4.41369295120239 3.81793355941772 3.93225574493408 2.73288011550903 3.49179267883301 4.07372426986694 3.94302296638489 4.41450023651123 3.76024103164673 3.89291143417358 4.4523720741272 4.50915288925171 4.37905120849609 4.6007227897644 4.63214731216431 3.56337952613831 2.52657270431519 1.55095243453979 1.78426265716553 1.7809681892395 2.13345050811768 2.4545316696167 2.51274156570435 2.58177161216736 2.63774466514587 2.83901023864746 2.89226937294006 2.95334053039551 3.13186740875244 3.13389778137207 3.1047956943512 3.08452868461609 2.47723793983459 2.33406186103821 2.37043452262878 2.97619771957397 3.08578133583069 3.71326303482056 5.59762477874756 5.04389762878418 5.05330419540405 5.39803600311279 5.72967338562012 3.86704707145691 5.66540145874023 3.06680083274841 5.36724233627319 5.88877534866333 6.3747730255127 8.43050479888916 9.8587703704834 4.81858205795288 3.15294313430786 3.89231824874878 2.39018058776855 2.17995262145996 2.79496359825134 1.22483670711517 2.69882702827454 1.21567189693451 1.69447958469391 3.24621629714966 3.46916198730469 6.52238798141479 3.17638373374939 26.2045478820801 1.95142996311188 0.436428666114807 2.40372943878174 5.8745436668396 5.83599424362183 9.71204090118408 7.48790407180786 13.8757295608521 9.4369649887085 6.71125745773315 6.6604323387146 8.83071231842041 7.69065713882446 7.3936185836792 22.803316116333 7.09671449661255 11.2838697433472 7.43490219116211 20.6492462158203 5.27642488479614 6.78082895278931 4.42744493484497 4.14631223678589 3.630038022995 8.79132652282715 13.1877269744873 3.21503090858459 3.674800157547 2.02003526687622 4.63825082778931 19.2759189605713 17.2362003326416 23.8762798309326 9.27653789520264 38.2714385986328 23.1968688964844 15.0429677963257 18.9669532775879 -2.08790946006775 7.44496536254883 6.6641674041748 6.09186458587646 4.91312646865845 2.44132375717163 -0.902691304683685 -1.11816847324371 -0.828203022480011 -0.684178829193115 -0.0298719424754381 -0.0630185306072235 0.212602570652962 1.45299124717712 1.80248558521271 2.39562177658081 7.68128824234009 23.1271953582764 7.60472249984741 1.16226768493652 0.84947657585144 1.06200277805328 0.208762213587761 0.0927943736314774 0.67671275138855 -0.493309140205383 -0.454180657863617 -0.214790731668472 -0.514030337333679 -0.60843425989151 -0.259168386459351 -0.532237410545349 -1.59847140312195 -1.43528735637665 -1.36636698246002 0.792480647563934 0.147786304354668 1.91734516620636 -0.226848617196083 6.46689796447754 -0.504536271095276 0.239818766713142 -0.106692552566528 -0.4473537504673 1.07513892650604 3.71923613548279 4.95318603515625 6.05783462524414 5.79135656356812 6.01719188690186 0.970563292503357 1.79338610172272 1.88949882984161 2.01248908042908 3.03362464904785 3.58385467529297 4.6625509262085 4.76418447494507 3.11953783035278 2.48429679870605
0.369435906410217 0.274248659610748 0.30705538392067 0.393959581851959 0.472660660743713 1.07559621334076 1.08118176460266 0.813085377216339 2.42323040962219 3.11869668960571 3.79012608528137 3.9708890914917 4.6885142326355 4.09226226806641 4.24459838867188 2.96573901176453 3.75908160209656 4.40625667572021 4.10016202926636 4.59641647338867 3.94081521034241 4.10003757476807 4.1591477394104 4.7425742149353 4.43790721893311 4.60462999343872 4.85635900497437 3.73874807357788 2.71935296058655 2.14254522323608 2.31246376037598 2.01584982872009 2.30592608451843 2.54490685462952 2.6143856048584 2.65026354789734 2.84691905975342 3.00806713104248 3.00608587265015 3.09039711952209 3.22317743301392 3.26252698898315 3.21910643577576 3.17178893089294 2.53784275054932 2.38818621635437 2.44360065460205 2.55634450912476 3.25242757797241 3.92368674278259 5.90041589736938 5.2998480796814 5.3104305267334 5.71771812438965 6.08739614486694 4.09384346008301 6.53150463104248 4.76713752746582 7.16446018218994 7.81767988204956 7.97458791732788 11.347996711731 15.0453805923462 6.53910636901855 4.01994705200195 4.54987049102783 2.64677023887634 2.33506107330322 2.99717545509338 1.37736463546753 3.04580593109131 1.69565045833588 2.23769044876099 3.61618089675903 3.93505382537842 7.58198213577271 7.91159248352051 1.77505040168762 2.70551609992981 5.74170207977295 4.17077541351318 6.91619396209717 10.1230344772339 11.5055713653564 15.8851108551025 5.60959434509277 9.79677104949951 7.03526544570923 10.8282604217529 7.80163526535034 8.01634693145752 13.6310520172119 9.1427755355835 8.06690311431885 14.8329086303711 13.2731027603149 5.18331670761108 9.39636611938477 8.41187191009521 6.38856840133667 3.13928771018982 4.03327989578247 2.62449049949646 2.76016545295715 4.25368547439575 4.6127552986145 4.2364387512207 8.05511379241943 31.1637783050537 36.3198318481445 3.11420345306396 26.18332862854 9.7161226272583 8.71600341796875 -2.82145309448242 -2.24996542930603 -0.473392903804779 10.0983848571777 8.31971263885498 15.0602407455444 1.26878333091736 0.00254371273331344 0.220653802156448 0.573502719402313 -0.0118731940165162 -0.443452149629593 0.431558787822723 0.499924451112747 12.6049346923828 13.4436531066895 2.55264091491699 2.55128741264343 12.6626663208008 20.9153270721436 10.9833059310913 1.40759479999542 0.99787175655365 1.18292033672333 0.626013875007629 0.479097843170166 1.07929086685181 -0.00231016520410776 0.151280805468559 0.274257063865662 -0.201149791479111 -0.25762265920639 -0.164991468191147 -0.123139500617981 -0.407443940639496 0.319218844175339 1.24123096466064 1.31121432781219 0.399095177650452 9.69280052185059 0.069796659052372 -0.249142602086067 -0.0474366173148155 0.82463800907135 1.16052675247192 1.0819798707962 1.51560378074646 4.37515544891357 5.73267221450806 6.96375846862793 6.75021743774414 7.08104705810547 1.36238300800323 1.36991560459137 2.211256980896 2.37280464172363 3.67550468444824 4.58693981170654 6.08312034606934 6.25494337081909 4.29843378067017
0.367851823568344 0.98029899597168 0.522923171520233 0.337074220180511 0.422574192285538 0.534306943416595 1.166827917099 1.15933310985565 0.884054899215698 2.62479090690613 3.38532996177673 4.06040382385254 4.23611640930176 5.02921056747437 4.4242696762085 4.56867837905884 3.20043635368347 4.06825923919678 4.67824363708496 4.22478437423706 4.81403684616089 4.131920337677 3.88371443748474 4.38024044036865 5.01173162460327 4.63767766952515 4.82245826721191 5.1350359916687 4.00304794311523 2.98996233940125 2.21389317512512 2.38329195976257 2.67672991752625 2.75248289108276 2.64979791641235 2.78775453567505 2.82869625091553 2.9685161113739 3.13625931739807 3.12576055526733 3.21313858032227 3.3581178188324 3.36517405509949 3.32248306274414 3.2906129360199 2.65300536155701 2.6899995803833 2.53363966941833 2.68144845962524 3.38586974143982 4.09550905227661 6.20505666732788 5.59437274932861 5.60425090789795 6.03945112228394 6.49695587158203 6.70028018951416 7.70318651199341 8.37635326385498 10.5474977493286 11.721263885498 10.6139869689941 16.3566780090332 27.2727222442627 9.59835052490234 5.37902402877808 5.33579778671265 5.52751016616821 2.50442671775818 3.52975869178772 1.64058458805084 3.65437793731689 2.40440583229065 2.79520606994629 4.01992273330688 4.5312032699585 4.79638576507568 9.29775810241699 5.57601165771484 4.42274379730225 7.02931642532349 3.2066068649292 9.25722312927246 13.2342357635498 22.2081241607666 8.96921157836914 5.30673980712891 5.70039558410645 7.33268880844116 7.55373382568359 7.89641284942627 9.00059127807617 8.37852382659912 12.5223236083984 11.4579067230225 23.1334571838379 10.0669574737549 7.95146322250366 5.00313520431519 11.159686088562 11.4046516418457 4.44391012191772 4.51794910430908 5.23523187637329 7.65997409820557 8.711501121521 7.29415845870972 16.15260887146 14.5625495910645 1.59789431095123 0.561314761638641 4.75341320037842 3.55477333068848 -3.00283145904541 -2.99319243431091 -2.32755732536316 -1.25318419933319 0.169524893164635 11.1805658340454 7.75272560119629 -0.298463970422745 0.771177530288696 0.76040780544281 0.470581978559494 0.939116537570953 0.679009258747101 0.418565273284912 1.03597664833069 0.868877708911896 45.5592956542969 27.3951644897461 2.72996068000793 2.72504472732544 25.9994068145752 4.28002119064331 1.57593524456024 5.58147954940796 1.35076868534088 1.88894128799438 1.10838651657104 0.528837740421295 3.05365085601807 0.261932075023651 0.365874171257019 0.616251289844513 -0.0291181039065123 0.240794628858566 0.36226549744606 1.66022408008575 1.4320273399353 3.1855034828186 2.11071228981018 1.68551754951477 0.834368467330933 -0.681515395641327 0.494850277900696 0.847397804260254 0.659522712230682 0.981329262256622 1.29481995105743 1.20040810108185 1.94420349597931 5.12553071975708 6.78831148147583 8.03677940368652 7.92305040359497 8.33578205108643 1.7505007982254 1.76470363140106 2.58017182350159 2.84364438056946 4.52229404449463 5.95088291168213 7.95576429367065 9.28318214416504
0.224835470318794 0.566569805145264 0.263600260019302 0.293949633836746 0.345924377441406 0.507967412471771 0.622434556484222 1.24160838127136 1.30905103683472 1.37465882301331 2.88297510147095 3.65246367454529 4.34476613998413 4.55284690856934 5.39913415908813 4.76302528381348 4.91852760314941 3.45374989509583 4.38584804534912 4.82226800918579 4.39356279373169 5.0547308921814 4.34116125106812 4.40003347396851 4.59408283233643 5.2955117225647 4.84343576431274 5.11069393157959 5.51023578643799 4.36023998260498 3.36619806289673 2.92764568328857 2.94139385223389 3.0505576133728 2.85896873474121 2.75237965583801 2.90090036392212 2.86506319046021 3.09463739395142 3.2569146156311 3.23245120048523 3.33304071426392 3.48179602622986 3.48471331596375 3.45562410354614 3.55233573913574 3.50124263763428 2.80685806274414 2.59471297264099 2.79768943786621 3.54859113693237 4.32213592529297 6.5524525642395 5.93396902084351 5.95073890686035 6.43501758575439 6.66023826599121 7.2377552986145 4.88777828216553 10.2322378158569 19.4530982971191 21.1330070495605 14.937084197998 19.7538967132568 1.20812094211578 18.3063373565674 7.92070770263672 5.34526395797729 6.67558240890503 2.92490839958191 4.47377872467041 5.35792112350464 4.18539953231812 3.01492142677307 3.40798711776733 4.40585947036743 4.14017534255981 5.10823774337769 11.1922130584717 5.96609830856323 14.3625240325928 23.7542419433594 4.79907703399658 15.2101068496704 11.6884317398071 2.89010047912598 3.63147687911987 5.33610534667969 6.4175329208374 8.0014181137085 9.53144931793213 9.95735836029053 11.5925331115723 12.9331121444702 13.7995071411133 14.4608974456787 22.2740058898926 14.2066507339478 13.8436517715454 17.765718460083 14.3809385299683 16.4852027893066 19.9172325134277 9.96987724304199 12.096549987793 10.1674919128418 14.0779962539673 9.92783451080322 4.45526075363159 4.6155481338501 5.18967151641846 1.01121842861176 -0.827958643436432 -2.85414433479309 -2.11574530601501 4.35835599899292 0.205176696181297 -0.0392184853553772 2.21708059310913 0.0834040343761444 0.536317586898804 1.32591140270233 2.25299954414368 1.66988325119019 14.0824642181396 10.9003229141235 9.11714458465576 0.9711993932724 41.5716705322266 40.6676635742188 1.07334733009338 1.88481616973877 2.90310645103455 2.88189172744751 2.41104745864868 1.84249126911163 1.68993759155273 1.59234166145325 1.67974352836609 2.03389024734497 1.19287157058716 0.876500487327576 7.6215615272522 0.397129654884338 0.505089282989502 1.35834431648254 1.03181350231171 1.38941335678101 2.56889533996582 2.914555311203 3.34367561340332 2.13020038604736 2.49253845214844 1.95577311515808 1.20281255245209 0.961445093154907 1.2286810874939 1.20935833454132 0.818067312240601 1.11027002334595 1.42228865623474 1.32533264160156 2.53540778160095 6.1291561126709 8.12934112548828 9.41583824157715 9.43684005737305 9.9345874786377 2.21236395835876 2.18971562385559 3.02281045913696 3.57147741317749 5.53460884094238 7.5879111289978 8.73208427429199
1.77022767066956 0.262273818254471 0.269065588712692 0.30729666352272 0.362668067216873 0.462038397789001 0.682584047317505 0.710702359676361 0.731329083442688 1.41900074481964 1.4716112613678 3.13061428070068 3.92784142494202 4.6662278175354 4.88600778579712 5.79561233520508 5.72622299194336 5.3834114074707 5.59967231750488 4.53952836990356 5.0232367515564 4.58633899688721 5.31424903869629 5.4156813621521 4.61060667037964 4.84689950942993 5.59714412689209 5.13698148727417 5.51702260971069 6.00229692459106 4.81105089187622 3.79335737228394 3.28588938713074 3.07324934005737 3.1522171497345 2.96958231925964 2.88169956207275 2.97100758552551 3.02122807502747 3.21615433692932 3.37856030464172 3.48356699943542 3.48520135879517 3.61561822891235 3.61353635787964 3.68902897834778 3.67369604110718 3.64345526695251 2.93110489845276 2.68232083320618 2.95130968093872 3.72230863571167 4.5662145614624 6.96067428588867 6.32758235931396 6.57893037796021 6.61280345916748 7.16490125656128 7.69522953033447 5.11852216720581 12.8391218185425 2.0865375995636 5.48832416534424 24.4565238952637 2.22646403312683 1.63085901737213 2.08310341835022 14.8715648651123 6.75665760040283 8.82104587554932 3.58980274200439 4.40728902816772 6.73046731948853 4.62017154693604 3.55835247039795 4.16342687606812 4.70441627502441 3.98107981681824 5.72274732589722 15.2141981124878 6.72075939178467 27.741512298584 3.36851692199707 9.11063671112061 10.3138570785522 0.809938549995422 3.47392201423645 4.4993052482605 8.47769927978516 6.98453044891357 9.37220668792725 10.3804321289062 12.7600603103638 15.4537324905396 13.2974195480347 16.4534282684326 34.3205413818359 12.2584648132324 15.3859491348267 14.4522886276245 8.41770267486572 30.6944808959961 3.1118311882019 32.6925659179688 13.1194171905518 16.4357261657715 10.2782354354858 17.5960750579834 12.3946132659912 12.4352941513062 5.73151540756226 6.80802297592163 5.41098213195801 0.311431705951691 0.070714108645916 -1.22154712677002 -1.422003865242 -0.380962044000626 1.06557834148407 6.59373235702515 0.295883357524872 1.5919052362442 2.72352194786072 2.66564226150513 2.48641228675842 19.4977378845215 1.08767139911652 1.08463132381439 40.6430892944336 1.12624549865723 0.919105172157288 1.50856101512909 5.2646107673645 3.09719109535217 3.08397150039673 2.44923233985901 2.01643896102905 2.07482242584229 1.98573672771454 2.02907109260559 2.32316327095032 1.21846568584442 1.00695335865021 1.18571066856384 0.801015496253967 1.35579514503479 2.56013774871826 5.44595003128052 10.3986015319824 3.38235998153687 13.5627889633179 3.6975405216217 3.21274089813232 2.93431949615479 2.50928640365601 1.58462989330292 1.49913620948792 1.73766350746155 1.5827716588974 0.968985438346863 1.49360477924347 1.60006141662598 1.49790966510773 3.39952921867371 7.45141220092773 9.81315898895264 11.5019874572754 12.7910251617432 12.7337017059326 13.2095012664795 2.71257019042969 3.44330143928528 4.34304571151733 6.64106321334839 7.62329435348511
1.8501170873642 1.85218155384064 0.28772908449173 0.321725219488144 0.403217643499374 0.475717902183533 0.52714991569519 0.610398292541504 0.639668107032776 0.769950032234192 1.57548594474792 1.67713594436646 3.36564326286316 4.20406723022461 5.00202369689941 5.25081443786621 6.24114847183228 6.5047345161438 5.87388610839844 5.91913461685181 4.74714517593384 5.2737250328064 4.84874582290649 4.68198394775391 5.72086763381958 4.86420679092407 5.16199445724487 6.05278396606445 5.50735712051392 6.02435111999512 6.58157205581665 5.35095071792603 4.35340881347656 3.53145432472229 3.17539739608765 3.27795505523682 3.08293676376343 2.96977567672729 3.11351799964905 3.19353294372559 3.34010601043701 3.44961524009705 3.61386847496033 3.60327386856079 3.74796986579895 3.83747243881226 3.87296295166016 3.85382437705994 3.81871604919434 3.0731508731842 2.79281306266785 3.14471530914307 3.94429135322571 4.85453271865845 7.45629453659058 7.72507572174072 7.02087020874023 6.93311834335327 7.52784204483032 8.17837238311768 6.31408214569092 17.7389659881592 2.88663554191589 5.80300807952881 0.699196875095367 3.89897108078003 12.3555278778076 4.01760864257812 2.8387668132782 10.0207624435425 12.9975957870483 4.26592636108398 5.32973480224609 8.70330142974854 5.12879705429077 4.25955057144165 4.93483877182007 5.31530570983887 4.90866613388062 6.91976833343506 27.2758026123047 14.850284576416 2.01700186729431 7.84841918945312 13.6699285507202 1.57259464263916 8.7494535446167 3.61344146728516 7.26952791213989 6.63531017303467 7.69448471069336 10.1595315933228 17.0449905395508 13.3772258758545 15.5088396072388 21.5822601318359 30.5486717224121 17.1759281158447 21.573356628418 14.9515838623047 12.8480024337769 7.75098133087158 2.56020379066467 10.3055067062378 2.96254014968872 20.0328178405762 26.2460556030273 12.0561780929565 22.4971733093262 17.6256713867188 7.38797044754028 6.06920576095581 8.79793453216553 9.31491565704346 8.45625019073486 5.50330638885498 4.40764999389648 5.37657737731934 0.747727155685425 12.7800302505493 1.72886896133423 1.85146832466125 2.64207077026367 2.87393856048584 2.77585601806641 2.56591463088989 1.57231056690216 1.27612209320068 1.54693341255188 0.990582823753357 1.45732843875885 1.67435169219971 2.24197888374329 13.367208480835 3.35686826705933 3.16497802734375 3.20602416992188 3.38086628913879 2.65638494491577 2.47465062141418 2.41914772987366 2.72314548492432 2.10477232933044 1.71880912780762 3.85048651695251 7.55540084838867 7.73792552947998 2.68216872215271 24.055492401123 17.3347415924072 3.73465847969055 3.23028635978699 4.14088296890259 3.72529482841492 3.42666244506836 3.01054763793945 2.03174829483032 2.09844636917114 2.32914304733276 2.03192067146301 2.15132403373718 2.20002198219299 2.22179865837097 1.7288658618927 4.63394403457642 9.10791873931885 11.955397605896 13.2415742874146 16.1594772338867 15.9526739120483 16.5864162445068 3.61135244369507 3.86386704444885 5.2984824180603 8.17984962463379
2.36888575553894 1.95890080928802 1.95512235164642 0.377629041671753 0.432655394077301 0.502316772937775 0.552309155464172 0.538571834564209 0.607361793518066 0.732119381427765 0.959781229496002 1.76027798652649 1.82292985916138 3.58875322341919 4.47550821304321 5.34603404998779 5.64372730255127 5.87538528442383 7.04661321640015 6.3279128074646 6.27172708511353 4.1539945602417 5.56525802612305 5.65142869949341 5.13783931732178 6.0734167098999 5.17350387573242 5.531005859375 6.56097650527954 6.04697227478027 6.66659259796143 7.30092334747314 6.01260852813721 5.11628866195679 5.79482793807983 3.29059338569641 3.3960018157959 3.20813131332397 3.11689066886902 3.18965005874634 3.27697920799255 3.41491556167603 3.56121444702148 3.74600410461426 3.7249813079834 3.82309174537659 3.92002940177917 3.98634719848633 3.9923152923584 3.96927690505981 3.20573997497559 2.88638019561768 3.34164261817932 4.19064807891846 5.18984651565552 5.62464046478271 8.09107685089111 7.37462329864502 7.366379737854 8.05749988555908 8.50117778778076 5.35867023468018 17.9529113769531 3.13719511032104 20.5710678100586 15.2643508911133 5.9958176612854 7.45571136474609 4.52148580551147 2.20991706848145 18.8868141174316 22.660026550293 4.92431640625 8.01337146759033 12.7505865097046 5.67537593841553 5.47272109985352 5.29205322265625 2.83255362510681 5.11422204971313 12.1774988174438 1.41480958461761 2.0164692401886 8.26617050170898 14.0041275024414 5.26578187942505 7.24977254867554 2.55261921882629 3.74739575386047 5.20974254608154 7.11937427520752 8.60682582855225 11.7134237289429 11.9527187347412 15.1363229751587 30.2274742126465 22.7714519500732 15.6934728622437 15.7741832733154 7.6574912071228 16.6881713867188 17.5666809082031 12.2890653610229 4.17217254638672 12.1751251220703 11.5487213134766 4.87492370605469 4.7538013458252 19.296215057373 27.7493877410889 13.0847129821777 4.59536409378052 7.68406629562378 8.78566360473633 10.1624202728271 9.01553153991699 3.89807224273682 6.26435518264771 3.48174285888672 5.55995082855225 6.33614349365234 1.74394953250885 2.69266128540039 3.03280282020569 3.00003528594971 2.92263197898865 4.94424533843994 1.72255825996399 2.48566246032715 2.02650046348572 2.04465818405151 1.81726562976837 1.86352372169495 2.66396927833557 2.95853686332703 3.7326807975769 3.78187108039856 3.51749706268311 4.16635990142822 3.66500401496887 3.01595616340637 3.40167903900146 3.85633945465088 3.58945369720459 4.04589319229126 3.55022025108337 11.4482545852661 13.3599252700806 3.7401978969574 43.6492691040039 33.451343536377 3.88253879547119 4.53451824188232 4.66595935821533 4.28192901611328 3.94073557853699 3.51120567321777 2.51099181175232 2.82004332542419 3.05280733108521 2.46906232833862 2.76925873756409 3.18768715858459 3.20292210578918 2.68012928962708 6.0330376625061 10.9718360900879 13.116265296936 16.5179958343506 21.1742038726807 20.9967594146729 21.7425136566162 4.51666212081909 4.45877981185913 5.3778715133667
2.94493842124939 2.47466397285461 2.04902720451355 2.09474039077759 0.463580548763275 0.543206989765167 0.608742117881775 0.640410363674164 0.696837902069092 0.776554524898529 0.926209211349487 1.07594287395477 1.92681658267975 1.91073799133301 3.92163109779358 4.8289966583252 5.70901107788086 5.9649715423584 6.3686318397522 7.63157510757446 6.70991086959839 6.72636413574219 4.39795112609863 5.41409301757812 5.97635316848755 5.42824172973633 6.49747467041016 5.49416780471802 5.96026182174683 7.33766508102417 6.80268430709839 7.48736906051636 8.23708724975586 6.9056453704834 5.16437244415283 7.33831405639648 3.41215515136719 3.52131509780884 3.31754946708679 3.20660853385925 3.32349944114685 3.21938562393188 3.5669207572937 3.70978879928589 3.88600826263428 3.85942578315735 3.97225618362427 4.04123544692993 4.10178279876709 4.10467481613159 4.07800006866455 3.28069305419922 2.9344630241394 3.45268058776855 4.30766153335571 4.40246534347534 5.55568838119507 8.63492965698242 7.87061595916748 7.79837083816528 8.5495777130127 9.15575981140137 6.20739364624023 1.21989870071411 7.78100061416626 1.49976289272308 1.91145575046539 12.9052324295044 25.1353816986084 4.92116260528564 19.4845676422119 1.86664974689484 -0.118114367127419 5.50477075576782 12.0198745727539 20.9641647338867 6.11657333374023 5.99699687957764 2.51454329490662 2.32960224151611 6.7130274772644 2.25583457946777 2.70334315299988 5.96939325332642 11.2607707977295 19.0106964111328 2.76597094535828 2.88348078727722 3.04761958122253 3.79472398757935 5.29135179519653 8.50924491882324 10.4973134994507 12.4720087051392 14.9035148620605 17.0386714935303 20.6490535736084 16.3088054656982 12.1650943756104 10.072922706604 7.56062316894531 27.0348701477051 13.3902940750122 8.14476203918457 6.97183895111084 2.14740514755249 4.77624464035034 5.03639507293701 18.5495223999023 10.7362804412842 2.92850565910339 5.11329364776611 21.3540058135986 8.23508167266846 9.43700122833252 16.359489440918 16.7190170288086 15.251615524292 6.45450735092163 10.2075862884521 6.65155792236328 19.0313377380371 2.54874134063721 2.85780549049377 3.23488187789917 3.23496603965759 3.17228221893311 2.65767025947571 2.93416094779968 3.30560493469238 5.48456859588623 14.4763708114624 2.72455787658691 2.91199851036072 3.94982242584229 4.1446681022644 4.17428112030029 4.25986385345459 4.34427452087402 4.5981273651123 4.74857568740845 4.48497676849365 16.2611846923828 3.94250392913818 5.57415056228638 4.45625305175781 8.02697563171387 19.4957485198975 29.0602951049805 4.07023334503174 1.86748111248016 1.79766869544983 4.55966138839722 5.04014205932617 5.18189668655396 4.8334846496582 4.4653058052063 4.04141139984131 3.14322566986084 3.60853910446167 3.86314296722412 3.09751057624817 3.36659574508667 4.07891798019409 4.13149213790894 3.39611172676086 4.2104229927063 8.32467460632324 15.0436182022095 21.6018352508545 30.1157646179199 29.7659072875977 30.3203258514404 5.28200054168701 5.23619747161865
2.91278696060181 3.10173296928406 2.57457852363586 2.20360684394836 2.30989551544189 0.602821052074432 0.672680974006653 0.745541274547577 0.80526065826416 0.828058660030365 0.861946702003479 0.9789097905159 1.20630073547363 2.1061544418335 2.1746609210968 4.26527118682861 5.19598770141602 5.33012294769287 6.44956207275391 6.87954711914062 8.1199779510498 7.23986005783081 7.24963808059692 4.6641263961792 5.7687349319458 6.36242818832397 5.77275037765503 6.95368051528931 5.88193273544312 6.64438152313232 8.39929294586182 7.76600122451782 8.57595062255859 9.44208717346191 8.14052200317383 9.1503381729126 9.84208679199219 3.53209829330444 3.63626742362976 3.4144229888916 3.31920433044434 3.40612435340881 3.36094975471497 3.6964373588562 3.83392524719238 4.05614995956421 4.02691602706909 4.12465620040894 4.18199920654297 4.24165534973145 4.24674654006958 4.19936800003052 3.35797524452209 3.05014824867249 3.23470973968506 4.46539497375488 4.5747127532959 5.80720281600952 9.15212249755859 8.34802627563477 8.2347526550293 9.11909103393555 10.2319087982178 7.01385021209717 7.72647285461426 11.6156539916992 2.00903797149658 3.13409471511841 24.3391513824463 1.79256200790405 3.79529857635498 3.25566601753235 3.93418097496033 2.7885684967041 7.23316478729248 2.89634466171265 1.81189799308777 3.80952835083008 6.38701868057251 2.73779487609863 2.44131231307983 8.08231830596924 2.80998754501343 3.8365273475647 3.51636505126953 18.5994358062744 3.09464693069458 3.3235034942627 4.51828765869141 10.6023855209351 4.56876468658447 6.1288595199585 9.83207607269287 12.1875905990601 13.7070350646973 16.3303413391113 16.8640727996826 9.02900791168213 10.3441228866577 9.00502490997314 5.93046760559082 4.73527240753174 1.23664081096649 19.947473526001 18.1304302215576 0.132920295000076 6.02084112167358 5.70819234848022 8.80204010009766 5.96740341186523 21.0111198425293 3.92284440994263 6.18352127075195 6.87101221084595 10.9666986465454 18.6086559295654 21.0801887512207 12.7546358108521 23.8474521636963 2.37411308288574 26.5728397369385 8.80922317504883 1.54231345653534 3.12995290756226 3.1217086315155 3.49688649177551 3.54405307769775 3.49333953857422 3.3370566368103 3.22498512268066 3.63547897338867 2.39171886444092 2.28026366233826 3.92925882339478 3.71342396736145 4.32578754425049 4.60731935501099 4.90129089355469 4.88790225982666 5.31462430953979 5.38209962844849 6.19552230834961 5.48172283172607 4.17865371704102 4.74020195007324 5.94177055358887 4.90693283081055 20.7353591918945 37.546558380127 2.32613039016724 4.00668573379517 3.44885635375977 3.11026430130005 5.06644630432129 5.58905792236328 5.73092937469482 5.4163498878479 4.99954700469971 4.55753469467163 4.01708936691284 4.45662927627563 4.59355068206787 3.54933977127075 3.7782609462738 4.77999353408813 4.8177924156189 5.17043399810791 4.55116128921509 11.0393648147583 19.66015625 36.7005767822266 48.483226776123 46.9728546142578 47.1727409362793 5.71445989608765
2.87733483314514 3.06545925140381 3.23912739753723 2.73558115959167 2.42058300971985 2.58334159851074 0.723081350326538 0.79286515712738 0.852615714073181 0.878577768802643 0.872356474399567 0.944583296775818 1.15828919410706 1.37198507785797 2.29990839958191 2.32493829727173 2.02611017227173 4.75527667999268 5.82894611358643 6.86579370498657 7.32723140716553 8.7884693145752 7.88020849227905 7.86667633056641 4.97498512268066 6.1951003074646 6.81407690048218 6.16199970245361 7.54207801818848 6.47885417938232 7.60278749465942 9.80089473724365 10.6626329421997 10.0697164535522 11.1046829223633 12.3409252166748 11.3830251693726 14.4586734771729 3.64218401908875 3.75010967254639 3.50091648101807 3.37061548233032 3.50458478927612 3.63056349754333 3.82197093963623 3.98180460929871 4.18061399459839 4.11490106582642 4.24275732040405 4.29819345474243 4.36292171478271 4.36435413360596 4.32671403884888 3.41666412353516 3.46260476112366 3.67042922973633 4.37240695953369 4.66711664199829 6.03793478012085 9.71016883850098 8.90009117126465 8.86331462860107 10.79465675354 11.5402669906616 8.07039928436279 11.4545602798462 22.5589065551758 3.90820288658142 2.68597340583801 3.9920392036438 5.83634376525879 4.0850944519043 5.88847064971924 4.30220556259155 4.3715934753418 14.0905847549438 2.12500929832458 4.63804149627686 3.37154221534729 8.14873600006104 3.0405445098877 5.34306192398071 16.5624198913574 3.78780221939087 3.78169441223145 11.8084859848022 3.48252725601196 3.45995354652405 3.83302998542786 4.81690454483032 3.62782597541809 5.32913303375244 7.98195457458496 12.52805519104 11.5878276824951 27.218599319458 16.756778717041 20.4644832611084 9.71035289764404 10.4854946136475 12.6064233779907 12.9634981155396 10.083477973938 -1.09353315830231 -1.00803422927856 -0.434362918138504 0.734708905220032 4.04619169235229 6.32273006439209 15.2584772109985 7.3897180557251 3.96049380302429 5.63251876831055 8.7901086807251 14.6213836669922 13.747428894043 27.1192207336426 21.3561153411865 10.1428785324097 1.26928603649139 1.41040873527527 1.78479599952698 2.01140379905701 1.96348869800568 3.48079466819763 3.42729806900024 3.79930233955383 3.8992292881012 3.83807253837585 3.70310640335083 3.59512209892273 4.05112409591675 3.92485642433167 3.79972982406616 4.35272979736328 4.5578351020813 4.77633428573608 5.07456970214844 5.41963672637939 5.37680196762085 5.73312759399414 5.85827779769897 6.6773624420166 5.75748729705811 5.14586591720581 8.64815616607666 6.44219589233398 5.36100721359253 3.38034272193909 3.29063177108765 3.90510654449463 4.43300771713257 5.29816961288452 4.56253862380981 5.64315700531006 6.17010927200317 6.31251049041748 6.03531885147095 5.58885288238525 5.81616640090942 5.47017335891724 5.18237781524658 5.22846508026123 3.92681694030762 4.06160116195679 5.41348600387573 5.84312772750854 6.35521173477173 5.99980640411377 16.1435871124268 28.9092102050781 23.2044410705566 8.77009105682373 7.38690662384033 -0.0443059280514717
2.47304368019104 3.04733943939209 3.23262453079224 3.42190003395081 2.98798084259033 2.72107291221619 2.85141539573669 0.841160714626312 0.904484510421753 0.944367051124573 0.922573447227478 0.947987377643585 1.06360113620758 1.29183304309845 1.50571644306183 2.47448253631592 2.49255800247192 2.25883936882019 5.18745899200439 6.18050813674927 7.35187578201294 7.89672374725342 9.57534503936768 8.6162633895874 8.58629989624023 5.33621311187744 6.7029767036438 7.34580898284912 6.64717817306519 8.32908821105957 7.28206205368042 8.84488010406494 9.56616020202637 13.1912403106689 12.336859703064 14.0345096588135 15.1698045730591 14.8318033218384 27.0326042175293 3.75836944580078 3.89429879188538 3.63962244987488 3.49025011062622 3.73839831352234 3.72225165367126 3.89547634124756 4.09444713592529 4.34946203231812 4.29090261459351 4.4025354385376 4.41757345199585 4.48128747940063 4.48042631149292 4.41965103149414 3.43455719947815 3.13469743728638 3.08495378494263 3.7114052772522 4.79264163970947 6.32549905776978 10.4453353881836 9.6984691619873 9.86151313781738 15.9239835739136 13.248007774353 9.53793239593506 22.1227340698242 2.47913146018982 4.4247932434082 8.4464807510376 4.94601917266846 4.76910543441772 4.15315532684326 8.65195846557617 6.72961807250977 1.76477015018463 2.11909794807434 3.08455586433411 5.53200483322144 3.67875480651855 13.2782363891602 4.70541381835938 14.1296405792236 3.16007018089294 4.16442346572876 4.3330717086792 4.07841348648071 4.0023250579834 4.5138988494873 4.29454231262207 9.14040470123291 5.39264345169067 6.26630353927612 8.6817684173584 11.8269844055176 18.0891780853271 13.9332580566406 17.0376071929932 11.1479816436768 10.6853485107422 4.70542573928833 0.0875232666730881 -0.879546642303467 3.33950996398926 -0.134712934494019 0.0141679160296917 1.68823885917664 3.32522892951965 14.3121576309204 6.92115354537964 6.58778142929077 8.59814071655273 8.2906494140625 10.163987159729 13.480694770813 25.6988162994385 19.2187080383301 13.1147022247314 1.9899867773056 0.861709773540497 1.56627142429352 2.55365967750549 2.63615417480469 2.95451378822327 3.17578887939453 3.82490468025208 3.74980115890503 4.13781070709229 4.27463531494141 4.24167394638062 4.13396883010864 4.00600814819336 4.50840997695923 4.60877561569214 4.22005701065063 4.69091606140137 5.07967138290405 5.25539493560791 5.63287210464478 5.89624547958374 5.78957986831665 5.81460475921631 6.23100471496582 7.00583076477051 6.75068140029907 6.40597105026245 5.61235857009888 6.92716121673584 6.47168350219727 4.3279595375061 4.8398699760437 4.40907621383667 5.07629823684692 5.94070339202881 5.05744314193726 6.23627376556396 6.7906813621521 6.95351266860962 6.7364068031311 7.07232236862183 6.48948574066162 5.95119762420654 5.91821527481079 5.92682981491089 4.19573020935059 4.20911836624146 2.10831260681152 7.18063449859619 8.36177730560303 8.79730606079102 29.4631690979004 26.7652263641357 5.63258504867554 9.20298099517822 4.85838890075684
2.49223875999451 2.60564589500427 3.22498798370361 3.4312527179718 3.72989678382874 3.31546711921692 3.02760481834412 3.12406420707703 2.34288668632507 2.68084359169006 2.70219445228577 2.58395481109619 2.59113597869873 2.6014232635498 1.37160789966583 1.57798910140991 2.6709578037262 2.64631414413452 2.14637351036072 5.50154399871826 6.67335557937622 8.00438976287842 8.54961776733398 10.4912624359131 9.51735305786133 9.50285053253174 5.79844665527344 7.33558893203735 7.9880223274231 7.22676706314087 9.29507923126221 8.2490234375 7.49989080429077 11.81662940979 18.1731052398682 16.2409992218018 20.3545684814453 19.735372543335 21.8154106140137 3.01921153068542 3.8897545337677 4.05704879760742 3.86971759796143 3.93660879135132 3.82176280021667 3.81953191757202 4.00400638580322 4.22581434249878 4.48805665969849 4.42083787918091 4.54399871826172 4.54143667221069 4.60770273208618 4.60632658004761 4.52472352981567 3.45622301101685 3.55033206939697 3.00932025909424 3.80147242546082 5.06082439422607 6.80983066558838 11.4902296066284 10.8639545440674 13.7716226577759 29.6260070800781 15.5487451553345 17.0697574615479 7.39604330062866 4.12538623809814 7.33299446105957 15.0621185302734 6.53619813919067 8.8085823059082 10.7086420059204 15.3197898864746 18.7897815704346 2.36585164070129 5.33001804351807 3.42196345329285 9.72694778442383 6.92029476165771 29.2180309295654 13.6296157836914 3.76742672920227 4.15955018997192 4.40967178344727 4.49169921875 4.18087768554688 4.21552228927612 4.70053577423096 9.93796920776367 3.94019293785095 3.88898730278015 18.4545345306396 9.12497520446777 11.1400260925293 20.1327743530273 12.9675769805908 19.4673500061035 14.0861682891846 9.6480016708374 -0.498488962650299 8.47819423675537 -0.17470483481884 -0.35595041513443 0.657262682914734 5.60201740264893 7.88881635665894 5.74992656707764 2.10547184944153 8.41277027130127 7.33101415634155 8.4428539276123 13.6566400527954 16.4637279510498 29.8886184692383 23.3721714019775 17.4648475646973 7.60364103317261 1.4779098033905 1.2165470123291 1.72437977790833 5.37168598175049 2.67828917503357 3.3749566078186 3.48020720481873 4.14715051651001 4.10384845733643 4.5310230255127 4.7370080947876 4.69673728942871 4.60687494277954 4.7289662361145 4.57640743255615 5.12153339385986 4.94025468826294 5.16859674453735 5.62639188766479 5.73424005508423 6.13271284103394 6.30268812179565 6.16544532775879 6.17898654937744 6.48375844955444 7.31261825561523 7.11573219299316 6.84485721588135 6.27413129806519 7.45975971221924 5.41189956665039 4.87168455123901 6.4248423576355 4.90400552749634 5.63188028335571 6.53320741653442 5.60047817230225 6.92057180404663 7.52401208877563 7.61591529846191 7.18932962417603 7.66963672637939 7.00631046295166 6.55449819564819 6.85239362716675 6.64713001251221 4.60434579849243 4.51783180236816 2.24733877182007 9.49327278137207 12.3687286376953 16.4133262634277 0.519224584102631 -0.816643953323364 -1.10236477851868 -1.24777984619141
2.41061449050903 2.61021327972412 2.75854158401489 3.4557638168335 3.73372411727905 4.11217212677002 3.65458536148071 3.32858920097351 3.42025780677795 2.7949390411377 2.78510785102844 2.79305863380432 2.73876953125 2.80571746826172 2.71226286888123 1.4861456155777 1.70155107975006 2.71467018127441 2.79022789001465 2.80420088768005 5.97979545593262 7.23185157775879 8.74106216430664 9.35140228271484 11.7765874862671 10.689567565918 10.6866092681885 6.35818481445312 8.10895442962646 8.7620735168457 7.92479085922241 10.530779838562 9.55041599273682 10.3625593185425 16.2851982116699 33.0551834106445 23.7141571044922 36.3417320251465 33.9681434631348 21.555154800415 3.12797427177429 4.13453197479248 4.17897176742554 4.31099414825439 4.03069019317627 3.87614560127258 3.88248491287231 4.0997371673584 4.34203100204468 4.63037872314453 4.56691551208496 4.70550632476807 4.85085868835449 4.76487350463867 4.75621700286865 4.8938946723938 4.78045320510864 3.58944034576416 3.02702021598816 4.03554344177246 5.51441383361816 7.49942255020142 12.9120101928711 13.2800769805908 26.4340038299561 9.76350212097168 16.859338760376 17.6019039154053 12.5722780227661 9.2836742401123 8.57874011993408 6.18640565872192 3.64207029342651 11.4694261550903 4.625412940979 1.41355466842651 2.32650899887085 3.91665267944336 8.80037117004395 4.34094429016113 22.6233787536621 17.9325389862061 2.95972847938538 3.58988952636719 3.88601231575012 4.9251856803894 4.92453718185425 4.89067077636719 4.95204973220825 6.68290948867798 4.87559080123901 15.8269033432007 3.9688880443573 4.3432354927063 4.46470355987549 9.08544445037842 11.5855741500854 19.9828567504883 17.3687057495117 5.1881046295166 -0.423642635345459 -0.439602345228195 0.150874525308609 -0.399874776601791 0.31262731552124 15.8209161758423 1.17269587516785 8.9708833694458 3.1057436466217 3.61645984649658 4.68482780456543 7.08092737197876 9.05582141876221 23.3988971710205 22.0364971160889 27.427131652832 13.7022647857666 8.24305725097656 1.61502623558044 1.11958038806915 1.80060541629791 1.61994218826294 2.18512272834778 15.5130767822266 3.6166365146637 3.5669732093811 3.67060112953186 4.35488176345825 4.35488510131836 4.86968326568604 5.18765735626221 5.37617874145508 5.31712007522583 5.21064758300781 5.09450483322144 5.65959167480469 5.42433786392212 5.26665639877319 6.16797637939453 6.10838508605957 6.56182336807251 6.6800332069397 6.51992225646973 6.49825716018677 6.79288578033447 7.75931072235107 7.61776781082153 7.3429708480835 7.06344318389893 7.99116802215576 6.7828574180603 5.90423059463501 6.96797132492065 5.42925071716309 6.28634452819824 7.23780202865601 6.57736539840698 7.70519685745239 8.18997573852539 8.51706790924072 8.50648784637451 8.31581592559814 8.15560436248779 9.00458145141602 8.46288776397705 8.39828491210938 7.8895320892334 5.18131494522095 2.52915167808533 14.2107763290405 23.4049091339111 1.71708238124847 1.02236127853394 -0.0165797583758831 -0.435627728700638
2.69324469566345 2.58971619606018 2.82010674476624 2.96948528289795 3.7708101272583 4.11109590530396 4.4966926574707 3.99970364570618 3.64702081680298 3.83939170837402 3.86906433105469 2.88217186927795 2.98343253135681 2.89291143417358 2.81377768516541 2.79541015625 1.52213621139526 1.67750465869904 1.77509331703186 2.97847938537598 2.97368097305298 6.51092481613159 7.88805484771729 9.53545761108398 10.3701133728027 13.4865283966064 14.569769859314 13.191520690918 13.2455148696899 9.12094879150391 9.72921085357666 8.78605461120605 12.1894302368164 13.233941078186 12.7918100357056 30.0866222381592 15.6178598403931 23.1568756103516 12.9916543960571 21.95627784729 2.96845555305481 8.40828895568848 9.49237632751465 4.30086803436279 4.41508531570435 4.09527349472046 3.94688129425049 3.95925974845886 4.23313426971436 4.49529218673706 4.81245517730713 4.97441673278809 4.88650894165039 5.06510066986084 4.93748712539673 5.08494424819946 5.10981369018555 4.97870540618896 3.7362916469574 3.13887619972229 4.47961950302124 6.22499847412109 8.61974143981934 14.9864368438721 12.4289522171021 11.2208137512207 18.0460739135742 20.6607971191406 26.8951187133789 24.5656795501709 7.67740249633789 9.64641284942627 10.46129322052 8.43166065216064 15.6721229553223 5.69629907608032 3.2265841960907 14.0305738449097 6.43592929840088 20.6547870635986 12.9838447570801 3.7312536239624 3.72770810127258 3.83337068557739 4.04106616973877 4.15548610687256 5.00891017913818 5.16908645629883 6.09761953353882 6.58847761154175 8.29416656494141 5.68358421325684 4.3268723487854 4.06302452087402 8.50241374969482 3.85090374946594 12.0543804168701 20.6993846893311 10.0120534896851 3.83962941169739 9.18169498443604 0.094163253903389 0.481716573238373 0.517042994499207 0.36550110578537 4.09249114990234 1.29711091518402 4.33647155761719 14.8246402740479 8.79356670379639 9.60814094543457 18.5958042144775 14.8558883666992 18.4271373748779 11.8159284591675 33.527774810791 16.9290924072266 13.7830209732056 1.53883290290833 1.64753556251526 1.94126498699188 2.44332933425903 1.89083814620972 2.27079582214355 2.752765417099 3.77304577827454 3.75301313400269 3.87848091125488 4.58782958984375 4.64050149917603 5.2232027053833 5.00976371765137 5.83151292800903 5.7807559967041 5.71037006378174 5.596999168396 6.17571401596069 5.90936517715454 5.710289478302 6.64405202865601 6.52601861953735 6.95583486557007 7.11179447174072 6.96161460876465 6.91893482208252 7.29253768920898 8.34309577941895 8.18999767303467 7.86746072769165 7.54752731323242 8.5712947845459 7.32714128494263 6.45341014862061 7.59724235534668 6.76291131973267 6.98555040359497 8.02468585968018 8.59694480895996 7.44373846054077 8.73660564422607 9.20432376861572 9.18242835998535 9.07494258880615 8.38716316223145 11.3024244308472 10.5873193740845 10.6522264480591 10.4466924667358 6.46076774597168 2.96715712547302 27.693510055542 1.67811942100525 2.56397151947021 1.23498320579529 0.735284566879272
2.77286314964294 3.00871872901917 2.80432486534119 3.05236792564392 3.2662398815155 4.11719942092896 4.51430416107178 4.8832106590271 4.34703969955444 4.57898235321045 4.13571405410767 4.23220586776733 3.07524847984314 3.03787708282471 2.94093561172485 2.94021129608154 2.8534631729126 2.33475255966187 1.6283655166626 1.886115193367 3.17004728317261 3.13062262535095 7.07328796386719 8.65135860443115 10.5398464202881 11.7542772293091 14.9823131561279 17.5720539093018 15.9419050216675 16.0429840087891 10.47767162323 11.3707513809204 11.5939102172852 10.4014301300049 16.3043670654297 17.546573638916 14.0258932113647 1.84481501579285 5.61086320877075 1.60264098644257 0.996850252151489 1.63597214221954 9.94877910614014 11.5182704925537 4.4115948677063 4.5161566734314 4.18812322616577 4.04717826843262 4.07091617584229 4.38940668106079 4.66973352432251 4.84232950210571 5.18893337249756 5.10360145568848 5.32258653640747 5.22868204116821 5.39890623092651 5.45403909683228 5.33498811721802 4.11061906814575 3.47666072845459 5.25047159194946 7.41513061523438 10.4909934997559 17.8313426971436 17.5053539276123 24.4364051818848 23.4533939361572 28.9602146148682 32.1814041137695 29.2345294952393 10.9180221557617 11.8629388809204 13.365065574646 12.8674411773682 22.9052104949951 17.5535202026367 28.3708000183105 29.6671257019043 16.9107913970947 3.19427800178528 3.80918669700623 4.14776372909546 4.96608781814575 4.58387041091919 5.16397762298584 4.73870038986206 5.29565191268921 5.33419275283813 8.18169116973877 9.85553932189941 6.93751239776611 5.0336651802063 4.62642478942871 4.42886447906494 12.9188051223755 5.2748327255249 14.9551429748535 7.11862993240356 2.90855932235718 6.49716234207153 0.323224723339081 0.690324604511261 0.589724898338318 1.10770392417908 1.00099635124207 1.46386623382568 1.91668713092804 4.89359283447266 21.489128112793 15.0827512741089 3.88128995895386 2.37527298927307 19.0655002593994 29.607551574707 19.9758548736572 15.976016998291 11.6370372772217 2.85208296775818 2.30089211463928 1.94763934612274 2.20989370346069 2.63026452064514 8.24659729003906 3.73471069335938 3.5917694568634 4.01325368881226 4.01456356048584 4.19133710861206 4.96526432037354 5.03751564025879 5.61244201660156 5.60677051544189 6.27447509765625 6.21481800079346 6.14087915420532 6.03825807571411 6.63638639450073 6.31277990341187 6.05957508087158 7.05261850357056 6.96268463134766 7.4777569770813 7.58490943908691 7.37378597259521 7.43616628646851 7.88548374176025 8.97610759735107 8.77907180786133 8.43302536010742 8.03903770446777 9.19763660430908 7.92580938339233 8.05516624450684 8.32068538665771 8.62825298309326 7.09621953964233 8.34404754638672 9.3556661605835 8.12617492675781 9.48971843719482 9.96679973602295 9.93499279022217 9.97558879852295 10.5532646179199 15.2327098846436 15.7301607131958 14.8037919998169 14.6267805099487 8.18342685699463 8.72309398651123 1.16316974163055 3.2494056224823 2.69319868087769 2.14761567115784
3.78864502906799 2.98381876945496 3.32584691047668 2.99025940895081 3.26475191116333 3.49144315719604 4.47458362579346 4.87372303009033 5.2689266204834 5.56560134887695 4.96594333648682 4.66260480880737 4.77739191055298 3.14091944694519 3.11295104026794 3.03021454811096 3.02612400054932 2.93585872650146 2.38999247550964 1.72193574905396 1.98105931282043 3.34577608108521 3.26664614677429 7.74957990646362 9.72617721557617 11.875280380249 13.40989112854 15.1642904281616 22.3812789916992 20.3536319732666 20.530818939209 10.5476236343384 13.8863515853882 14.153115272522 12.5956830978394 21.708703994751 18.9102935791016 2.31730723381042 6.30680322647095 3.47335457801819 2.41422963142395 4.42490482330322 1.89866721630096 12.7111511230469 14.6946983337402 4.53357887268066 4.65822601318359 4.32445287704468 4.18853616714478 4.18932008743286 4.55014896392822 4.71132850646973 5.03041410446167 5.46038389205933 5.39139986038208 5.69667434692383 5.58256244659424 5.80218315124512 5.93966865539551 5.91769933700562 4.69804906845093 4.00911426544189 6.33037710189819 9.004225730896 12.0550889968872 14.6191701889038 20.7152118682861 18.9236278533936 33.0342254638672 26.0774974822998 55.4440689086914 3.04405808448792 13.0397777557373 16.2658100128174 19.8823089599609 26.4162940979004 42.6859092712402 34.5699348449707 2.68668103218079 3.08493781089783 4.77593088150024 3.99179744720459 4.44663715362549 4.28690004348755 5.4101185798645 5.0333137512207 5.39347791671753 5.08155727386475 5.42554759979248 5.67695426940918 12.2960863113403 20.5286655426025 4.89045286178589 8.60518550872803 4.69804048538208 8.82114791870117 4.34567260742188 5.29598379135132 22.2966213226318 12.762598991394 0.81252384185791 1.38117921352386 1.20591866970062 1.08466160297394 1.05921840667725 1.44559550285339 1.52811849117279 3.36014986038208 7.56809902191162 13.254204750061 0.975850880146027 1.69822835922241 3.0697717666626 3.07665538787842 2.82160353660583 8.40528774261475 11.0737171173096 2.39938044548035 1.85214293003082 1.63206720352173 2.36154246330261 2.0661461353302 2.44526219367981 4.21176481246948 2.02638125419617 3.93518590927124 3.89494276046753 4.32629728317261 4.34899377822876 4.57483148574829 5.37267398834229 5.45453405380249 6.00618028640747 6.21833515167236 6.68449449539185 6.58516454696655 6.50385141372681 6.39782428741455 7.02307176589966 6.67611932754517 6.390793800354 7.49933481216431 7.48954916000366 8.00912284851074 8.05770778656006 7.96287250518799 7.99666118621826 8.47718715667725 9.62354183197021 9.40412712097168 9.02817344665527 9.16658782958984 9.913743019104 10.2041492462158 8.91757965087891 8.12336349487305 9.53556537628174 7.80928945541382 9.08502674102783 10.1726455688477 8.88820552825928 10.3399257659912 10.8491764068604 10.8552732467651 14.5312347412109 16.2774524688721 24.7573890686035 30.4535865783691 23.9064083099365 27.3781661987305 10.6569957733154 11.2015562057495 3.47036647796631 3.82363271713257 3.08623242378235
3.87401056289673 4.9913125038147 5.62016534805298 3.61200594902039 3.81018209457397 3.5318078994751 3.76179647445679 4.8779821395874 5.22433567047119 5.66296005249023 6.03782272338867 5.41242027282715 5.09742736816406 4.95010757446289 3.19811272621155 3.21563720703125 3.12066698074341 3.10595607757568 3.01371741294861 2.44189429283142 1.79220068454742 2.07264876365662 3.52302479743958 3.41227698326111 8.68347072601318 11.1156063079834 13.5706329345703 14.5912246704102 19.2454967498779 30.8588447570801 28.359073638916 28.6212844848633 13.275447845459 17.4990081787109 17.9292831420898 16.1068592071533 37.8158302307129 14.9615812301636 7.46276950836182 7.10105419158936 11.9821519851685 15.2490301132202 1.77440536022186 2.02940845489502 17.967945098877 20.6483459472656 4.69809865951538 4.83349800109863 4.46539688110352 4.32062435150146 4.31821966171265 4.40983629226685 4.94709920883179 5.31865072250366 5.80765867233276 5.74664974212646 6.16946840286255 6.00906133651733 6.36101055145264 6.64908647537231 6.65596151351929 5.37641096115112 4.556809425354 7.59055042266846 9.29647350311279 12.5161819458008 23.0239410400391 30.2828159332275 34.6905555725098 49.9669952392578 29.4277572631836 -1.62878501415253 22.2223148345947 17.3945789337158 30.722146987915 37.8807067871094 2.44638967514038 1.82641768455505 2.59551501274109 3.88278341293335 4.08425426483154 9.51672267913818 4.32633447647095 8.14703750610352 5.59361743927002 8.47765731811523 5.44662475585938 5.86360120773315 5.75239944458008 5.6595311164856 5.85710334777832 20.7042808532715 4.96012353897095 6.33950185775757 4.94043827056885 4.89147758483887 4.95058250427246 7.08269739151001 9.15281200408936 2.62766528129578 1.50819909572601 1.36770725250244 2.36366057395935 2.00808119773865 1.46955645084381 1.64608025550842 2.2604775428772 2.08871507644653 4.56470394134521 4.23373508453369 1.7381489276886 2.29541659355164 2.78790664672852 3.29261183738708 2.91160583496094 3.54229521751404 13.0810308456421 2.05258083343506 1.94859492778778 2.05385828018188 2.53270292282104 2.89324617385864 2.538987159729 2.69170999526978 14.3252077102661 2.62779450416565 4.29509210586548 4.27801036834717 4.70164966583252 4.7168755531311 4.97333240509033 5.81450748443604 6.11629486083984 6.10132026672363 6.570960521698 7.06199264526367 6.93990755081177 6.86934471130371 6.77020215988159 7.43137407302856 7.04826259613037 6.75308895111084 7.97498846054077 8.01552963256836 8.54660606384277 8.83974456787109 8.58007144927979 8.69475936889648 9.09246253967285 10.3173398971558 10.6282920837402 10.3689060211182 9.97485446929932 9.29829883575439 11.0948648452759 9.76545429229736 8.92893314361572 10.3403987884521 8.48265361785889 9.92325019836426 11.1113185882568 9.76903057098389 11.3914861679077 11.9904689788818 15.0847883224487 28.3158016204834 26.933406829834 20.7122745513916 11.766092300415 20.735912322998 16.4718322753906 14.291314125061 14.980167388916 5.41435766220093 4.32435941696167
3.10238075256348 4.87018871307373 5.59559631347656 7.51980304718018 5.34243535995483 4.25303363800049 3.80337142944336 4.0697660446167 5.03414964675903 5.58690500259399 6.16154146194458 6.57397508621216 5.97713279724121 5.43341493606567 5.41399145126343 3.31076717376709 3.31730198860168 3.20062398910522 3.18360018730164 3.08472776412964 3.06480956077576 1.85832738876343 2.12824106216431 3.70290756225586 3.57967472076416 9.87382125854492 12.0015249252319 14.2217025756836 18.1530132293701 26.6443042755127 49.0524787902832 45.5207061767578 45.8023948669434 18.3779296875 24.5457897186279 25.2568798065186 22.9191932678223 19.1435222625732 3.64214825630188 9.53492164611816 15.3127679824829 9.16029453277588 1.89320921897888 2.82405972480774 3.8356773853302 32.1798248291016 36.4927749633789 4.87234163284302 4.96689605712891 4.59044456481934 4.48076200485229 4.48316097259521 4.66380739212036 5.23593997955322 5.66928815841675 6.27454710006714 6.28431940078735 6.85821533203125 6.63978385925293 7.12693309783936 7.5079345703125 7.4800591468811 6.08930492401123 5.11000823974609 5.30375099182129 10.7142763137817 16.158748626709 16.9286041259766 43.4301490783691 52.9102516174316 10.515588760376 -1.44599044322968 -0.372547417879105 38.1235313415527 33.2297973632812 1.6345556974411 1.87456965446472 2.98595261573792 3.52853846549988 4.02579593658447 4.22485542297363 5.22427129745483 4.5892071723938 5.46566152572632 10.5750150680542 7.18496704101562 11.7939214706421 6.89935541152954 6.02915239334106 5.92942523956299 5.70465707778931 5.96439599990845 5.09791803359985 5.02568626403809 4.98654079437256 5.02035474777222 12.8410654067993 4.56133222579956 20.6165161132812 7.16781520843506 3.32005262374878 2.84412431716919 2.63027715682983 2.75582885742188 2.29442119598389 2.36224007606506 5.76302862167358 8.066819190979 2.14893746376038 2.01777410507202 2.15799474716187 2.74990391731262 3.30316877365112 5.58893394470215 10.0123157501221 10.2923364639282 3.04647946357727 2.20930504798889 2.30434370040894 2.627277135849 3.13675665855408 2.90992856025696 2.77205514907837 2.77408981323242 10.8796033859253 2.79736924171448 2.65757822990417 4.71855640411377 4.99555015563965 5.1102614402771 5.15313720703125 5.19582557678223 5.71828508377075 6.49171161651611 6.43015623092651 6.89252614974976 7.45494031906128 7.32528734207153 7.25851535797119 7.18410110473633 7.88501977920532 7.45514726638794 7.22255659103394 8.48307514190674 8.30280876159668 8.90416145324707 9.48922348022461 9.46042060852051 9.3690938949585 9.55185127258301 10.0891342163086 11.438325881958 11.2084856033325 10.8403549194336 10.1852941513062 12.0198879241943 10.6676225662231 9.8671178817749 11.3225364685059 9.50290870666504 10.9358406066895 12.2136640548706 18.5828056335449 13.1431179046631 13.5866613388062 12.7013721466064 10.204080581665 8.7689037322998 5.51658344268799 4.12507724761963 2.58972787857056 0.267525464296341 26.4070091247559 21.8641815185547 6.78658962249756
0.923316121101379 3.77792906761169 4.80162239074707 7.50382328033447 10.7375059127808 6.97027540206909 4.63294363021851 4.05375480651855 4.36020660400391 5.17438077926636 6.07597303390503 6.73842000961304 7.1995210647583 6.53113698959351 5.99130535125732 5.96363878250122 3.41749787330627 3.41359329223633 3.27216267585754 3.26025199890137 3.15836811065674 3.11236238479614 1.88759136199951 2.16753554344177 3.95671224594116 3.79386305809021 3.25148034095764 12.4988164901733 18.0446872711182 25.2096633911133 42.7420959472656 10.491720199585 1.60321640968323 0.850903153419495 31.8870315551758 41.3980178833008 42.4520492553711 38.704288482666 0.979583561420441 17.1432666778564 9.63888359069824 7.41287326812744 0.731970429420471 2.02300572395325 4.20062351226807 11.6580696105957 2.56248879432678 3.22608041763306 4.98948240280151 5.14881181716919 4.80999994277954 4.72118854522705 4.93555307388306 5.01041984558105 5.64657592773438 6.20351362228394 6.98252868652344 7.04664754867554 7.87478733062744 7.4267897605896 7.96108722686768 8.42862987518311 8.35518455505371 6.87336015701294 5.77799940109253 5.13621950149536 13.38498878479 22.6760444641113 42.9534873962402 37.1694374084473 0.288715422153473 -1.3966988325119 0.232992053031921 0.146882921457291 0.971920549869537 1.71586847305298 2.84590172767639 3.42501378059387 5.32951593399048 4.60064792633057 12.9365921020508 5.31044149398804 5.44715023040771 11.4607486724854 6.83186435699463 20.8282699584961 10.8565320968628 9.10655403137207 5.59512567520142 6.2461371421814 6.10422897338867 5.87931394577026 6.55758619308472 5.36118173599243 5.34204387664795 7.16717720031738 5.26287841796875 5.24849557876587 6.77048873901367 5.70544815063477 13.1153125762939 4.1662974357605 3.46635580062866 2.96378397941589 3.07826590538025 2.94930243492126 2.88069486618042 2.39229989051819 2.27511048316956 2.56202387809753 3.26704978942871 2.83467817306519 3.47781848907471 3.39788484573364 6.06459283828735 4.59159708023071 3.13693070411682 3.35589647293091 2.87910127639771 3.19242715835571 3.69922995567322 3.74639391899109 3.44611549377441 3.34287333488464 3.14209675788879 2.99829387664795 11.725772857666 19.1918506622314 4.90038347244263 5.46283054351807 5.55657196044922 5.81962585449219 5.80342626571655 6.08141374588013 6.8188533782959 6.7522144317627 7.23753547668457 7.88459444046021 7.73337411880493 7.69624376296997 7.64238834381104 8.38465881347656 7.8985447883606 7.65209341049194 9.04586410522461 9.359206199646 9.62769412994385 10.2696905136108 10.1526412963867 10.0936145782471 10.2851696014404 10.8999862670898 12.3608989715576 12.1135396957397 11.795841217041 10.992504119873 13.1006059646606 11.7415866851807 10.9979724884033 12.4655427932739 12.0782279968262 12.1618366241455 13.5120143890381 9.95864295959473 12.3988065719604 15.435510635376 11.5435609817505 12.0026779174805 10.0281744003296 10.3068914413452 11.2164335250854 5.28493118286133 7.18561172485352 14.7800464630127 38.8310508728027
0.61938089132309 3.5327262878418 4.23937273025513 6.48194408416748 10.4668388366699 16.2587299346924 9.41548252105713 5.05604362487793 4.3251256942749 4.63561058044434 5.73936700820923 6.6330189704895 7.41575384140015 7.94030666351318 7.17053508758545 6.67222595214844 6.60126447677612 3.51385617256165 3.50002121925354 3.34643983840942 3.32314348220825 3.21430349349976 3.15960764884949 1.91948294639587 2.26743197441101 4.24930953979492 4.05333709716797 3.44290399551392 15.7193260192871 24.5685920715332 41.2585105895996 11.3569068908691 0.267262548208237 0.816343605518341 3.16697788238525 1.89927768707275 1.33412230014801 12.4772729873657 11.7872314453125 5.22203063964844 4.89335441589355 1.63958203792572 0.90803188085556 2.62519645690918 4.81432437896729 12.9162435531616 14.4663553237915 4.37869358062744 5.55119752883911 5.24535989761353 5.41797733306885 5.07530307769775 4.82293748855591 5.29694175720215 5.49365758895874 6.22860050201416 6.90502071380615 7.86296081542969 8.02004528045654 9.06201648712158 8.24771785736084 8.90537738800049 9.53227043151855 9.46105575561523 7.82845163345337 6.43028974533081 5.82371091842651 22.6110782623291 36.8030166625977 7.95886087417603 -1.76290953159332 -0.741079449653625 -0.273738980293274 0.973096966743469 2.15879082679749 2.65075135231018 3.22590565681458 4.00800323486328 4.36104202270508 13.2897033691406 5.08117389678955 4.84537601470947 5.69683170318604 7.74665212631226 21.7991275787354 9.97378730773926 5.19491481781006 7.13980484008789 5.36344337463379 5.76465940475464 6.40578556060791 6.32198333740234 6.1450572013855 6.01191806793213 5.53551435470581 5.48261880874634 4.92555475234985 5.80404043197632 5.64122200012207 5.68803024291992 4.95833253860474 4.24024343490601 4.323655128479 3.88497376441956 3.0911648273468 3.50214767456055 3.34412574768066 2.93133354187012 3.04353499412537 3.26916265487671 3.49852204322815 5.25250291824341 16.5088043212891 10.9009876251221 3.62729620933533 3.50445055961609 3.97199296951294 3.83433055877686 6.64948415756226 11.4715261459351 3.78357338905334 12.0605688095093 8.34555721282959 3.64410161972046 3.64898991584778 3.41252756118774 3.93004393577576 2.96688413619995 3.80851888656616 5.38164520263672 5.95283031463623 5.94023895263672 6.23675870895386 6.14937210083008 6.40120458602905 7.15482139587402 7.10510873794556 7.61002779006958 8.3460054397583 8.19778633117676 8.17781066894531 8.14939117431641 8.94319248199463 9.25416564941406 8.05401515960693 8.89334774017334 10.048939704895 10.4561681747437 11.1350831985474 11.0198698043823 10.9543523788452 11.1574354171753 11.8196115493774 13.3789405822754 13.1212663650513 12.8797016143799 12.5069675445557 14.3452425003052 13.040301322937 12.4014234542847 15.5406103134155 17.484977722168 17.1430225372314 17.4957714080811 11.9679479598999 14.3949661254883 26.1329288482666 12.4263925552368 12.7846851348877 13.0462713241577 15.4039611816406 11.4166059494019 16.6224250793457 22.7231121063232 0.601537704467773
3.32140398025513 0.73279994726181 3.86284208297729 4.48296928405762 9.15322399139404 16.0933780670166 30.4394950866699 14.1565217971802 5.56145715713501 4.61138391494751 5.04306840896606 6.45356035232544 7.31818008422852 8.26590061187744 8.77017021179199 7.94779205322266 7.46190118789673 7.33951282501221 3.60660719871521 3.6221387386322 3.58840775489807 3.42713570594788 3.38973450660706 3.3272271156311 2.02607011795044 2.43827486038208 4.71731758117676 4.35386991500854 3.18377208709717 21.760498046875 40.9997482299805 15.4039821624756 0.0987714380025864 0.687723994255066 1.73039507865906 3.4852831363678 17.2278289794922 1.94987988471985 0.699862241744995 1.15621912479401 13.7447357177734 13.8204555511475 2.00736784934998 6.18424844741821 17.6438903808594 5.64396715164185 15.8565406799316 18.7378082275391 4.64526987075806 5.88661432266235 5.50726127624512 5.65610027313232 5.53182363510132 5.63113880157471 5.72470903396606 6.07596063613892 6.89891958236694 7.78259229660034 9.10175228118896 9.25861644744873 10.4899463653564 9.20168209075928 10.0357103347778 10.8591222763062 10.6750335693359 8.94288539886475 9.67286777496338 7.63324594497681 14.1605463027954 4.90751886367798 -0.0083737401291728 -0.569796919822693 1.22507035732269 3.23000526428223 3.33653140068054 10.2748022079468 17.847297668457 4.08133411407471 4.5936131477356 8.8283863067627 4.56550121307373 5.29195976257324 5.55316686630249 6.99941730499268 14.1559743881226 5.36562728881836 5.5632848739624 5.68109369277954 5.6205153465271 5.80818891525269 6.20552349090576 6.63194227218628 6.4959454536438 6.37875366210938 6.29837894439697 5.79216003417969 5.80181121826172 7.24598550796509 5.38676404953003 6.5129189491272 6.44340085983276 6.02589654922485 5.46220731735229 4.88693380355835 3.94074273109436 3.41755127906799 3.94774174690247 3.6676619052887 3.61456441879272 3.90471577644348 18.8554382324219 15.6397647857666 24.1030292510986 3.92841529846191 3.84011840820312 3.79709219932556 6.55289030075073 11.8096284866333 3.99149250984192 4.32083892822266 3.48571276664734 3.78985953330994 3.86702632904053 3.81442666053772 3.77615213394165 7.17573165893555 4.46292877197266 4.85713243484497 4.03610420227051 4.32359266281128 5.86432504653931 6.41949796676636 6.40294504165649 6.61031866073608 6.45685768127441 6.73486423492432 7.52972030639648 7.48913478851318 8.01272773742676 8.87092399597168 8.70462512969971 8.72191905975342 9.02700614929199 9.06993293762207 9.93796348571777 9.25392913818359 9.4178524017334 10.8393154144287 11.4223947525024 12.1476373672485 12.1262922286987 11.9551200866699 12.1817579269409 14.6010751724243 16.7335720062256 14.2704029083252 15.4085140228271 16.2238464355469 15.6847829818726 14.4107217788696 13.8760433197021 22.1611709594727 31.3861351013184 23.1697597503662 14.3994169235229 16.5095710754395 15.2963981628418 12.5372171401978 14.8174829483032 16.1380214691162 20.1056289672852 19.2804756164551 16.940315246582 13.4728174209595 0.407097667455673
2.51045775413513 0.601778447628021 8.22455596923828 4.44864654541016 5.00000667572021 13.7867546081543 30.2354831695557 2.40121650695801 27.3426494598389 6.12808561325073 5.03477096557617 5.56746625900269 7.41599035263062 8.15665721893311 9.31394577026367 9.6798677444458 8.91686248779297 8.44943523406982 8.23583126068115 3.77063775062561 3.7010862827301 3.70169734954834 3.57440519332886 3.54748749732971 3.43256902694702 2.18712162971497 2.51448965072632 5.12457990646362 5.0966362953186 4.59987831115723 36.8231239318848 7.13370132446289 0.0475968793034554 0.380295276641846 1.42054903507233 14.8806924819946 3.04703569412231 30.4749641418457 2.52709603309631 7.15290260314941 11.071629524231 1.08988881111145 1.00077676773071 3.44260382652283 1.82373023033142 0.69025719165802 14.9606552124023 20.5839939117432 26.7791442871094 4.85418558120728 6.15092706680298 6.14298486709595 6.14215850830078 6.30436849594116 5.99795007705688 6.21642637252808 6.85827732086182 7.81042289733887 9.01389217376709 10.6112909317017 10.5763626098633 12.1413564682007 13.3876619338989 11.463809967041 12.4589710235596 13.639533996582 13.1945695877075 11.0256366729736 9.04300403594971 2.16556453704834 8.43435192108154 0.645790040493011 0.8551966547966 3.20408177375793 4.06616449356079 6.26717615127563 26.1169300079346 4.16130542755127 5.52259683609009 12.2010364532471 4.71828079223633 5.42166757583618 5.4409875869751 5.67774391174316 11.6851282119751 5.56051874160767 5.52971792221069 5.85592937469482 6.19548606872559 6.43035364151001 6.39577198028564 6.36583375930786 6.89536046981812 6.76465702056885 6.63341236114502 6.33270835876465 6.28272247314453 6.12313032150269 6.43736362457275 7.05832481384277 6.96435594558716 6.55150890350342 6.63771486282349 5.66745233535767 5.72253084182739 4.99117565155029 3.67845988273621 4.03928089141846 7.66540479660034 18.6912364959717 13.5701732635498 6.79696035385132 4.69288730621338 3.63253259658813 8.40316963195801 4.0285005569458 3.98445701599121 4.04816436767578 4.24422407150269 4.20328569412231 4.29810428619385 6.06995868682861 3.86703133583069 3.90488624572754 3.87617683410645 4.49475526809692 4.12205266952515 5.1450572013855 4.07850027084351 4.52340364456177 4.83036279678345 6.33160924911499 6.90172338485718 6.82647800445557 6.95495414733887 6.77968120574951 7.10406970977783 7.93438148498535 7.9072904586792 8.45584678649902 9.44803047180176 9.78920936584473 9.60600280761719 9.66557884216309 9.75778293609619 10.6942281723022 9.91032314300537 10.2650918960571 11.7149982452393 12.5238466262817 13.3344488143921 13.435209274292 13.0935153961182 13.3170928955078 21.0563869476318 27.0862197875977 17.1613674163818 22.1657085418701 23.338550567627 17.3741912841797 16.1789608001709 15.9049644470215 39.4334411621094 14.1039667129517 12.5058946609497 14.9092426300049 13.6760025024414 18.2345657348633 18.459659576416 18.8945503234863 27.5509967803955 41.7654838562012 32.0728378295898 24.4039859771729 12.4271450042725
0.305213242769241 0.356480926275253 0.674003779888153 14.1828145980835 5.04423570632935 5.49894237518311 27.505090713501 2.41701984405518 29.7573776245117 3.04042315483093 6.88348627090454 5.55068302154541 6.2040491104126 8.56479167938232 9.1305513381958 10.5198822021484 10.8889436721802 10.0892868041992 9.70091533660889 10.372052192688 10.1020784378052 3.85233759880066 3.86516690254211 3.71361684799194 3.65054607391357 3.49956679344177 2.11711049079895 2.3663535118103 2.55113792419434 5.75418329238892 4.99968099594116 0.927231073379517 1.14268410205841 0.276967197656631 1.91073393821716 7.94749736785889 26.495813369751 3.15104627609253 1.78271174430847 5.57703495025635 9.50758457183838 1.48329257965088 1.79274868965149 2.2723662853241 5.44210815429688 4.9716100692749 7.05382013320923 18.9845638275146 28.6551361083984 44.5256385803223 5.07113361358643 6.60142755508423 6.84089756011963 6.52540397644043 6.74102401733398 6.51363134384155 6.87591791152954 7.87482213973999 8.96947956085205 10.3962116241455 12.3033151626587 13.5444803237915 13.3810148239136 16.0952072143555 13.654501914978 14.0012044906616 15.9082345962524 15.2106094360352 12.589225769043 7.93068695068359 3.58055734634399 1.99062550067902 2.05682158470154 3.71544218063354 4.60723781585693 6.22382879257202 20.1020317077637 4.41399526596069 5.04148149490356 15.316725730896 4.89362049102783 5.37094688415527 5.54513120651245 5.59849071502686 5.85323715209961 5.78956651687622 5.70329809188843 6.11612224578857 6.32703971862793 6.46665191650391 6.76783895492554 6.6458044052124 6.60643720626831 7.11669301986694 6.9887318611145 6.61822080612183 7.04008817672729 7.17467498779297 7.41481256484985 9.89645099639893 7.26113939285278 7.71033716201782 9.16961479187012 7.29087400436401 6.78903198242188 6.30288314819336 5.62753963470459 4.78795337677002 5.32557392120361 16.2670345306396 13.8815078735352 4.32918977737427 19.019359588623 19.5065021514893 10.2453870773315 16.2521686553955 4.19103002548218 4.00130414962769 4.0940990447998 4.64123630523682 4.2744607925415 4.57353925704956 6.96996593475342 4.71044969558716 4.96724987030029 5.02669620513916 4.87525272369385 5.44104623794556 4.62745904922485 3.9593825340271 4.77350997924805 7.47534418106079 6.79830121994019 7.32111930847168 7.2368049621582 7.31157064437866 7.12898683547974 7.5091757774353 8.37175464630127 8.3712100982666 8.95219612121582 8.67498970031738 10.4622354507446 10.2672252655029 10.3962631225586 10.5566082000732 11.5625982284546 10.6410160064697 11.2505321502686 12.7361164093018 13.845721244812 14.6769895553589 14.9459857940674 14.7065334320068 17.6788101196289 36.8847885131836 20.667387008667 30.5303173065186 38.3518333435059 40.1963958740234 19.4227390289307 18.4484577178955 19.2683429718018 13.1255483627319 12.0680322647095 14.3952865600586 18.1017017364502 20.7394027709961 29.2087821960449 26.4644107818604 27.7224235534668 23.0876770019531 22.3100490570068 19.7050304412842 16.9017505645752
6.70310068130493 0.993968665599823 0.901916742324829 4.59287786483765 29.5327548980713 5.66609048843384 6.20990133285522 3.21593046188354 11.707688331604 2.86146020889282 6.1643443107605 7.81826734542847 6.21749019622803 7.03947448730469 10.1116437911987 11.4658432006836 11.9508790969849 12.2767629623413 11.6218328475952 12.5194435119629 12.6499423980713 12.4544239044189 4.02380418777466 4.01108646392822 3.75705480575562 3.70201683044434 3.58831739425659 2.73889589309692 2.14970207214355 2.66188931465149 6.67914056777954 5.90634870529175 2.94332528114319 2.83033037185669 2.06309413909912 2.21112275123596 15.7013816833496 1.98285210132599 3.39488840103149 9.22937965393066 5.60864162445068 7.46839666366577 2.29178595542908 1.8486020565033 2.29313063621521 1.38541853427887 19.1201686859131 10.2346172332764 24.1355247497559 45.0163955688477 1.39135181903839 5.29013538360596 6.44084787368774 7.23503684997559 7.00206089019775 7.31952953338623 7.1296443939209 7.66476678848267 9.07297515869141 10.2687292098999 12.9538059234619 13.0260496139526 16.2060012817383 16.0343189239502 20.1227989196777 16.4222030639648 15.964129447937 19.2228050231934 17.7336387634277 15.7484683990479 9.97131633758545 3.95382785797119 0.791750729084015 5.01692819595337 6.36248826980591 6.88800573348999 9.8945779800415 4.7537693977356 6.48795938491821 13.9209003448486 4.47806453704834 5.47195625305176 5.4767951965332 5.72298765182495 5.77698945999146 5.95259475708008 5.82184886932373 5.96141195297241 6.55570363998413 6.53078460693359 6.71510410308838 7.04139947891235 6.89623975753784 6.84596061706543 7.38260173797607 7.24841356277466 6.95679759979248 7.36635398864746 7.53184366226196 7.76430320739746 6.67117929458618 7.68389797210693 8.04705333709717 7.85615015029907 7.8880820274353 7.82023954391479 7.46992635726929 6.67802953720093 5.35616445541382 5.41955280303955 4.63932228088379 4.10820055007935 4.53997039794922 4.16081571578979 4.20106601715088 3.99555134773254 3.58848857879639 4.26728534698486 4.15568113327026 4.10861730575562 5.21029424667358 4.83153057098389 5.06861877441406 4.66007471084595 4.83743190765381 5.10477304458618 5.3222918510437 5.40151166915894 5.77997398376465 5.6484260559082 4.79643630981445 4.89770936965942 7.96616506576538 7.22094774246216 7.74794387817383 7.67812442779541 7.70996904373169 7.49973058700562 7.94062089920044 8.85122394561768 8.86973476409912 9.4634370803833 9.65466213226318 11.237548828125 11.0354127883911 11.235405921936 11.4813871383667 12.5697765350342 11.4867372512817 12.4136562347412 13.8562498092651 15.3061475753784 16.506462097168 16.7500686645508 17.644603729248 30.9787979125977 12.1606483459473 13.6852560043335 15.2103071212769 13.49986743927 12.1230888366699 21.945650100708 27.4118328094482 20.9416828155518 21.9275131225586 22.0034637451172 23.9674377441406 17.6088199615479 21.3051013946533 19.5981101989746 23.7772960662842 20.1220722198486 21.3612155914307 20.4943962097168 7.30834007263184
0.529765188694 0.673758208751678 1.06570434570312 1.17124557495117 5.33760213851929 2.91823363304138 5.89821434020996 6.97346782684326 3.6256308555603 8.67404079437256 5.98814630508423 6.8938570022583 9.05019474029541 7.42983961105347 8.45573902130127 9.67230796813965 14.1600017547607 13.6566667556763 14.8139419555664 15.3906202316284 15.341965675354 16.5121746063232 16.1763591766357 4.11415481567383 4.07001209259033 3.85107111930847 3.8120231628418 3.68673205375671 2.77913737297058 2.18076086044312 2.34209060668945 8.87555599212646 6.31953716278076 2.11437201499939 2.96735024452209 2.29058837890625 2.41792225837708 2.54166913032532 3.66027522087097 3.62650370597839 18.7879257202148 2.99746417999268 1.81668424606323 2.01349806785583 5.30001020431519 4.4998254776001 23.7754383087158 25.2047519683838 4.40607404708862 38.4367904663086 1.07934379577637 2.18506717681885 5.56625890731812 7.21710443496704 7.80124568939209 7.63519287109375 7.91693162918091 7.61795663833618 8.70053482055664 10.1966676712036 11.4322290420532 22.5840854644775 15.6665830612183 20.2797908782959 19.238073348999 26.4566078186035 22.20676612854 20.0724277496338 25.3278503417969 24.3085784912109 28.4546375274658 18.9190273284912 4.61685752868652 8.18270969390869 7.97056150436401 10.0422792434692 11.8450145721436 10.9282884597778 10.0061626434326 9.49960231781006 4.99426364898682 4.70414161682129 5.77009534835815 5.93041276931763 6.91051912307739 6.06429100036621 6.25747442245483 6.57355880737305 6.58981466293335 6.79328775405884 6.79309129714966 6.94857597351074 7.31441783905029 7.15201139450073 7.09597587585449 7.67399883270264 7.51303148269653 7.18548679351807 7.83135175704956 8.02898120880127 8.06428337097168 7.47073936462402 7.33721446990967 15.2595415115356 19.207426071167 11.1728839874268 8.46203708648682 8.02187252044678 8.39032173156738 7.413161277771 5.50562763214111 5.61356258392334 5.17088031768799 4.79212808609009 4.55330514907837 4.22083520889282 4.4299840927124 4.39103126525879 4.74490356445312 4.64929628372192 4.92577075958252 5.97897338867188 6.17199182510376 5.62442064285278 5.82302713394165 5.45944356918335 5.96939611434937 6.31889390945435 5.75789737701416 6.51940822601318 6.04426860809326 6.05611753463745 6.42644739151001 8.43178081512451 7.66632509231567 8.21574020385742 8.14749813079834 8.12178421020508 7.90610408782959 8.41813564300537 9.36471748352051 9.40077304840088 10.0290927886963 10.3643999099731 12.1328153610229 11.8992290496826 12.2005043029785 12.5560998916626 13.6965827941895 12.3467979431152 13.6488656997681 15.0675182342529 17.0222778320312 19.5205268859863 20.3812580108643 22.1136894226074 13.7538166046143 12.9390087127686 16.1850776672363 23.9830627441406 16.1691474914551 19.8105392456055 22.511287689209 22.914722442627 27.8535041809082 26.8254127502441 20.7481498718262 19.088586807251 20.4319076538086 21.9539089202881 19.1022262573242 26.3642444610596 20.8923473358154 15.3136205673218 -3.25449085235596
1.5193247795105 2.55317521095276 1.27324247360229 27.4535675048828 2.49015617370605 6.23074293136597 5.79945850372314 9.55624961853027 7.7098913192749 16.5123958587646 20.4648571014404 9.10388469696045 9.84502983093262 10.7983913421631 12.1269664764404 11.199070930481 10.8226747512817 17.9609394073486 14.7909317016602 18.1698226928711 18.9111576080322 19.7542495727539 23.1008129119873 22.5793876647949 4.23863935470581 4.18729591369629 3.98134422302246 3.92392611503601 3.79665207862854 2.82907247543335 2.11734962463379 2.20700526237488 14.0690231323242 10.0864343643188 2.18416976928711 3.15356063842773 3.23733901977539 2.80212211608887 3.8329017162323 3.91966581344604 3.88430333137512 3.15776824951172 20.1418228149414 3.66016268730164 3.65078401565552 6.87999868392944 9.79120826721191 38.693603515625 38.9744071960449 4.7102108001709 1.10645306110382 6.95571422576904 5.74570560455322 5.93385648727417 8.44456768035889 9.54205322265625 8.08214950561523 8.10102653503418 8.30480766296387 9.13176250457764 11.4631595611572 13.5748052597046 10.1744041442871 18.8619365692139 26.3840560913086 25.9643898010254 43.1042900085449 36.8303146362305 33.8204078674316 43.0732421875 42.0180206298828 3.49119114875793 3.20610451698303 9.80823516845703 15.4193134307861 23.0483703613281 17.7594871520996 12.4595365524292 12.1867322921753 13.1288719177246 10.8560924530029 9.80807685852051 8.00570106506348 7.25010299682617 8.66771697998047 10.4128150939941 8.94950294494629 6.48120784759521 6.8882794380188 6.84243535995483 7.04152488708496 7.0683856010437 7.21786546707153 7.61921787261963 7.77043390274048 7.50983762741089 7.98197078704834 8.15810012817383 8.1551399230957 8.2812328338623 8.42371273040771 8.49188041687012 8.69447994232178 7.92253398895264 8.24800491333008 8.23450088500977 8.38531112670898 8.83075332641602 9.04721069335938 8.44421863555908 8.08345699310303 5.75397348403931 5.91748666763306 5.34932327270508 5.6919412612915 5.00972318649292 5.65326976776123 5.3750524520874 5.62062168121338 5.57208633422852 5.2958197593689 5.6894063949585 6.01613807678223 6.58307790756226 6.46573448181152 6.70073556900024 6.73321866989136 9.87969875335693 10.7109642028809 19.4470634460449 21.8791923522949 14.6006832122803 12.7689714431763 11.4750032424927 8.92841148376465 8.21026802062988 8.70416259765625 8.68203830718994 8.95906829833984 8.51280689239502 8.92863368988037 9.92161846160889 10.2164163589478 10.3023672103882 10.9994478225708 13.0885181427002 12.8328018188477 13.2239379882812 13.6697416305542 14.8829040527344 13.3386869430542 15.0675735473633 16.8123111724854 19.1200313568115 24.1021690368652 24.042781829834 30.0416202545166 32.4683380126953 27.8657684326172 24.7662220001221 17.976713180542 18.6818695068359 22.6049518585205 25.1497440338135 26.1835823059082 23.1909122467041 21.9681224822998 22.5184383392334 25.9231109619141 23.1493301391602 24.6932754516602 15.2996301651001 20.4964141845703 23.5734615325928 18.0856266021729
3.63289976119995 3.45442414283752 2.5567638874054 1.7934935092926 1.72366452217102 5.92599296569824 7.16652154922485 8.46602916717529 6.92239475250244 8.8790922164917 4.91299772262573 5.54942035675049 10.4692802429199 12.5017251968384 11.3128995895386 15.3325252532959 13.9469327926636 13.3437061309814 25.4313831329346 19.1388511657715 23.3184757232666 24.0358905792236 27.8307838439941 39.9895095825195 39.1488800048828 4.38539981842041 4.35103845596313 4.12805318832397 4.06408882141113 3.93023228645325 3.63052749633789 1.65217554569244 1.22664988040924 1.39496576786041 1.66291975975037 2.39950966835022 3.29112935066223 3.52305722236633 3.1073682308197 4.13536405563354 4.22333860397339 4.20832109451294 3.49651741981506 3.4345166683197 5.24014902114868 6.81973886489868 11.0862560272217 11.5786476135254 2.75781345367432 0.8256596326828 5.51644802093506 5.74914979934692 8.20814514160156 9.89752674102783 7.67627477645874 7.35720586776733 11.1772975921631 8.43164539337158 8.91860389709473 10.4371299743652 9.35918235778809 14.5030927658081 16.5306854248047 22.0723209381104 25.8405513763428 43.8798904418945 43.1300354003906 1.9027681350708 9.68025684356689 19.4533233642578 1.07278430461884 0.623739182949066 1.8303017616272 17.9734420776367 17.7661476135254 34.5716133117676 7.20456552505493 18.208890914917 13.2377672195435 16.0553512573242 34.6344223022461 20.1647109985352 5.27557516098022 11.8268365859985 11.8271646499634 16.7260322570801 20.3335494995117 15.5530862808228 6.48751401901245 7.14508008956909 7.12470531463623 7.29385280609131 7.36152982711792 7.51205110549927 7.71580076217651 8.1019344329834 7.89030313491821 7.83937978744507 8.67196941375732 8.53952789306641 8.75657081604004 8.88874435424805 8.94972515106201 9.30219459533691 9.62828159332275 10.0834226608276 9.87870597839355 8.68069267272949 9.41220188140869 12.0926246643066 13.757513999939 13.5053834915161 7.95187425613403 6.80073547363281 10.9234619140625 13.863881111145 14.4139499664307 13.349534034729 7.24069166183472 5.79054069519043 5.79660654067993 5.67313385009766 5.80378150939941 6.07384157180786 6.95602893829346 6.71787214279175 7.09507465362549 9.43091297149658 18.1354351043701 16.3834667205811 7.57230567932129 6.65143442153931 6.43972826004028 6.28147029876709 6.76731252670288 9.47863674163818 8.80007648468018 9.23046875 9.54490375518799 9.54685115814209 9.21854209899902 8.82015514373779 9.72348690032959 10.7825746536255 10.9108619689941 11.6629695892334 14.1110830307007 13.8107538223267 14.3037986755371 14.8909330368042 16.1984748840332 14.6317262649536 16.8472385406494 23.7879428863525 21.1452674865723 32.1069564819336 27.9264335632324 38.1828536987305 15.7526874542236 14.2027168273926 17.0259494781494 22.8858489990234 23.2869930267334 29.677698135376 27.7664909362793 26.7301597595215 23.6876258850098 23.9028377532959 23.2632713317871 10.8590784072876 22.9451751708984 24.2076930999756 5.39965915679932 -1.56292140483856 -3.08930897712708
3.40055656433105 3.98454403877258 4.07796144485474 4.08058166503906 4.4972972869873 5.27359533309937 6.92095565795898 8.24187850952148 9.93439865112305 9.99086093902588 11.2622146606445 12.0310945510864 14.7128782272339 13.5605039596558 17.1506023406982 14.4818468093872 19.5853443145752 19.9927997589111 19.1993103027344 43.0929336547852 26.640157699585 32.4840774536133 33.4755935668945 46.0413360595703 2.27763628959656 2.11788368225098 4.5738263130188 4.54521989822388 4.29981279373169 4.20843982696533 4.06541347503662 3.71033406257629 1.65333116054535 1.23738038539886 1.93692207336426 2.17994284629822 2.56298136711121 3.6115927696228 3.72998809814453 3.36094236373901 4.47530508041382 4.52459478378296 4.30570793151855 4.83939123153687 5.37552690505981 6.03131675720215 7.84036874771118 10.2158632278442 13.1578407287598 4.80731153488159 7.68803453445435 7.17151117324829 8.28616523742676 9.56889820098877 12.3463907241821 9.44294834136963 7.94412517547607 13.7931308746338 9.44180297851562 9.87852096557617 13.5340518951416 12.3950805664062 19.461935043335 22.6787300109863 37.7567138671875 42.8285865783691 2.09472632408142 1.91242909431458 9.18053150177002 10.716272354126 1.53786790370941 2.55743384361267 0.807936549186707 38.1763725280762 38.0207099914551 37.5385665893555 4.85264444351196 15.5757141113281 10.731183052063 4.85043525695801 4.43301820755005 6.09914016723633 21.9047870635986 10.5648050308228 11.896372795105 8.36270999908447 5.63897848129272 5.80000448226929 5.96219539642334 7.00929117202759 7.46000862121582 7.62364196777344 7.58043479919434 7.5567512512207 7.99829387664795 8.09144496917725 8.45730972290039 8.22521018981934 8.30768394470215 9.08125877380371 8.92831325531006 9.22074890136719 9.37565517425537 9.5327205657959 9.7507791519165 10.1028928756714 10.5157155990601 10.4683570861816 9.83468818664551 9.66739749908447 9.81265068054199 10.06480884552 9.14865970611572 9.11114406585693 19.4438591003418 20.5749549865723 25.8622131347656 29.5565662384033 28.9924583435059 11.8281545639038 6.05344152450562 6.21758365631104 6.04563426971436 5.92460250854492 9.48196697235107 7.27889633178711 7.00648355484009 7.38016223907471 6.84264659881592 6.59121942520142 6.93631410598755 6.7163872718811 6.69070768356323 6.90530872344971 6.93696212768555 7.11548328399658 9.95212936401367 10.3174047470093 9.49518394470215 10.1334190368652 10.1403827667236 9.77766418457031 9.43026638031006 10.2442207336426 11.3923349380493 11.5581350326538 12.5721492767334 15.2815284729004 14.8671903610229 15.5121803283691 16.3185920715332 20.4863681793213 16.3131408691406 25.0680179595947 16.9441757202148 22.2682991027832 43.8708305358887 24.4486713409424 18.9749984741211 22.6080360412598 20.9792957305908 20.4000110626221 23.3313369750977 26.5169296264648 25.155424118042 24.5515060424805 27.040470123291 23.067741394043 3.95286226272583 22.3783226013184 9.29624843597412 -0.747986972332001 -1.74909973144531 9.48015785217285 9.5813102722168
3.3706841468811 3.26318764686584 3.77224493026733 4.49822425842285 4.64299631118774 5.3510160446167 6.30989170074463 8.15921592712402 9.69069004058838 12.0497465133667 13.415997505188 14.1843605041504 15.0354423522949 19.3968677520752 17.1291065216064 23.5457248687744 20.7672557830811 27.5883388519287 35.2211875915527 34.2586326599121 3.24566888809204 44.8298988342285 51.3048973083496 52.4272232055664 3.40929555892944 10.051381111145 4.80876922607422 4.78987741470337 4.74364042282104 4.47718143463135 4.37200593948364 4.24688720703125 3.83722400665283 1.68974602222443 1.31534564495087 2.06461811065674 2.30199289321899 2.7097020149231 3.8700270652771 4.01647281646729 3.70506548881531 4.81403827667236 4.99873065948486 4.73876333236694 5.02466106414795 5.8137412071228 6.95951080322266 9.19855690002441 9.64959812164307 18.3061122894287 18.6693744659424 9.80324554443359 10.940375328064 11.2933177947998 11.4974765777588 16.0537738800049 11.9164667129517 8.78928565979004 20.1219520568848 11.0293951034546 13.2340240478516 19.3088779449463 19.9401321411133 34.757869720459 39.1296691894531 9.61705780029297 2.38449597358704 2.10142207145691 1.92395305633545 1.95839619636536 2.01123666763306 11.8998374938965 1.09932637214661 1.3071711063385 2.30488204956055 3.51029253005981 5.41626739501953 11.008584022522 3.91419577598572 4.2612190246582 5.86492395401001 13.5298194885254 4.40645360946655 4.87233781814575 5.89798021316528 8.21055221557617 10.7271976470947 5.76108264923096 6.22583055496216 7.01389646530151 7.09632396697998 7.50140380859375 7.94676733016968 7.98092126846313 8.06506729125977 8.35391044616699 8.52718544006348 8.9463062286377 9.22102642059326 8.90300273895264 9.52329730987549 9.3571138381958 9.74294662475586 9.96815013885498 10.3733825683594 10.6312131881714 10.8474321365356 11.2736024856567 11.6996507644653 10.5044775009155 10.9886350631714 11.3919706344604 12.2190933227539 11.5945205688477 12.4422836303711 32.1576347351074 32.8942680358887 5.4014744758606 5.26222038269043 5.41844511032104 6.01463508605957 7.15762329101562 9.32977867126465 8.27027130126953 6.22882843017578 14.6647176742554 7.57283449172974 8.68144035339355 7.60542440414429 7.83494091033936 7.80598449707031 9.02670860290527 8.85072326660156 8.36493873596191 7.28577470779419 13.8335103988647 9.91323757171631 10.167308807373 10.9927539825439 10.0062208175659 10.6439590454102 10.6915645599365 10.2116250991821 9.85559940338135 10.8251724243164 12.0565538406372 12.2892208099365 13.7029609680176 16.6800765991211 16.1434669494629 17.0133857727051 18.3432769775391 33.5673332214355 25.3031196594238 15.539740562439 20.7797164916992 29.3239288330078 15.599084854126 31.9196586608887 21.2468452453613 15.689172744751 15.3026351928711 17.0112400054932 24.0521335601807 21.7175979614258 23.378604888916 10.8374376296997 30.3619155883789 2.8510115146637 4.39517831802368 -1.98729181289673 0.749383687973022 0.136180594563484 -0.703454196453094 0.534522831439972
3.24439167976379 3.62031650543213 3.55212950706482 4.25835943222046 5.16387844085693 5.41807651519775 6.41881418228149 7.4018030166626 9.58377742767334 11.5598945617676 13.0375375747681 16.5722846984863 18.4784603118896 19.048547744751 26.5166912078857 24.1908168792725 40.8433570861816 36.6224136352539 46.0262756347656 6.03661060333252 12.1411504745483 5.05685520172119 14.9942932128906 3.31797289848328 1.27618432044983 1.7593959569931 2.07278895378113 5.02905321121216 5.01990032196045 5.09351539611816 5.04742813110352 4.78071689605713 4.65151929855347 4.50112676620483 2.18118596076965 1.3942106962204 2.15668678283691 2.39451456069946 2.46887922286987 2.875 4.40322780609131 4.05501174926758 4.32545185089111 5.36945724487305 5.32053375244141 5.4285569190979 6.31345319747925 8.15253639221191 9.12461280822754 11.7974443435669 25.9096775054932 26.7768421173096 10.0129070281982 13.8088188171387 14.9297103881836 14.8118286132812 23.0078239440918 17.374755859375 12.0162506103516 36.3929977416992 16.7427787780762 19.4727306365967 34.0411338806152 14.8311414718628 7.54857158660889 4.76514053344727 2.90885138511658 7.12387418746948 8.50073909759521 9.86737251281738 2.08532500267029 0.884821593761444 0.927866756916046 2.18511867523193 6.0379204750061 4.02615737915039 3.66483116149902 8.44293689727783 6.02848815917969 3.96542763710022 4.51529788970947 6.48149251937866 4.56512546539307 4.69991874694824 9.10377025604248 5.42703342437744 17.4517879486084 5.58771657943726 6.07338428497314 7.03486013412476 7.31789398193359 7.49289989471436 8.00534343719482 8.45866107940674 8.45066738128662 8.53167152404785 8.78659439086914 8.96305656433105 9.37860870361328 9.95404434204102 9.66177845001221 10.0010976791382 9.81038093566895 10.349268913269 10.6883525848389 11.1833171844482 11.4466590881348 11.8186750411987 12.052433013916 12.40114402771 12.3222398757935 13.0222454071045 12.9904222488403 21.3150482177734 11.5980024337769 20.6883220672607 6.16708326339722 7.6688494682312 5.57396793365479 5.44119453430176 5.61657667160034 6.55127811431885 7.5655460357666 11.7246294021606 9.70425605773926 7.25711250305176 6.10542774200439 7.72015142440796 9.07964324951172 9.00078392028809 12.0034513473511 10.5469360351562 26.6555557250977 11.4726285934448 7.38165140151978 11.1930990219116 7.22736883163452 10.416187286377 10.6836471557617 11.5161561965942 10.4570093154907 11.1683692932129 11.2714185714722 10.6846742630005 10.3351755142212 11.4885778427124 12.8128328323364 13.134162902832 15.1033563613892 18.9211654663086 17.7570838928223 20.2438259124756 21.433931350708 15.8486557006836 20.6302795410156 24.6242904663086 33.5404014587402 29.7481117248535 19.5386180877686 14.6441650390625 10.5706548690796 18.4613418579102 16.4470462799072 21.7168884277344 32.1050682067871 28.2644672393799 10.1781568527222 11.1945695877075 -3.51794505119324 -1.57689833641052 11.2137641906738 -0.108168534934521 1.47389209270477 2.19556283950806 1.35991728305817
3.71304082870483 3.49504804611206 3.91168642044067 3.71225309371948 4.92253875732422 5.8610987663269 6.22539758682251 7.94176912307739 9.04950904846191 11.4595327377319 12.7805604934692 16.2559261322021 21.7465171813965 25.6627235412598 26.6263885498047 44.5965538024902 41.803581237793 7.13412189483643 8.06593799591064 2.49480247497559 8.98850154876709 6.32381916046143 5.26821613311768 1.17956817150116 0.958588421344757 1.78849351406097 2.57949376106262 5.13974905014038 5.28858184814453 5.36633205413818 5.37685203552246 5.352370262146 5.06929969787598 4.94132614135742 4.82710838317871 2.50230860710144 1.86633324623108 2.25053811073303 2.49091053009033 2.5771222114563 3.04403877258301 4.81508636474609 4.43227577209473 4.74394750595093 5.79906797409058 5.71600532531738 5.89089822769165 6.87702989578247 8.94347763061523 11.8168821334839 15.982852935791 44.546802520752 46.1463508605957 13.3875131607056 17.9531803131104 21.5665035247803 21.8179588317871 40.395076751709 31.9421119689941 23.3014183044434 7.56289005279541 31.3053150177002 11.7947483062744 9.14224529266357 9.44402408599854 11.2925653457642 9.00066757202148 6.04223346710205 22.2365036010742 3.32633090019226 2.56091713905334 3.23630595207214 2.54759979248047 1.65098679065704 3.74393916130066 7.75478363037109 9.77181243896484 12.7625207901001 9.99090480804443 9.34436798095703 11.8608236312866 13.8136186599731 13.44553565979 10.6363162994385 8.0316686630249 5.12467336654663 5.47448587417603 5.05399513244629 6.03768062591553 7.25951671600342 7.22379016876221 7.64102220535278 7.74670171737671 8.29338932037354 8.89008331298828 8.85533428192139 8.9154224395752 9.21372127532959 9.27724647521973 9.97632598876953 10.9262409210205 10.5007610321045 10.5094175338745 10.3110628128052 11.0038623809814 11.3414783477783 12.2540006637573 12.4517097473145 13.0002098083496 13.2557764053345 13.3578062057495 14.8160676956177 16.958381652832 18.1276664733887 12.3643550872803 16.4963111877441 7.46643686294556 11.7358779907227 5.39828062057495 5.78903579711914 5.62961101531982 7.30003452301025 10.6199884414673 8.27848243713379 14.1666078567505 13.2097301483154 10.572039604187 14.4531669616699 15.0452814102173 14.2824850082397 9.86851596832275 31.0222358703613 23.8016719818115 7.48796319961548 14.882098197937 8.00482940673828 8.00193691253662 7.9717960357666 10.9235372543335 11.1827754974365 12.0783729553223 11.0297899246216 11.8134813308716 11.9944353103638 11.3241901397705 10.9984941482544 12.2367420196533 13.6712703704834 14.1188297271729 16.9228057861328 25.2513828277588 28.4480438232422 31.9955043792725 25.55810546875 20.3664684295654 34.2891616821289 36.2912864685059 27.2252006530762 15.3598966598511 3.98309540748596 5.0607647895813 13.175350189209 7.83040428161621 3.51110577583313 6.54438591003418 -2.73587775230408 -2.95710635185242 4.34244060516357 19.6500587463379 -3.14117360115051 -0.603303134441376 0.438725203275681 0.220138043165207 -2.11295604705811 5.22940349578857
