NCOLS 174
NROWS 32
XLLCORNER 353952
YLLCORNER 6699936
CELLSIZE 16 
NODATA_value -3.4e+38 
3.346186876297 2.18364429473877 2.01652860641479 2.41470575332642 4.28949451446533 2.40390467643738 1.76388418674469 1.69979763031006 1.80614256858826 1.80903589725494 1.68340456485748 1.57032561302185 1.60953462123871 1.54002130031586 1.38528907299042 1.08690869808197 0.992431402206421 1.5248875617981 0.75302529335022 1.43122518062592 3.52840662002563 3.2270770072937 2.69971108436584 3.08238649368286 5.54707813262939 4.67687892913818 1.79303979873657 0.87210613489151 0.612015664577484 0.493339002132416 1.11010694503784 0.495534420013428 1.10655474662781 0.53470253944397 0.568682193756104 0.831236958503723 0.639752328395844 1.17719793319702 1.49933385848999 0.856791198253632 1.38400197029114 1.84814667701721 2.38688683509827 2.98444533348083 3.30510449409485 3.532958984375 3.13364458084106 3.05575108528137 2.96710801124573 2.99848937988281 3.53379082679749 3.03556632995605 2.94486546516418 1.31107020378113 13.2136602401733 1.39060008525848 5.1272611618042 8.43813419342041 11.7200536727905 4.38396883010864 15.4633893966675 2.16548228263855 1.83016216754913 2.64395928382874 2.44755935668945 3.22802233695984 2.65831470489502 2.35990953445435 1.61813735961914 2.28514075279236 4.22071027755737 1.33147883415222 20.4462738037109 13.1324768066406 3.789137840271 2.66997909545898 1.39908003807068 0.18484129011631 0.11465086042881 -0.0700359269976616 0.61061692237854 3.49787759780884 4.01810932159424 0.52957808971405 5.12895345687866 0.817099690437317 -1.04574429988861 -1.57501029968262 -1.86350750923157 -0.754229784011841 0.153753489255905 1.89765202999115 2.34974050521851 3.38111042976379 4.06231641769409 5.87263822555542 6.52925586700439 4.74778747558594 18.2705211639404 2.68169116973877 0.769921064376831 1.0889538526535 14.3415145874023 9.73465824127197 12.0850486755371 22.4933452606201 16.1295680999756 18.8245048522949 12.3168306350708 10.0708255767822 7.41882085800171 9.68362712860107 10.6893301010132 15.0753479003906 13.6775054931641 14.1875190734863 15.230260848999 16.9807586669922 31.6662864685059 25.8938484191895 24.2628345489502 24.9135074615479 22.8293170928955 25.6936531066895 30.8030567169189 25.6070461273193 15.3238439559937 23.8532199859619 24.4139785766602 23.7330989837646 25.1747169494629 25.2317008972168 29.1352367401123 19.6634159088135 36.5011177062988 27.996452331543 23.5797634124756 20.6702880859375 19.7881774902344 19.814624786377 9.04249858856201 12.5523328781128 17.8069515228271 17.4214954376221 16.4822216033936 13.7454824447632 12.9312076568604 12.8306760787964 12.1981611251831 12.40576171875 10.6299095153809 9.89021396636963 9.14244842529297 8.45510864257812 7.78334760665894 5.60407686233521 6.01453542709351 7.43533325195312 7.17645931243896 6.16602802276611 6.13092708587646 7.87440347671509 8.57935523986816 7.99768352508545 8.52493381500244 8.52963733673096 8.31584644317627 8.15237426757812 6.291907787323 4.36148023605347 4.18887329101562 5.11742496490479 7.44218587875366 6.63792943954468
2.62087726593018 1.92537415027618 1.93153262138367 2.45220446586609 4.10018062591553 2.67708086967468 2.29713940620422 1.67804384231567 1.73851931095123 1.67929649353027 1.60499572753906 1.53368973731995 1.58155691623688 1.46332061290741 1.39804744720459 1.16943228244781 0.96390974521637 0.869335114955902 1.39671850204468 0.685734629631042 3.31354665756226 2.5828230381012 3.09370541572571 2.58810782432556 5.01638031005859 4.18167066574097 3.73051285743713 1.7360851764679 0.66399747133255 0.478466063737869 0.460901856422424 1.01492488384247 1.04249143600464 0.485308825969696 0.514700412750244 0.529919147491455 0.792719542980194 0.695696830749512 1.09022963047028 1.39147984981537 0.774541914463043 1.32368195056915 2.23700451850891 1.90911483764648 3.15411019325256 3.40782761573792 3.30140781402588 2.87917184829712 2.73488759994507 2.73176240921021 3.30075144767761 2.95294594764709 2.83004522323608 9.86672401428223 30.98486328125 8.31083202362061 3.34734392166138 5.13702154159546 7.21866798400879 1.8586905002594 4.72521114349365 2.34871602058411 6.39822196960449 14.7895631790161 2.35000348091125 1.79899156093597 1.04283583164215 2.11753940582275 1.46912908554077 1.47176897525787 2.08490419387817 2.82146692276001 10.3148384094238 3.83833909034729 5.91905641555786 2.17271041870117 0.230488643050194 0.934529840946198 13.8634824752808 11.775242805481 2.82933926582336 2.50201439857483 2.70511198043823 1.90177893638611 6.0238733291626 1.02958977222443 -0.847533285617828 -1.70498132705688 -2.31524181365967 -2.34563565254211 -1.29456901550293 0.138020038604736 -0.0990418791770935 1.41227638721466 3.69692015647888 3.28455758094788 10.3714628219604 5.62279939651489 12.6365156173706 3.10313057899475 2.49471354484558 3.57746005058289 3.55792307853699 5.17518854141235 12.6404981613159 15.3165769577026 16.2237415313721 11.0013198852539 11.2298078536987 4.24789190292358 7.97184419631958 3.921138048172 2.70315766334534 15.9806547164917 12.9429798126221 13.2256155014038 13.7322216033936 14.3380222320557 24.1396160125732 21.7850456237793 22.1223907470703 13.5972108840942 11.2989063262939 26.2439956665039 22.1111698150635 18.1050148010254 9.07175922393799 18.0986042022705 25.1260795593262 24.5061130523682 28.1391639709473 33.3034744262695 21.4759635925293 14.4901304244995 19.5976276397705 24.7602291107178 21.1777782440186 18.9426422119141 18.2015323638916 11.592794418335 16.4437580108643 27.535457611084 24.2844562530518 16.2343006134033 15.4569520950317 14.455286026001 12.783748626709 12.2129211425781 11.8934335708618 11.6462001800537 10.8092765808105 10.060154914856 9.05680274963379 8.61652278900146 7.91409921646118 6.05965757369995 4.88865423202515 6.18646001815796 7.00322771072388 6.74799203872681 5.89648199081421 7.39333057403564 6.77226066589355 7.50416040420532 7.01166772842407 7.65351390838623 7.66345167160034 7.36524724960327 5.83868646621704 4.53082370758057 11.4596319198608 23.1866645812988 20.592658996582 6.29110145568848
2.55617642402649 2.0448739528656 2.43492937088013 1.91388142108917 2.4065043926239 3.68649554252625 2.27767300605774 2.20715689659119 1.67126893997192 1.57953023910522 1.55828106403351 1.49451529979706 1.40809941291809 1.44825172424316 1.37464118003845 1.23527860641479 0.973669588565826 0.865238964557648 1.41002154350281 0.700663149356842 1.26055753231049 2.93935465812683 3.0153501033783 2.52095031738281 2.84892296791077 4.45362997055054 3.69273281097412 2.56937170028687 0.73680967092514 0.467568278312683 0.335855096578598 0.852810442447662 0.2876797914505 0.979630708694458 0.4290471971035 0.464330971240997 0.448655068874359 0.48753023147583 0.986392438411713 1.28483021259308 0.663139462471008 1.17506849765778 1.60572707653046 2.06147694587708 2.60385751724243 2.9240345954895 3.14472603797913 3.06835842132568 2.63478684425354 2.41812992095947 2.49805784225464 3.00495553016663 2.78032565116882 2.67206764221191 20.7369823455811 6.7072229385376 20.1440143585205 13.9277658462524 2.02343654632568 1.74128699302673 20.7883377075195 2.96339321136475 4.68073272705078 6.85786819458008 2.19087266921997 2.20237255096436 1.42416596412659 16.7124042510986 1.64390075206757 1.39974272251129 1.45517110824585 3.38489317893982 5.12031888961792 6.64556264877319 4.86853218078613 8.50101280212402 0.240685015916824 3.06362175941467 6.63045644760132 6.49017524719238 1.9739031791687 1.18866896629333 6.26970529556274 5.56110286712646 0.442577034235001 3.41966414451599 -0.714793741703033 -1.22157526016235 -2.0204815864563 -2.49587082862854 -1.66300976276398 1.28564023971558 0.696686565876007 -0.180869445204735 -0.184112370014191 1.89505875110626 10.0028848648071 5.41240739822388 7.4364218711853 6.59094953536987 3.42213940620422 3.10041618347168 5.57567739486694 9.20539379119873 18.0045070648193 10.2894477844238 14.1968088150024 8.58913421630859 6.95839738845825 3.93772459030151 3.2772274017334 2.03173756599426 4.43392896652222 11.5927295684814 11.903844833374 10.1648931503296 12.036865234375 13.4904022216797 15.1941223144531 19.5655994415283 17.1537246704102 21.9896945953369 33.851016998291 34.7109909057617 18.8034858703613 16.7679634094238 14.333779335022 12.6728553771973 18.7884960174561 21.1566925048828 22.2845706939697 22.7028007507324 23.6756629943848 18.2158699035645 16.9197425842285 20.7918605804443 20.4850025177002 17.6050243377686 12.6803960800171 9.95406723022461 27.1556854248047 32.3182983398438 29.1424369812012 24.4944667816162 15.0308198928833 14.2881278991699 12.1996564865112 11.6091194152832 11.4892349243164 11.2664213180542 10.8205547332764 9.65618419647217 8.99956512451172 8.29956531524658 7.60353231430054 6.97105073928833 4.95780754089355 5.50528621673584 6.76026916503906 6.51307106018066 5.55345821380615 3.66661310195923 2.70401906967163 2.61158776283264 2.48531103134155 6.91601848602295 6.86272096633911 6.63740253448486 5.97060108184814 4.8448371887207 4.35114669799805 13.0763292312622 4.29340648651123 21.7642593383789
2.20406460762024 2.02371716499329 1.82714748382568 1.80894875526428 1.7367388010025 3.50588941574097 2.52709412574768 2.24511623382568 1.63619673252106 1.54763352870941 1.40116989612579 1.41733348369598 1.36182165145874 1.30457246303558 1.31089675426483 1.24078643321991 1.03663921356201 0.878819286823273 0.802072703838348 1.33197271823883 0.656685888767242 1.12902295589447 2.60750961303711 2.89940500259399 2.41986513137817 4.0651388168335 3.29909658432007 3.4121425151825 1.58245599269867 0.534040749073029 0.373746991157532 0.32488876581192 0.83840137720108 1.89787900447845 0.31571701169014 0.33012655377388 0.382662326097488 0.438940823078156 0.552956998348236 0.895113825798035 1.16398823261261 0.575126588344574 1.06201457977295 1.89670753479004 1.56675851345062 2.7361695766449 2.96205997467041 2.90831303596497 2.55509614944458 2.24832463264465 2.26032733917236 2.83816409111023 2.64267206192017 2.58469533920288 4.9029278755188 13.289475440979 5.17135238647461 3.83845162391663 1.81413459777832 12.458176612854 2.26784181594849 2.86227536201477 3.7757785320282 2.07317924499512 4.49587678909302 1.63362288475037 1.28089463710785 12.1076745986938 1.65807974338531 1.38269913196564 2.42850780487061 4.0994873046875 6.32253265380859 2.33560562133789 4.32584857940674 4.79700040817261 1.87698149681091 13.258807182312 14.6059217453003 4.62429046630859 3.86473798751831 1.68624091148376 0.841772675514221 3.03791522979736 0.890974998474121 9.07504844665527 -0.748270571231842 -1.19337463378906 -1.84350538253784 -2.48262858390808 -2.73917388916016 -2.32511377334595 -0.964145004749298 -0.219508230686188 6.96502828598022 20.1171875 25.4720344543457 15.2164907455444 6.48377752304077 5.10744428634644 2.88839793205261 2.32953357696533 17.0173110961914 20.3321170806885 12.2618741989136 8.34391307830811 7.99433326721191 6.87975931167603 4.03066921234131 4.4306206703186 8.04990673065186 30.3478908538818 24.3720684051514 26.6322536468506 31.5166721343994 11.146951675415 11.1121988296509 12.1408519744873 13.0695714950562 16.2946796417236 16.8946704864502 15.618727684021 26.4506664276123 27.214168548584 17.1903076171875 15.0907707214355 12.615478515625 9.47636890411377 14.2752838134766 19.2056312561035 18.4902439117432 18.395092010498 20.2038803100586 17.8757247924805 24.4572124481201 20.6649188995361 16.5384769439697 16.2269725799561 14.3475008010864 15.1551294326782 24.6867446899414 14.0342273712158 23.8412113189697 19.7696151733398 14.1123180389404 13.4436502456665 12.8320360183716 11.6385459899902 11.0835943222046 10.8437662124634 10.3237676620483 9.63949489593506 9.02674007415771 8.15441989898682 7.70492792129517 6.96813058853149 6.47520732879639 4.35530996322632 5.69428253173828 6.38358354568481 6.12352609634399 4.01884317398071 2.76425099372864 2.36070394515991 2.00594544410706 40.7400131225586 6.11114025115967 6.06114196777344 5.85234689712524 4.93532085418701 4.12048578262329 4.22812557220459 3.30211448669434 4.12323808670044
2.1213846206665 1.76934134960175 1.98771440982819 1.66214263439178 1.61661911010742 2.25893545150757 3.23226571083069 2.41618680953979 2.05073118209839 1.40645146369934 1.44852817058563 1.37398934364319 1.2907909154892 1.24023723602295 1.27908408641815 1.17013883590698 1.12499833106995 0.934921860694885 0.779976665973663 0.724321484565735 1.25227272510529 1.1115642786026 2.49243378639221 2.31641173362732 2.79603672027588 2.64895558357239 3.62162637710571 3.28243732452393 2.59963893890381 -0.355217546224594 0.372912913560867 0.301460415124893 0.934806525707245 0.594038188457489 0.267851650714874 0.244265452027321 0.290667235851288 0.309901922941208 0.367455869913101 0.469221115112305 0.788050889968872 1.04576671123505 0.477670311927795 1.00078046321869 1.72769844532013 2.20718145370483 2.52201843261719 2.74174666404724 2.71964406967163 2.33809876441956 2.04437255859375 2.16567277908325 2.66215896606445 2.53580665588379 2.45220828056335 10.6923923492432 4.44723320007324 3.07523441314697 8.23717975616455 14.429141998291 14.8340148925781 3.92416334152222 2.6203191280365 3.32744312286377 3.01771569252014 5.95071077346802 1.54835534095764 14.7937507629395 6.75569725036621 2.99246549606323 4.36167478561401 4.99019908905029 4.45163917541504 1.42002308368683 11.8881044387817 3.76428747177124 2.73599815368652 10.2389097213745 8.49791526794434 6.16905641555786 8.12208843231201 0.807235717773438 -0.108896613121033 13.1876783370972 0.813922584056854 2.24789905548096 -0.290510416030884 -1.1835972070694 -1.74563884735107 -2.42658948898315 -2.80184674263 -2.97109818458557 8.30687618255615 7.8076319694519 -0.421232223510742 24.3266506195068 24.8266563415527 8.81441974639893 5.02313137054443 3.31826829910278 4.07498168945312 2.5721755027771 12.6650419235229 16.7165679931641 12.0727834701538 9.94762516021729 3.51504874229431 6.44443130493164 3.90076160430908 3.65819835662842 10.3281803131104 3.26375460624695 25.2741222381592 8.33314895629883 22.3485431671143 10.0618305206299 10.3929948806763 10.9903841018677 12.4514646530151 12.8519802093506 15.9735546112061 14.4096841812134 17.7566452026367 19.5752696990967 20.2402877807617 15.0382699966431 13.3302383422852 11.3942947387695 8.4708251953125 12.8899507522583 16.6048851013184 16.3400783538818 16.4856510162354 15.9942083358765 15.8022508621216 15.9859733581543 15.7284688949585 15.2648849487305 14.1651659011841 12.3608093261719 26.4007053375244 22.7354125976562 20.6131706237793 16.3958683013916 12.9089021682739 13.2037963867188 12.6390380859375 12.1671857833862 10.7807016372681 10.3360280990601 10.0978574752808 9.57617568969727 8.68139743804932 8.13570117950439 7.61129283905029 7.08802366256714 6.46897268295288 5.00916290283203 5.0661416053772 6.1813759803772 5.92733812332153 3.84498953819275 2.99844884872437 2.50471997261047 1.74883639812469 2.03099822998047 4.95614862442017 5.5611834526062 5.50397396087646 5.41676139831543 4.75329494476318 3.88361978530884 3.59965062141418 9.27348709106445
2.00505948066711 1.84459781646729 2.46316027641296 2.58129644393921 1.5723762512207 1.59510576725006 2.1806948184967 2.75665235519409 2.0004894733429 1.42596733570099 1.40888357162476 1.30670571327209 1.26983559131622 1.15663826465607 1.11172199249268 1.15576601028442 1.08947050571442 0.967327296733856 0.761961042881012 0.71154910326004 1.24397158622742 0.599744617938995 0.983710825443268 2.26546716690063 2.72918796539307 2.27407741546631 2.53257632255554 3.26358366012573 3.15903949737549 0.729305267333984 -0.230731561779976 0.305463492870331 0.249365612864494 0.72797691822052 0.186760663986206 0.138006821274757 0.155980110168457 0.205734342336655 0.268636226654053 0.28540712594986 0.711021780967712 0.962939739227295 0.410794585943222 0.877105116844177 1.30907070636749 1.57305312156677 2.02739953994751 2.33542227745056 2.58436560630798 2.28535866737366 1.94828176498413 1.98416435718536 2.55537080764771 2.3774209022522 2.38602089881897 1.13691902160645 8.13758945465088 1.78424465656281 8.52108001708984 14.5444030761719 4.82244157791138 3.98131036758423 1.93984997272491 3.59473919868469 1.51959764957428 1.07289755344391 0.875969171524048 9.47229862213135 5.77491569519043 3.2543420791626 4.73371553421021 4.93814134597778 0.284431219100952 1.49250066280365 7.54149723052979 12.0030393600464 12.2583332061768 10.7016077041626 19.7339286804199 19.5841045379639 4.62880182266235 4.02871799468994 -0.0796747505664825 10.8334655761719 0.0183358993381262 0.111600048840046 -0.438683032989502 -0.98282790184021 -1.66966247558594 -2.56396222114563 -2.78396773338318 -3.17264866828918 5.45005130767822 -1.56527972221375 2.08923125267029 37.3599014282227 15.6912784576416 12.7431774139404 4.06055688858032 4.3820013999939 3.47031784057617 2.73733186721802 9.33985900878906 18.2119407653809 13.2174520492554 7.79407978057861 2.09737968444824 0.653660595417023 4.47538375854492 2.51805949211121 8.32657814025879 10.5855665206909 11.7357330322266 18.1554317474365 24.4612197875977 15.2243432998657 9.29149723052979 9.74367237091064 10.4294414520264 11.8204746246338 13.498462677002 14.4968414306641 13.1600408554077 17.7899379730225 18.4125461578369 14.3717947006226 13.6084623336792 10.6925249099731 8.966721534729 10.0562496185303 13.7231597900391 14.4848127365112 13.9180221557617 14.1377964019775 13.3471002578735 13.7804470062256 13.4262981414795 13.6452188491821 14.5037260055542 13.0255270004272 17.6178512573242 21.2473449707031 12.7202701568604 17.0078945159912 13.8578090667725 12.217963218689 12.5249252319336 11.9834108352661 10.6712551116943 10.0389823913574 9.65727424621582 9.16661167144775 8.6182689666748 8.18037796020508 7.65811109542847 6.98975229263306 6.30404949188232 5.87739229202271 4.47647333145142 4.85001802444458 5.86326313018799 4.7860860824585 10.4464693069458 21.2481498718262 21.6972179412842 33.4260864257812 17.4468574523926 5.40260791778564 5.34633731842041 5.26138353347778 5.9116005897522 8.5422887802124 3.39830636978149 6.37128877639771
1.58295714855194 1.71833467483521 3.22325158119202 1.97926700115204 1.50447750091553 1.5321831703186 2.101318359375 2.61841058731079 2.19620156288147 1.89795398712158 1.27167701721191 1.30342864990234 1.17326784133911 1.13087022304535 1.07270061969757 1.1101690530777 1.01332974433899 0.969256103038788 0.794836938381195 0.667182564735413 0.63115268945694 1.1575391292572 0.562177181243896 2.15386438369751 2.17940831184387 2.63033270835876 1.04219090938568 1.60069680213928 1.44204568862915 0.986643731594086 0.000368686305591837 26.2355251312256 0.203953698277473 0.63267982006073 0.128658756613731 0.0922831892967224 0.0748037174344063 0.1100172996521 0.140839844942093 0.200034186244011 0.326435208320618 0.619290053844452 0.866469502449036 0.335437208414078 0.787817299365997 1.48062944412231 1.16433906555176 2.22819781303406 2.44180083274841 2.47906589508057 2.14772725105286 1.85788357257843 1.91337633132935 2.49860310554504 1.63315105438232 0.936849594116211 29.4854316711426 2.27905011177063 14.1787567138672 13.7753381729126 2.22132992744446 7.2431755065918 11.1218318939209 10.7628345489502 3.17569231987 1.53519940376282 3.94972443580627 20.7019309997559 7.02533626556396 5.36422729492188 4.50292491912842 0.647207736968994 0.906549096107483 21.0204105377197 10.5789937973022 3.76872229576111 6.95243453979492 7.85078001022339 15.2407350540161 12.8455924987793 8.89099502563477 3.6399564743042 0.402649074792862 -0.125909209251404 4.15642023086548 5.50450849533081 0.428500235080719 -0.42525041103363 -1.69589984416962 -2.15454244613647 -1.14340269565582 1.42046737670898 5.80940198898315 6.37484741210938 3.73531937599182 23.6559906005859 6.44075727462769 11.9432716369629 5.50433683395386 8.34074783325195 4.75213098526001 9.79048156738281 13.0424289703369 12.4935531616211 3.8121292591095 5.34041118621826 2.22027254104614 0.40590101480484 1.89974772930145 3.87799429893494 22.7206382751465 16.720739364624 6.71290731430054 3.71396017074585 6.49084997177124 12.0146312713623 8.37523174285889 8.46566486358643 9.44527912139893 10.4457702636719 11.5238819122314 12.4559774398804 13.2006273269653 12.0551338195801 15.1636352539062 15.5802822113037 13.1829013824463 11.5441398620605 9.86792850494385 8.03785800933838 10.9900760650635 13.4202499389648 12.966254234314 12.9217586517334 12.2019290924072 12.0787754058838 12.7260780334473 12.120020866394 13.7627353668213 12.3136234283447 13.7258377075195 18.820743560791 12.6930084228516 15.8516092300415 12.6748733520508 12.3461437225342 11.8614406585693 11.3699331283569 10.8930540084839 9.65861797332764 9.26704025268555 9.05514621734619 8.58200168609619 7.6030969619751 7.73036479949951 7.05371856689453 6.66355657577515 6.10924959182739 4.7340292930603 4.49262666702271 5.77486371994019 4.2838978767395 19.2644329071045 25.039041519165 29.8321285247803 32.441764831543 31.5543689727783 37.2795333862305 5.63893127441406 5.41674184799194 5.20645570755005 8.35782146453857 3.82866096496582 16.5731983184814
1.47562515735626 1.44915211200714 3.02786564826965 1.61805236339569 1.86322891712189 1.40103435516357 1.43303549289703 2.01502180099487 2.39784908294678 1.86425828933716 1.2922455072403 1.16658616065979 1.17129266262054 1.09203612804413 1.01648986339569 0.974220454692841 0.996219158172607 0.930338978767395 0.816539824008942 0.637848138809204 0.599529683589935 1.13372623920441 0.534044802188873 0.867368936538696 2.14142942428589 2.56229662895203 1.04730093479156 0.410131305456161 0.654068052768707 0.899679601192474 0.235462933778763 -1.14116811752319 0.222619935870171 0.12285889685154 0.54306960105896 0.0309396702796221 -0.00925631169229746 0.00708545278757811 0.0549914948642254 0.0830608606338501 0.149378329515457 0.54408723115921 0.78966236114502 0.260859221220016 0.268244475126266 0.185660183429718 1.40438079833984 1.83750462532043 2.1506495475769 2.38187074661255 2.44397830963135 2.12520360946655 1.83239531517029 1.99736070632935 2.47051119804382 3.99963688850403 26.1503009796143 5.89247465133667 9.93937587738037 2.96648907661438 1.49434578418732 5.57242202758789 7.30012464523315 6.95059251785278 2.91559672355652 9.79619693756104 18.4387969970703 23.1365966796875 6.31813669204712 5.04302024841309 0.782809734344482 1.20278203487396 8.56507301330566 19.7591419219971 8.86850833892822 6.98597383499146 14.6062383651733 5.91997718811035 6.71998071670532 9.9110050201416 8.2490177154541 4.21848583221436 2.03160643577576 4.5630931854248 6.40719413757324 6.83823680877686 2.80525493621826 1.2489800453186 -1.2629679441452 -2.10171389579773 4.62007713317871 -0.734279334545135 5.11251020431519 3.03025650978088 9.63462066650391 9.88589763641357 10.7173833847046 18.2359447479248 7.12958717346191 3.70320725440979 4.051429271698 2.89796924591064 2.03531265258789 2.77466940879822 8.31470012664795 1.69765174388885 0.230458125472069 0.228222876787186 -0.228851437568665 20.7959480285645 12.9561862945557 10.9014730453491 5.90704250335693 8.07455921173096 33.6656494140625 18.8737125396729 9.99575424194336 7.93821001052856 8.05648803710938 9.35261917114258 10.7732877731323 11.3549957275391 12.3509206771851 11.6307191848755 13.8164072036743 14.2277479171753 12.8648242950439 12.0492849349976 10.2872467041016 8.6991548538208 8.58961582183838 11.563702583313 12.133620262146 11.8879995346069 11.5158739089966 11.3164558410645 11.4257593154907 11.5834484100342 11.4281015396118 12.4244422912598 11.5031023025513 11.7288675308228 15.0596418380737 11.5127630233765 13.8665742874146 11.9128484725952 11.1391353607178 11.2813138961792 10.6455965042114 9.70912647247314 9.1235294342041 8.76321220397949 8.25571250915527 7.82731008529663 7.51259803771973 7.11587047576904 6.6196608543396 6.09734439849854 5.69899892807007 4.36976528167725 4.6764030456543 4.1073694229126 25.5494365692139 13.1283178329468 22.2694301605225 21.6513938903809 28.0884952545166 29.3258819580078 6.22299003601074 5.99372673034668 5.30978059768677 5.12655019760132 3.80867123603821 9.90739727020264
1.41449463367462 2.48904705047607 2.62404751777649 1.57117521762848 1.83441293239594 1.47235202789307 1.38241922855377 1.97434115409851 2.28983902931213 2.04356098175049 1.75527036190033 1.18453538417816 1.13605177402496 1.00478076934814 0.984363913536072 0.95248156785965 0.978917062282562 0.869553864002228 0.82403975725174 0.66120582818985 0.550752699375153 0.531233608722687 1.06781184673309 0.480359256267548 1.84498012065887 2.02583932876587 1.9487487077713 0.553852617740631 15.6974191665649 0.750890076160431 2.21479082107544 13.9433193206787 4.98596954345703 0.0880672037601471 0.0589605011045933 0.45845291018486 -0.0188032817095518 -0.0553904250264168 -0.0395571365952492 0.00582906045019627 0.0578213334083557 0.0704559609293938 0.453394055366516 0.707992613315582 0.225975066423416 0.211775630712509 1.35749590396881 1.07333433628082 2.11313581466675 2.35679864883423 2.4164502620697 2.15975880622864 1.86031568050385 1.88384008407593 2.40533781051636 9.81353569030762 8.30670356750488 2.49244856834412 5.03176879882812 1.10007297992706 10.9463996887207 0.000703465600963682 3.72707223892212 3.69088649749756 4.55869579315186 2.82666897773743 13.3302459716797 16.9889965057373 0.62495881319046 0.335866719484329 1.15116500854492 9.51696300506592 9.47480297088623 1.03393840789795 11.3624839782715 3.55054903030396 9.36288452148438 4.06313180923462 3.84148645401001 8.6108512878418 8.12934017181396 6.12661218643188 2.56483244895935 6.39741897583008 3.5336766242981 3.96025681495667 -0.15391431748867 0.0951215550303459 -0.526336014270782 9.62864303588867 1.15145313739777 1.22630631923676 12.5079355239868 10.6653604507446 7.58100366592407 12.2463569641113 15.7491092681885 18.5896606445312 13.0165538787842 3.67968153953552 2.40404319763184 2.20406484603882 2.55837416648865 1.87848484516144 1.52108383178711 1.03027713298798 0.164089366793633 -0.91019082069397 -0.74927818775177 -0.441710293292999 6.06452560424805 8.67304801940918 8.55252647399902 4.82130765914917 2.32500648498535 12.1691951751709 9.44003963470459 7.37640523910522 7.71034336090088 8.86858558654785 9.63626480102539 10.5629234313965 10.8741073608398 11.3556528091431 10.9183683395386 12.3931894302368 12.114465713501 11.4930410385132 9.69795608520508 9.18698024749756 7.52102947235107 8.8527250289917 11.4165306091309 10.9719867706299 10.9052400588989 10.5724143981934 10.5553350448608 11.0464248657227 10.4838314056396 11.8359928131104 11.1679773330688 11.4049634933472 13.8701753616333 10.9978437423706 10.9981155395508 12.5015163421631 11.3067636489868 10.7148752212524 10.092583656311 9.77497577667236 9.19597053527832 8.62677097320557 8.20486640930176 7.8078761100769 7.44984292984009 7.19322490692139 6.65580272674561 6.36807918548584 5.8835768699646 4.57153177261353 3.9656674861908 4.95651531219482 30.576530456543 11.8080606460571 19.6801490783691 22.533576965332 24.5542812347412 21.9153156280518 20.0279788970947 5.34660959243774 5.24681901931763 5.14233589172363 6.34241199493408 28.7484703063965
1.37060987949371 1.34264290332794 1.45860850811005 1.37042474746704 1.40935397148132 1.76848542690277 1.28175795078278 1.30859839916229 1.87747669219971 2.07781481742859 1.71777677536011 1.65807688236237 1.01168060302734 1.01709532737732 0.960279762744904 0.87960296869278 0.837974190711975 0.868563890457153 0.786440193653107 0.656017780303955 0.50702828168869 0.46574205160141 0.436857223510742 0.958538889884949 0.678688228130341 1.62910068035126 1.92870509624481 1.27730655670166 13.0130252838135 5.46447038650513 10.8352022171021 11.7078790664673 -1.08513617515564 0.985078930854797 -0.00162590050604194 0.378012359142303 -0.0371956750750542 -0.053497813642025 -0.079155445098877 -0.0703421458601952 -0.0533606335520744 -0.00785413105040789 -0.00713528320193291 0.395838052034378 0.641761422157288 0.181533485651016 0.12585337460041 1.30869317054749 1.76169919967651 2.09875512123108 2.34542369842529 2.40052366256714 2.08195352554321 1.77231550216675 1.89625096321106 2.31348395347595 6.99246740341187 13.4504261016846 19.5889186859131 2.67464208602905 0.120908483862877 -1.25067448616028 33.3272018432617 2.42820429801941 3.41346645355225 3.1279079914093 0.823129773139954 0.0151179023087025 0.370998799800873 15.8387632369995 15.9606218338013 3.79624962806702 0.906364142894745 8.91833400726318 11.0346040725708 4.40492486953735 4.88841772079468 4.76135444641113 3.24471735954285 4.53088092803955 7.22115898132324 6.20277738571167 2.20908427238464 2.95435762405396 1.23481297492981 2.45285296440125 0.20778813958168 15.2385816574097 4.84150981903076 -1.37980711460114 7.8600869178772 16.7624111175537 28.1205902099609 23.5010375976562 13.3375673294067 17.4823436737061 23.6535015106201 15.7598905563354 6.73773288726807 4.30050992965698 2.92564463615417 17.9006748199463 6.55101203918457 4.19536018371582 1.39944267272949 5.00255584716797 0.560480117797852 -0.221795365214348 -0.903918325901031 4.10769414901733 23.5801944732666 10.2441902160645 10.8479995727539 5.15773010253906 6.16867828369141 13.129451751709 9.65153026580811 8.90190982818604 7.41503953933716 7.64253044128418 8.77068901062012 10.0172538757324 10.5171012878418 10.7250690460205 10.472297668457 11.6084508895874 10.9083766937256 10.6370983123779 10.5187864303589 8.97628498077393 8.03157806396484 6.77947282791138 8.84175777435303 10.3751001358032 9.93879127502441 9.88733100891113 9.80160617828369 9.78209114074707 10.079665184021 9.80351638793945 10.8160343170166 10.480297088623 10.7568063735962 12.0011205673218 10.7608470916748 11.8649072647095 10.8892183303833 10.0748558044434 10.0402641296387 9.46016693115234 8.8834810256958 8.35443782806396 8.08773612976074 7.81951284408569 7.44578075408936 7.00066137313843 6.40098810195923 4.93607044219971 4.09017753601074 4.21051597595215 3.27857112884521 4.48300886154175 20.9830188751221 11.9069786071777 9.21842575073242 15.454626083374 17.683666229248 19.3382701873779 17.6612586975098 5.34067344665527 5.20550441741943 5.11547470092773 5.0967116355896 20.0909843444824
1.32807731628418 1.31538343429565 1.32768476009369 1.20581769943237 1.3265243768692 1.73831486701965 1.39296317100525 1.21885466575623 1.21963095664978 1.97940981388092 1.88463485240936 1.6166844367981 1.03488504886627 0.983106732368469 0.869764268398285 0.845999538898468 0.76433140039444 0.734788417816162 0.751300930976868 0.664830684661865 0.510495901107788 0.363732397556305 0.33275631070137 0.893460333347321 0.344435095787048 0.566286146640778 1.86674606800079 0.939903140068054 0.389954596757889 6.10286331176758 10.0312843322754 0.786396980285645 1.23700022697449 5.07041692733765 32.1773109436035 -0.06240239366889 0.338577568531036 -0.0991732701659203 -0.146060064435005 -0.142351418733597 -0.120069548487663 -0.113673269748688 -0.128675848245621 0.336247742176056 0.581894338130951 0.124752677977085 0.108772180974483 0.989945411682129 1.32323038578033 1.78276193141937 2.09842896461487 2.31463980674744 2.08812689781189 1.72756433486938 1.7559962272644 2.22082543373108 4.58249282836914 1.16182398796082 13.7334423065186 2.98380303382874 -0.657881498336792 -1.19049799442291 18.9403839111328 1.05894434452057 2.31193137168884 0.515374958515167 0.246553316712379 10.0437440872192 35.5066757202148 23.4887809753418 10.6928091049194 15.3027076721191 0.58250904083252 13.4200458526611 7.02249002456665 7.03203821182251 2.03490042686462 3.83846259117126 2.47915887832642 2.93255066871643 4.33553218841553 5.64698076248169 2.07453179359436 1.60111808776855 3.12444972991943 0.718932092189789 12.2698163986206 -0.138746425509453 12.4994535446167 3.50934815406799 10.4941091537476 25.1276626586914 29.1085262298584 23.3659915924072 18.9426574707031 24.9981479644775 23.8323135375977 14.8839073181152 5.00288105010986 4.76329851150513 3.04343581199646 18.3361110687256 18.8294429779053 23.4047431945801 23.5635719299316 11.5490884780884 4.24154758453369 -0.0243284795433283 5.7279224395752 17.5609397888184 26.7805347442627 8.20269870758057 7.20126962661743 5.90402412414551 13.2432861328125 1.65246248245239 3.22737836837769 8.39263820648193 8.0424690246582 7.30333995819092 8.18300914764404 9.03703498840332 9.79837226867676 10.0406847000122 9.90451526641846 9.80257797241211 10.5466833114624 9.95839500427246 10.0050106048584 9.41371917724609 8.50626945495605 7.15534019470215 6.8841495513916 9.23451805114746 9.4739818572998 9.38590908050537 9.37502574920654 9.0399284362793 8.92445755004883 9.26919269561768 9.3196496963501 10.1665029525757 10.4460573196411 10.1264390945435 10.433892250061 10.1586227416992 10.6097116470337 10.2307224273682 9.64423084259033 9.01933288574219 8.78734493255615 8.46074867248535 7.97976732254028 7.47350454330444 7.05842065811157 6.01801824569702 5.10516691207886 4.60760593414307 3.75104856491089 3.34493684768677 3.05392670631409 2.65194416046143 4.6948709487915 13.3752002716064 8.20273017883301 13.8413867950439 16.0139331817627 17.708568572998 16.1353435516357 13.9407472610474 5.14865064620972 5.09261655807495 5.08726739883423 5.82457780838013
1.19857561588287 1.25924742221832 1.21017014980316 1.20816016197205 1.09076702594757 1.2820098400116 1.66929376125336 1.32744169235229 1.15772497653961 1.73546719551086 1.78435266017914 1.76516461372375 1.50271677970886 0.863994300365448 0.885269939899445 0.829024493694305 0.741286337375641 0.708888351917267 0.738020300865173 0.609121859073639 0.478856414556503 -1.857781291008 -1.59658467769623 -1.63935494422913 0.795586466789246 0.482968360185623 1.33598566055298 1.73750829696655 0.320879548788071 12.6847915649414 0.816492855548859 0.821244716644287 -1.06639122962952 -1.04178667068481 4.80352926254272 -0.0786146149039268 -0.896495223045349 -1.34420156478882 -0.178166434168816 -0.194208651781082 -0.202762261033058 -0.230419382452965 -0.234626591205597 -0.19742077589035 0.312395393848419 0.564990699291229 0.53429126739502 1.04942858219147 1.91948235034943 1.7356880903244 2.04474091529846 2.25874209403992 2.15820026397705 1.96303844451904 1.64327871799469 1.72692739963531 2.08680987358093 3.05227780342102 17.8621196746826 -0.106617592275143 -1.20855891704559 -1.029221534729 26.3146629333496 7.70081186294556 -0.644474029541016 0.146731913089752 19.4318866729736 27.4362754821777 22.9302635192871 15.2191200256348 10.1368427276611 9.11396026611328 7.17167329788208 21.464485168457 4.57481241226196 6.20021820068359 1.11539840698242 0.780113518238068 2.26236653327942 1.96809184551239 2.63514637947083 4.94810771942139 4.27990198135376 3.09639763832092 3.93604040145874 3.71050953865051 1.22014832496643 2.62204051017761 17.9410572052002 1.21806764602661 17.1687068939209 21.6872253417969 18.8857746124268 20.6989307403564 17.57080078125 22.429615020752 21.4439792633057 10.7399873733521 6.30616664886475 9.97326469421387 31.3939800262451 16.7031345367432 14.0597267150879 11.4224424362183 11.4754858016968 14.5650310516357 2.12331390380859 10.4877061843872 17.0905723571777 22.7197742462158 26.0941619873047 19.1340465545654 11.4345827102661 12.2348766326904 6.62420988082886 3.12958121299744 18.2129592895508 18.9044494628906 8.178147315979 7.118483543396 7.15929651260376 8.25648403167725 9.04761791229248 9.39073753356934 9.50875949859619 9.41787052154541 9.0558500289917 9.65334987640381 9.23268127441406 9.25982475280762 8.30107307434082 7.42855739593506 6.71608877182007 7.82246112823486 8.99324512481689 8.65368270874023 8.69898414611816 8.77065181732178 8.37786769866943 8.79123401641846 8.82765674591064 9.47644805908203 9.57666015625 9.8391637802124 9.76399040222168 9.61142539978027 10.1273927688599 9.95859432220459 9.25247383117676 9.12397766113281 8.53612422943115 8.34375762939453 7.7216796875 6.5174994468689 6.34757375717163 6.13212966918945 5.13320970535278 4.81453466415405 4.31421041488647 9.14002799987793 18.1106567382812 8.18625545501709 16.9748802185059 3.85027766227722 7.57101011276245 6.83043193817139 11.5725479125977 13.4627389907837 15.0084047317505 13.7412548065186 4.69347333908081 5.04409551620483 5.03736257553101 5.03592729568481
1.39975476264954 1.12849533557892 1.14703667163849 1.17165970802307 1.07533144950867 1.26446437835693 1.28659868240356 1.5893794298172 1.04198932647705 1.08793032169342 1.63746094703674 1.70730555057526 1.46079885959625 0.888890445232391 0.859143257141113 0.752616763114929 0.731295168399811 0.644738912582397 0.603353083133698 0.591363430023193 0.483629077672958 -1.4076988697052 -2.13985538482666 -1.59859037399292 43.0964317321777 -0.886226832866669 -1.33855402469635 -1.33733177185059 0.214775770902634 9.44074821472168 0.23952379822731 0.319261431694031 0.555659830570221 5.77454471588135 13.2173013687134 31.3656311035156 0.0189129989594221 30.4068069458008 34.2044258117676 -0.262700229883194 -0.297346144914627 -0.31616273522377 -0.104243546724319 -0.0233949348330498 0.104658901691437 0.525328159332275 0.541631698608398 0.617517411708832 1.36163413524628 1.28881227970123 1.69888257980347 1.99241101741791 2.19470739364624 1.49296927452087 1.58539319038391 1.57261884212494 1.98402047157288 2.29888510704041 10.5164527893066 -0.150376215577126 -1.92660677433014 -0.288715422153473 21.7252826690674 15.1136846542358 29.4946517944336 29.343189239502 19.5777263641357 16.6587047576904 4.66243553161621 15.7390508651733 12.8916845321655 4.20681619644165 7.3274040222168 14.3959045410156 4.94603443145752 2.14210724830627 1.35542941093445 0.688343346118927 0.425579577684402 2.04001259803772 2.43473720550537 2.38055467605591 4.52035808563232 6.78905820846558 2.80472469329834 2.85050344467163 0.934725284576416 7.06146621704102 5.09635829925537 2.17444396018982 1.64171636104584 5.72301054000854 15.6505823135376 18.270715713501 16.5158824920654 16.8521118164062 18.3213329315186 12.9232339859009 16.4239711761475 25.3612289428711 22.9336318969727 22.6766052246094 26.5872097015381 15.1840705871582 8.62892150878906 5.6388692855835 7.38655185699463 17.6581249237061 32.2194480895996 24.0363082885742 18.9405059814453 19.122371673584 12.4929056167603 9.42564392089844 6.36228609085083 3.78998064994812 17.6254291534424 2.05268049240112 2.38067221641541 7.46682119369507 7.01368427276611 7.42974185943604 8.0927906036377 8.97977161407471 9.18747711181641 9.00885677337646 8.86749076843262 9.16796779632568 8.80093002319336 8.99556827545166 8.27133655548096 7.90048694610596 6.562340259552 6.07525444030762 8.15465068817139 8.32646942138672 8.34265899658203 8.41245079040527 8.16204643249512 8.12199592590332 8.11780834197998 8.28817081451416 8.7462739944458 9.01125717163086 9.26564025878906 9.32221984863281 9.35245704650879 9.20586013793945 9.41783905029297 8.79754829406738 8.7004508972168 8.12803173065186 7.78507232666016 7.22126817703247 6.20543193817139 6.16584634780884 5.50280284881592 4.61618661880493 4.26466226577759 4.39409828186035 11.401894569397 6.53249740600586 21.2296276092529 9.46053504943848 3.10980796813965 2.84755778312683 5.79777526855469 9.98557281494141 11.6138324737549 13.0451831817627 11.9967489242554 5.03205728530884 4.99116134643555 4.97404623031616
1.34162998199463 1.01043891906738 1.09312283992767 1.07256972789764 1.09625744819641 0.978802919387817 1.20838725566864 1.56235015392303 1.22625970840454 1.01882207393646 1.57340824604034 1.53238689899445 1.61985111236572 1.37576353549957 0.753784835338593 0.779527127742767 0.681980729103088 0.631390810012817 0.586570799350739 0.590804517269135 0.450989335775375 -1.2375351190567 -0.763870477676392 9.95322895050049 19.2058258056641 0.0900770500302315 28.1533432006836 12.6450500488281 -1.56564235687256 1.96362030506134 3.53703165054321 4.27635383605957 0.764223396778107 8.53667736053467 12.7545938491821 4.80432319641113 -0.112401209771633 20.2705574035645 23.2817077636719 0.209684148430824 -0.371757000684738 -0.400806605815887 -0.131801545619965 0.12843045592308 0.0930484011769295 0.0927779376506805 0.215914338827133 0.66856062412262 1.62140023708344 1.46784150600433 1.02183187007904 1.65068376064301 1.53099226951599 1.62103831768036 1.3489453792572 1.4745215177536 1.43833136558533 1.79863655567169 0.806625545024872 -0.0924489945173264 -0.442482829093933 25.029842376709 37.3571243286133 34.3094711303711 26.4718742370605 27.9585056304932 25.5052509307861 7.19715404510498 11.0840425491333 13.470121383667 4.22990560531616 7.21709060668945 17.1252765655518 4.04978513717651 8.60927867889404 0.460344046354294 0.686412394046783 6.08761644363403 0.422273278236389 8.28010177612305 7.78496170043945 2.27216720581055 4.05702257156372 3.88992524147034 6.61621284484863 1.52162349224091 5.10675287246704 27.9768943786621 1.03024661540985 14.3346672058105 12.591890335083 18.1322727203369 20.479076385498 13.8747730255127 14.130841255188 14.6840410232544 16.2197933197021 15.5915517807007 18.6495819091797 24.9658794403076 35.7862930297852 23.2740516662598 21.5397624969482 10.3883666992188 6.79483842849731 7.06755590438843 14.818546295166 17.8674201965332 10.4304428100586 19.9013557434082 12.5288877487183 12.6744108200073 11.1245307922363 5.19880867004395 6.64101505279541 7.13360452651978 17.4350128173828 10.3046960830688 20.7796382904053 7.54640340805054 6.8226146697998 6.74598264694214 7.80244636535645 8.11216449737549 8.66190814971924 8.7226095199585 8.59526443481445 8.37191677093506 8.55306339263916 8.31719207763672 8.59619235992432 7.70900678634644 7.56917190551758 6.29349803924561 7.0008659362793 7.92353296279907 7.70771217346191 7.83619832992554 7.89523124694824 7.68826007843018 7.74390602111816 7.38779258728027 8.37646770477295 8.70603656768799 8.94577980041504 8.67258548736572 8.795334815979 8.81583118438721 8.61713314056396 8.82165241241455 8.35273265838623 7.75205993652344 7.54746389389038 6.61806774139404 5.97630643844604 5.64835357666016 5.52521991729736 4.15052175521851 4.59103965759277 6.11693954467773 16.9954032897949 5.9613242149353 6.40833854675293 5.37886381149292 3.04316377639771 6.46585655212402 22.9461269378662 9.10420989990234 10.7355861663818 12.1446809768677 11.264967918396 9.57899570465088 4.91297960281372 4.88101768493652
1.41632604598999 1.31632828712463 0.994027316570282 1.03432357311249 1.0584841966629 0.936477482318878 0.931074500083923 0.884440839290619 1.47552680969238 0.898548007011414 0.939362108707428 1.49326574802399 1.60168755054474 1.36378848552704 1.30629360675812 0.684859871864319 0.688474595546722 0.630797803401947 0.528185606002808 0.491373032331467 0.480883598327637 -1.14062345027924 -1.74396502971649 10.6633644104004 18.5986595153809 28.0856666564941 17.6291561126709 25.612377166748 15.9250288009644 32.8870506286621 14.1784915924072 -0.108539819717407 0.00383292767219245 7.73541164398193 2.23741674423218 -1.53987884521484 29.8870601654053 -0.168724313378334 12.7237138748169 14.3969240188599 -0.403662323951721 0.47699648141861 1.0584956407547 -0.409932941198349 -0.406306385993958 -0.0168072618544102 0.657434523105621 0.968807697296143 1.64141750335693 0.982954502105713 0.949120163917542 0.736145257949829 0.825348317623138 1.20909607410431 1.29143345355988 1.38431358337402 1.30371248722076 1.31634306907654 1.54541087150574 0.260439693927765 4.72295045852661 25.4305686950684 21.9495639801025 23.0976696014404 17.1151275634766 17.3835010528564 20.7701148986816 9.6251106262207 8.89718914031982 12.5149116516113 8.30871105194092 21.5578727722168 10.260594367981 3.11868834495544 6.36594009399414 0.704101145267487 0.44743886590004 6.90851497650146 11.0825099945068 17.2028751373291 11.5736856460571 2.14946246147156 1.95867347717285 3.78772711753845 6.48998641967773 3.95761227607727 5.59541940689087 10.4069957733154 10.2063226699829 27.7666969299316 9.1043643951416 13.5949201583862 23.7123203277588 12.3562145233154 16.3727836608887 18.644847869873 13.5043926239014 13.4793376922607 27.1426620483398 31.3284931182861 22.1699295043945 14.3756122589111 10.2065315246582 8.73102188110352 7.4381890296936 5.68249177932739 7.497145652771 7.12882328033447 6.72474718093872 15.059232711792 14.3167734146118 26.2202415466309 9.82416152954102 5.97051048278809 5.61965417861938 9.35889720916748 3.67548394203186 9.91637706756592 9.23532009124756 11.9414644241333 6.36908102035522 6.63064479827881 6.89174938201904 7.54021263122559 8.28675365447998 8.45912551879883 8.34623527526855 8.14684867858887 8.09828090667725 8.17460823059082 7.95840549468994 8.23462677001953 7.38264894485474 6.58944797515869 5.42059755325317 7.27344655990601 7.36954784393311 7.38970947265625 7.35274362564087 7.40058326721191 7.42612504959106 7.1732029914856 7.5007758140564 7.76546669006348 8.21109771728516 8.43301486968994 8.50974082946777 8.53319072723389 8.33417320251465 8.52340221405029 8.01382732391357 7.91419982910156 7.36626243591309 5.48609924316406 5.23830509185791 5.2209620475769 4.76959180831909 5.14967823028564 18.0122661590576 4.23904418945312 13.6309652328491 12.018274307251 4.32833194732666 2.48307681083679 2.2057511806488 22.1339588165283 22.2979164123535 3.22134613990784 5.27993965148926 9.45199680328369 10.7291784286499 9.99652194976807 4.82908296585083 4.78578615188599
1.05877280235291 1.38256025314331 1.29350078105927 0.939445734024048 0.946084320545197 0.990425527095795 0.885320901870728 0.802621841430664 0.809298157691956 0.82652086019516 0.895444869995117 0.993112683296204 1.4604640007019 1.53592002391815 1.28650164604187 0.708342909812927 0.671488046646118 0.572899043560028 0.538577377796173 0.431653559207916 0.382851183414459 -0.873499751091003 -1.36386907100677 6.01834392547607 35.0948715209961 30.0131511688232 -0.0224631298333406 10.865571975708 3.80402612686157 29.4303913116455 16.3860740661621 -0.760346710681915 10.7604370117188 14.0829391479492 4.82231760025024 10.6890106201172 44.4356498718262 -0.190710484981537 9.47552967071533 11.5240411758423 0.520440936088562 0.695235967636108 0.126354455947876 -0.478781461715698 -0.349857181310654 0.513225972652435 0.789340794086456 0.891118764877319 1.05813837051392 0.47148260474205 0.0894924253225327 0.178303018212318 -0.0138030275702477 0.322032481431961 1.19168269634247 1.08930122852325 1.196657538414 1.12118232250214 1.389204621315 4.74763298034668 12.8234701156616 4.41793251037598 22.3613986968994 26.8294048309326 16.484260559082 14.4607772827148 17.0302410125732 4.27727270126343 6.95916938781738 7.94663524627686 7.65376329421997 15.6202507019043 5.08524370193481 6.1742992401123 2.34356904029846 2.02777910232544 4.67353916168213 12.920708656311 9.07934856414795 12.4423170089722 8.01858520507812 2.60455775260925 2.0417218208313 2.26372814178467 3.39964723587036 4.90771389007568 11.917441368103 13.3673295974731 20.4806327819824 14.6753778457642 10.6038494110107 9.96122741699219 21.5673332214355 17.4069995880127 15.5244340896606 17.0608997344971 14.3461942672729 27.5095863342285 27.8965110778809 18.0420894622803 15.3479290008545 10.7012434005737 12.1574487686157 10.7616338729858 7.83657169342041 6.16057348251343 4.84136581420898 6.1717267036438 8.0001163482666 7.9315972328186 11.1391458511353 12.7621898651123 12.1347942352295 17.2578525543213 21.2928256988525 21.0652236938477 5.52628898620605 23.6800384521484 6.40434408187866 4.1678318977356 7.76704931259155 40.395637512207 6.40314340591431 7.30269765853882 7.52498483657837 8.02657032012939 8.08228778839111 7.98561716079712 7.72731113433838 7.62608051300049 7.8292818069458 8.0111198425293 7.1705060005188 7.0608057975769 5.88218641281128 5.48357582092285 7.04466152191162 6.88088035583496 7.0680980682373 7.11384439468384 7.03918647766113 6.99372863769531 6.62910842895508 7.33803653717041 7.89924478530884 8.13400173187256 6.39879655838013 8.01762962341309 8.05228137969971 7.8785924911499 8.03085231781006 7.65829038619995 7.19752883911133 4.69325494766235 4.60443019866943 4.82304191589355 4.8566255569458 12.7917814254761 17.2474822998047 4.78536987304688 3.85602688789368 3.03697490692139 2.15249729156494 0.850640475749969 1.20318126678467 2.09746551513672 5.80372095108032 7.11353445053101 4.861900806427 5.36807060241699 9.94730567932129 9.27745819091797 7.83037900924683 4.64377403259277
27.7195911407471 1.35454452037811 1.24528789520264 0.82886677980423 0.863556563854218 0.913113951683044 0.876830339431763 0.757338523864746 0.753996789455414 0.778067708015442 0.805810928344727 0.847676336765289 1.42591202259064 1.39512395858765 1.4022079706192 1.17470717430115 0.574929356575012 0.595128059387207 0.544760584831238 0.443161636590958 0.391305387020111 0.386741578578949 31.4186763763428 37.3395881652832 38.0628280639648 19.218225479126 11.4106216430664 -0.333452671766281 13.8333730697632 31.6843147277832 17.3175773620605 6.65476703643799 9.17076110839844 5.56538438796997 2.5568516254425 2.60383892059326 34.6858825683594 10.8431768417358 -0.545276463031769 6.02856922149658 -2.10294890403748 -0.494219481945038 -0.534193098545074 -0.49565663933754 -0.502012372016907 0.579917669296265 0.65619832277298 0.418097376823425 0.15866307914257 -0.0809063166379929 -0.246992856264114 -0.197997212409973 -0.186942607164383 -0.0237291231751442 0.971512973308563 0.993201434612274 1.03189265727997 0.957348644733429 0.916800677776337 1.13772749900818 11.3480730056763 13.6199855804443 12.2193212509155 20.357931137085 16.2482414245605 13.2019376754761 13.2117166519165 8.31559753417969 18.1490993499756 7.59368085861206 0.726020097732544 12.6943206787109 8.09073734283447 5.00255155563354 4.31589269638062 3.73210716247559 0.524879932403564 5.8199667930603 7.41504859924316 5.46572160720825 8.25375461578369 5.01485633850098 1.95553576946259 1.7399537563324 3.19447469711304 4.24258804321289 8.05191040039062 8.62278175354004 12.0722465515137 9.67024612426758 5.36912870407104 5.74289894104004 11.4414253234863 15.2376585006714 17.8223896026611 12.8999700546265 15.9137468338013 18.8306446075439 19.3833923339844 13.6141300201416 10.414568901062 8.56265830993652 8.32035446166992 4.95375442504883 4.16718196868896 5.17266225814819 2.77919507026672 3.7748007774353 5.18848657608032 5.40286159515381 12.6861371994019 11.8159780502319 11.9027118682861 8.94833278656006 12.2863359451294 15.1732978820801 7.96450138092041 11.435718536377 9.30886936187744 16.5316162109375 12.6879997253418 3.93964147567749 6.16166591644287 6.3749885559082 6.99879026412964 7.67768955230713 7.83749389648438 7.73494148254395 7.63917922973633 7.42399120330811 7.61600112915039 7.42657232284546 7.6652307510376 6.86846303939819 6.13659143447876 5.0450325012207 5.91273307800293 6.57063770294189 6.65261697769165 6.63665199279785 6.65866041183472 6.70314788818359 6.30083894729614 6.67430067062378 6.93811416625977 7.40927219390869 5.58061504364014 5.40429592132568 6.18844699859619 5.44870281219482 5.23123836517334 7.30118656158447 7.2425479888916 6.02814435958862 29.8942279815674 23.6868743896484 10.8740348815918 3.95642995834351 4.22366142272949 3.63344311714172 3.24507880210876 2.47914290428162 1.68262279033661 1.11406469345093 0.0954864844679832 0.90839022397995 3.12992668151855 6.28515672683716 9.65202713012695 3.56202602386475 8.8245792388916 6.14926481246948 8.29747295379639 4.50081348419189
19.9440860748291 1.01302516460419 1.32240724563599 1.22646903991699 0.833137154579163 1.53390467166901 0.842068612575531 0.7160924077034 0.698417901992798 0.722950637340546 0.757788300514221 0.785208880901337 0.821356236934662 1.31923687458038 1.36919975280762 1.14475417137146 0.609713315963745 0.581170320510864 0.484406799077988 0.45956489443779 0.343595057725906 0.313542485237122 21.3954734802246 27.0285301208496 27.6229476928711 16.8115749359131 12.6922054290771 -0.621866226196289 28.9491271972656 21.7612056732178 18.5612316131592 10.620584487915 3.95821666717529 4.82570171356201 25.73366355896 14.0678997039795 38.9564628601074 18.8882865905762 2.66323375701904 3.42106819152832 -2.35309553146362 14.0952501296997 -0.622858822345734 -0.643625497817993 -0.061655580997467 0.377163052558899 -0.282559484243393 -0.534013152122498 -0.476999431848526 -0.447413861751556 -0.405438363552094 -0.353214055299759 -0.328400313854218 -0.364600151777267 0.0316407345235348 0.772908091545105 0.841981589794159 0.888642072677612 0.756185352802277 1.08757388591766 1.8321647644043 8.02539825439453 19.3759441375732 37.3974990844727 16.8964881896973 13.6015968322754 12.5362901687622 10.4353084564209 12.4275541305542 5.75190210342407 3.85863661766052 2.46473169326782 7.21155023574829 5.14634799957275 3.98700284957886 1.85048031806946 7.4777626991272 14.7770156860352 11.3893690109253 4.98051023483276 6.58668661117554 5.11476373672485 1.77135491371155 1.83244514465332 1.65470147132874 2.95812153816223 3.50772595405579 6.06538963317871 7.22110271453857 9.27710819244385 10.8459663391113 7.89425230026245 3.96607232093811 9.5676441192627 14.3608407974243 12.628026008606 13.5265731811523 13.3217487335205 13.368860244751 13.3758745193481 10.7706155776978 11.4567947387695 15.7622632980347 7.16224479675293 4.9145770072937 4.64472532272339 6.0348687171936 14.6484346389771 8.89458560943604 8.94940376281738 16.4296092987061 17.4617080688477 19.1092872619629 11.4815015792847 21.2953128814697 11.5448036193848 15.1484823226929 16.3825874328613 7.98006677627563 16.7229862213135 17.329496383667 18.6905078887939 22.0147323608398 5.86514949798584 6.50879907608032 6.93082523345947 7.33093643188477 7.53508996963501 7.43582487106323 7.22081708908081 7.10622406005859 7.27949666976929 7.4593563079834 6.67414855957031 6.58484172821045 5.50482797622681 4.6375904083252 6.09856557846069 6.15017938613892 6.33450937271118 6.3250937461853 6.1777548789978 6.23776865005493 5.8376932144165 6.39823627471924 7.04878377914429 5.74069261550903 4.86728429794312 5.32571935653687 5.8454155921936 5.29936075210571 16.4276065826416 6.06695508956909 5.45469284057617 16.1807594299316 11.3206377029419 3.99193024635315 3.65110635757446 3.66990971565247 3.22153329849243 2.72256064414978 2.39114189147949 1.70455002784729 0.790519833564758 0.307793587446213 -0.126002430915833 16.9829864501953 2.12933015823364 5.13978004455566 2.46738314628601 3.80554389953613 5.42344331741333 5.80145168304443 4.34239387512207
15.8501377105713 12.4989938735962 1.32532382011414 0.856584966182709 1.55877864360809 2.78508591651917 0.761496663093567 0.680715918540955 0.651850938796997 0.69075083732605 0.719417750835419 0.721654951572418 0.742557406425476 0.80534303188324 1.16791105270386 1.27542233467102 0.590944826602936 0.487442791461945 0.512007474899292 0.41536545753479 0.377535939216614 0.266979336738586 0.171173259615898 12.7284650802612 17.4896984100342 18.5527439117432 12.7866344451904 8.89642143249512 19.9625701904297 9.71295738220215 14.3831157684326 9.92767906188965 23.0726108551025 24.3795394897461 18.2472591400146 17.9108104705811 28.0790996551514 15.7272901535034 4.36596488952637 -0.911486268043518 -2.28314661979675 43.7458114624023 33.4393310546875 -0.698043167591095 -0.32288920879364 -0.452463358640671 -0.683280467987061 -0.752692699432373 -0.682955324649811 -0.598856329917908 -0.551079034805298 -0.502433001995087 -1.13428997993469 -0.564408421516418 -0.35568168759346 -0.104090735316277 0.725735723972321 0.635728299617767 0.752925992012024 0.711136102676392 1.04930770397186 -0.113824851810932 3.10352683067322 26.445068359375 15.1539630889893 13.7851428985596 12.6816301345825 8.16202354431152 7.26032495498657 6.34486198425293 3.97196316719055 8.22281932830811 19.8596496582031 5.06453323364258 3.47532367706299 3.54836916923523 1.90095090866089 10.3231945037842 7.51010084152222 4.29547309875488 3.59669971466064 5.13847589492798 3.10635805130005 1.34553194046021 1.72074675559998 2.80545020103455 2.64874315261841 3.81069731712341 5.59242868423462 8.28508186340332 6.71229267120361 12.901195526123 13.5038528442383 5.74617433547974 8.00839805603027 8.76755046844482 9.72184753417969 12.1277008056641 12.2960891723633 11.3029336929321 12.0617074966431 10.4464979171753 13.0223474502563 7.35364246368408 12.1653833389282 6.28424739837646 21.9315071105957 16.0949764251709 21.7791004180908 16.866024017334 16.9501399993896 13.7093238830566 15.8881502151489 14.0894927978516 22.6619358062744 19.5954971313477 21.7878379821777 18.4700698852539 19.0536193847656 26.0635223388672 15.1539316177368 15.6569700241089 12.8529596328735 4.60138750076294 5.5797872543335 6.52077054977417 6.71096086502075 7.15474700927734 7.21733379364014 7.11832714080811 6.92133188247681 7.08615732192993 6.91359853744507 7.12369680404663 6.37933158874512 5.66450595855713 5.25202417373657 5.26199722290039 5.76886129379272 5.92912673950195 5.83920478820801 5.85139417648315 5.88092851638794 5.7600884437561 5.79114866256714 6.04499673843384 6.56547832489014 12.4826526641846 10.8293581008911 7.60559749603271 4.45253992080688 4.64847707748413 5.04681491851807 5.16566371917725 4.60467529296875 4.12173461914062 3.52988314628601 3.22247195243835 3.13251161575317 3.03314924240112 2.42339420318604 1.77925753593445 1.39608907699585 0.84130185842514 0.309039145708084 3.52574038505554 9.16346549987793 4.57728719711304 22.8877182006836 2.27443218231201 23.4686241149902 4.09324741363525 5.43244552612305 5.26791334152222
1.64053654670715 1.70131433010101 1.21619546413422 1.31956744194031 2.79361414909363 1.28025877475739 0.726622819900513 0.627234637737274 0.600298941135406 0.634408354759216 0.652534306049347 0.647402167320251 0.668501615524292 0.721002519130707 0.744776904582977 0.915705919265747 0.475546926259995 0.5299431681633 0.432191044092178 0.453515112400055 0.404301643371582 0.302517414093018 0.193568885326385 7.30759191513062 11.5316734313965 16.1848449707031 11.8093519210815 9.08637619018555 13.2662887573242 12.9957904815674 11.9626407623291 13.1310653686523 7.82668781280518 15.478009223938 27.9925022125244 27.0913600921631 19.3728942871094 16.9368324279785 1.24399101734161 -2.22826433181763 0.589382827281952 38.7600631713867 20.0132446289062 -0.497144401073456 -0.326434075832367 -0.398808658123016 -0.761741697788239 -0.863520443439484 -0.193234488368034 0.399204671382904 -0.871835350990295 -0.663459718227386 -0.702739119529724 15.2477350234985 -0.75365149974823 -0.400850504636765 0.54673832654953 -0.891326367855072 -0.552396953105927 -0.470808088779449 -0.874056458473206 -0.594659566879272 -0.219566643238068 26.5184440612793 19.6157112121582 14.0074110031128 8.30051898956299 8.30243968963623 5.2331748008728 4.98743200302124 12.6402273178101 12.5564203262329 1.22414660453796 5.83230638504028 4.11887359619141 3.24859619140625 1.58649230003357 3.15249419212341 3.98114562034607 5.06206464767456 3.65556764602661 4.45254945755005 3.736323595047 1.75221526622772 1.67506742477417 1.53762006759644 2.61130094528198 2.75041580200195 4.87970066070557 5.26053380966187 7.0671067237854 7.8092885017395 7.86934804916382 14.040114402771 19.2782344818115 22.541051864624 19.6293392181396 9.6778392791748 10.4751195907593 11.0344457626343 15.7703952789307 13.4880828857422 10.0116701126099 8.76618576049805 14.6580095291138 16.1006565093994 19.8565711975098 16.2925281524658 13.9852466583252 10.3555707931519 10.1950902938843 12.2275276184082 11.0149755477905 10.9402084350586 11.1717691421509 14.2007598876953 14.7372541427612 12.3863515853882 11.2544050216675 15.0188064575195 6.28637742996216 8.00031852722168 4.32009744644165 3.48851680755615 4.07647609710693 5.7750678062439 6.25305128097534 6.79684972763062 7.01840448379517 6.91702795028687 6.72058200836182 6.60319709777832 6.73815584182739 6.89427423477173 6.13294124603271 6.04195928573608 5.04265880584717 4.23335933685303 5.29339981079102 5.30855655670166 5.51985597610474 5.48709535598755 5.39593029022217 5.453209400177 5.0551872253418 5.29654026031494 4.88522815704346 5.33566617965698 4.17999601364136 3.98050570487976 4.18871212005615 4.41626119613647 4.28838777542114 4.34385681152344 4.04333925247192 3.40414190292358 3.02371954917908 2.4575047492981 2.24405479431152 2.25310730934143 1.99875831604004 1.42743241786957 1.23999428749084 0.42402857542038 -0.367113471031189 -0.378890246152878 3.60370945930481 7.72126817703247 4.9251537322998 4.58561563491821 11.0417814254761 3.25516533851624 3.94464445114136 4.84928750991821
12.9741115570068 30.033878326416 29.4465980529785 2.47402405738831 2.22862911224365 0.760541558265686 0.704890489578247 0.616452395915985 0.552269995212555 0.547852516174316 0.550836861133575 0.598840057849884 0.633965611457825 0.690788924694061 -0.818168878555298 -0.806437253952026 0.521245956420898 0.429150372743607 0.476840674877167 0.449793547391891 0.360029518604279 0.339469313621521 0.245638281106949 0.856860518455505 14.3225469589233 14.3535718917847 12.9618482589722 10.1342325210571 7.93740653991699 10.5727195739746 5.08405303955078 9.45099449157715 12.0372018814087 19.7322120666504 21.8229789733887 18.5133094787598 14.545916557312 14.4307289123535 10.1494464874268 5.45819902420044 40.1730499267578 28.0004329681396 20.0226192474365 13.688572883606 0.178591072559357 -0.495125770568848 -0.819279432296753 -0.901126801967621 0.334190279245377 -0.579888701438904 -0.781613409519196 4.59682941436768 -0.840742886066437 8.80599689483643 -0.874425113201141 -0.905895590782166 -1.83945000171661 -1.06658256053925 6.07423400878906 -0.795565962791443 -1.05956637859344 0.616625010967255 1.31321895122528 36.5162925720215 16.5819244384766 14.4664106369019 6.27099514007568 7.09267377853394 3.68597316741943 3.14387130737305 0.426421403884888 0.257170736789703 2.80696749687195 4.80036211013794 2.49303388595581 1.6977082490921 1.18023216724396 0.24657042324543 0.495760172605515 6.45575284957886 2.47643208503723 3.16315650939941 3.73091101646423 3.14228129386902 3.84748387336731 1.94252455234528 2.48957800865173 2.364173412323 3.02474784851074 4.15102291107178 5.01623725891113 6.01294708251953 7.26719331741333 5.17975997924805 10.8979301452637 12.8715190887451 11.5319471359253 11.8664379119873 10.0933818817139 9.01521396636963 8.95774555206299 9.67853450775146 9.04717540740967 8.92964649200439 19.2014427185059 12.9115715026855 12.7730007171631 13.754093170166 12.5061521530151 7.38948965072632 7.87437915802002 10.690505027771 7.45343589782715 9.39621925354004 10.449631690979 11.5189428329468 10.8928165435791 11.0876483917236 6.79270124435425 5.98677825927734 4.75690889358521 4.63844108581543 4.71207523345947 3.92973494529724 3.43570780754089 3.95158839225769 5.98034954071045 6.16135835647583 6.61807203292847 6.69769763946533 6.57895278930664 6.38185739517212 6.50685739517212 6.3533787727356 6.54030990600586 5.79395389556885 5.71227121353149 4.7525372505188 4.51116037368774 4.87871122360229 4.7882604598999 5.03456115722656 5.00986242294312 5.15233516693115 4.17744731903076 4.30322551727295 4.68909502029419 4.01887607574463 3.43432378768921 3.51769399642944 3.62315583229065 3.44162702560425 3.3608193397522 3.29505252838135 3.00576949119568 2.77324533462524 2.25555896759033 1.92711269855499 1.46503627300262 1.38180220127106 1.82957768440247 1.18136191368103 0.579997003078461 1.1667263507843 12.5915489196777 24.5842666625977 19.3805274963379 35.0898971557617 12.635835647583 15.181830406189 2.36973476409912 2.23274755477905 3.54345393180847 4.6003623008728
10.891019821167 20.3307666778564 20.0129871368408 1.86520874500275 1.27139937877655 0.677771031856537 0.665681779384613 0.589736223220825 0.518055379390717 0.501641511917114 -1.1747260093689 0.544577419757843 0.582593262195587 0.606346368789673 -1.2441565990448 5.58039236068726 37.4499435424805 0.471506237983704 0.47099694609642 0.371322840452194 0.394941091537476 0.315732300281525 0.335086792707443 0.917765915393829 10.4947509765625 11.1850757598877 11.6829690933228 9.48689842224121 8.71018695831299 7.0094199180603 8.45651817321777 8.27485275268555 7.05444002151489 12.9270582199097 14.9535026550293 15.259334564209 12.2617931365967 11.2102270126343 10.9875745773315 27.3274097442627 34.1079635620117 5.16403818130493 20.0525302886963 11.8916454315186 0.670733690261841 -0.701851606369019 -0.882476329803467 -0.940110504627228 -0.213383629918098 -0.481729209423065 0.906965792179108 2.4337363243103 -0.895684421062469 -0.734147429466248 4.99290323257446 -2.26265001296997 -2.06785845756531 -1.84634411334991 -1.12048697471619 -1.18711042404175 -1.30089724063873 8.92458629608154 -0.658335626125336 3.93774962425232 0.166739866137505 6.61746835708618 5.24059915542603 5.68404626846313 4.43075513839722 1.43446147441864 2.55934977531433 8.77119159698486 0.0848023667931557 0.0952152386307716 2.24936676025391 1.02111840248108 0.990434050559998 0.842836618423462 4.74795293807983 17.8295707702637 3.77896595001221 2.89036297798157 2.23661637306213 3.45468091964722 3.80624914169312 2.23629117012024 2.4690203666687 2.46450448036194 2.42143106460571 2.96860957145691 3.71466875076294 5.57978820800781 4.8839373588562 5.6656289100647 7.22892189025879 7.602623462677 8.1427173614502 8.46020603179932 14.1387968063354 9.14104080200195 8.93119430541992 10.4317760467529 13.1330833435059 12.1559133529663 7.4467887878418 8.93319320678711 9.34322452545166 2.84776020050049 3.43802118301392 2.49922800064087 3.39773035049438 7.1189432144165 10.41774559021 9.57101535797119 8.86508369445801 9.03312206268311 8.79016971588135 9.75487613677979 8.73873519897461 6.14393281936646 7.53893995285034 6.2873330116272 16.1656227111816 5.53682422637939 3.27079153060913 3.60482406616211 28.5851230621338 5.75255632400513 6.23396825790405 6.44482231140137 6.32218599319458 6.13606119155884 6.01470565795898 6.14363670349121 6.01336812973022 6.1893630027771 5.50094413757324 4.80106449127197 3.84449458122253 4.48368167877197 4.46822595596313 4.71022844314575 4.63146448135376 4.70433616638184 3.90616607666016 3.63266491889954 3.92732644081116 2.48407459259033 3.26839637756348 2.57653784751892 2.78067517280579 2.67916488647461 2.52855777740479 2.24889183044434 2.01848578453064 1.96801614761353 1.40208113193512 1.2927907705307 0.906839549541473 1.32496297359467 0.603456079959869 1.48163342475891 6.48265981674194 11.5410089492798 4.00590181350708 5.79185009002686 23.7472019195557 27.3218002319336 8.5812931060791 1.40401244163513 1.81077098846436 4.64012813568115 2.05980801582336 8.2794132232666
7.18231773376465 8.36326694488525 12.7604608535767 11.9001121520996 0.842453241348267 1.19027101993561 0.6239874958992 0.583600163459778 0.521671175956726 -0.857421040534973 -0.764654994010925 4.02773284912109 -1.25699043273926 -1.6843147277832 -1.72675442695618 -1.24737536907196 -0.904660403728485 0.467335283756256 0.374943643808365 0.416854232549667 0.322239965200424 0.204318106174469 0.276538789272308 0.981026709079742 1.8840229511261 7.14663791656494 9.42426872253418 9.83670330047607 8.43451595306396 6.59116315841675 7.35228872299194 4.20751142501831 6.95724439620972 8.7683687210083 8.60854434967041 11.5906066894531 11.8149709701538 9.93931198120117 9.97494125366211 7.32697582244873 23.896448135376 19.980489730835 16.5528373718262 13.663215637207 8.52800464630127 -0.88411557674408 -0.802784025669098 -0.418551355600357 0.0875984132289886 0.246939659118652 0.969261527061462 -1.0752032995224 0.944186151027679 -1.52600729465485 -2.11692571640015 -2.35847926139832 -2.5589394569397 12.3278751373291 15.0738515853882 11.4011478424072 -0.621183693408966 -1.3233470916748 -1.26774525642395 5.96621894836426 18.5620784759521 6.10354661941528 5.48173904418945 4.9437780380249 3.80374646186829 3.82249927520752 3.18228149414062 0.307008892297745 0.0804979428648949 3.71949696540833 5.90259075164795 1.49953746795654 1.4775310754776 0.218725517392159 0.513945400714874 16.3636379241943 2.96367645263672 3.53944444656372 3.76140356063843 3.51298999786377 3.08659315109253 1.72701442241669 1.73958897590637 3.0718195438385 2.31229734420776 2.2746250629425 3.30393171310425 3.77579069137573 4.91813468933105 5.3828821182251 4.72529697418213 6.36780738830566 7.34185838699341 7.33340120315552 8.52131748199463 9.33971500396729 13.0759439468384 13.1201658248901 9.33370685577393 8.7903470993042 7.60551977157593 5.75560140609741 3.95625424385071 2.49412035942078 3.33809232711792 2.10005116462708 2.31155776977539 3.75839710235596 9.08339977264404 8.51366901397705 8.40352630615234 7.85689640045166 6.86785411834717 7.8723087310791 7.25102519989014 7.73824310302734 6.9953441619873 7.2613730430603 14.9287195205688 11.2382497787476 2.29944777488708 3.18368363380432 2.95371079444885 5.50044918060303 5.64332342147827 5.97993230819702 6.04172992706299 5.93227767944336 5.76591444015503 5.6594557762146 5.79894495010376 5.97078371047974 5.25730991363525 5.18648481369019 4.27863836288452 3.51865172386169 4.09102487564087 4.11894130706787 4.3248085975647 2.95293688774109 3.68445229530334 9.02511501312256 3.58252477645874 2.68973112106323 2.07586646080017 1.87828361988068 1.70681917667389 2.1606719493866 2.06238985061646 1.98426783084869 1.5821545124054 1.49116325378418 1.06367552280426 0.976228415966034 0.171791180968285 0.790340781211853 2.54985094070435 15.7090692520142 6.28871870040894 15.3679275512695 12.5909786224365 15.7362957000732 39.1034317016602 15.8947372436523 8.3794116973877 5.14430999755859 20.3461780548096 7.09250640869141 1.63596868515015 3.00555276870728
3.56293797492981 7.22450494766235 10.2479438781738 9.42112922668457 4.68035459518433 0.751751840114594 0.607759237289429 -1.2808929681778 -0.969686686992645 -1.45428657531738 -0.0511925891041756 1.29029035568237 -1.1055713891983 -1.67736971378326 -1.71049451828003 11.6580476760864 16.1723232269287 39.5437049865723 0.421202450990677 0.30249035358429 0.193641915917397 0.131377547979355 0.129310727119446 0.396132618188858 1.36630535125732 6.02881193161011 6.6014518737793 8.6710844039917 8.48196601867676 7.2999849319458 5.61956453323364 6.2625470161438 5.58614873886108 5.9680027961731 7.75971126556396 10.1620874404907 10.3504934310913 8.94711303710938 8.19932746887207 8.20701599121094 14.9616422653198 17.0097503662109 3.31139063835144 12.9440650939941 8.57624053955078 -0.271981686353683 0.42245352268219 0.0943427458405495 0.00685441773384809 0.4034204185009 -2.20607566833496 0.371261447668076 -1.69112598896027 -2.07402086257935 -1.97996306419373 -2.20977783203125 3.81676006317139 9.11645698547363 14.6502208709717 3.56592226028442 0.554795861244202 9.11136722564697 13.785346031189 10.9531574249268 6.42682695388794 3.81691312789917 7.89380121231079 14.6204147338867 3.45707058906555 3.52771019935608 5.77892208099365 6.99007654190063 0.67931193113327 4.8213324546814 0.98045140504837 0.389956176280975 0.177936568856239 -0.0622904375195503 7.89514493942261 20.6473827362061 7.08471155166626 2.94679641723633 2.36807203292847 2.04214406013489 3.09375166893005 2.10190725326538 1.64062690734863 1.52997601032257 2.25351452827454 2.25440216064453 2.57541084289551 3.07573270797729 4.57313346862793 4.15066289901733 4.72509241104126 5.10453367233276 5.52521657943726 7.08834171295166 7.61250686645508 8.04800987243652 9.06389141082764 8.87241363525391 8.8051929473877 8.63745975494385 6.61401224136353 6.02301502227783 3.7500741481781 3.23406076431274 2.27285099029541 2.92562365531921 1.95766425132751 18.8643054962158 19.4137592315674 6.76526069641113 6.61826324462891 7.85337543487549 7.43561792373657 13.0818281173706 7.35657930374146 7.0041766166687 5.35070657730103 9.990159034729 8.66387557983398 3.12153291702271 4.40486240386963 2.59397435188293 2.59846591949463 3.06346917152405 5.15903472900391 5.56429290771484 5.62976503372192 5.68024730682373 5.57755422592163 5.41856050491333 5.57126188278198 5.47319936752319 5.63535499572754 4.98366451263428 4.29972791671753 4.00897645950317 3.76486825942993 3.7582950592041 3.99388575553894 3.87144374847412 2.98577690124512 8.30534839630127 3.30052185058594 2.3686580657959 1.78179216384888 1.60226213932037 1.20574688911438 1.47429704666138 1.5218653678894 1.39990448951721 1.09797167778015 0.331600219011307 0.528005123138428 0.359167367219925 0.877764940261841 11.6800117492676 8.20643615722656 9.95440673828125 2.24704456329346 3.44210648536682 14.3594160079956 10.2373991012573 15.5361652374268 6.23539400100708 7.12134218215942 14.0380220413208 17.9970092773438 13.3763637542725 6.63003492355347 10.2882146835327
1.43794846534729 3.16309237480164 5.72922039031982 7.26543426513672 7.07368898391724 0.716023027896881 -1.50887799263 -1.3492956161499 -1.44425249099731 -1.09179079532623 6.05011034011841 -0.995072484016418 -1.24262726306915 5.21005010604858 -0.376198291778564 8.05155372619629 2.89915418624878 35.3427429199219 0.375145792961121 0.24607016146183 0.145361930131912 0.106069035828114 0.0574997551739216 0.119420647621155 0.800512790679932 1.4398729801178 5.82575511932373 7.61509561538696 7.94022560119629 7.28524255752563 5.74016332626343 5.1874852180481 5.40710687637329 5.48205804824829 7.2363977432251 6.55087041854858 8.43385410308838 8.55136108398438 7.58654403686523 6.94806861877441 6.88918685913086 13.4553680419922 -0.234990984201431 -0.995450913906097 9.98758220672607 7.41644859313965 0.89643007516861 0.513940691947937 -2.346107006073 -2.0188581943512 -1.6746860742569 21.4079532623291 -1.97022831439972 -2.01379370689392 1.71433126926422 -2.24981379508972 -2.55554294586182 12.4855756759644 0.96893846988678 0.101135648787022 0.908112704753876 5.1552038192749 9.44736957550049 16.795934677124 19.2772407531738 10.0802040100098 0.680743634700775 8.38988971710205 3.58416223526001 2.23088979721069 3.05698013305664 0.711089313030243 0.864933371543884 -0.240952402353287 -0.0662939921021461 -0.123290315270424 5.82865619659424 3.3286144733429 18.9656429290771 16.3336334228516 5.90046310424805 2.52635145187378 2.60197806358337 3.54558610916138 2.78159546852112 2.62903165817261 1.55053746700287 1.54174089431763 1.43177807331085 2.21835470199585 2.07602095603943 2.58197522163391 2.799480676651 4.07436323165894 4.3684401512146 4.05151081085205 4.52008771896362 5.18354463577271 6.36776351928711 7.82560253143311 8.23584365844727 8.54440402984619 7.19994831085205 6.97329330444336 6.96869230270386 5.51016235351562 4.65132093429565 3.13582754135132 1.97918045520782 10.8532581329346 2.48085355758667 4.60992002487183 18.128849029541 4.96316576004028 5.03300094604492 7.97944927215576 6.69868898391724 6.00609302520752 5.85096073150635 4.17407035827637 5.34114217758179 4.73337268829346 2.74535465240479 3.54419755935669 2.67055463790894 2.03595566749573 4.13614177703857 2.6226212978363 3.034512758255 4.82527160644531 5.19692373275757 5.45441389083862 5.34837484359741 5.22181558609009 5.13760423660278 5.26262664794922 5.42382287979126 4.74226093292236 4.69306945800781 3.84996056556702 3.12937259674072 3.43177556991577 2.53609228134155 2.43436026573181 2.8277153968811 2.82113766670227 2.33199167251587 1.63619136810303 1.29185175895691 1.18972158432007 1.56837427616119 14.8192758560181 0.985149443149567 1.20478093624115 1.24848914146423 1.87351179122925 30.1023044586182 22.8964996337891 0.212424248456955 2.82156610488892 7.35257005691528 10.2475576400757 7.07047557830811 11.8127269744873 9.44918346405029 9.74391651153564 5.94648313522339 3.25256109237671 16.1343765258789 13.7406396865845 7.13346576690674 -0.207373291254044 0.614872217178345 0.72048956155777
5.92478513717651 2.68097162246704 4.51484107971191 6.45689344406128 -1.09128332138062 -1.44669961929321 -1.52468180656433 -1.63116919994354 -1.46553719043732 9.78125667572021 0.670309484004974 0.309685289859772 -1.28010547161102 -1.26546013355255 14.5073795318604 6.8220067024231 9.59672164916992 14.756796836853 17.5641574859619 0.251890689134598 0.128691077232361 0.0793000757694244 0.00371098006144166 -0.0576156340539455 0.303133100271225 0.878905296325684 4.21083354949951 5.56867122650146 7.28805065155029 7.05093669891357 6.67487001419067 5.25348949432373 5.00475883483887 3.27371835708618 4.84722280502319 6.49404144287109 5.86547803878784 7.14033889770508 7.25281476974487 6.40480852127075 6.45693206787109 10.3342552185059 5.18907833099365 3.8044102191925 19.6407279968262 8.54893493652344 5.32779407501221 -2.24822497367859 -2.27177238464355 -2.54888820648193 8.12246513366699 7.90875339508057 19.0579662322998 2.80814003944397 -2.24816036224365 -2.22525072097778 -2.54201483726501 -2.80172634124756 -2.6169695854187 1.26170110702515 1.38812220096588 0.805130958557129 2.92172455787659 10.7860193252563 11.478419303894 10.2048673629761 4.93354511260986 0.664512038230896 3.36439490318298 1.66811788082123 1.46445286273956 0.032463438808918 0.305941492319107 -0.0852539092302322 -0.194265738129616 12.6856870651245 21.2032604217529 -0.701045572757721 11.4437026977539 4.2174711227417 7.420814037323 4.33188009262085 2.38597893714905 2.26612305641174 2.11469697952271 2.36579132080078 2.16254925727844 1.17808556556702 1.46128106117249 2.18704319000244 2.04555535316467 1.93078970909119 2.34904861450195 2.84569835662842 3.63547444343567 3.88964033126831 3.63171863555908 3.65929627418518 5.96228647232056 6.793860912323 6.98815965652466 8.19463157653809 6.58914661407471 6.57768869400024 5.71277141571045 4.94254064559937 4.51321506500244 3.01656579971313 6.45515584945679 13.269510269165 11.1306352615356 4.55811405181885 11.68381690979 3.43938827514648 4.41801691055298 5.62818002700806 6.31379652023315 5.54270792007446 4.88035440444946 5.13149213790894 4.03956747055054 3.82143759727478 3.37056159973145 4.90531539916992 2.92085981369019 1.9416469335556 1.77448379993439 1.85916316509247 2.61513805389404 3.00879621505737 4.70742082595825 5.04525089263916 5.15692806243896 5.06995964050293 4.93191480636597 5.05609512329102 4.97327089309692 5.13006734848022 4.46903324127197 4.41983222961426 3.59552431106567 2.88994407653809 1.57114231586456 2.61469149589539 11.7672739028931 2.29012751579285 1.86697399616241 1.52662992477417 1.2632942199707 1.36142408847809 1.00332713127136 1.15135157108307 1.06928789615631 19.1861801147461 1.99951481819153 6.24226999282837 3.9997615814209 16.7230224609375 5.4392728805542 20.0226421356201 14.9758682250977 20.4694957733154 5.53763246536255 18.9295177459717 17.1160907745361 14.3741607666016 6.07695627212524 14.2938137054443 20.5837516784668 13.2684030532837 4.82234144210815 8.20138168334961 28.1903018951416 26.2607536315918
5.61400175094604 2.73844337463379 1.99492383003235 0.583870053291321 0.452713817358017 -1.74347770214081 -1.63758873939514 -1.76839816570282 -1.65942084789276 -1.57640194892883 -1.26880216598511 0.285498708486557 -1.41218507289886 -1.17287504673004 -0.25713974237442 3.49162721633911 5.88365793228149 -0.270574003458023 33.4204216003418 0.577482342720032 0.127051830291748 0.0433749817311764 -0.044179804623127 -0.0797822773456573 0.0494369156658649 0.528351485729218 1.00844633579254 4.84788370132446 6.34559202194214 6.62533140182495 6.36870145797729 5.75041389465332 4.61911487579346 4.45582675933838 4.53704166412354 4.50860071182251 5.8852596282959 6.53855228424072 6.64077472686768 6.0809645652771 5.54826498031616 5.52807521820068 2.68269348144531 7.15215969085693 6.50845098495483 -0.175284743309021 1.09255623817444 -2.55270028114319 -2.26326465606689 -0.264097273349762 30.5306148529053 -1.86072385311127 7.87802076339722 -2.13318109512329 -2.61884951591492 -2.77823710441589 -2.46532464027405 -2.71319985389709 -1.64407360553741 6.25209617614746 0.252658814191818 13.6577091217041 12.4714479446411 9.40726661682129 9.51955509185791 3.35411429405212 4.49633979797363 -0.22288390994072 2.83084654808044 1.5610259771347 2.14144539833069 1.18950724601746 6.72257471084595 0.53976184129715 -0.383298933506012 6.51792240142822 11.68017578125 10.1867599487305 20.7093296051025 8.34840488433838 16.8995761871338 3.7866153717041 2.89824461936951 2.58373546600342 2.02288842201233 1.49931287765503 2.0658233165741 1.3677499294281 1.40874516963959 1.36910784244537 2.04562735557556 1.90253293514252 1.85751342773438 2.14079999923706 3.48075366020203 3.18994975090027 3.45601963996887 2.79299259185791 3.86885237693787 5.31864833831787 6.84943675994873 6.06946992874146 6.26185512542725 5.48794412612915 4.79668998718262 4.87662076950073 4.76294898986816 3.57058668136597 2.71733927726746 5.36739587783813 5.32355499267578 2.42266917228699 7.79897594451904 2.12777972221375 1.89789819717407 2.90050411224365 5.07253217697144 3.76963925361633 3.98031568527222 4.9197998046875 3.883469581604 3.53289890289307 3.46615719795227 2.59158945083618 2.02847957611084 0.988609373569489 1.19999301433563 1.69576966762543 2.02755284309387 2.33147501945496 2.55994534492493 4.69690656661987 4.99139642715454 4.89853286743164 4.77695798873901 4.6723780632019 4.79468488693237 4.71153783798218 4.8489031791687 4.25268507003784 3.58036375045776 1.73246991634369 2.18466424942017 14.5706262588501 4.846519947052 1.35077142715454 0.819216728210449 0.735878765583038 -0.0888554975390434 0.996103882789612 4.75265789031982 2.68271398544312 1.12349617481232 2.26634669303894 5.28115367889404 15.7989568710327 10.6954736709595 28.4685230255127 10.3621349334717 12.8483333587646 22.9311923980713 17.2467422485352 7.61954212188721 4.66319942474365 10.2677040100098 8.81529712677002 7.27507352828979 3.84072542190552 6.71442461013794 2.7527220249176 1.41129171848297 -1.46164965629578 -0.974727749824524 0.287036418914795
2.50585150718689 4.79777145385742 0.956972241401672 2.72838449478149 -0.355696350336075 -1.68867385387421 -1.37560713291168 -1.7075389623642 -0.155648395419121 -1.67516458034515 4.17778158187866 -1.0589382648468 -1.5450564622879 -1.56287145614624 -1.48731970787048 1.41782546043396 11.2183446884155 2.27490019798279 9.01435279846191 10.8665914535522 0.165019392967224 0.0456591919064522 -0.0204532891511917 -0.00880933180451393 -0.0392693318426609 0.205979868769646 0.638979971408844 0.833520889282227 4.35531568527222 5.72122812271118 5.98782205581665 5.84831476211548 4.6217999458313 4.11895513534546 2.83078503608704 4.01791524887085 5.55723714828491 4.99872255325317 5.69349479675293 5.77571296691895 5.35641670227051 5.16072416305542 4.4129114151001 1.21913349628448 4.65534257888794 4.52635288238525 16.512113571167 -0.892335116863251 3.19720125198364 12.3469409942627 33.1463470458984 13.6393947601318 0.807815968990326 -2.5345778465271 -2.54755592346191 1.29454350471497 -0.835926175117493 -3.12904191017151 -3.15771222114563 -0.168819770216942 -2.91179132461548 0.593667268753052 -0.602497041225433 2.51485204696655 2.79851365089417 4.28324460983276 6.09706211090088 -0.207721352577209 -0.250730514526367 2.41509985923767 0.942580342292786 1.37511384487152 -0.253469586372375 -0.450466603040695 -0.428441882133484 -1.01134538650513 8.49797248840332 9.20955181121826 14.1460065841675 6.80451059341431 17.343376159668 5.24903392791748 3.55718612670898 2.08017992973328 2.1956205368042 1.82918632030487 1.97146415710449 1.80616283416748 1.31246542930603 1.26265978813171 1.91412806510925 1.88470983505249 1.71210420131683 1.98070681095123 2.58548069000244 3.16931009292603 3.36966013908386 3.04912996292114 3.08833026885986 4.18397283554077 4.51571655273438 4.32150030136108 4.62449359893799 5.1012806892395 4.64537334442139 4.78547477722168 4.31379508972168 3.58870077133179 1.97923719882965 4.00266265869141 1.67004454135895 2.32416582107544 1.72184026241302 1.74678754806519 1.48332726955414 5.69953203201294 2.79808115959167 4.1521053314209 5.47207260131836 7.21478939056396 4.15289068222046 3.05508780479431 3.50597953796387 2.62567043304443 1.66153430938721 1.1728310585022 0.705573499202728 1.50946438312531 10.8174638748169 1.81275010108948 7.30356359481812 2.70875215530396 4.6090989112854 4.73961210250854 4.63802003860474 4.52660799026489 4.45521879196167 4.55350208282471 4.67940664291382 4.03349637985229 3.96739292144775 2.04132580757141 1.37068772315979 14.281078338623 3.86312460899353 1.08525335788727 0.591587603092194 0.437845170497894 2.4289243221283 13.0890674591064 0.374512732028961 6.62122964859009 0.769878208637238 0.963051497936249 0.566760063171387 0.789694488048553 0.873603999614716 10.4794921875 6.58561277389526 13.3597278594971 21.1452350616455 11.7076568603516 11.1331634521484 16.2151927947998 19.4608135223389 8.24010944366455 5.79530477523804 4.2947826385498 0.731885135173798 2.20640182495117 4.25007772445679 -1.03998219966888 3.93839192390442 1.2483115196228
6.46600341796875 4.44257736206055 2.06410765647888 -0.600562930107117 -0.048238217830658 -0.910370945930481 5.23044681549072 0.687243044376373 1.98008441925049 1.04198563098907 -0.439619123935699 -1.61327612400055 -1.38896811008453 -1.69780242443085 -1.70505213737488 -1.56212735176086 3.23558807373047 1.41472458839417 15.6224794387817 40.211799621582 5.92079305648804 0.00254615885205567 -0.0899996757507324 -0.145794674754143 -0.176482379436493 -0.0799396485090256 0.118823997676373 0.48761197924614 2.68952131271362 4.28366374969482 5.63531160354614 5.54297780990601 4.97326231002808 4.03052139282227 3.6232488155365 3.76058983802795 3.88659286499023 5.05940532684326 5.27393484115601 5.33985662460327 5.02875947952271 4.41949129104614 4.3816819190979 3.61363220214844 4.12200498580933 6.98459386825562 6.94053840637207 -1.28010821342468 -0.444991827011108 34.5462989807129 20.6643199920654 15.6863059997559 13.797607421875 -2.52862524986267 -1.83300232887268 -2.98903918266296 -3.43363189697266 -3.41015672683716 -3.47778964042664 2.09653091430664 -2.4310622215271 10.3241395950317 -0.50976973772049 13.6675662994385 3.16557359695435 1.86987471580505 0.093235544860363 0.710536897182465 -0.88602340221405 2.00697040557861 0.016990827396512 1.69927608966827 0.995368421077728 6.23742723464966 4.67976951599121 0.0729170367121696 26.5122604370117 1.09819734096527 5.47973728179932 10.7799386978149 17.5066375732422 8.30429935455322 3.56721043586731 3.00641918182373 5.26024961471558 1.89875483512878 1.86529648303986 1.71315503120422 1.21717500686646 1.15961718559265 1.15183079242706 1.88327646255493 1.80110132694244 1.79942786693573 2.05195927619934 2.99824786186218 2.84537267684937 2.88561010360718 1.52468049526215 1.91449356079102 2.51976561546326 3.24996876716614 3.802494764328 4.24818801879883 3.37502455711365 3.70101165771484 3.2083306312561 2.71215081214905 2.51854515075684 2.78521513938904 1.45176434516907 0.970501244068146 1.74840342998505 1.60738217830658 2.50496625900269 0.790515244007111 1.28349351882935 3.30636763572693 8.35810565948486 3.79123163223267 3.3457465171814 4.06503009796143 3.25664162635803 3.06534433364868 2.17915010452271 1.31031262874603 2.80594491958618 5.09778165817261 5.22569608688354 1.33017337322235 1.85020446777344 2.50002551078796 37.6858024597168 4.35354089736938 4.48112106323242 4.37501192092896 4.27090978622437 4.37817430496216 4.28498554229736 4.39630222320557 3.20755243301392 2.33439874649048 1.44340169429779 11.5909757614136 0.679157316684723 0.306557327508926 -0.19977730512619 -0.104914337396622 0.347627609968185 2.49404740333557 0.770475089550018 3.67176055908203 0.960313141345978 5.57640075683594 3.57214307785034 30.5812740325928 27.9864273071289 31.4775867462158 30.8110389709473 30.4994525909424 13.5301313400269 14.5916786193848 15.3333616256714 12.1669979095459 16.83909034729 1.94927322864532 1.56959474086761 7.23475170135498 3.82476592063904 20.7044887542725 17.7649230957031 19.5530586242676 7.84586763381958 -1.78155279159546
6.14569282531738 1.90023410320282 3.98980140686035 0.182025238871574 0.227153792977333 -0.669404208660126 2.52448320388794 -0.15608973801136 6.01676607131958 2.74765706062317 4.48493623733521 3.60346126556396 5.56022834777832 -1.6624356508255 -1.53262090682983 3.38446021080017 1.08084607124329 1.30384886264801 4.00019216537476 2.96462750434875 7.64262723922729 -0.045464813709259 -0.135300993919373 -0.168869510293007 -0.200260415673256 -0.307527035474777 -0.182669714093208 0.143352583050728 0.537822008132935 3.64454698562622 4.81989717483521 5.12691688537598 5.10223340988159 4.02041482925415 2.42320823669434 3.22442650794983 3.43253064155579 4.7847752571106 4.29872417449951 4.64414882659912 4.66956472396851 4.38740921020508 3.72368669509888 3.74859166145325 4.41405916213989 12.2601461410522 2.3869297504425 0.274000257253647 2.85113883018494 35.2944793701172 13.1087083816528 13.7199687957764 5.70851230621338 -3.04843878746033 -2.72312068939209 -2.69435787200928 -2.763432264328 -3.73246264457703 -3.52842617034912 5.821937084198 -3.28369736671448 4.27765846252441 -0.872482061386108 -1.12046909332275 0.104659229516983 3.72589445114136 0.0840938091278076 -1.89844942092896 -2.47206425666809 -1.50763499736786 1.40002048015594 5.88630676269531 0.724615871906281 0.694970607757568 1.18707513809204 15.5481243133545 24.9000873565674 6.32413196563721 15.3606185913086 7.61912775039673 14.1561145782471 8.10621738433838 4.06091833114624 2.78478336334229 5.77322912216187 2.0370614528656 1.75506126880646 1.62473523616791 1.4959329366684 1.1699378490448 1.11109673976898 1.13190889358521 1.81034111976624 4.42382526397705 1.74655115604401 2.20834827423096 2.64004182815552 2.73798632621765 2.34698581695557 0.207120090723038 0.857540130615234 2.43845677375793 2.58372616767883 3.29980754852295 3.27715802192688 9.3591194152832 2.88020300865173 2.66755962371826 1.92466020584106 1.86957287788391 2.00318264961243 1.07391786575317 6.80577850341797 8.62384796142578 3.10837006568909 1.00827074050903 4.36882352828979 12.3783082962036 2.92574691772461 7.09730195999146 24.2224407196045 19.2580661773682 7.34430074691772 2.64181447029114 2.48620176315308 1.64532566070557 1.04335403442383 0.766663789749146 1.74048173427582 1.25342118740082 9.61976337432861 5.84143114089966 21.506254196167 3.95002913475037 3.57287192344666 4.19116163253784 4.1099681854248 4.0241379737854 3.69226408004761 3.29493308067322 2.80132794380188 2.35653042793274 12.1741523742676 0.671900629997253 0.984605073928833 4.14630031585693 4.8738226890564 13.3827047348022 -0.107718415558338 0.303312927484512 0.290423154830933 2.89289903640747 1.20859670639038 27.6509418487549 29.155834197998 26.0391006469727 27.7475242614746 28.4374485015869 25.0750980377197 21.7660274505615 8.32243347167969 12.544825553894 16.0696468353271 8.6930570602417 4.56655359268188 4.45070648193359 12.3134489059448 1.76997935771942 -0.708554625511169 0.221710696816444 11.7894401550293 9.50544834136963 2.72939825057983 -2.3432297706604
6.25064373016357 5.59560394287109 1.0090172290802 0.894686818122864 1.29507505893707 -0.619391024112701 2.56938552856445 1.0040944814682 4.27392530441284 -0.484983086585999 -0.422684013843536 -0.829679489135742 3.51972031593323 -1.73166596889496 -0.95384156703949 4.04366111755371 -0.88222336769104 0.41841384768486 3.71167492866516 14.0256776809692 39.2553520202637 6.35156679153442 -0.145259574055672 -0.170624345541 -0.297374606132507 -0.370771914720535 -0.389988541603088 -0.10429984331131 0.243534445762634 2.0285792350769 3.65459775924683 4.8450026512146 4.85018491744995 4.31656265258789 3.53818845748901 3.00325989723206 3.24741816520691 3.35469436645508 4.37487506866455 3.9072380065918 4.39303731918335 4.11564779281616 3.44270181655884 3.44219088554382 2.1134181022644 23.7242622375488 21.9808673858643 -1.33791816234589 0.147810742259026 37.4334487915039 14.2813243865967 10.6948890686035 -1.96772873401642 -2.8117208480835 10.7563772201538 -2.9171838760376 -2.9584801197052 5.65816688537598 24.382137298584 15.4115571975708 10.9893264770508 5.90790271759033 2.8779079914093 4.84775114059448 6.22709894180298 0.119242392480373 -1.18827557563782 -1.66979479789734 1.85543501377106 -2.01887464523315 1.02202391624451 1.93613791465759 0.147605806589127 0.395630598068237 9.03638076782227 1.50040638446808 12.3394584655762 12.8315896987915 0.871924638748169 5.31436157226562 18.3403396606445 7.10646867752075 5.14177703857422 4.08037376403809 5.54913806915283 1.93869340419769 1.43539714813232 1.04559767246246 1.49343645572662 1.14373016357422 1.07952308654785 0.91978657245636 1.59337675571442 1.69520461559296 1.60346579551697 1.78065848350525 2.39021492004395 1.50929927825928 1.31685328483582 0.216109529137611 0.221442967653275 1.88531148433685 1.83511161804199 2.61439800262451 2.91244411468506 3.05018424987793 2.5689537525177 2.39491653442383 1.97688186168671 1.6131649017334 1.27566003799438 0.320353120565414 -0.729674816131592 -0.668958127498627 -0.534820020198822 0.0716559216380119 0.720739722251892 1.27986812591553 18.3299121856689 19.0850601196289 6.67868423461914 13.3623285293579 5.01238203048706 2.53140568733215 2.53398299217224 5.85960102081299 5.17898941040039 15.8241100311279 4.54611396789551 0.791705191135406 12.9461336135864 12.0579929351807 15.0272388458252 8.17159175872803 3.27206134796143 3.46775436401367 3.5227153301239 2.79602336883545 3.00692915916443 2.82201433181763 2.90408110618591 2.30969071388245 0.981519877910614 0.552850782871246 0.100497886538506 0.720179498195648 0.266981840133667 0.816009104251862 1.14186084270477 7.85444450378418 7.02067899703979 2.59243607521057 22.6816673278809 28.0897407531738 21.0846920013428 15.1840391159058 19.3012752532959 18.0595626831055 19.673210144043 13.9965152740479 5.88516807556152 6.78576183319092 11.5857048034668 11.7517738342285 2.25187063217163 2.39423894882202 6.95031023025513 1.11120843887329 1.71224296092987 24.2423000335693 23.1277885437012 8.33906936645508 5.42807006835938 -1.28731715679169
5.97431564331055 5.37509775161743 3.71409273147583 3.38675880432129 -0.411873489618301 -0.713257372379303 1.74099385738373 2.41838598251343 4.64779758453369 -0.423296213150024 0.2913658618927 2.86465716362 0.5574831366539 -1.99412655830383 -1.1937050819397 2.61340379714966 3.95563673973083 -1.24647355079651 0.180043950676918 1.31594240665436 1.66390323638916 5.80008602142334 0.390953123569489 -0.238371431827545 -0.357379466295242 -0.401832491159439 -0.431820958852768 -0.337670058012009 -0.0720883756875992 0.178343638777733 3.06178975105286 4.09799337387085 4.41789293289185 4.46398401260376 3.49225783348083 3.24631500244141 2.66157126426697 2.95481157302856 4.13186931610107 3.68543124198914 3.79123067855835 3.94338774681091 3.73498797416687 3.06123781204224 2.85691547393799 16.1820392608643 11.4157333374023 22.6015930175781 1.04256880283356 -1.69408226013184 -3.08324432373047 -3.0493905544281 -0.315229594707489 0.0301023833453655 7.04419279098511 -2.98995018005371 18.4263038635254 17.4782638549805 25.9721183776855 9.6226634979248 8.48486709594727 5.89121723175049 7.26123809814453 9.15103435516357 3.1332528591156 -0.759574592113495 -1.7197333574295 -2.37173461914062 -2.39764952659607 -3.11986875534058 -1.59749484062195 0.655234098434448 1.80055093765259 2.71962714195251 5.19087314605713 -0.418656378984451 15.9806795120239 9.70310688018799 4.26388120651245 14.6844053268433 4.51082992553711 5.72129487991333 6.44426441192627 4.20853233337402 3.50446701049805 1.72872114181519 1.53427243232727 1.33235359191895 1.42848742008209 1.33086061477661 1.1062046289444 1.04193806648254 3.49255013465881 3.4389922618866 1.561363697052 1.56608176231384 1.71306169033051 1.26044344902039 0.71249794960022 0.116833284497261 -0.2947016954422 -0.674263596534729 0.814731776714325 1.06989276409149 2.17749357223511 10.5832252502441 2.25589609146118 1.80065655708313 1.28061079978943 0.471923530101776 0.5601886510849 -0.230001762509346 -1.62251687049866 -2.21533870697021 -1.67057037353516 -0.966223418712616 -0.389904230833054 0.0495624095201492 1.23092663288116 14.7929706573486 4.81133699417114 13.3363618850708 6.53711700439453 2.78299617767334 9.59027576446533 2.47002458572388 1.4045432806015 0.899096608161926 0.846267223358154 4.96403551101685 19.5763111114502 7.35849618911743 11.2052774429321 7.10255098342896 2.88717555999756 3.04407167434692 3.16683459281921 2.69886708259583 7.70610857009888 7.58343505859375 1.89577496051788 1.00950503349304 0.538922607898712 0.463939189910889 -0.281508773565292 0.418491095304489 -0.390010088682175 -0.523005425930023 -0.713861644268036 13.1241970062256 8.65520095825195 13.4332895278931 6.90461254119873 6.52828884124756 12.0979642868042 15.6645126342773 15.5392274856567 16.8783016204834 12.1117124557495 7.87671518325806 7.19717311859131 16.6428089141846 22.7083988189697 5.88865566253662 3.99303007125854 6.92154550552368 2.22475361824036 0.17341972887516 4.49564361572266 9.8593053817749 5.39863634109497 1.52712070941925 5.36000394821167 1.2849292755127
