NCOLS 174
NROWS 32
XLLCORNER 353888
YLLCORNER 6700064
CELLSIZE 16 
NODATA_value -3.4e+38 
1.93438053131104 1.9022741317749 1.90155434608459 0.324732929468155 2.47023415565491 2.6269199848175 2.83835577964783 2.43682861328125 3.49525880813599 5.01855087280273 6.00462341308594 5.36833381652832 5.28740453720093 5.0849027633667 6.12483501434326 6.63015699386597 7.08971929550171 7.95680952072144 22.9678344726562 7.86227321624756 10.4337673187256 9.69872379302979 1.36971914768219 0.526650249958038 0.797015726566315 1.64518761634827 1.91176640987396 2.41656184196472 2.50474500656128 2.74539279937744 2.77352833747864 3.72516989707947 4.35076189041138 5.37387657165527 5.78869915008545 4.99419355392456 4.00775289535522 4.22727346420288 5.45113563537598 5.90071439743042 6.03629446029663 6.60792112350464 6.69909238815308 7.66341304779053 7.09911632537842 6.8079833984375 7.65519571304321 6.77163600921631 7.0527982711792 5.67984676361084 4.4797043800354 5.5843448638916 9.29301261901855 9.74292755126953 10.1441898345947 10.3415193557739 12.0440368652344 14.6096830368042 15.7592334747314 27.4839534759521 24.9192810058594 11.2059774398804 9.58445644378662 6.99111604690552 8.93999195098877 6.21507740020752 12.1415233612061 16.7655506134033 10.5931634902954 17.9465198516846 27.2502498626709 15.6752910614014 0.741867184638977 8.86587333679199 6.74517726898193 14.6818981170654 13.4544506072998 17.3341579437256 18.3587474822998 17.962308883667 7.74414539337158 1.42971396446228 6.15702629089355 6.74234819412231 6.65024852752686 12.7960863113403 13.8296556472778 14.4336986541748 11.1070680618286 23.9251594543457 24.1420745849609 19.7700424194336 18.7540054321289 10.7684602737427 11.6026153564453 11.1300926208496 7.42678928375244 5.49852800369263 5.56391096115112 2.53898310661316 16.846607208252 11.5074253082275 11.9172115325928 16.3255290985107 7.48950910568237 12.4649362564087 6.14188718795776 6.16433095932007 1.40223705768585 4.91008424758911 16.8209953308105 42.1342506408691 23.6938343048096 20.124828338623 14.6778326034546 20.9464836120605 15.6637239456177 11.9153327941895 10.2649011611938 11.6608867645264 12.7919721603394 9.95932102203369 17.4414463043213 35.4712944030762 32.6767272949219 16.8211326599121 53.8531723022461 7.13953256607056 2.67018270492554 11.4136772155762 12.0116624832153 13.0662517547607 9.64075660705566 13.9446458816528 8.9784107208252 3.9798047542572 5.27843475341797 15.7096300125122 20.3818817138672 20.4087886810303 5.26886081695557 2.1551821231842 2.77567267417908 4.73728799819946 20.1635284423828 32.7997245788574 50.4148406982422 41.5232734680176 5.55241346359253 20.0006713867188 11.6999807357788 10.9861488342285 10.8669033050537 9.27340984344482 8.77425956726074 10.7719402313232 11.650839805603 16.3257274627686 17.0016765594482 19.4876956939697 18.313907623291 17.51904296875 16.5841197967529 14.9535751342773 12.1773138046265 11.9178800582886 11.7719688415527 12.8023319244385 10.7385654449463 10.0270986557007 6.87898969650269 6.85662031173706 6.96097087860107 8.96311473846436
1.80929946899414 1.87432479858398 3.05316567420959 26.8167400360107 2.32518696784973 2.41723704338074 2.71138000488281 2.55378890037537 2.25718545913696 4.85669231414795 5.72247362136841 5.13466453552246 4.80913066864014 5.00672388076782 5.84176397323608 6.34732961654663 6.7810525894165 7.09732484817505 16.2942886352539 6.81297969818115 6.84287881851196 7.90613269805908 1.22248184680939 42.8209266662598 37.619800567627 0.769109964370728 1.20373952388763 2.18363785743713 2.43213033676147 2.50041556358337 2.3603298664093 3.52572250366211 3.51374340057373 5.11187505722046 5.52084350585938 4.8027720451355 3.86464357376099 4.04891204833984 5.04929780960083 5.40309476852417 5.58020830154419 6.01207113265991 6.13406944274902 7.07121753692627 6.60324668884277 6.38508319854736 7.14236688613892 5.92000818252563 6.55596113204956 6.03802394866943 4.25638818740845 5.23276567459106 8.14565658569336 8.65358924865723 8.85272312164307 9.66450119018555 10.9106388092041 11.00732421875 11.3951845169067 15.13134765625 13.3484544754028 8.47367095947266 8.06569004058838 5.82101488113403 7.19257307052612 5.38858985900879 8.92191982269287 12.6272869110107 17.2350406646729 11.7388277053833 19.1468410491943 2.22373628616333 0.124657019972801 9.41017436981201 32.5412063598633 11.6225061416626 12.744610786438 8.91951560974121 12.122462272644 14.9306783676147 12.1892166137695 0.708282768726349 7.84439754486084 1.5501149892807 2.8054358959198 11.3185997009277 8.54565620422363 19.051778793335 22.3886013031006 14.1633577346802 17.197509765625 19.2313098907471 17.1329669952393 11.6300039291382 13.8467140197754 7.70316219329834 8.41965579986572 4.51169681549072 3.80305171012878 4.41789674758911 14.8512058258057 8.19810009002686 8.2141580581665 5.38427066802979 2.29359483718872 5.46549367904663 2.79351043701172 1.84578788280487 1.67613399028778 -0.159338012337685 9.57636642456055 26.1641654968262 16.1487884521484 39.2244758605957 26.2152214050293 23.4837799072266 16.0614471435547 11.8285236358643 8.39687824249268 9.7790994644165 11.7941780090332 8.77960395812988 29.9547271728516 26.1453380584717 24.27294921875 34.5707511901855 38.8421630859375 27.8583812713623 7.25527381896973 4.03649091720581 8.8508186340332 8.81093692779541 9.92800521850586 9.91411209106445 11.4014377593994 21.9655456542969 21.3207206726074 23.322135925293 15.5661239624023 15.8072748184204 10.7074337005615 4.07998418807983 15.7062177658081 17.1488208770752 46.1646156311035 36.0634880065918 31.9902191162109 23.8395004272461 49.5559272766113 10.5160226821899 10.6949834823608 10.3794403076172 10.2995491027832 8.78804969787598 8.14121913909912 9.83790493011475 10.5956354141235 14.7736692428589 15.2024154663086 17.43528175354 16.404182434082 15.713077545166 14.9738082885742 13.7668790817261 11.4526958465576 11.1828050613403 10.9242124557495 11.5690069198608 9.87407112121582 9.13286018371582 6.18669366836548 6.12501525878906 6.15511846542358 7.93676853179932
1.73541057109833 1.76020967960358 1.78326654434204 14.057074546814 2.23313307762146 2.31744432449341 2.38646674156189 2.6554102897644 2.19069004058838 3.35921001434326 4.73056936264038 5.61559057235718 4.8569016456604 4.82955312728882 5.57106781005859 6.07124757766724 6.48568725585938 6.40412569046021 12.7419853210449 6.01754140853882 3.29632759094238 6.71695184707642 5.59349393844604 24.7373142242432 20.7551097869873 0.698297739028931 0.46035972237587 1.4873458147049 2.16884183883667 1.67521047592163 1.97001230716705 3.33154129981995 3.01467514038086 4.82720994949341 5.25374841690063 4.97110366821289 4.56253147125244 3.80794405937195 3.95119309425354 4.99024200439453 4.72769784927368 5.56245708465576 5.69130086898804 6.62050914764404 6.12135076522827 5.91076755523682 6.63437175750732 5.63868236541748 6.16365480422974 5.69175434112549 4.06925201416016 4.76261186599731 7.23575067520142 7.71029853820801 8.14083862304688 8.83084964752197 9.84536457061768 8.772780418396 8.92728328704834 10.6871557235718 9.56002426147461 7.19100904464722 7.05910921096802 5.07017183303833 6.07396268844604 4.83518028259277 4.79751443862915 7.09898090362549 9.85585880279541 10.5244770050049 14.829833984375 1.35336554050446 23.001256942749 21.5918941497803 12.6203804016113 10.1003656387329 8.51538944244385 6.66262626647949 8.55240154266357 6.40156698226929 6.63156509399414 9.71440124511719 4.36607980728149 1.00936341285706 2.76086807250977 6.82246732711792 8.35194873809814 9.58416938781738 25.2312545776367 12.1937570571899 13.2041130065918 15.3855762481689 15.4059724807739 26.6583957672119 9.75035953521729 19.1159915924072 4.41812038421631 2.1523904800415 9.97776317596436 26.6124706268311 12.9850263595581 8.01149654388428 9.22143745422363 20.8913326263428 12.954701423645 3.54352378845215 0.400535017251968 0.0613404847681522 -1.6278635263443 -0.85584968328476 4.98586082458496 19.8178195953369 14.4064350128174 19.5007019042969 27.3264579772949 18.8514957427979 25.6589641571045 27.4817981719971 28.2556552886963 11.3053722381592 12.0332345962524 17.3139686584473 17.4483871459961 26.1298999786377 17.1450786590576 20.1210250854492 29.1321220397949 23.7290325164795 25.1647148132324 20.4875011444092 7.87976169586182 7.91815090179443 9.47109031677246 14.5830059051514 26.8503170013428 25.8441753387451 28.9056129455566 17.3715362548828 23.1958427429199 13.554479598999 13.739857673645 23.7446899414062 23.3329086303711 30.5931129455566 25.6022319793701 26.0658683776855 23.913106918335 19.4623222351074 31.6403293609619 8.91325378417969 9.9003381729126 9.84683513641357 9.73106479644775 8.29953765869141 7.53423690795898 8.97176456451416 9.65398406982422 13.439829826355 13.739369392395 15.7535457611084 14.8812551498413 14.520806312561 13.6902475357056 12.88596534729 10.9989147186279 10.64621925354 10.2677612304688 10.6352558135986 9.15197563171387 8.38094615936279 5.78199625015259 5.62303829193115 5.55783319473267 7.12946891784668
2.17659425735474 1.52907478809357 1.77787184715271 9.76741695404053 2.1548957824707 2.2402720451355 2.31359910964966 2.58468508720398 2.09390044212341 3.2546706199646 4.584876537323 5.39251899719238 4.72303676605225 4.67892169952393 5.3195972442627 5.80829191207886 6.20849514007568 5.87502765655518 3.96327710151672 9.59375 2.9317991733551 5.85341119766235 4.72697734832764 17.0268154144287 14.0948371887207 0.656657576560974 0.330507069826126 1.38156259059906 2.01002526283264 1.14188933372498 1.4090701341629 1.83915638923645 3.20401930809021 4.08646011352539 4.78148651123047 5.04546213150024 4.35116958618164 3.60853219032288 3.74480295181274 4.44156694412231 4.69786787033081 5.14848804473877 5.23108863830566 5.09446096420288 6.08527278900146 5.6473650932312 5.46226692199707 6.13250207901001 5.59395456314087 5.73230409622192 3.93620729446411 4.38054084777832 6.48666381835938 6.90473031997681 7.50359535217285 8.06265640258789 8.67853260040283 6.72573280334473 6.81388473510742 8.26969337463379 7.47706651687622 6.28279972076416 6.36853218078613 4.57218790054321 5.3534574508667 4.47978544235229 4.34340763092041 5.80527830123901 8.21068000793457 7.8513388633728 11.4146547317505 36.479175567627 29.7377319335938 7.03886318206787 10.5055694580078 4.0378532409668 5.68579959869385 4.70831346511841 5.36397123336792 4.2813458442688 3.4300696849823 0.46530157327652 1.26199173927307 0.834817886352539 2.29453349113464 5.51791095733643 5.77422618865967 17.7774410247803 9.8386402130127 11.9421997070312 13.0505523681641 12.7898559570312 11.7702913284302 10.7638530731201 34.9950180053711 9.11776924133301 34.4850578308105 34.3877143859863 9.90346908569336 18.8518123626709 12.5083198547363 17.8896255493164 8.1899299621582 2.56369161605835 5.65729379653931 3.24107718467712 -0.0710455551743507 -0.545294284820557 -2.23843383789062 -1.18845617771149 0.115960076451302 15.710057258606 10.6846809387207 12.8600025177002 12.2680492401123 28.6211318969727 19.722354888916 19.9029541015625 22.6884613037109 23.3460083007812 14.5445594787598 12.5605173110962 7.75708532333374 20.4408893585205 17.0809059143066 14.3056077957153 23.2756042480469 35.7458000183105 10.8439340591431 11.4912242889404 25.7627811431885 14.892840385437 15.4672193527222 12.7985677719116 14.6784105300903 21.3736991882324 21.6389656066895 19.3552589416504 16.5520458221436 16.9920063018799 22.2715721130371 20.2986946105957 38.8826065063477 32.38623046875 22.3352317810059 21.4656429290771 20.1498756408691 18.7405605316162 15.9804830551147 22.1417789459229 10.9560785293579 9.36374187469482 9.20210075378418 7.82424306869507 7.95973777770996 8.19657135009766 8.83470058441162 12.2973937988281 12.5040550231934 14.350830078125 13.5506925582886 13.493447303772 12.5855941772461 12.0323495864868 10.5698833465576 10.2702417373657 9.76682376861572 9.8665599822998 8.5404109954834 7.72625637054443 5.36954689025879 5.17506551742554 5.15756702423096 6.5625524520874
2.54980087280273 1.82900857925415 1.76647937297821 7.5683741569519 2.0966637134552 2.1866250038147 2.26106882095337 2.52742671966553 2.00475645065308 3.14105463027954 4.42333316802979 5.18932676315308 4.57231330871582 4.54303789138794 5.09979057312012 5.56413745880127 5.93486166000366 5.37429094314575 3.65592980384827 8.16726589202881 2.64333462715149 5.19755172729492 4.11686944961548 12.9530725479126 10.6411104202271 7.89756727218628 0.291190147399902 1.29088461399078 1.88534116744995 0.879408717155457 0.826169312000275 0.978754222393036 3.01856827735901 3.58717966079712 4.53415393829346 4.77706670761108 4.18946123123169 3.43442153930664 3.53479981422424 4.17746210098267 4.34785604476929 4.7164306640625 4.80762147903442 4.72343397140503 5.72182416915894 5.30150699615479 5.11852169036865 5.76357316970825 5.29683494567871 5.36899328231812 3.75640392303467 4.27615451812744 5.91181230545044 6.18526315689087 6.76504039764404 7.21384382247925 7.72408151626587 4.94996118545532 2.08812022209167 6.22137594223022 6.43847751617432 5.65615653991699 5.86418390274048 4.22209739685059 4.83435726165771 4.06097555160522 3.96494674682617 4.9417142868042 6.90836381912231 6.60394906997681 6.33984231948853 19.8391132354736 18.1574668884277 23.5633735656738 14.0547428131104 25.8865795135498 4.2370548248291 4.24706935882568 1.40828323364258 0.344471365213394 0.85663229227066 1.31355619430542 0.761910140514374 8.41526794433594 19.6571445465088 7.81677389144897 22.7187328338623 8.95198154449463 9.153395652771 7.94579601287842 10.8527173995972 11.6216812133789 26.1793632507324 10.1825227737427 9.94448280334473 21.9442291259766 31.6914138793945 31.2040348052979 26.6212844848633 22.0799083709717 12.302038192749 11.4247808456421 7.0864520072937 31.3019504547119 39.4858283996582 4.23405838012695 28.2861919403076 3.34057068824768 33.1846618652344 12.4567070007324 23.5107383728027 7.21325063705444 21.9814987182617 8.89197444915771 11.1181936264038 14.2801885604858 45.8079605102539 36.3435287475586 51.0372047424316 28.0289821624756 27.0249652862549 10.5177974700928 50.6552734375 19.0043201446533 0.820502281188965 3.62069654464722 13.2190847396851 22.3027267456055 29.7054042816162 9.2487096786499 10.0237426757812 10.4496831893921 9.89988708496094 9.44986438751221 13.563136100769 17.8153858184814 18.3764457702637 16.2181186676025 15.0585994720459 26.4196949005127 34.2480087280273 37.3501129150391 33.1757659912109 28.5869312286377 24.1908187866211 16.609899520874 18.7279014587402 17.0329666137695 28.9565563201904 13.2013063430786 9.78481101989746 7.00876522064209 9.10615921020508 8.82713508605957 7.56582498550415 7.59514331817627 8.17699241638184 11.3442163467407 11.4539251327515 13.1558637619019 12.6186771392822 12.5819721221924 11.6578540802002 11.1962642669678 10.3680181503296 9.97017478942871 9.82552433013916 9.21959114074707 8.0009298324585 7.16643381118774 4.90781402587891 5.20945453643799 4.86827039718628 6.07588958740234
2.98780512809753 3.78213739395142 1.7574211359024 1.73913478851318 6.18618535995483 2.11689686775208 2.22529077529907 2.48160290718079 1.94440519809723 3.04538989067078 4.26533031463623 4.99608039855957 4.41524696350098 4.41706085205078 4.90857028961182 4.966392993927 5.67587852478027 4.93601083755493 3.39533567428589 7.12481927871704 2.41582655906677 4.6998028755188 3.66808819770813 0.24916373193264 10.2152891159058 8.34649181365967 0.249744027853012 1.20860385894775 1.75914144515991 0.534838736057281 0.607297301292419 0.677416443824768 2.76338338851929 3.41097140312195 4.34953784942627 4.53166913986206 3.96582818031311 3.26984238624573 3.3299412727356 3.87456583976746 4.04301786422729 4.29279804229736 4.38155126571655 4.46054649353027 5.37670516967773 4.98369455337524 4.82978868484497 5.43617820739746 5.0305814743042 5.10866260528564 3.63595199584961 4.05090427398682 5.43145227432251 5.51003313064575 6.10248327255249 4.33274841308594 4.24074506759644 11.778600692749 2.04266142845154 2.31802558898926 2.09182119369507 5.03520917892456 5.40475845336914 3.95050930976868 4.32816600799561 3.61160111427307 3.48721861839294 4.10668659210205 5.92996883392334 5.64464521408081 5.20883417129517 13.1123647689819 13.6610584259033 12.0874252319336 8.29544353485107 13.5372047424316 1.36793684959412 3.62834620475769 1.04826593399048 0.171358302235603 5.01812410354614 10.2241945266724 12.4361705780029 3.27648425102234 8.91926574707031 6.64947414398193 15.8535375595093 8.6746997833252 7.40159034729004 6.61353349685669 21.0410442352295 6.86729764938354 9.44370460510254 8.19638538360596 7.57079744338989 9.1013879776001 9.9091854095459 21.21018409729 13.6350345611572 15.0581293106079 11.9591388702393 10.3032684326172 22.1335163116455 29.0201168060303 24.587043762207 41.6514434814453 41.2599792480469 38.718391418457 23.4835815429688 8.60834121704102 -0.949317574501038 7.09417772293091 8.94934844970703 36.3956260681152 14.5256719589233 38.7634086608887 32.7607612609863 33.9472122192383 32.475456237793 34.5942573547363 11.2746257781982 9.66213130950928 31.7744216918945 4.79593801498413 12.9977512359619 0.552684009075165 11.5034046173096 16.564868927002 38.7710304260254 32.812801361084 8.84563636779785 12.9174556732178 9.55807590484619 9.39849948883057 11.8265953063965 11.8245658874512 15.0907487869263 12.5977821350098 16.2251815795898 20.80246925354 30.4838714599609 28.1951084136963 31.1377906799316 26.4483222961426 24.3975467681885 24.6086692810059 16.6136875152588 15.802622795105 17.571044921875 17.0337390899658 8.98297214508057 6.86898565292358 8.82808589935303 8.56335163116455 7.34816694259644 7.24069547653198 7.72443580627441 10.5974750518799 10.6328067779541 12.1976776123047 11.8486890792847 11.7827472686768 10.8947525024414 10.4042987823486 10.301176071167 9.48405170440674 9.33163166046143 8.82494163513184 7.12738704681396 7.74356889724731 6.23710060119629 4.93479251861572 4.63091516494751 5.64064502716064
1.94160175323486 1.81827783584595 1.65350019931793 1.70532274246216 5.47969198226929 2.02556228637695 2.12429237365723 2.42790007591248 1.90645122528076 2.97010183334351 4.12677621841431 4.82305145263672 4.24305486679077 4.30732727050781 4.00411796569824 4.62950658798218 5.05479097366333 5.3522515296936 3.17003297805786 6.36006116867065 2.66344904899597 4.32268190383911 3.27316427230835 0.124090991914272 8.54108428955078 6.95150995254517 0.401316672563553 1.08724117279053 1.66254246234894 0.450791120529175 0.501147568225861 0.606580436229706 2.60546612739563 3.23499631881714 4.16456413269043 4.31401348114014 3.75050902366638 3.00539207458496 3.19369959831238 3.72025895118713 3.83283162117004 4.06082582473755 4.10628271102905 4.22120809555054 5.11636972427368 4.74235248565674 4.58876895904541 5.14736843109131 4.82509517669678 4.85149192810059 3.42722511291504 3.75102019309998 4.82865715026855 5.11966609954834 5.63461351394653 21.9437599182129 10.2953157424927 2.77157950401306 4.18576002120972 14.2755613327026 23.0304393768311 3.66712522506714 3.19923567771912 3.72693943977356 3.91853761672974 2.94190216064453 3.19869542121887 3.39532351493835 5.08966445922852 4.85894823074341 4.41246366500854 9.44984245300293 7.26037931442261 9.9042329788208 7.11119222640991 9.61449432373047 0.517953932285309 2.54780554771423 15.1926136016846 0.862658739089966 4.98717451095581 1.29193222522736 8.22943115234375 2.82662606239319 3.10590958595276 4.99799346923828 11.6817893981934 7.59727764129639 6.83056545257568 7.79762697219849 8.15926551818848 6.2457914352417 6.81569766998291 5.17374515533447 6.19570255279541 4.51376056671143 2.79119086265564 12.0562973022461 2.31742525100708 7.71494960784912 10.4350652694702 8.47580337524414 9.83053112030029 21.3703727722168 18.1298770904541 20.9848480224609 30.7358684539795 43.9658203125 42.4052200317383 26.495246887207 43.6597671508789 14.321722984314 12.0501680374146 24.4691734313965 22.0527324676514 27.4705028533936 23.7248935699463 24.6782245635986 23.2834911346436 26.0426006317139 24.7644577026367 9.3991870880127 10.3987121582031 4.60642766952515 11.9131689071655 24.9501094818115 4.63783931732178 14.5058879852295 25.7026519775391 39.1427040100098 46.2831726074219 36.4758071899414 17.8341789245605 12.0415058135986 13.1078205108643 17.8420734405518 22.6596851348877 26.9751491546631 51.9826698303223 47.9645080566406 34.8451728820801 26.8926696777344 27.6382713317871 24.725528717041 22.26708984375 12.9318265914917 15.1408071517944 14.3921117782593 13.8324069976807 15.3215265274048 8.49055099487305 6.76048040390015 8.62501811981201 8.43165111541748 7.27776432037354 7.10778617858887 7.53585481643677 10.1154804229736 10.0276021957397 11.4387893676758 11.1748857498169 11.0660724639893 10.572039604187 10.0978021621704 9.70291996002197 8.94446182250977 8.82254791259766 8.32320117950439 7.28961563110352 7.30491209030151 6.53180885314941 4.67517805099487 4.42377090454102 4.31338882446289
1.68205440044403 1.64543235301971 1.65025222301483 2.02174353599548 5.13170337677002 1.96659326553345 2.05400681495667 2.31761813163757 1.81845164299011 2.88991832733154 4.00211477279663 4.66718196868896 4.08196115493774 4.20164728164673 3.91092538833618 4.49833726882935 4.90323543548584 5.16799449920654 2.9760410785675 5.73795413970947 2.57254862785339 4.01464986801147 2.97064518928528 0.118565700948238 7.34235000610352 5.90464878082275 0.370932579040527 0.745301902294159 1.14833080768585 1.62859630584717 0.413329273462296 0.548336565494537 2.4517810344696 2.97179770469666 3.93190789222717 4.09976530075073 3.56641912460327 2.83288335800171 2.89782285690308 3.38497090339661 3.48897266387939 3.75297236442566 3.76289820671082 3.94783425331116 4.81425333023071 4.48665952682495 4.36006450653076 4.91611242294312 4.58076429367065 4.5132737159729 3.16374707221985 3.51769781112671 4.4056658744812 4.66281175613403 4.11436605453491 8.51291847229004 3.71003150939941 14.323769569397 19.0840244293213 16.0560855865479 5.8364896774292 2.20559430122375 12.8449048995972 1.68549942970276 3.64816188812256 2.73603940010071 2.79292035102844 3.0774393081665 4.33034944534302 4.19311428070068 3.89079189300537 4.35130548477173 5.98076152801514 7.79871463775635 6.0942268371582 1.3352518081665 21.5772228240967 2.52225852012634 11.6437406539917 10.4786262512207 2.58254098892212 0.529554843902588 0.320917397737503 5.66063261032104 2.24296760559082 2.23236465454102 5.35091018676758 6.04472398757935 9.7322826385498 6.17084503173828 5.44749307632446 4.04529047012329 4.71025562286377 2.31962013244629 3.7272686958313 3.92795443534851 10.8030643463135 1.66007566452026 21.2349376678467 5.46154499053955 4.47232437133789 3.67933368682861 6.89674282073975 11.8695964813232 12.8054885864258 13.6626825332642 21.9148216247559 30.0582218170166 23.2844200134277 22.8170280456543 15.426139831543 7.09623289108276 7.73729562759399 17.2785663604736 12.7692556381226 11.9848403930664 18.4435424804688 19.3560047149658 19.2731323242188 20.9033012390137 38.8394393920898 23.2167148590088 30.4540138244629 35.8816566467285 31.3043689727783 9.54165649414062 4.41932725906372 8.61837768554688 14.4054327011108 29.7428417205811 40.4765205383301 28.1978397369385 39.4479751586914 31.3917999267578 16.2883949279785 31.9299201965332 22.5822772979736 25.4583415985107 36.5555305480957 31.5075168609619 26.1385269165039 27.4884948730469 24.5779399871826 21.7488384246826 19.2423629760742 22.2782611846924 13.980806350708 13.3261804580688 11.7315263748169 13.9438219070435 8.94822978973389 6.84398078918457 8.440749168396 8.32504463195801 7.26526689529419 7.38553142547607 7.47916984558105 9.78305244445801 9.56586456298828 10.7802124023438 10.0745410919189 10.4804229736328 10.3540592193604 9.52023315429688 9.15723037719727 8.46011447906494 8.31653213500977 7.78171730041504 7.52110815048218 6.75688934326172 6.01874113082886 4.33666896820068 2.00206899642944 4.02809190750122
1.83952987194061 3.95416831970215 5.2547492980957 4.41348314285278 4.75262928009033 1.95370757579803 2.00779271125793 2.23590040206909 1.78509557247162 2.82950377464294 3.86247229576111 4.5208854675293 3.95315670967102 4.07499694824219 3.80554056167603 4.35511255264282 4.75948047637939 5.00298595428467 3.87384366989136 5.22830390930176 2.47219657897949 3.76261830329895 2.76315546035767 0.365942895412445 6.46965980529785 5.16004467010498 0.351230561733246 0.697579801082611 1.07737231254578 1.54527342319489 0.34164771437645 0.445816606283188 2.27412390708923 2.82704162597656 3.74172759056091 3.90115976333618 3.42439293861389 2.70428967475891 2.71108841896057 3.14872264862061 3.2261061668396 3.4535129070282 3.40059781074524 3.60315465927124 4.40713500976562 4.12565422058105 4.02148866653442 4.54727935791016 4.24475431442261 4.1372594833374 3.02654504776001 3.33378601074219 3.97788214683533 4.18252277374268 3.99585676193237 6.42300462722778 21.3455619812012 1.72298264503479 17.4243183135986 1.05576038360596 1.87299001216888 16.2558307647705 9.80497264862061 13.5798101425171 3.39823627471924 1.55037581920624 1.12018942832947 2.59833884239197 3.15838813781738 3.26947426795959 3.4130802154541 3.5251989364624 4.55027914047241 6.41771554946899 5.26682043075562 21.9309825897217 14.4258279800415 5.96755361557007 5.30306959152222 14.9152460098267 0.567457556724548 0.462220311164856 0.266674011945724 0.53851854801178 2.90266132354736 5.61311435699463 4.39859199523926 4.92541313171387 6.08501720428467 5.63809156417847 3.4978015422821 3.08908677101135 3.00634026527405 2.86368989944458 1.82130396366119 2.00144362449646 1.03954255580902 1.10558152198792 0.783351063728333 2.31360054016113 6.70071029663086 8.62722301483154 6.23644638061523 3.9853310585022 2.75638628005981 7.27758598327637 17.776517868042 21.6139488220215 17.8485164642334 21.2347564697266 30.0962429046631 9.47989845275879 6.92273902893066 10.5986652374268 14.6082286834717 13.0688705444336 13.7346096038818 16.6706256866455 17.4092445373535 17.7332420349121 24.6727924346924 31.1547260284424 28.0948905944824 37.7269248962402 22.9124603271484 39.0726051330566 20.2792224884033 25.3282890319824 29.755313873291 24.3593597412109 31.3670425415039 35.9522819519043 30.9472312927246 27.0427360534668 37.1106262207031 26.4752807617188 31.9921970367432 28.9759273529053 29.3815822601318 24.9413414001465 22.5896244049072 22.4604358673096 22.9193344116211 19.4021835327148 7.83850002288818 7.23493194580078 12.8346710205078 12.2825775146484 10.1737642288208 12.7955598831177 8.66160774230957 7.88573551177979 8.20694637298584 8.12737655639648 7.21610593795776 6.6335015296936 7.05218935012817 7.26834774017334 9.34837532043457 10.1166391372681 9.50523853302002 9.88855743408203 9.75843238830566 9.00778102874756 8.64748477935791 7.97998571395874 7.77530097961426 7.16909074783325 6.78233289718628 6.06274461746216 5.29509115219116 3.77442121505737 1.84561169147491 -0.711478173732758
2.01107430458069 4.00410127639771 4.72532415390015 3.8600025177002 4.35715866088867 1.887486577034 1.94882357120514 3.17087078094482 1.88545966148376 2.77730011940002 3.79697585105896 4.3564248085022 3.82472658157349 3.94227647781372 3.69622564315796 4.20995998382568 4.613205909729 4.84456777572632 3.67888116836548 4.8135404586792 2.50925850868225 3.55303120613098 2.62227821350098 0.502388536930084 5.80507707595825 4.61389112472534 0.332497954368591 0.659471809864044 1.01997256278992 1.47281908988953 0.284334301948547 0.367632746696472 2.10637712478638 2.65811729431152 3.54177212715149 3.63340830802917 3.25119304656982 2.57476210594177 2.56277275085449 2.95787620544434 3.00843214988708 3.22731781005859 3.16092538833618 3.33211183547974 4.06745767593384 3.76557016372681 3.68565917015076 4.198166847229 3.96067523956299 3.88296890258789 3.42548203468323 2.73828673362732 3.11773681640625 3.43041801452637 3.59002876281738 4.97952365875244 10.9403476715088 40.2692527770996 11.8799543380737 39.1504287719727 0.875134468078613 2.06505131721497 6.38057851791382 0.796666026115417 2.31669425964355 1.45852875709534 18.7159652709961 1.88343954086304 2.45694851875305 1.81428349018097 1.19427859783173 2.99029302597046 3.64031648635864 5.48124217987061 4.60609006881714 16.2793235778809 7.48564100265503 2.3718318939209 4.12294483184814 8.50426387786865 0.16966150701046 3.50886487960815 19.3561172485352 18.8698806762695 1.21761512756348 3.1351044178009 4.16541767120361 9.58378314971924 5.80553483963013 5.4250659942627 8.1424388885498 1.82429051399231 1.53558373451233 1.89242053031921 0.76340788602829 0.484465301036835 -1.42370820045471 0.358273535966873 0.644804537296295 0.630340099334717 4.33382987976074 16.8260059356689 4.49853181838989 4.0040020942688 33.5960121154785 4.02860975265503 5.95672082901001 11.7721509933472 20.4561882019043 18.4222412109375 17.9614658355713 5.16211986541748 6.82762289047241 6.72192716598511 11.4264698028564 10.91810131073 10.0830116271973 15.0301609039307 15.9314641952515 16.4366931915283 20.5311317443848 26.27073097229 21.7599391937256 28.3544826507568 31.984977722168 13.5729684829712 6.3036994934082 23.2582187652588 17.6668930053711 16.956111907959 25.6148662567139 25.7169094085693 28.957052230835 35.9435424804688 36.5545310974121 38.7498970031738 22.6426601409912 18.9486312866211 19.7831611633301 21.8451538085938 20.5504245758057 20.5619258880615 20.4325408935547 12.8230819702148 52.6899528503418 19.2736797332764 9.27998352050781 11.3395204544067 10.1353025436401 11.7771911621094 8.38116645812988 7.60166883468628 7.94895458221436 7.86122274398804 7.02236986160278 6.18887948989868 6.75803565979004 6.96340370178223 8.8497142791748 8.4346923828125 9.38325881958008 9.34600830078125 9.22198104858398 8.52519416809082 8.18211078643799 7.48523139953613 7.16988229751587 6.4666862487793 6.00160026550293 5.34952402114868 4.50914001464844 3.01886105537415 1.6427321434021 4.83196878433228
1.6676253080368 2.89247035980225 3.37680983543396 2.92159223556519 4.08234786987305 2.01085591316223 1.9369307756424 2.47606754302979 1.97127723693848 2.71528482437134 3.6964795589447 4.2747278213501 3.73178815841675 3.76736116409302 3.70384430885315 4.07218408584595 4.47378206253052 4.69600057601929 3.49766230583191 4.45716381072998 3.02911186218262 3.38684105873108 2.55231118202209 1.074098944664 5.28277778625488 4.18723773956299 0.496554255485535 0.632140398025513 0.966759085655212 1.40706837177277 0.244327247142792 0.293465197086334 1.96596121788025 2.50043892860413 3.05891847610474 3.37837076187134 2.95271921157837 2.4153938293457 2.43133854866028 2.63679838180542 2.73952865600586 2.94967246055603 2.90095686912537 3.07164359092712 3.7416832447052 3.44675993919373 3.35565376281738 3.84625458717346 3.3387553691864 3.61799931526184 3.47194695472717 2.48841238021851 2.84514355659485 3.0510938167572 3.26117968559265 3.96057534217834 7.32300424575806 22.8257694244385 8.92897129058838 22.1310329437256 36.4094200134277 1.63825058937073 1.58662807941437 1.1854921579361 5.95353221893311 13.7768430709839 8.13595104217529 1.65983378887177 2.03511738777161 11.5473251342773 6.60836124420166 2.6342716217041 3.07027363777161 4.76784610748291 4.13029909133911 13.8624286651611 11.0909452438354 3.16739416122437 2.02057790756226 17.1446361541748 0.492264211177826 1.23698174953461 6.50304126739502 8.56891632080078 1.19863331317902 1.99946415424347 9.04941844940186 9.48872661590576 5.00339889526367 15.7264852523804 6.67017412185669 19.1048545837402 1.38869762420654 1.40586268901825 0.389574736356735 0.222978875041008 11.5484838485718 -1.64499735832214 -1.0664598941803 -0.455623000860214 1.21829640865326 4.15724515914917 4.0777382850647 22.9890289306641 19.7811679840088 3.79405760765076 4.1424388885498 12.5885992050171 16.615592956543 15.3781080245972 12.2018280029297 7.40749788284302 4.30053472518921 4.62496042251587 7.28908967971802 7.71114873886108 13.7588148117065 10.7914180755615 14.6987342834473 15.3860607147217 16.1438846588135 21.0863952636719 18.413537979126 23.8384819030762 22.1637554168701 43.0404472351074 44.5566940307617 18.3224964141846 14.0197401046753 14.6035108566284 18.6634426116943 22.4974899291992 23.8910369873047 24.9035205841064 27.7167072296143 25.4803733825684 24.4457473754883 32.5321769714355 19.4784908294678 20.412036895752 18.8680114746094 19.024169921875 15.5533428192139 10.5288429260254 35.5233268737793 34.1089057922363 26.5702304840088 10.6241512298584 9.64720821380615 10.8962554931641 8.08045387268066 7.37390804290771 7.74378347396851 7.63192176818848 6.78567504882812 5.91460418701172 6.44021940231323 6.61315298080444 8.36685371398926 7.90944862365723 8.80901527404785 8.84078311920166 8.7301139831543 8.09227848052979 7.78051042556763 4.41497278213501 2.70351099967957 1.99045693874359 0.855728149414062 4.65400457382202 3.75124740600586 2.34860396385193 3.17097973823547 11.4108867645264
1.61280035972595 2.22499990463257 2.62933611869812 2.60840368270874 3.77312302589417 1.86183023452759 1.87368988990784 2.21328067779541 1.93705701828003 1.70278286933899 3.61671447753906 4.21636486053467 3.62922835350037 3.49977397918701 3.59700965881348 3.925368309021 4.33193683624268 4.54352331161499 3.31903314590454 4.13038539886475 2.85545945167542 2.33711910247803 3.04723429679871 1.71321105957031 4.89831924438477 3.83940267562866 0.485026657581329 0.603731632232666 0.924908995628357 1.34376049041748 0.205384701490402 0.21781250834465 1.84297323226929 1.88977324962616 2.93689680099487 3.25036406517029 2.90014410018921 2.2785964012146 2.24439144134521 2.19024538993835 2.52873110771179 2.42407703399658 2.76173543930054 2.78722429275513 3.45811533927917 3.15512466430664 3.0383620262146 3.49671196937561 3.03281164169312 3.30264902114868 3.17734050750732 2.25740599632263 2.54987573623657 2.70410823822021 3.02222919464111 3.66052985191345 5.19909954071045 15.6744079589844 5.83457040786743 15.2566404342651 20.1141033172607 1.15459704399109 1.36153078079224 32.2783279418945 0.96373575925827 7.22946453094482 6.0451283454895 1.616739153862 1.82626891136169 1.67045319080353 1.23844170570374 2.39101386070251 2.91942739486694 4.47325706481934 3.91377973556519 10.5642261505127 12.8887042999268 1.90542471408844 7.59659862518311 6.78998136520386 26.0470676422119 14.9029111862183 10.5369834899902 6.48263072967529 12.0511350631714 1.9239399433136 3.58273148536682 5.99893379211426 8.75638484954834 8.6519193649292 3.20681977272034 10.0976829528809 1.29073429107666 1.39223027229309 -0.357846409082413 -1.30589437484741 -1.93972623348236 -0.952570617198944 3.77771425247192 2.64786076545715 5.25161457061768 3.99500203132629 3.64438271522522 11.5125999450684 12.6476373672485 30.2587337493896 18.1324901580811 11.9755344390869 14.5972089767456 14.6067600250244 9.86409664154053 4.47738742828369 2.70766448974609 3.77266669273376 6.27808284759521 40.1349182128906 19.783784866333 33.5815200805664 13.7147617340088 14.4322156906128 15.0400056838989 17.1421127319336 18.3708381652832 16.5787544250488 20.9181308746338 28.8442420959473 29.8675785064697 16.2209625244141 12.7476577758789 13.6764698028564 16.7947807312012 19.617166519165 19.64821434021 20.4303894042969 22.4915504455566 20.876823425293 21.1769638061523 28.4619731903076 30.4050769805908 18.4331169128418 15.6435708999634 17.7266845703125 30.1558132171631 44.6210060119629 21.125825881958 22.5879058837891 15.8447389602661 9.93823623657227 9.72710990905762 10.0611848831177 7.7777042388916 7.13764142990112 7.56638717651367 7.41238927841187 6.54379510879517 5.64788770675659 6.11745309829712 6.29188013076782 7.91716003417969 7.40990304946899 8.23756790161133 8.37860107421875 8.27544784545898 7.70445442199707 7.42638826370239 15.2450342178345 2.51152873039246 1.28747057914734 0.437787175178528 3.96261692047119 3.11336803436279 1.84723722934723 2.72008013725281 9.96317386627197
1.55540239810944 1.69323086738586 2.22517895698547 2.36590123176575 3.63932752609253 1.81465065479279 1.83506596088409 1.89131259918213 2.14519453048706 1.62468647956848 2.60812520980835 3.50015616416931 4.00425052642822 3.44928336143494 3.54092764854431 3.79583311080933 4.16674995422363 4.39527416229248 3.15224313735962 3.84899163246155 2.69557285308838 1.54935717582703 2.89100098609924 2.20467567443848 4.56997346878052 3.57394218444824 0.482889831066132 0.127369835972786 0.901634335517883 1.29737854003906 0.174040228128433 0.147623836994171 1.74209535121918 0.141730472445488 2.7677218914032 3.1358950138092 3.02063679695129 2.75663137435913 2.12734699249268 2.01849246025085 2.30406522750854 2.30893754959106 2.54559087753296 2.47653269767761 2.60323619842529 3.17453813552856 2.87680006027222 2.75750327110291 3.179203748703 3.03023648262024 2.91933131217957 2.05058574676514 2.34850811958313 2.42688894271851 2.72701406478882 3.42234683036804 3.55759716033936 11.7674121856689 4.87002468109131 11.4621028900146 13.6124591827393 1.12620186805725 1.50592148303986 17.5265102386475 28.2006244659424 1.15349507331848 5.69739484786987 5.76872634887695 1.65891313552856 11.0509672164917 8.4598388671875 2.16887521743774 2.91818737983704 4.61073970794678 4.50710201263428 5.59291934967041 9.53073215484619 16.3519458770752 2.47440958023071 3.14164710044861 19.5359878540039 9.55895900726318 5.42047882080078 9.05685234069824 14.1526203155518 1.72552144527435 3.02326250076294 9.2179479598999 4.94255208969116 5.07759428024292 21.6532649993896 6.65782928466797 9.68556499481201 1.3430187702179 0.857430696487427 -1.36894989013672 4.52120447158813 2.14491176605225 -1.4360785484314 10.6115474700928 3.3971254825592 3.20788145065308 3.13265061378479 3.42805504798889 14.4592580795288 13.8243789672852 11.2308168411255 11.4822225570679 14.3137359619141 12.9896268844604 5.90249919891357 15.5374460220337 2.36900305747986 2.59126257896423 5.54609966278076 6.58566951751709 22.5416030883789 10.3769836425781 12.7767610549927 13.410099029541 14.0650787353516 15.0366764068604 16.8227920532227 15.1555233001709 19.0313377380371 22.8318119049072 23.6240577697754 16.7964973449707 14.7585821151733 13.1489496231079 15.5498962402344 17.5437602996826 17.4600811004639 17.8224449157715 18.2402000427246 18.5404510498047 18.3745193481445 20.5792770385742 19.0229988098145 16.5159778594971 22.1072635650635 15.7428045272827 23.2678852081299 27.1209259033203 24.7004833221436 18.8311328887939 12.3424119949341 9.91569232940674 9.61789321899414 9.31515789031982 7.49154806137085 6.91168975830078 7.32337379455566 7.13717174530029 6.21601247787476 6.28133058547974 5.83338785171509 6.00610828399658 7.55921602249146 7.05439186096191 7.70097684860229 7.91861248016357 7.87170600891113 7.35168981552124 7.09876823425293 7.34733772277832 9.3976583480835 2.32438969612122 0.326525539159775 -0.00413062982261181 2.64919900894165 1.53960072994232 1.07475459575653 11.1027870178223
1.47550427913666 1.52229428291321 1.90914607048035 2.01245522499084 3.44433665275574 2.08668327331543 2.53408145904541 2.79910469055176 2.12716388702393 1.59971141815186 2.51129841804504 3.35440516471863 3.87575006484985 3.35219573974609 3.44735741615295 3.70649695396423 4.06881999969482 4.22825145721436 2.98842930793762 2.06209826469421 3.42132306098938 1.44051587581635 2.70421695709229 2.0807831287384 4.27901697158813 3.35261106491089 0.47898280620575 0.122698135674 0.873056292533875 1.25518035888672 0.158135697245598 0.123135983943939 0.171725988388062 7.35890245437622 1.03919887542725 2.9585485458374 2.99228572845459 2.59606766700745 1.98130476474762 1.85677802562714 2.07484793663025 2.05289912223816 2.31674313545227 2.27244234085083 2.41214060783386 2.95319318771362 2.66723203659058 2.5420126914978 2.93331956863403 2.80560088157654 2.69248414039612 1.86008882522583 2.15820837020874 2.15715479850769 2.51132225990295 3.21335053443909 3.3445999622345 3.54233002662659 9.38859462738037 0.83193451166153 10.1721363067627 10.8865528106689 1.47996711730957 12.0200710296631 15.8382911682129 3.35469913482666 1.35682880878448 5.05548572540283 1.34939110279083 0.76500940322876 0.856826663017273 2.01323962211609 2.78587818145752 4.36940908432007 4.46354722976685 4.28627300262451 0.414327800273895 9.39123916625977 1.69347405433655 18.0906600952148 17.5339756011963 26.9043445587158 27.02197265625 23.2379913330078 8.42395782470703 21.0582370758057 2.9296989440918 4.27520942687988 4.25606060028076 4.66403579711914 10.1043424606323 12.9207315444946 9.16260433197021 0.915521025657654 -0.501463353633881 -1.62454760074615 -1.0046478509903 -1.98012256622314 9.31882095336914 10.0869398117065 0.760459184646606 2.2549741268158 2.37079262733459 6.76844215393066 4.73739576339722 11.3243570327759 12.5308675765991 11.4212026596069 13.071720123291 11.6312217712402 4.50442361831665 1.5055171251297 9.23338890075684 2.0977029800415 3.76031970977783 6.3974666595459 8.03988075256348 29.8483867645264 11.791072845459 12.1985282897949 12.6150722503662 13.0649194717407 14.7311010360718 13.7129564285278 17.4096183776855 19.1683158874512 19.9995918273926 15.5445899963379 13.8755941390991 12.7154855728149 14.7048673629761 16.0992584228516 15.7475099563599 16.0113906860352 16.1054630279541 16.0579032897949 16.4887199401855 16.5080490112305 17.1612491607666 15.2094421386719 15.26003074646 15.6720733642578 17.6766586303711 26.865743637085 22.3770713806152 20.5450687408447 15.7345571517944 9.60635757446289 9.166090965271 8.65373229980469 7.21362733840942 6.66176271438599 6.01317548751831 7.068528175354 6.85968255996704 6.06052589416504 5.58923006057739 5.7581958770752 7.30116081237793 6.90611028671265 7.38537168502808 7.52739286422729 7.51230716705322 7.05018424987793 6.83502531051636 20.9947128295898 43.8124771118164 40.5267639160156 39.7747764587402 38.0751724243164 0.121789887547493 1.47094345092773 1.52693045139313 7.93307304382324
1.52325427532196 1.51971840858459 1.65928208827972 1.78462624549866 3.20254826545715 1.80102753639221 3.16199135780334 1.87425529956818 2.00745368003845 1.56869089603424 2.42290115356445 3.26640772819519 3.77302718162537 3.25990557670593 3.35261583328247 3.59349322319031 3.94747591018677 4.11736440658569 2.82957458496094 1.93783092498779 3.18701410293579 1.33213472366333 2.52378559112549 1.93257832527161 3.97463726997375 3.13842511177063 2.61674904823303 0.250270187854767 0.844797551631927 1.21971333026886 -1.23653745651245 -0.833621025085449 -1.4555389881134 0.0455056950449944 0.359074741601944 2.80908679962158 2.82920289039612 2.44592976570129 1.84069216251373 1.71246826648712 1.88395917415619 1.82903528213501 2.10089778900146 2.07857990264893 2.22769904136658 2.75341868400574 2.48188495635986 2.35991358757019 2.72935843467712 2.62283110618591 2.52535724639893 1.73391151428223 2.01673436164856 1.99120259284973 2.32568097114563 3.04275274276733 3.195805311203 3.38344836235046 4.31137895584106 6.00479745864868 7.50301790237427 19.7015247344971 18.6614627838135 8.99608516693115 6.68437957763672 19.6339836120605 17.1750659942627 4.64835977554321 20.8734092712402 12.9254913330078 0.818934857845306 4.8552508354187 2.6923463344574 4.22781467437744 4.12188291549683 1.47852385044098 21.9499320983887 6.92577409744263 16.6402606964111 2.03438997268677 12.8609256744385 17.0684146881104 17.0124225616455 12.3019723892212 18.1976280212402 11.6046981811523 3.41614985466003 3.3474805355072 20.1326808929443 5.90769910812378 11.2691631317139 23.3822975158691 4.70137643814087 11.830638885498 11.3061237335205 11.0457143783569 -2.03695869445801 14.2872457504272 -1.56521153450012 1.51719725131989 -0.932343006134033 2.16223859786987 11.2416667938232 5.6466908454895 6.28171157836914 14.4832258224487 12.0215511322021 10.5315027236938 8.52352333068848 10.2418947219849 4.40274810791016 7.06947088241577 1.70394468307495 18.5747528076172 15.7709112167358 5.89276170730591 6.70422410964966 7.96636343002319 9.63442325592041 11.162317276001 11.4598541259766 11.4352216720581 12.6673736572266 11.950083732605 15.5938806533813 15.1241331100464 16.5860233306885 17.3217620849609 12.9821166992188 12.2373924255371 13.9920797348022 15.0543832778931 14.5138502120972 14.5496826171875 14.3773641586304 14.2984867095947 15.0507020950317 15.1202726364136 15.9479875564575 14.3511152267456 14.4106979370117 14.7621068954468 15.2625274658203 21.9981994628906 17.0571899414062 18.4836559295654 14.5927143096924 9.78143215179443 8.87232494354248 8.14214515686035 6.8805570602417 6.35693407058716 5.83467149734497 6.82142305374146 6.63153839111328 5.86435270309448 5.42731952667236 5.5230016708374 7.03841257095337 6.77442646026611 7.28451061248779 7.39083051681519 7.3152928352356 7.0276517868042 6.67819786071777 6.58303499221802 36.5040893554688 34.010196685791 37.8113288879395 32.4423599243164 42.8836708068848 5.33459663391113 7.51335191726685 7.05392074584961
1.54274523258209 1.42939126491547 1.56813836097717 1.61813020706177 1.62230312824249 3.06939601898193 2.1777081489563 1.80331695079803 2.18233704566956 1.50031077861786 2.37585687637329 3.19441056251526 3.67790126800537 3.17080593109131 3.26261687278748 3.47725987434387 3.52090120315552 3.98577404022217 2.71225953102112 1.86672961711884 2.97040510177612 1.67879915237427 2.36055111885071 1.78369557857513 0.303731769323349 3.56257939338684 2.81277918815613 0.336997658014297 0.779918372631073 1.17627954483032 5.55632209777832 -1.82597589492798 -1.69306874275208 -0.632281064987183 -0.287903130054474 0.994778752326965 2.66345906257629 2.29989051818848 1.7184579372406 1.62880742549896 1.73454976081848 1.64822363853455 1.90182292461395 1.88654899597168 2.04316973686218 2.55503129959106 2.29870533943176 2.19263124465942 2.56398320198059 2.48739504814148 2.41373705863953 1.67279767990112 1.94856262207031 1.90944015979767 2.21347546577454 2.9406476020813 3.10429906845093 3.28516817092896 20.8552093505859 22.6574249267578 6.46309566497803 10.5452842712402 10.5443248748779 1.61110842227936 1.48119032382965 9.47921371459961 9.02069473266602 4.03136873245239 11.2952098846436 22.8093414306641 31.1052875518799 4.69171476364136 2.91022896766663 4.10896873474121 1.02165532112122 17.9187030792236 12.6051359176636 14.5629138946533 8.22348403930664 17.2492771148682 6.92960977554321 11.503529548645 11.5757436752319 10.2755298614502 11.7618932723999 10.9589395523071 15.9516630172729 11.3973903656006 4.22926712036133 7.51185369491577 9.42285442352295 14.7512941360474 22.4041481018066 9.26519966125488 11.8007411956787 3.76127576828003 3.21497392654419 2.04558634757996 16.0274505615234 -0.81761908531189 0.198719456791878 1.41775226593018 2.27875995635986 2.93678641319275 4.26673555374146 4.90517711639404 4.29858589172363 8.17282485961914 26.397123336792 7.23893165588379 2.73084282875061 2.71833539009094 1.56830859184265 16.3325099945068 5.84337615966797 5.5724925994873 6.20725440979004 9.28443336486816 23.8664569854736 10.3722667694092 10.6497974395752 10.8308620452881 11.4328899383545 10.7194375991821 13.9859762191772 13.6919603347778 14.3868284225464 15.2119779586792 11.9043865203857 11.5948820114136 13.1643600463867 14.0176868438721 13.4000396728516 13.3559083938599 13.0353517532349 13.009033203125 13.780104637146 13.7879066467285 14.8611011505127 13.7836294174194 13.8180627822876 13.9576511383057 14.4859066009521 13.3572444915771 17.9480419158936 16.6950702667236 13.4444808959961 9.30121040344238 8.68331718444824 7.1544508934021 7.98778104782104 6.46783590316772 5.65781211853027 6.59542608261108 6.40613317489624 5.67516660690308 5.27033090591431 5.3131251335144 6.78442668914795 6.46291017532349 7.15997838973999 7.28808736801147 7.15477752685547 6.95208024978638 6.65740203857422 4.6970100402832 27.7505760192871 30.7650852203369 34.2195205688477 27.3385791778564 33.6193618774414 10.1821908950806 6.73195934295654 6.40218448638916
1.47431373596191 1.33048939704895 1.46739554405212 1.54275846481323 1.58463537693024 2.99110770225525 1.82827413082123 1.7809921503067 1.97189855575562 1.46219062805176 2.33009743690491 3.12312459945679 3.58474946022034 3.08759069442749 3.170170545578 3.01836943626404 3.30171298980713 3.63415241241455 3.79639434814453 1.78830122947693 2.82036828994751 1.60346984863281 2.21084046363831 1.6462779045105 0.171693563461304 3.31298685073853 2.64850306510925 0.276791721582413 0.483472794294357 0.76228803396225 21.7369499206543 7.93195962905884 17.2539463043213 0.203533321619034 11.1503458023071 0.969047486782074 0.988834977149963 2.14783263206482 1.60151672363281 1.51949048042297 1.62261056900024 1.60215616226196 1.73643600940704 1.70258688926697 1.85393297672272 2.33596801757812 2.11177277565002 2.03435730934143 2.4126672744751 2.36521744728088 2.30840587615967 1.61796987056732 1.9133905172348 1.87852048873901 2.1544337272644 2.4135468006134 3.01327180862427 3.16656970977783 10.799693107605 19.4260597229004 3.07530355453491 0.811894714832306 6.56277656555176 0.514253556728363 21.4974727630615 -0.391524434089661 4.88513660430908 3.38819122314453 7.61171674728394 13.7758598327637 18.3064079284668 6.0603175163269 0.414040625095367 0.326960980892181 8.39640712738037 8.13231372833252 11.4461631774902 2.47256827354431 6.10652780532837 9.0064058303833 5.3871169090271 8.95258522033691 8.55631637573242 7.70069742202759 10.0061292648315 18.3683280944824 11.9886922836304 9.63225841522217 3.99623274803162 4.56339359283447 3.4200553894043 12.4924936294556 24.3711853027344 32.1708488464355 9.13811779022217 15.453727722168 13.7747011184692 13.9088649749756 4.78238248825073 13.435474395752 -0.686300575733185 1.3959949016571 3.70929288864136 6.72322511672974 1.71643376350403 3.08122324943542 3.74413871765137 6.20747232437134 6.29566860198975 5.69337701797485 2.3327808380127 0.292391002178192 1.5665842294693 1.67414426803589 5.02641010284424 4.6706690788269 6.02218341827393 7.26411104202271 6.86986827850342 9.77855396270752 10.0145988464355 10.3855686187744 10.4894847869873 10.0179805755615 12.6850337982178 12.4740190505981 12.9465742111206 13.3960189819336 10.8037271499634 10.8387537002563 12.2120532989502 12.9108753204346 12.4173755645752 12.3139657974243 11.9585828781128 12.0330610275269 12.6930837631226 13.039701461792 13.7600374221802 13.1904554367065 13.2309885025024 13.216833114624 13.1132822036743 13.6030578613281 15.7931518554688 15.2111959457397 12.4357004165649 9.17256450653076 8.60661697387695 7.25653457641602 7.64593029022217 6.4928150177002 5.4472975730896 6.35927057266235 6.19945383071899 5.49772930145264 5.12431049346924 5.13276863098145 6.55729579925537 6.26193618774414 6.95911455154419 6.60357141494751 7.05570697784424 6.93360137939453 6.50781059265137 40.117301940918 22.444278717041 25.8566780090332 28.5264148712158 26.2799739837646 25.7759761810303 7.91829347610474 6.15262222290039 5.61198616027832
1.44341504573822 1.31144785881042 1.42582833766937 1.48770976066589 1.52408587932587 2.69676899909973 1.7280045747757 1.67046463489532 1.92506778240204 1.42741453647614 2.28273868560791 3.04955053329468 3.49918293952942 3.00447058677673 3.08436942100525 2.94050359725952 3.20354509353638 3.53888154029846 3.69027328491211 2.37634348869324 2.65731406211853 1.53135406970978 2.07513475418091 1.48881602287292 0.089636892080307 3.02155017852783 2.3697075843811 0.22734834253788 0.441693365573883 0.720153748989105 20.7885284423828 14.9759902954102 10.7386283874512 19.4351367950439 12.3819704055786 6.40581226348877 0.612894177436829 0.657541990280151 1.47154712677002 1.39929485321045 1.51235234737396 1.52284872531891 1.61748695373535 1.53811120986938 1.67591214179993 2.15408325195312 1.95293259620667 1.88064658641815 2.25456619262695 2.22159695625305 2.18357610702515 1.55066764354706 1.82291853427887 1.91779005527496 2.10225462913513 2.34349656105042 2.80306506156921 2.91900777816772 7.11528253555298 13.1970262527466 20.0631141662598 31.5060577392578 4.72483205795288 30.9513301849365 -0.470654338598251 -1.64974427223206 1.34848916530609 2.4385998249054 5.42934894561768 10.5111408233643 0.592734634876251 -0.415189683437347 0.16610461473465 22.3119583129883 3.33040904998779 3.75849103927612 6.14229345321655 19.533031463623 5.07421493530273 7.6818733215332 4.7368631362915 7.30680894851685 6.79435777664185 6.92311954498291 7.4845724105835 9.36845588684082 7.58078098297119 9.27553749084473 3.27123141288757 3.85363554954529 4.14422607421875 17.4896697998047 22.2978191375732 14.976674079895 20.8340892791748 33.4541969299316 35.6972045898438 30.7005863189697 18.8762359619141 10.3782796859741 24.6783180236816 0.933963775634766 1.59980607032776 2.44571399688721 18.8568286895752 7.80960607528687 4.12260770797729 7.85016441345215 6.25889253616333 14.2184619903564 11.0392713546753 4.85158634185791 1.44806754589081 11.2345705032349 5.32198429107666 14.479419708252 5.6386866569519 7.00363159179688 13.1786556243896 7.16778707504272 9.59799098968506 10.0401172637939 9.72316265106201 9.49901962280273 11.6592636108398 11.526556968689 11.8878002166748 12.0104732513428 9.86025333404541 10.1300363540649 11.3490037918091 11.9392232894897 11.5474977493286 11.3809881210327 11.0543003082275 11.1414127349854 11.72265625 12.3307695388794 12.711763381958 12.5470418930054 12.6099977493286 12.3541412353516 12.4647617340088 12.9575662612915 14.0806856155396 13.9761648178101 11.5363082885742 8.94802474975586 8.41072845458984 7.37486886978149 7.31916284561157 6.22546863555908 5.55134916305542 6.07897186279297 5.99118375778198 5.33739233016968 5.01068162918091 4.81447887420654 4.98919057846069 6.32903003692627 6.40528440475464 4.95233154296875 4.94676971435547 5.29825210571289 4.75166082382202 23.5765018463135 10.8322134017944 18.059606552124 20.9277610778809 23.212854385376 21.2095375061035 7.13096380233765 6.01080369949341 5.32807064056396
1.43273091316223 1.28227376937866 1.36968171596527 1.41365945339203 1.46228325366974 2.54122686386108 1.65759110450745 1.63071870803833 1.88454210758209 1.39094936847687 2.2316563129425 2.98127245903015 3.41199612617493 2.92468237876892 3.00738596916199 2.85925245285034 3.10752034187317 3.43679475784302 3.58368682861328 2.27707242965698 2.52200078964233 1.46164214611053 1.94732999801636 1.37333166599274 0.0337047316133976 2.64944767951965 2.02928638458252 0.175455540418625 0.393105506896973 0.680350065231323 13.8279008865356 2.94393825531006 -1.10674095153809 12.3411407470703 10.2317409515381 0.604772210121155 0.357937932014465 0.452528446912766 1.35882937908173 1.29759800434113 1.39570236206055 1.42166709899902 1.49759483337402 1.41691243648529 1.5286055803299 1.98925924301147 1.80331385135651 1.738853931427 2.10711026191711 2.10226392745972 2.07812881469727 1.50743234157562 1.77654099464417 1.88899898529053 2.05554461479187 2.26675844192505 2.68446636199951 2.77574729919434 5.18810367584229 9.68466377258301 9.94080352783203 1.11541068553925 4.36820316314697 14.9149465560913 -1.18524158000946 1.12420868873596 -0.979088664054871 1.53739726543427 1.68895554542542 0.310761541128159 -0.0947124063968658 39.1053276062012 33.3316459655762 13.8164415359497 2.56009578704834 19.5432720184326 1.15603935718536 9.21686935424805 4.36526250839233 4.32793140411377 4.14789581298828 6.41465759277344 5.86994981765747 5.05658292770386 5.33117532730103 6.90538930892944 5.52649545669556 5.94878578186035 11.7177791595459 3.47927904129028 23.0142669677734 3.41773724555969 23.5820236206055 35.6421813964844 26.02587890625 32.591121673584 31.1265449523926 25.2879257202148 25.8708057403564 29.0694828033447 16.4928302764893 9.10926628112793 1.24085652828217 1.53745532035828 10.0913429260254 15.869158744812 24.5602855682373 30.1335868835449 39.7154769897461 14.9331045150757 14.3144330978394 8.1533670425415 15.8305625915527 18.1334095001221 16.4427795410156 6.60643482208252 5.14735984802246 6.5507960319519 12.6292114257812 5.61068391799927 6.9585919380188 9.71488475799561 9.24597835540771 9.08841800689697 10.8850831985474 10.8083686828613 10.9120683670044 10.836368560791 9.04811763763428 8.96129894256592 10.5977306365967 11.0908908843994 10.7877531051636 10.6829137802124 10.2734441757202 10.5796451568604 10.886812210083 11.6889314651489 12.0373048782349 11.9297246932983 11.998496055603 11.7719116210938 11.849217414856 12.3401937484741 12.6087560653687 12.8789510726929 10.6929330825806 8.65455150604248 8.15263652801514 7.5013689994812 7.11002826690674 6.08479642868042 5.34981441497803 5.83815717697144 5.73627662658691 5.18377685546875 4.89255237579346 4.55728244781494 4.58324766159058 5.21438074111938 4.38389921188354 4.43271160125732 4.01165962219238 4.08704042434692 3.79022884368896 3.63728356361389 9.20271873474121 15.3873853683472 17.9506454467773 20.1129512786865 18.5824794769287 16.8823261260986 5.74596261978149 5.11591625213623
1.39924299716949 1.22798776626587 1.30983054637909 1.34580624103546 1.39158225059509 2.37386798858643 1.58950173854828 1.58931267261505 1.84600555896759 1.44111919403076 2.18288660049438 2.91336703300476 3.32743144035339 2.85290789604187 2.9245069026947 2.86892747879028 3.00860643386841 3.34020614624023 3.49109077453613 2.1949942111969 2.39451384544373 1.72092568874359 1.86833047866821 1.28382122516632 -0.0654531568288803 -2.04007601737976 -1.68228220939636 -1.59732389450073 0.311397969722748 0.625933945178986 10.0279998779297 45.3992156982422 -2.09883999824524 7.58135557174683 4.98121213912964 2.16349101066589 0.28759902715683 0.122171968221664 0.0697696432471275 1.19749522209167 -0.0726194307208061 -0.235201612114906 1.36369729042053 1.33033359050751 1.45145070552826 1.86899590492249 1.68285703659058 1.63084042072296 1.99798357486725 2.00896072387695 1.99136292934418 1.85232162475586 1.51679825782776 1.84302794933319 1.99056923389435 2.17573952674866 2.55253672599792 2.64117360115051 4.19010734558105 3.81267142295837 7.28233003616333 28.314868927002 3.34151816368103 -0.583758354187012 -1.51800358295441 2.17787384986877 13.1547317504883 -0.627694964408875 -0.674433887004852 0.0846467167139053 33.4498443603516 24.7310466766357 16.5576076507568 9.19443607330322 13.0386085510254 4.06007766723633 27.4040546417236 7.03182125091553 3.70292472839355 2.5858998298645 3.49537944793701 3.82433581352234 4.22019147872925 4.63758707046509 4.79787874221802 5.29739999771118 23.2082576751709 7.71334838867188 10.9979152679443 12.0964288711548 3.6557400226593 12.6749229431152 15.3298387527466 23.0105361938477 24.635570526123 26.6349830627441 24.8350067138672 23.4913024902344 22.735034942627 22.2810115814209 15.7439460754395 3.39430809020996 0.913457691669464 10.2972784042358 34.0506324768066 9.18841361999512 11.884747505188 11.8631057739258 18.4648132324219 16.2782249450684 10.3461542129517 36.5953178405762 23.6858558654785 23.1779727935791 17.0332622528076 23.258129119873 18.3103523254395 7.44515466690063 6.54496192932129 16.8724174499512 6.79618835449219 7.67980670928955 9.64277458190918 8.76291084289551 10.2619190216064 9.9981107711792 10.4415559768677 9.82633495330811 8.45728588104248 8.5247745513916 9.1323823928833 10.3487234115601 10.0251483917236 10.1048173904419 9.65921497344971 10.1511259078979 10.1590824127197 11.1142578125 11.4412784576416 11.3716897964478 11.4515800476074 11.2380723953247 11.2239055633545 11.689866065979 11.3870582580566 11.8623056411743 9.87026691436768 8.34012222290039 7.87753629684448 7.30541133880615 6.90199375152588 5.9802303314209 5.23639631271362 5.66303634643555 5.51877450942993 4.98164558410645 4.31617784500122 3.94512534141541 3.91012597084045 5.11266469955444 4.34799194335938 7.38926649093628 17.3448600769043 10.1084184646606 27.2910747528076 11.986065864563 4.10375690460205 8.09979343414307 15.660792350769 17.5703868865967 16.3587341308594 14.7835540771484 5.49483251571655 5.03714275360107
1.3632789850235 1.19334375858307 1.24487102031708 1.26254653930664 1.3139556646347 2.20554280281067 1.51787996292114 1.55498111248016 1.81737923622131 1.48902976512909 1.29194891452789 2.84207940101624 3.25149655342102 2.77828311920166 2.72338891029358 2.79418683052063 2.91423034667969 3.24566268920898 3.3954803943634 2.118896484375 2.30888962745667 1.66920149326324 1.16027760505676 1.57253849506378 0.606662034988403 14.2644214630127 -2.14672589302063 -0.0990922823548317 0.199981734156609 -0.512623906135559 -0.574650406837463 -1.69945073127747 20.394100189209 -0.619734644889832 -0.375230044126511 1.21842133998871 4.67795372009277 0.10910777002573 -0.0700075328350067 1.13316941261292 40.2340126037598 43.9530830383301 1.28369057178497 1.25090169906616 1.37910556793213 1.79518258571625 1.59761810302734 1.54704618453979 1.91083955764771 1.71511268615723 1.96690332889557 1.95300090312958 1.44310390949249 1.7787629365921 1.6774308681488 2.0946524143219 2.43917036056519 2.52376866340637 3.72092843055725 2.95552134513855 5.83386516571045 13.9595212936401 2.64326024055481 -0.612285733222961 -2.05106782913208 1.12378358840942 3.88592052459717 16.5540180206299 39.8302841186523 24.4828624725342 14.3642091751099 15.9271879196167 9.55662536621094 7.71749591827393 7.9774603843689 1.30392289161682 15.6660499572754 6.20022535324097 3.56051635742188 1.67282807826996 1.44170212745667 3.1468517780304 1.77554452419281 3.36739230155945 4.32251739501953 4.91957426071167 14.3903350830078 10.7413749694824 7.61203289031982 10.3874263763428 3.53573369979858 9.833740234375 6.82862854003906 19.3839015960693 18.1978816986084 16.7385997772217 19.9306221008301 19.5198059082031 18.8332023620605 17.894510269165 15.3710165023804 19.0525379180908 26.8977108001709 21.1877670288086 16.5100021362305 27.0182247161865 30.3337669372559 19.4399375915527 13.6649580001831 10.6011972427368 23.5207252502441 29.4967594146729 44.2563552856445 22.617919921875 12.702184677124 17.4221534729004 15.1178207397461 6.46872186660767 6.45534753799438 9.67332744598389 13.771203994751 5.80243825912476 6.61807250976562 8.53652381896973 9.69762516021729 9.49596881866455 9.85414505004883 9.49642944335938 8.07760715484619 8.12435531616211 8.68366241455078 9.30557918548584 9.62168216705322 9.58312606811523 9.185471534729 9.09500694274902 9.70776176452637 10.5833826065063 10.9044532775879 10.8776369094849 10.9295768737793 10.7263994216919 10.6829242706299 11.1173667907715 10.430365562439 10.9656496047974 9.11575031280518 8.00332832336426 7.57395219802856 7.26435708999634 6.64264631271362 5.85826921463013 5.15684032440186 5.56903123855591 5.38921928405762 4.81607484817505 4.08755731582642 22.4812088012695 3.76722526550293 5.02461528778076 15.3972139358521 4.18734073638916 8.68686294555664 4.05002164840698 14.1537714004517 7.54519128799438 18.2624034881592 12.5966796875 6.46613788604736 7.86538648605347 14.4745197296143 12.9611587524414 5.09906196594238 4.85368585586548
1.32636213302612 1.17229914665222 1.21068811416626 1.20360112190247 1.18791317939758 2.04553437232971 1.45691227912903 1.48814535140991 1.53430426120758 1.75615382194519 1.25670826435089 2.05248188972473 2.73002147674561 3.11592650413513 2.64641880989075 2.71698498725891 2.84463405609131 3.16803550720215 3.3084409236908 2.05890941619873 2.25433778762817 1.61412036418915 0.791921496391296 1.5299768447876 0.956354439258575 9.40129566192627 13.0661430358887 -1.87196326255798 -1.15937769412994 37.5513496398926 48.1578598022461 20.3987197875977 -2.00662636756897 -0.820318341255188 4.28617286682129 6.06864261627197 8.92448234558105 8.59200191497803 0.399620562791824 0.0890900269150734 21.9872226715088 25.6411972045898 1.04265534877777 1.25117480754852 1.19251155853271 1.66804087162018 1.53296911716461 1.47490155696869 1.82066547870636 1.62633085250854 1.88269913196564 1.87191784381866 1.37632763385773 1.71151864528656 1.66460275650024 2.01183938980103 2.32845592498779 2.37206602096558 3.30705261230469 2.3190929889679 4.86291742324829 8.53994083404541 0.6029052734375 12.2924003601074 40.1938781738281 14.4384241104126 27.3507480621338 31.4848613739014 27.3748664855957 22.9576396942139 29.4161243438721 11.3655643463135 7.71692657470703 6.57784557342529 2.33623123168945 22.7140712738037 10.6718006134033 5.30024290084839 3.33079624176025 0.568309843540192 9.71394443511963 2.75447678565979 1.59872078895569 2.47162866592407 4.16228866577148 4.35706901550293 9.08812522888184 13.7156200408936 15.9212684631348 8.34736061096191 20.6896991729736 30.2163887023926 6.2517147064209 18.3445911407471 32.6509857177734 39.0027770996094 18.752779006958 17.8068523406982 14.9950151443481 16.918041229248 14.5646963119507 19.5124492645264 22.906120300293 20.7656803131104 38.9628791809082 21.2245674133301 20.8057079315186 7.90283346176147 10.1288795471191 14.0781621932983 23.2565364837646 25.0486927032471 21.068546295166 19.8694114685059 11.8769397735596 7.27993869781494 7.03705024719238 5.83359146118164 6.15446281433105 15.2958850860596 9.08247661590576 25.8155517578125 17.0257015228271 5.77051115036011 7.74745464324951 9.36705207824707 9.34122276306152 8.95068454742432 7.73662137985229 7.76138925552368 8.27933406829834 8.86899852752686 9.06622409820557 9.10578727722168 8.64774608612061 8.75752353668213 9.34201717376709 10.1141386032104 10.4117460250854 10.3852920532227 10.4562635421753 10.2552909851074 10.1975364685059 10.5878744125366 9.95152759552002 10.1665182113647 8.48024749755859 7.78590965270996 7.62554502487183 7.20191144943237 6.32549285888672 5.64889097213745 4.9624137878418 5.39404726028442 5.19136428833008 4.60577535629272 3.87393116950989 5.34116363525391 3.38430023193359 4.49288082122803 5.78312301635742 3.50206351280212 10.1567916870117 15.9238758087158 11.4609432220459 9.86282348632812 3.8271484375 5.92508363723755 5.78923273086548 12.9516448974609 9.78976440429688 11.4303941726685 4.56749534606934 4.4694938659668
1.30412924289703 -0.35534530878067 1.2086329460144 1.09462487697601 1.1770076751709 1.90332210063934 1.3961433172226 1.42728471755981 1.49800753593445 1.72673642635345 1.23162865638733 2.01038670539856 2.66590213775635 3.04206156730652 2.58282566070557 2.66237497329712 2.79000329971313 3.10619401931763 3.24067568778992 1.99629950523376 1.3394490480423 2.00909948348999 0.791251718997955 1.47795116901398 0.923424243927002 6.50405311584473 5.80692720413208 9.80695152282715 -1.31152677536011 19.939208984375 28.1589756011963 37.0402603149414 43.5598564147949 37.5136528015137 6.35543394088745 -0.44790381193161 0.242339596152306 6.9147047996521 -0.0263064932078123 -0.690954983234406 14.7571048736572 17.1936893463135 0.99211597442627 1.14942562580109 1.10777950286865 1.25987124443054 1.65824639797211 1.45421528816223 1.40121960639954 1.76159381866455 1.80897605419159 1.80431485176086 1.31723153591156 1.62382972240448 1.55748689174652 1.75159978866577 2.17379665374756 2.21710205078125 2.90856099128723 2.16931581497192 4.03308439254761 5.52633428573608 22.3322467803955 11.6462497711182 31.5362300872803 21.943021774292 9.85998058319092 16.7265739440918 18.7764091491699 15.3448095321655 14.7043523788452 2.75468373298645 9.86932468414307 9.52897548675537 9.6179723739624 12.34739112854 7.60893440246582 4.52740526199341 2.66509175300598 11.6709785461426 0.591479361057281 6.84867334365845 23.4147510528564 12.8864612579346 3.6664879322052 3.97384023666382 7.24386930465698 8.23946857452393 12.9020824432373 10.4670553207397 15.1697359085083 8.36999130249023 28.6494674682617 21.1410522460938 19.4370098114014 23.9292106628418 24.4168395996094 15.3259706497192 29.1834049224854 18.7549533843994 13.5092878341675 12.7812566757202 33.8244895935059 33.6171035766602 16.4481239318848 11.833758354187 7.87631130218506 6.13600206375122 10.2608127593994 8.50418567657471 14.5682687759399 19.0125179290771 15.511944770813 16.2959899902344 23.3189754486084 29.4454078674316 5.50295543670654 5.29331493377686 5.72142648696899 8.72965526580811 5.68734455108643 16.9627208709717 6.41539812088013 15.9368886947632 4.97345495223999 8.89715957641602 8.90706253051758 8.4611120223999 7.51127243041992 7.43740177154541 7.9042329788208 8.47411441802979 8.61624526977539 8.67528533935547 8.25090408325195 8.44333076477051 9.00452327728271 9.65151214599609 9.94154930114746 9.9467077255249 9.99964046478271 9.80589389801025 9.72057914733887 10.0779685974121 9.50168514251709 9.41876125335693 7.90588760375977 7.47794342041016 7.32025861740112 6.91383934020996 6.04055213928223 5.46536922454834 4.80788326263428 5.24160289764404 5.05300140380859 4.37425899505615 4.47691583633423 2.92171931266785 2.68225574493408 3.71279692649841 3.59281516075134 33.9220390319824 7.78184461593628 8.10960674285889 10.1793346405029 25.6124706268311 3.569575548172 4.6451621055603 4.79860019683838 22.7480564117432 11.925684928894 6.47627830505371 1.08310914039612 3.95339298248291
1.74434196949005 1.01464688777924 1.69524991512299 -0.0538351722061634 1.15321338176727 1.78578913211823 1.32056784629822 1.34596145153046 1.41842091083527 1.71887528896332 1.21716439723969 1.96885240077972 2.61085033416748 2.97563052177429 2.53465104103088 2.61716938018799 2.72599530220032 3.05892968177795 3.16776204109192 1.91053450107574 1.29230856895447 1.95310926437378 1.0150238275528 1.44869184494019 0.885950565338135 9.7918004989624 12.6000881195068 2.98586106300354 34.6325759887695 12.300329208374 19.1012554168701 20.2479228973389 16.8898468017578 29.1349849700928 16.7115383148193 10.2354946136475 13.4927291870117 3.62723159790039 13.3016633987427 21.5280265808105 10.7953596115112 12.3034381866455 0.861421167850494 1.09620380401611 1.09597229957581 1.20645773410797 1.5770617723465 1.38390636444092 1.32373452186584 1.67970252037048 1.73233568668365 1.7316814661026 1.24772965908051 1.53434765338898 1.44711625576019 1.62329459190369 2.00831460952759 2.04608607292175 2.10932111740112 2.42330098152161 3.21738314628601 1.9688800573349 9.2062816619873 28.480936050415 30.5332889556885 11.5806932449341 14.1964273452759 13.0207233428955 14.650315284729 11.9662733078003 9.9676456451416 3.85618996620178 9.15524291992188 6.09605026245117 6.25985383987427 8.41742610931396 3.07982134819031 5.81876468658447 2.50511455535889 6.3854923248291 10.3436555862427 4.57376098632812 14.0938472747803 8.09025001525879 3.27117586135864 3.69694185256958 4.4762077331543 5.90738010406494 8.48107814788818 14.3163499832153 18.4370288848877 25.0625495910645 24.5560035705566 11.4820747375488 17.2558174133301 23.0008583068848 24.9079685211182 32.1738739013672 18.900447845459 16.5374298095703 23.2555561065674 38.625415802002 20.802267074585 17.5418930053711 12.4571466445923 9.59622955322266 14.7743806838989 21.7871112823486 6.11099767684937 8.32464408874512 10.6181764602661 9.95353317260742 14.4055137634277 14.3013010025024 12.4543800354004 10.6054353713989 25.6124420166016 27.7368812561035 29.8443698883057 12.751389503479 15.8783416748047 16.4320068359375 6.79327774047852 5.07717990875244 8.33902931213379 8.42021942138672 8.48159790039062 8.02993869781494 7.07269716262817 7.13399744033813 7.56927347183228 8.10829162597656 8.22739601135254 8.28812599182129 8.20540809631348 8.13193607330322 8.66097927093506 9.24022197723389 9.50420379638672 9.25222587585449 9.47843551635742 9.52152252197266 9.33101844787598 9.60490036010742 9.05658435821533 8.41034030914307 8.60283851623535 7.16891622543335 6.99844551086426 6.62701988220215 4.42932224273682 5.24946069717407 4.65211009979248 4.54100847244263 5.04203271865845 4.8775315284729 4.34891605377197 2.39751815795898 1.99800503253937 3.30267524719238 11.1244649887085 15.4816989898682 13.190299987793 11.7622385025024 3.72651791572571 3.19647765159607 2.48977160453796 2.05492115020752 2.0731029510498 4.15162658691406 7.22331523895264 5.5087571144104 4.19604825973511 0.847524881362915
1.51383233070374 6.75046873092651 1.5100919008255 -0.129851087927818 1.46359598636627 1.15766859054565 1.72440505027771 1.27455759048462 1.33542633056641 1.66091442108154 1.2007794380188 1.92830789089203 2.55674934387207 2.91960716247559 2.48907852172852 2.56630897521973 2.66999793052673 2.71910953521729 3.06454348564148 1.83097636699677 1.24888873100281 1.88186311721802 0.872455060482025 1.43431723117828 0.880082845687866 45.0507621765137 50.508171081543 49.0726203918457 20.1992340087891 8.76419353485107 14.2622861862183 5.54793882369995 40.7445526123047 23.9639320373535 17.7426280975342 18.7838764190674 9.4300012588501 2.20463466644287 4.02304363250732 6.53835487365723 0.929553925991058 7.46422576904297 7.59756994247437 0.817811012268066 -1.11544835567474 1.11347270011902 1.47469246387482 1.29125833511353 1.25297439098358 1.59931087493896 1.65262377262115 1.64153122901917 1.15979874134064 1.42342734336853 1.30596303939819 1.48161315917969 1.83448553085327 1.87428963184357 1.91406774520874 1.89957356452942 2.38814997673035 1.5399386882782 4.4481987953186 14.8711814880371 25.4496288299561 36.9243812561035 6.34288167953491 10.8776292800903 11.9640789031982 13.7619705200195 11.7796821594238 10.100191116333 8.00412559509277 5.89418745040894 0.991808891296387 5.95190763473511 2.74129605293274 4.89588642120361 2.31811809539795 13.0138683319092 2.95725274085999 2.4269757270813 9.46383285522461 5.55861473083496 3.11233353614807 3.46195697784424 4.1069130897522 5.01598262786865 6.28446388244629 9.03575134277344 12.7454328536987 13.2424468994141 16.0636672973633 17.7552223205566 11.499945640564 15.9596767425537 16.9347801208496 19.7205066680908 18.6205863952637 16.5539264678955 21.0786437988281 22.4180278778076 16.0534210205078 15.8512620925903 9.6422004699707 6.68970251083374 5.87862682342529 3.7427818775177 5.33859300613403 5.63779830932617 5.43956327438354 8.79997539520264 12.7923431396484 12.0203561782837 19.8966407775879 10.5941562652588 17.127613067627 11.1167402267456 14.2932443618774 8.19415378570557 12.6592016220093 10.1607046127319 23.9930381774902 32.6078872680664 4.64652347564697 4.52021408081055 8.0498104095459 7.62925863265991 6.72292137145996 6.85019588470459 7.26484107971191 7.76236534118652 7.86406517028809 7.91938877105713 7.87849426269531 7.83893966674805 8.34871768951416 8.23774242401123 8.80273532867432 9.05135154724121 9.08846282958984 9.13675785064697 8.94244575500488 9.14728450775146 8.66213512420654 8.51538944244385 7.90317010879517 6.76939821243286 6.64628553390503 6.28972673416138 3.67100024223328 2.95406365394592 3.3019437789917 2.85092878341675 2.9801070690155 4.69341993331909 4.19853210449219 38.4345436096191 40.9827461242676 14.6847171783447 6.21857643127441 2.99468731880188 3.56942057609558 3.30551648139954 3.21654653549194 2.48145055770874 1.98310887813568 1.38822305202484 1.01985144615173 1.11942732334137 3.46471357345581 5.2341194152832 9.29895687103271 0.811260402202606
0.982573330402374 38.1941223144531 -0.0913792550563812 28.3065414428711 0.703686714172363 1.28564929962158 1.66035604476929 1.2257593870163 1.28917765617371 1.62174224853516 1.16817581653595 1.06524276733398 2.50590920448303 2.87185215950012 2.45220923423767 1.34403932094574 1.70036363601685 2.53030514717102 2.8184494972229 2.9260094165802 1.20307838916779 1.8102080821991 1.12584936618805 1.42605245113373 1.4620943069458 26.9118900299072 31.5016059875488 31.2821712493896 14.905571937561 0.392606794834137 7.25605773925781 15.9226226806641 23.6649723052979 18.6897792816162 20.6792335510254 22.681568145752 5.83293771743774 3.3018319606781 30.8120594024658 21.4725074768066 0.907990634441376 5.72398805618286 5.13752746582031 0.474507600069046 -1.36504220962524 -0.457412600517273 1.37205040454865 1.20473325252533 1.18300437927246 1.51538503170013 1.54259741306305 1.48111689090729 1.023845911026 1.27550494670868 1.16339409351349 1.35221207141876 1.68191492557526 1.66884708404541 1.63987874984741 1.47906005382538 1.92220723628998 1.26140952110291 2.68079280853271 10.0008354187012 15.5068588256836 23.5907745361328 39.8801918029785 12.006591796875 10.737738609314 12.3148221969604 10.3932437896729 20.9665508270264 7.21394538879395 5.56412506103516 6.68241691589355 0.812705457210541 4.38171577453613 4.26673078536987 2.17647051811218 8.62705230712891 22.4760665893555 13.9523601531982 7.18698453903198 5.71272563934326 2.91001963615417 3.09616041183472 3.78960990905762 4.55423784255981 5.00602531433105 6.76584005355835 7.31196880340576 9.77982139587402 12.9422578811646 11.1707754135132 27.3823261260986 13.1181402206421 13.6067905426025 15.4347076416016 17.7903137207031 15.5103960037231 15.0618600845337 16.1406955718994 14.5509805679321 14.835844039917 13.0635633468628 25.7141017913818 11.0368556976318 13.735279083252 6.85636234283447 5.32610654830933 12.7307176589966 8.55950450897217 12.7724771499634 21.0868854522705 13.688286781311 24.323127746582 25.5247669219971 27.7735614776611 24.5724258422852 8.67899608612061 21.1237850189209 22.424015045166 8.58741569519043 24.031925201416 20.7729930877686 21.4790458679199 6.09377765655518 7.21366834640503 6.32853317260742 6.59939575195312 6.64699602127075 7.19065952301025 7.52744436264038 7.57851076126099 7.57126903533936 7.56169176101685 8.04948997497559 7.88975620269775 8.42684078216553 8.6751537322998 8.71608543395996 8.75801753997803 8.55028057098389 8.37602233886719 8.57758140563965 8.07270526885986 7.43490028381348 6.37558746337891 6.25842094421387 5.92795610427856 9.40685939788818 2.88362526893616 2.87538886070251 14.6391353607178 7.64810466766357 3.40652799606323 3.34232020378113 11.5350275039673 19.4064025878906 3.25722789764404 2.40924525260925 2.64991116523743 2.89776968955994 2.7150764465332 2.35654091835022 2.13671326637268 1.52229309082031 0.979321122169495 0.346117109060287 0.212979108095169 2.27149224281311 1.03088915348053 1.82484102249146 0.407450795173645
1.16608250141144 21.3840560913086 37.3911323547363 14.3236227035522 6.93810367584229 1.89450919628143 1.64589202404022 1.20832848548889 1.26610863208771 1.31867396831512 1.1035680770874 1.06223177909851 1.03902995586395 2.33239793777466 1.30166518688202 1.31129419803619 1.58727967739105 2.46121954917908 2.75405120849609 2.85467886924744 1.15878772735596 1.74060893058777 1.10085642337799 1.41139686107635 1.86660373210907 19.0857677459717 23.0657005310059 22.4314231872559 14.4596357345581 7.8701024055481 6.42171144485474 25.7667484283447 16.5796718597412 16.5551662445068 15.1975440979004 14.811429977417 48.6904106140137 33.8932876586914 12.3724555969238 20.8485546112061 8.64963054656982 5.13507413864136 4.50236463546753 0.403626590967178 4.45267677307129 39.0981674194336 1.25164270401001 1.12596094608307 1.09186601638794 1.40972447395325 1.37726879119873 1.23577463626862 0.825619399547577 1.06328165531158 1.16601300239563 1.23636436462402 0.533355414867401 1.41639864444733 1.40588688850403 1.41458261013031 1.41998052597046 1.01836323738098 0.797293245792389 7.51382398605347 10.4133377075195 11.0537300109863 12.348123550415 10.3916549682617 9.62459278106689 11.1468601226807 9.31952571868896 9.76523399353027 5.57378625869751 3.66669631004333 15.2689323425293 14.6093311309814 3.59640693664551 3.72867631912231 2.00272107124329 6.03810167312622 11.8145341873169 8.04540729522705 4.01905155181885 5.70131063461304 3.51805281639099 2.92400860786438 3.51933789253235 4.20881080627441 4.59045553207397 5.30649137496948 6.47236347198486 8.23714256286621 8.13535690307617 10.5729732513428 16.1339359283447 17.5408744812012 27.8584995269775 12.4206371307373 11.9414148330688 12.3703870773315 11.1713104248047 11.4352540969849 12.7250089645386 11.8153829574585 16.0909309387207 18.4893112182617 8.89540672302246 10.8082962036133 20.3161525726318 18.7129535675049 21.9168281555176 14.8062810897827 24.6350650787354 23.1644477844238 14.8147840499878 16.1912536621094 17.3277912139893 23.534704208374 22.7734127044678 28.6574325561523 20.1675090789795 20.3996963500977 35.7219696044922 21.7844276428223 26.5070896148682 15.1571741104126 5.66285610198975 5.5380392074585 5.93579292297363 6.34757471084595 6.42553472518921 6.87714290618896 7.11093139648438 7.27177953720093 7.28711748123169 7.30084276199341 7.75733137130737 7.5812668800354 8.0402364730835 8.2680196762085 8.32844543457031 8.34916114807129 8.13992214202881 7.95139646530151 8.10477733612061 7.61744832992554 7.00265216827393 5.9896993637085 5.84163093566895 5.52219676971436 34.6271705627441 33.0745582580566 10.9569149017334 5.78060817718506 2.3836555480957 2.48956608772278 2.5822958946228 6.00287342071533 4.88394165039062 2.31353425979614 1.85844254493713 1.95797073841095 2.27147960662842 2.32180047035217 1.91680753231049 1.43559980392456 0.864011466503143 0.704030275344849 0.297345250844955 -0.0139874508604407 -0.0169778279960155 0.994556307792664 1.35785675048828 10.434476852417
17.6467113494873 14.2721147537231 15.0558767318726 18.3482227325439 0.0516660585999489 0.104609772562981 2.22350311279297 1.61502110958099 2.24937725067139 1.24318945407867 1.06671464443207 1.01981127262115 1.00125730037689 1.01097476482391 1.18668949604034 1.22594118118286 1.26039063930511 2.42244434356689 2.70530533790588 2.79724907875061 1.59928584098816 1.68355810642242 1.07953011989594 1.38749778270721 1.71377742290497 15.0582180023193 18.431734085083 14.0025844573975 10.2095670700073 10.297456741333 6.08088541030884 14.8182468414307 12.7715539932251 14.1506090164185 13.0334463119507 28.5601387023926 18.9528522491455 18.0064296722412 35.8405990600586 23.7228469848633 15.4452648162842 4.98542737960815 -0.652824819087982 -1.08154964447021 47.6394119262695 18.5804214477539 1.04539787769318 1.03058969974518 1.01781356334686 1.31708776950836 1.28302943706512 1.1248664855957 0.74726665019989 0.972153007984161 0.860055983066559 1.11055731773376 22.9612808227539 1.23062694072723 1.25579380989075 1.30627357959747 1.2403119802475 -0.876631557941437 -0.59662002325058 -0.482899367809296 -0.992143511772156 5.55945253372192 5.64656686782837 9.81033897399902 8.69451808929443 10.041953086853 3.20836281776428 5.50116968154907 4.29495000839233 1.87234401702881 14.5202198028564 16.3658618927002 0.748356580734253 3.2725772857666 1.90742170810699 4.36563348770142 8.37867641448975 5.26471090316772 2.41268634796143 4.77490186691284 2.9289882183075 2.76614141464233 2.85419511795044 3.8531494140625 4.2697925567627 4.78142070770264 5.74051427841187 7.07609176635742 7.26410293579102 9.68006801605225 11.9616508483887 12.7303848266602 13.7980365753174 26.1295299530029 29.797290802002 27.9483299255371 25.4000091552734 8.54599094390869 9.61430072784424 11.6698932647705 14.3618698120117 19.601131439209 16.451868057251 10.6517543792725 17.7424793243408 27.4489097595215 17.756462097168 14.3008918762207 12.604058265686 14.8122301101685 12.2024450302124 12.0021934509277 11.164529800415 16.4206829071045 15.2805709838867 15.8782052993774 14.1700458526611 12.9107208251953 18.2952289581299 15.4721946716309 7.24239826202393 4.4990873336792 4.59052848815918 4.03299427032471 3.72104263305664 6.08672475814819 6.21720218658447 6.53735637664795 6.81809377670288 6.99763202667236 6.99934959411621 7.03198766708374 7.45744657516479 7.26798677444458 7.64486408233643 7.83662700653076 7.90071249008179 7.93470335006714 7.71908044815063 7.51327848434448 7.64525699615479 7.18267345428467 6.58173704147339 5.62933683395386 5.44676446914673 5.10499048233032 6.67409324645996 14.1762609481812 2.30911898612976 1.92926406860352 2.19886469841003 2.3197968006134 1.94323039054871 2.07933855056763 1.51032531261444 1.32168316841125 1.26087141036987 1.20483195781708 1.26686429977417 1.4607834815979 1.26666855812073 0.801717400550842 0.684543609619141 0.00306319002993405 -0.416731506586075 -0.898255825042725 -0.470023661851883 0.58996593952179 0.561153888702393 8.46691513061523
7.89322280883789 10.588303565979 14.7277898788452 12.2167367935181 38.8979988098145 38.7278289794922 3.68572330474854 3.97277998924255 1.53234946727753 1.20933866500854 1.09714877605438 0.99807196855545 0.973064184188843 0.967231571674347 1.06816625595093 1.12335121631622 1.11612975597382 2.38374257087708 1.25690579414368 1.37207341194153 1.56541442871094 1.64010810852051 1.05468022823334 1.35138547420502 1.44116985797882 2.10658717155457 11.4870529174805 21.199089050293 20.3902645111084 9.12644863128662 5.72102785110474 11.6595182418823 8.52245998382568 12.2571487426758 11.355583190918 15.5713710784912 23.1973419189453 29.8937950134277 20.5592594146729 16.9454879760742 13.2169485092163 4.77305603027344 47.050537109375 19.766544342041 30.8327140808105 13.6011266708374 0.960379004478455 0.943181455135345 0.945227980613708 1.23591148853302 1.21908140182495 1.09386277198792 0.968893766403198 0.691945314407349 7.14080905914307 1.01244926452637 10.2979421615601 1.13505601882935 1.15435039997101 1.19469618797302 -0.870236396789551 -0.920523047447205 -0.706855058670044 -0.852941334247589 -1.10488379001617 4.7892165184021 2.25738382339478 8.58966732025146 8.04299640655518 9.08148384094238 0.717837810516357 2.83582210540771 2.33683776855469 0.366994857788086 0.0194715745747089 -0.0322936661541462 3.89682412147522 1.0248327255249 1.5810067653656 0.792411744594574 0.844321846961975 0.935543298721313 1.40189409255981 4.09200000762939 2.55885362625122 2.64140343666077 2.68515706062317 3.56620693206787 5.05966472625732 4.63764190673828 5.15175199508667 6.17397832870483 6.36335229873657 8.97818183898926 10.7604351043701 11.9291152954102 12.9396944046021 12.4125356674194 14.2654695510864 12.8040504455566 12.0427179336548 29.5012874603271 9.17205715179443 8.2274169921875 7.15271997451782 9.29104518890381 6.8581714630127 10.0782022476196 17.4835910797119 20.7274856567383 12.7453079223633 10.7900724411011 11.9050464630127 11.5090236663818 11.1144437789917 10.8561735153198 9.07515048980713 11.690803527832 12.1928806304932 12.3062953948975 10.2553329467773 10.9243583679199 8.25478172302246 5.67516279220581 7.72219228744507 4.11772394180298 3.78353309631348 4.47446155548096 3.31730771064758 4.26593589782715 5.90074777603149 6.07554578781128 6.52130937576294 6.72063207626343 6.68613576889038 6.74038648605347 7.14535713195801 6.96213483810425 7.27403354644775 7.44830703735352 7.49020767211914 7.50939035415649 7.30163669586182 7.07782602310181 7.18599510192871 6.76383686065674 6.18862724304199 5.302161693573 4.36165332794189 4.14674282073975 4.27046060562134 2.62951254844666 1.75263094902039 1.91141605377197 1.84244096279144 1.50803017616272 1.06742036342621 0.772801339626312 0.960643708705902 0.519092679023743 0.598725318908691 0.444863587617874 0.477376848459244 0.643127679824829 0.932188093662262 0.287764221429825 -0.278206914663315 21.4422836303711 24.9634857177734 32.5295257568359 -0.720057427883148 27.6076507568359 0.116031900048256 1.67612826824188
5.3020167350769 1.11962997913361 10.9691247940063 7.55587863922119 22.7000484466553 22.1180248260498 2.3040144443512 2.41879177093506 1.17684483528137 1.1477118730545 1.11499571800232 0.959899067878723 0.942003071308136 0.940530061721802 -0.609162569046021 0.954681873321533 0.961787939071655 2.34154558181763 0.631872892379761 7.97719669342041 1.54097759723663 1.59514939785004 1.21865344047546 1.31565046310425 1.20451080799103 2.00088691711426 10.1522741317749 12.6915063858032 13.0662126541138 8.28206634521484 5.37963962554932 8.17100048065186 9.27423191070557 10.7907524108887 10.0003938674927 10.6160917282104 16.7648696899414 17.1050872802734 14.1987781524658 13.162938117981 13.4665613174438 4.55087089538574 31.6894702911377 45.5769157409668 23.7009658813477 13.1440992355347 4.57410717010498 0.912903249263763 0.878875613212585 1.1527202129364 0.989097416400909 1.13948321342468 1.05911362171173 0.622521638870239 2.44581246376038 0.849650084972382 6.90878915786743 1.10299813747406 1.10152518749237 -0.451788604259491 0.0672226920723915 -1.0225864648819 -0.99025160074234 -0.97208297252655 -1.22765040397644 5.51811265945435 1.32486975193024 -0.0586351603269577 0.0945926159620285 1.18549048900604 0.120305612683296 1.27342915534973 1.38257324695587 -0.0927398279309273 5.99353742599487 12.3602046966553 -0.141622737050056 -0.135665744543076 0.349497646093369 0.392352074384689 0.647012531757355 1.21284675598145 3.56602549552917 3.70945978164673 2.38292956352234 2.512775182724 2.54189968109131 3.03386044502258 3.66317939758301 4.44160747528076 5.72611951828003 5.79642534255981 5.64028882980347 7.24425268173218 10.0082931518555 11.0917148590088 12.2661962509155 11.8121500015259 11.723180770874 11.7289266586304 10.5961256027222 15.240216255188 17.3033847808838 9.80322456359863 7.29031848907471 7.38637113571167 16.6531391143799 16.0216846466064 7.72756052017212 14.6858062744141 11.0543813705444 5.31179332733154 6.6762900352478 7.67391681671143 8.85564613342285 9.87145137786865 17.8703269958496 10.5515508651733 9.9567232131958 9.90384674072266 8.19198226928711 10.1668043136597 10.9580869674683 14.4021806716919 11.367938041687 18.5518169403076 23.7954139709473 4.30323791503906 3.69541811943054 3.92128372192383 5.71986198425293 5.85845565795898 6.19584989547729 6.39470767974854 6.34259557723999 6.42416143417358 6.83117914199829 6.65241527557373 6.91562747955322 7.0835657119751 7.12678861618042 7.12179327011108 6.92072200775146 6.68136501312256 6.75758934020996 6.37640714645386 5.82194519042969 5.33758497238159 4.04578018188477 3.64083814620972 3.73871898651123 1.54108858108521 1.68377065658569 1.14600515365601 1.15057122707367 0.88934588432312 0.368927448987961 -0.158128157258034 0.252585798501968 -0.24356883764267 -0.123280331492424 -0.229809910058975 -0.189929351210594 1.57924234867096 -0.326743721961975 9.42808246612549 24.641357421875 1.884894490242 8.7052173614502 6.20928001403809 25.932731628418 2.68459296226501 1.1677405834198 -0.81784850358963
9.02176856994629 1.07389008998871 7.27222061157227 8.89926624298096 15.1881370544434 15.2466745376587 1.62967991828918 1.20463919639587 1.13748490810394 1.11923050880432 1.07266211509705 0.9399573802948 0.897604405879974 -0.30923256278038 19.5249137878418 -0.597804605960846 -0.84504908323288 -0.614960670471191 -0.477792531251907 0.393624782562256 0.0300691053271294 1.55245113372803 1.1923440694809 0.85649049282074 1.22147619724274 1.72292852401733 9.12484645843506 11.5499286651611 11.657772064209 7.51317119598389 4.99436235427856 6.94120121002197 8.12495708465576 9.73299598693848 8.91396236419678 8.03792572021484 10.9164705276489 13.306981086731 13.581395149231 11.1534042358398 11.4422636032104 4.24474000930786 23.1454162597656 28.3429088592529 18.6483821868896 15.2339525222778 9.63974285125732 0.896379292011261 0.830475866794586 1.0675311088562 0.950509905815125 1.11853241920471 1.04659271240234 0.610605835914612 0.859247148036957 0.54607367515564 5.0591082572937 0.332444578409195 -0.36502480506897 -0.449072659015656 -0.432286769151688 19.7917995452881 19.3268184661865 14.983606338501 7.92409086227417 2.42127227783203 0.571399867534637 -0.329421311616898 14.3468952178955 1.04736542701721 -0.197884321212769 0.450808107852936 0.69177383184433 2.93730401992798 0.00405102362856269 -0.0417004637420177 1.71546292304993 1.29473698139191 0.0769458115100861 0.137071326375008 0.410889387130737 0.275882124900818 1.16325271129608 3.44678688049316 2.27621865272522 2.86773300170898 5.34226989746094 2.99957966804504 3.49809503555298 4.16803693771362 4.87405204772949 5.62368583679199 5.19098138809204 6.03181743621826 8.46913433074951 10.3169469833374 11.236834526062 11.4195318222046 11.0798206329346 10.9864950180054 10.1656637191772 10.7032442092896 8.87293243408203 18.4614295959473 17.7679595947266 11.1548299789429 8.74140453338623 8.29103946685791 6.64096069335938 5.38160371780396 4.64357376098633 4.42436647415161 6.2718358039856 6.56054258346558 6.72942399978638 6.94420671463013 9.17012786865234 10.7474279403687 9.45871639251709 8.65097713470459 5.6473970413208 7.32513666152954 7.63331317901611 12.3495645523071 8.20157814025879 13.0806303024292 17.4109535217285 17.0777015686035 3.12403059005737 3.74442481994629 3.02088356018066 5.52401542663574 5.84937047958374 6.05563926696777 5.97839403152466 5.69766569137573 6.03667497634888 6.44294786453247 6.56162357330322 6.73645353317261 6.78557729721069 6.77090787887573 6.56541919708252 6.3300895690918 6.38099718093872 5.99840879440308 5.55289793014526 3.74663162231445 3.80379247665405 10.539758682251 3.62183046340942 22.3075141906738 0.973026275634766 0.524250864982605 0.444637715816498 0.542720973491669 0.0362542569637299 -0.437000453472137 -0.140717074275017 -0.539238452911377 -0.860360383987427 -0.454248279333115 -1.13773715496063 0.0343064479529858 33.9334411621094 0.204328507184982 15.2278490066528 18.045093536377 12.6862087249756 25.5433006286621 23.4983196258545 0.152547523379326 -0.264776676893234 14.7690420150757
7.68266105651855 3.64419388771057 6.25506353378296 7.45298147201538 11.2079420089722 11.4592151641846 1.56289505958557 1.15778040885925 1.09910261631012 1.10691380500793 1.05081856250763 -0.568382561206818 -0.424696177244186 -0.974483788013458 9.40074157714844 -0.805916249752045 6.93982124328613 0.713469266891479 1.24358487129211 0.626644849777222 9.57908153533936 1.51412320137024 1.17375004291534 0.648188769817352 1.19473612308502 1.26017844676971 8.22944641113281 10.4968214035034 10.5166006088257 6.91507816314697 4.70235347747803 6.43939733505249 7.24180936813354 8.9497709274292 8.08528423309326 6.81500053405762 9.69047164916992 11.2638864517212 11.5041313171387 9.67707061767578 9.91986846923828 3.93524241447449 18.0465507507324 20.6442737579346 4.60947418212891 15.0172710418701 8.34525394439697 1.02961838245392 0.852844953536987 0.791790366172791 1.05421566963196 1.09396243095398 1.03813934326172 0.609457850456238 -0.558658301830292 7.57405424118042 0.0659891441464424 -0.30882728099823 6.39452600479126 7.14461803436279 14.5672416687012 7.44817924499512 15.4926900863647 3.48512029647827 5.03406810760498 22.2091217041016 16.5868816375732 -0.358480602502823 -0.481339573860168 0.951018035411835 14.8587579727173 4.37101221084595 0.453364819288254 -0.0985697954893112 6.60585117340088 9.72434902191162 7.37194061279297 3.27935838699341 -0.0583679042756557 -0.217162728309631 -0.0716097876429558 -0.330543845891953 1.04812359809875 3.22150611877441 2.15733957290649 2.28768968582153 2.29935097694397 2.7257387638092 3.29784297943115 3.88818717002869 4.51992082595825 5.11369323730469 4.83964681625366 5.85614347457886 7.87236595153809 8.81350898742676 9.57407760620117 10.7566833496094 10.4773054122925 10.3489027023315 10.3464975357056 9.44679641723633 8.65853881835938 11.0358848571777 9.25610542297363 6.70795679092407 7.57582664489746 5.95975112915039 3.55567932128906 5.1448278427124 4.41625547409058 9.14142608642578 4.77462434768677 6.22358083724976 5.37358140945435 8.046630859375 8.03317546844482 8.65869998931885 9.34598541259766 9.51399230957031 14.8906002044678 6.63015460968018 6.8654727935791 7.98557949066162 7.12114810943604 14.1687898635864 13.2668046951294 3.52797269821167 17.5854873657227 3.04148364067078 2.99799776077271 3.49130034446716 5.49836301803589 5.73243141174316 5.64443492889404 5.40036869049072 5.73771619796753 6.12627744674683 6.21934509277344 6.39492988586426 6.45519876480103 6.43437242507935 6.23015165328979 5.99726963043213 6.04721021652222 5.64275407791138 5.19416475296021 33.4005546569824 3.31297826766968 3.83639717102051 3.33050656318665 6.95852327346802 0.819061994552612 0.311996221542358 0.0691847279667854 0.0453781075775623 -0.518485724925995 -0.517215430736542 -0.640996813774109 -1.57418406009674 -1.35828936100006 -1.08102691173553 31.5988807678223 -0.38153287768364 10.5037097930908 0.19229082763195 5.77695941925049 6.44997549057007 14.3892469406128 13.5839614868164 6.49894762039185 -0.683515131473541 -0.591969013214111 10.0134334564209
