NCOLS 174
NROWS 32
XLLCORNER 353712
YLLCORNER 6701248
CELLSIZE 16 
NODATA_value -3.4e+38 
32.9241065979004 23.6513671875 17.9377098083496 13.9640293121338 35.0614395141602 9.59059238433838 42.9300498962402 25.4610328674316 17.90500831604 14.8006744384766 6.38003826141357 6.3011417388916 5.08918237686157 13.6000709533691 2.40973472595215 -0.57976758480072 -0.621632993221283 -0.941069900989532 -1.31805062294006 -1.91110980510712 -2.52947950363159 -2.62532711029053 -2.70885372161865 7.0245213508606 17.9853591918945 9.70304298400879 9.45910549163818 10.5955991744995 20.0231304168701 10.1604776382446 9.12636661529541 8.09332084655762 12.2051439285278 9.18996810913086 8.71440029144287 7.65347290039062 6.47504901885986 6.6766505241394 6.61352062225342 41.8533935546875 28.4983367919922 19.8811264038086 15.1714639663696 10.7063474655151 10.020302772522 8.92212581634521 3.68657326698303 3.51626324653625 3.16656732559204 2.43327355384827 2.39466595649719 5.61654043197632 1.62893378734589 4.94804620742798 21.9206352233887 9.00223255157471 8.84450531005859 10.150954246521 9.24081611633301 16.2845668792725 19.0790328979492 14.4323244094849 38.930046081543 9.17503833770752 8.61752700805664 7.81585025787354 7.44957780838013 5.01840543746948 3.22663521766663 3.12415313720703 12.4891242980957 28.0053062438965 14.7032098770142 10.3838548660278 16.6148834228516 5.23638200759888 3.57662272453308 19.1443386077881 3.36224174499512 2.66484665870667 2.56323838233948 15.0988273620605 13.6057434082031 26.1146240234375 11.1119222640991 29.4753513336182 8.48223686218262 36.6769676208496 12.2002716064453 18.6549091339111 16.3192367553711 19.3261260986328 21.4029769897461 18.127649307251 17.2201328277588 15.2323408126831 13.8792743682861 20.9129734039307 11.7189702987671 11.093635559082 17.108606338501 11.8664693832397 10.3321380615234 10.3225002288818 10.6120777130127 14.6331691741943 10.0708208084106 9.60641574859619 9.26175212860107 9.05515193939209 9.02510833740234 8.67503929138184 8.3514518737793 8.04998016357422 7.76886701583862 7.507164478302 7.26187610626221 7.0319995880127 6.81705617904663 6.61420726776123 6.29344797134399 6.30219268798828 6.1220850944519 5.73416709899902 6.07799243927002 5.59384918212891 5.44807910919189 5.31922292709351 5.20071792602539 5.07970523834229 4.77083873748779 4.13893699645996 3.58808612823486 18.6500568389893 4.35764312744141 3.65196108818054 3.54963278770447 30.1901149749756 16.6027336120605 11.2804069519043 9.57524967193604 8.78288173675537 7.49574136734009 6.65223455429077 6.05563259124756 5.59559917449951 5.11470556259155 4.0025486946106 4.13898801803589 3.98276472091675 4.06013298034668 4.00049161911011 3.8011589050293 3.62577795982361 3.44473099708557 3.28725910186768 3.15311408042908 3.03444337844849 3.80753588676453 3.15968728065491 2.68537592887878 2.55991339683533 0.725745320320129 7.44539642333984 -0.167148888111115 10.6768989562988 2.90667939186096 15.1472549438477 42.303638458252 24.6208744049072 16.9750480651855 12.7061719894409 11.2732057571411 9.35961055755615
33.0545959472656 23.3319263458252 19.3369216918945 13.7432117462158 31.0319080352783 19.034273147583 13.6081190109253 12.4215135574341 6.15453290939331 5.71991539001465 44.646125793457 6.23998689651489 5.26912689208984 3.93170046806335 2.9705183506012 0.755353391170502 -0.894338726997375 -0.951464056968689 -1.27374339103699 -2.16762924194336 -2.50202655792236 -3.02329397201538 -3.09021592140198 18.2971305847168 11.2460479736328 12.2022571563721 16.9938659667969 12.3414392471313 15.3360557556152 8.20817279815674 9.9733715057373 14.0440807342529 9.39024257659912 14.2321157455444 14.7408466339111 8.56071376800537 9.6135368347168 6.94049596786499 38.1005401611328 21.718204498291 13.2708206176758 10.6397199630737 11.1215314865112 11.0106840133667 9.22128677368164 3.90055584907532 3.33383011817932 8.51232814788818 3.13896822929382 2.75630593299866 2.02971053123474 1.92368900775909 10.2317113876343 9.16679859161377 10.838173866272 5.87230062484741 10.3241147994995 5.47348356246948 9.53505897521973 17.6234836578369 34.2696838378906 21.0437145233154 12.4829444885254 44.5766639709473 26.2765827178955 5.51333522796631 11.8521766662598 3.4094820022583 2.555095911026 7.50723218917847 10.0407447814941 12.2962999343872 15.352011680603 8.22630882263184 6.85342025756836 6.3890905380249 5.7018141746521 3.67787599563599 8.35991382598877 3.07766556739807 15.6838483810425 18.5000553131104 38.939769744873 18.1256237030029 14.8634977340698 16.6185054779053 11.4095907211304 6.6574821472168 27.788158416748 31.726354598999 19.7962112426758 18.6006832122803 33.6079635620117 21.2353630065918 16.1165904998779 10.0039329528809 35.4606323242188 21.1895503997803 15.5826015472412 10.1312084197998 10.5668230056763 10.8519105911255 9.42304801940918 22.8253746032715 13.7821054458618 9.49613571166992 8.98779582977295 8.57258415222168 8.42162799835205 8.44439029693604 8.4010591506958 8.07506942749023 7.7733039855957 7.49168729782104 7.23015594482422 6.98520421981812 6.75602245330811 6.543785572052 6.34725427627563 6.42977046966553 6.4086446762085 6.23176240921021 6.06111860275269 5.89225149154663 5.5187840461731 5.13012742996216 16.1433849334717 8.19552421569824 5.52831983566284 4.91008472442627 4.94933462142944 4.31648588180542 4.26408720016479 4.10306930541992 3.981773853302 3.63597774505615 10.3642559051514 6.52531147003174 11.4228277206421 7.07506561279297 6.81762170791626 6.95030879974365 5.77646207809448 4.86456966400146 4.21114826202393 3.69160842895508 3.2123167514801 4.87446546554565 4.55151128768921 4.40268278121948 4.31721544265747 4.09856700897217 3.92492961883545 3.7583749294281 3.5981547832489 3.45923256874084 2.90405464172363 2.98825144767761 2.85318183898926 2.77878355979919 2.64577031135559 2.52496194839478 0.415412873029709 0.224491074681282 0.14414393901825 0.89763742685318 -0.215492323040962 22.5210361480713 42.2626571655273 24.8049640655518 18.5344181060791 13.1044597625732 10.8402824401855 9.22402191162109
44.621898651123 26.8441867828369 20.2958736419678 16.8394584655762 15.9950885772705 14.4088487625122 13.0121212005615 11.8647918701172 9.45645999908447 11.5382452011108 7.63674736022949 6.92108392715454 4.98414707183838 4.39289808273315 3.51270318031311 2.50288605690002 -0.797103047370911 -1.05583000183105 -1.20421743392944 -2.00268006324768 -2.58685755729675 -3.07948207855225 18.7773838043213 5.29618310928345 7.47522449493408 15.0607833862305 18.8801803588867 10.3396921157837 17.8718852996826 9.23723411560059 7.65771532058716 7.20016145706177 6.61632633209229 17.6196880340576 27.3748645782471 19.7655906677246 15.3686695098877 6.4941029548645 6.37446117401123 6.07841730117798 15.5936193466187 23.6711921691895 15.0022754669189 11.3628492355347 3.68057036399841 17.0257186889648 3.32747340202332 2.3789758682251 1.86911475658417 1.74005424976349 6.27396965026855 3.69083023071289 2.23867583274841 2.23744416236877 10.2995471954346 6.80307531356812 4.89173650741577 4.04122591018677 11.3379335403442 27.2794609069824 33.2077713012695 16.4508991241455 12.6697120666504 11.0023708343506 5.78732442855835 48.616756439209 3.47803139686584 2.91928505897522 2.66816854476929 2.41403079032898 19.1405353546143 14.0523052215576 11.231011390686 7.99697828292847 5.22045135498047 15.7341909408569 4.81099939346313 4.14892721176147 19.8959274291992 14.6421098709106 13.0765314102173 9.70856380462646 29.7653503417969 33.9235954284668 21.9351406097412 14.501916885376 8.42588996887207 22.3762359619141 8.37463855743408 46.8603782653809 30.9819488525391 23.9449214935303 22.1251258850098 19.6766910552979 17.6667594909668 15.9450845718384 14.6508007049561 13.5633220672607 12.6632928848267 11.8552961349487 11.1446924209595 9.43808174133301 15.5310525894165 8.55813503265381 8.27782154083252 7.99969720840454 7.69593572616577 7.75221109390259 7.45122194290161 7.35845422744751 7.49201774597168 7.20139598846436 6.93161487579346 6.67988348007202 6.44420146942139 6.22867107391357 6.02391386032104 5.83387517929077 5.97522735595703 5.99206256866455 5.96200370788574 5.79465484619141 5.63717794418335 5.48701524734497 5.33624267578125 5.18242454528809 3.75921750068665 40.4285926818848 24.0273742675781 16.6645679473877 12.6691865921021 4.80952119827271 4.21075344085693 4.1068286895752 6.88912200927734 3.37322545051575 12.1485586166382 11.433217048645 7.67428684234619 5.72899341583252 3.05530548095703 20.9848461151123 10.8362636566162 7.17582035064697 5.36222267150879 2.26092624664307 2.03561615943909 2.87150502204895 2.7751157283783 2.61071753501892 2.48913884162903 2.40902328491211 2.28289580345154 2.18219709396362 2.08104777336121 1.99782049655914 3.35567307472229 3.2261803150177 3.08627772331238 2.92673063278198 2.80984425544739 0.928540945053101 0.684640228748322 -0.126200214028358 -0.116129450500011 24.4779052734375 -0.628848791122437 15.2248239517212 50.4800567626953 31.620698928833 22.3764457702637 16.997486114502 12.2327928543091 10.2919101715088
19.8332347869873 18.2066402435303 13.7437801361084 34.5109329223633 22.5343551635742 15.794584274292 12.989670753479 11.7090072631836 7.96671152114868 9.39957332611084 6.10476684570312 5.29727935791016 5.13199043273926 5.1436595916748 4.59359979629517 3.0366005897522 0.233921244740486 -0.0742059946060181 -1.05734539031982 -1.47945165634155 -2.16854214668274 -2.38798809051514 -2.50103378295898 8.30158424377441 -0.444939643144608 27.0194797515869 18.9364471435547 11.0742406845093 19.6432723999023 15.4808588027954 7.67698621749878 5.63003349304199 14.4502172470093 10.1433544158936 24.7538089752197 17.1585826873779 16.1411113739014 12.3802890777588 6.12307786941528 7.73927927017212 24.3823986053467 23.1741676330566 15.9167575836182 4.53312206268311 4.35044622421265 3.90970587730408 3.3875560760498 2.47492122650146 2.23946523666382 3.92141556739807 5.75008916854858 1.80196332931519 1.70461869239807 6.16913986206055 5.1820650100708 5.37593078613281 2.36821246147156 9.28369903564453 16.0712203979492 15.143593788147 37.2883644104004 14.5629854202271 12.30735206604 5.58199834823608 3.89112329483032 2.47456359863281 54.7467346191406 5.58494997024536 12.9067821502686 4.88654232025146 10.1461944580078 5.80451488494873 7.99878120422363 7.94833469390869 7.748939037323 7.66403913497925 5.37869167327881 29.8074207305908 11.0124111175537 25.8457908630371 23.0774631500244 26.8554077148438 17.3963832855225 23.3660907745361 15.3421220779419 14.9606971740723 10.3364810943604 8.99320983886719 8.34749317169189 39.7207374572754 25.9932670593262 20.0076904296875 16.7224349975586 17.1800842285156 15.0912017822266 13.6227607727051 12.3789386749268 11.3750305175781 10.5337495803833 9.85223484039307 9.23608779907227 8.63762950897217 9.82348728179932 9.27745246887207 8.80040645599365 8.35043525695801 7.92858171463013 7.54470491409302 7.19829702377319 6.87725353240967 6.60293579101562 6.39423704147339 6.19644117355347 6.01045799255371 5.75225305557251 5.68331003189087 5.52418518066406 5.49947452545166 5.343092918396 5.21853351593018 5.31291103363037 5.16297769546509 5.02215433120728 4.89132452011108 4.7636570930481 4.63369846343994 4.26729488372803 4.47733497619629 8.4386682510376 4.66369009017944 4.56359195709229 10.0030546188354 8.41328239440918 7.23927879333496 6.34409618377686 5.64413118362427 5.09404706954956 4.62010097503662 4.59856224060059 3.92854332923889 2.56264472007751 0.871108293533325 9.66949272155762 0.396861016750336 2.58002805709839 18.1122779846191 9.35783195495605 6.37566661834717 4.68732166290283 2.5629096031189 2.33758878707886 2.14670586585999 1.97102248668671 1.82136487960815 1.68531668186188 1.28625524044037 1.94930040836334 1.86814844608307 1.78113615512848 1.66722369194031 1.57885313034058 -0.64119815826416 -1.53651487827301 5.16090869903564 6.73187208175659 15.7847385406494 7.90313386917114 4.0891375541687 18.4311981201172 28.5279788970947 22.3752517700195 16.7515716552734 13.9737586975098 11.8301115036011
28.9473152160645 21.7508735656738 15.1631412506104 13.4702806472778 25.4650726318359 13.4630908966064 12.4178037643433 9.70581245422363 15.6553239822388 9.56508731842041 8.87435245513916 5.24714517593384 21.6675796508789 5.48186874389648 3.76457381248474 2.55803275108337 1.73986506462097 1.01035618782043 0.138020217418671 -0.677389681339264 -1.02856230735779 -2.32240390777588 2.26881313323975 -0.017359608784318 -2.52860975265503 2.71400666236877 19.7457084655762 14.4797887802124 27.6719951629639 10.9809293746948 9.0139274597168 8.45391082763672 7.89418172836304 14.2176790237427 12.8900852203369 26.5960960388184 14.3469905853271 13.3484754562378 13.8833332061768 7.19582605361938 6.95378351211548 5.29131460189819 5.19691276550293 4.25890159606934 3.10787224769592 3.01275515556335 3.12449789047241 2.58062434196472 16.4186534881592 2.20996451377869 1.76964843273163 11.2111549377441 20.2039775848389 9.86341953277588 13.2569589614868 7.62405347824097 3.51414608955383 8.66643142700195 17.8694953918457 27.7718505859375 11.8462314605713 12.3119916915894 8.30815315246582 4.29399585723877 2.92658281326294 2.73805665969849 20.0791454315186 41.7867317199707 6.45279264450073 8.49748611450195 4.91908931732178 19.3637313842773 10.6974182128906 3.86195850372314 2.99777555465698 2.9717128276825 25.9175052642822 23.8721809387207 22.344367980957 16.9756374359131 11.0273265838623 14.287956237793 32.617130279541 17.3957080841064 14.8333768844604 14.6738834381104 13.0386095046997 8.73701763153076 8.24727630615234 35.8726196289062 22.9468746185303 17.5487442016602 14.8653869628906 14.278413772583 12.8721961975098 11.614185333252 10.5918674468994 9.73372173309326 9.03028869628906 8.45707130432129 8.14528179168701 8.52809238433838 8.06822109222412 7.86953973770142 7.5930438041687 7.30719804763794 7.04410934448242 6.81351900100708 6.59627676010132 6.38225364685059 6.16554021835327 5.62560415267944 15.734580039978 8.10120391845703 5.82533740997314 5.66178417205811 5.50713682174683 5.36269855499268 5.22107028961182 5.08865404129028 4.96509027481079 4.8461856842041 4.73262739181519 4.55727863311768 4.49877262115479 4.38994836807251 4.34141969680786 3.87882947921753 14.3526744842529 7.2285475730896 4.91149091720581 3.97817373275757 3.89413833618164 3.81183505058289 3.39552879333496 2.64820909500122 2.58545970916748 2.39605140686035 2.15325355529785 2.11415958404541 1.88072907924652 1.8691383600235 7.46405649185181 9.22225761413574 8.29783725738525 6.10754680633545 4.2610502243042 3.2498733997345 4.34699106216431 3.84306764602661 3.23663401603699 2.79415726661682 2.46024179458618 2.22095656394958 2.01941466331482 1.83702635765076 1.69874775409698 1.56352353096008 1.35569882392883 1.15976750850677 -0.943404138088226 -1.71603488922119 -1.91607916355133 -1.85261392593384 29.4110164642334 19.9341716766357 15.9127407073975 3.47028040885925 38.2382431030273 28.1838817596436 23.1865291595459 17.901575088501 13.1127004623413 10.9445953369141
24.0342998504639 20.4007549285889 15.2101268768311 23.4960956573486 7.94212245941162 46.3083534240723 27.9467716217041 19.0014343261719 14.2932777404785 8.93049907684326 8.54379844665527 7.60158014297485 4.13534450531006 2.15605878829956 1.48858141899109 1.3587806224823 1.02621865272522 -0.288048267364502 -0.596575498580933 -0.892543733119965 -0.923055529594421 -1.74565184116364 13.5844440460205 -1.68876969814301 -2.22883296012878 6.96470928192139 8.70432090759277 7.03198909759521 20.991792678833 18.9257850646973 9.28764915466309 12.6078157424927 9.40032005310059 8.40020179748535 8.7219705581665 19.9814338684082 26.6095504760742 11.3127288818359 15.3118171691895 7.31791400909424 6.47094106674194 5.28770780563354 4.29466819763184 3.84342098236084 3.77659201622009 3.63766956329346 8.81387138366699 2.76162624359131 2.12169575691223 11.0079593658447 10.0926342010498 7.88983488082886 23.900505065918 13.0734252929688 6.60448789596558 7.6138744354248 7.35859060287476 11.5695314407349 11.1704082489014 26.3354930877686 9.83743000030518 7.06241607666016 6.99015760421753 3.8579261302948 2.58290958404541 1.89405608177185 8.49502182006836 15.0097274780273 43.1814498901367 6.2789568901062 4.43188428878784 22.5903930664062 4.08424377441406 9.37676048278809 2.66958165168762 16.881742477417 11.541877746582 35.5014152526855 13.941596031189 22.7526435852051 12.8947582244873 43.5785446166992 28.6958293914795 17.7282772064209 19.0360317230225 13.8913049697876 12.7852277755737 11.980299949646 11.3452262878418 10.8581418991089 9.26519298553467 10.0949850082397 12.1140108108521 12.4264888763428 11.2400617599487 10.3412065505981 9.49610328674316 8.7448787689209 8.20688247680664 7.96311616897583 7.68838024139404 7.81369304656982 7.56623983383179 7.31277513504028 7.05318784713745 6.82321977615356 6.57683706283569 6.37187099456787 6.18247413635254 5.40600347518921 16.0260887145996 5.13530731201172 16.6177616119385 8.47318267822266 5.67951059341431 5.32592153549194 5.18326663970947 5.04949998855591 4.92165851593018 4.79952335357666 4.68403911590576 4.57375288009644 4.61497688293457 4.60239839553833 4.49944829940796 4.39154052734375 4.29948854446411 4.19552993774414 3.71929311752319 3.0067024230957 25.8468246459961 13.6845321655273 9.18994617462158 6.99618864059448 2.69701790809631 2.63711857795715 2.23001503944397 1.93518495559692 1.64696681499481 1.20036625862122 0.673621118068695 6.41341781616211 0.422919631004333 13.4253883361816 10.1075506210327 6.78058528900146 5.12278938293457 4.04460382461548 3.46871829032898 3.04605102539062 2.71916961669922 2.44778895378113 2.2339551448822 2.05365037918091 1.88954329490662 1.8156909942627 1.74277210235596 1.68659639358521 1.61918580532074 1.53078365325928 -0.888034582138062 -1.06748008728027 -1.18808352947235 18.0499114990234 10.8701457977295 6.55689573287964 24.3994064331055 12.4031600952148 9.51781368255615 31.3587608337402 19.0763473510742 13.0814723968506 14.4159507751465 12.1511917114258
23.1591415405273 18.9808788299561 13.1715040206909 30.1850433349609 11.4998760223389 23.527946472168 12.5910835266113 10.7362756729126 9.95485687255859 10.6578874588013 8.02340507507324 7.05470418930054 3.10544991493225 1.10183322429657 0.557226777076721 0.272728890180588 21.3253383636475 -0.168711334466934 -0.210182145237923 -1.6478374004364 7.93957376480103 0.806564748287201 -2.35005402565002 8.31112289428711 8.69402694702148 4.01535844802856 9.22659111022949 9.0037670135498 0.905073642730713 14.3153514862061 11.8307409286499 10.7385473251343 6.1170654296875 11.5146379470825 6.90271472930908 13.729344367981 5.60404109954834 20.3197689056396 5.02703666687012 4.89704608917236 8.5520601272583 4.5036153793335 4.16242218017578 3.7276508808136 4.49691963195801 22.2497386932373 2.90127348899841 3.88977813720703 2.47719359397888 1.82325088977814 8.99927425384521 1.58024668693542 27.5801963806152 9.23643112182617 20.0992851257324 4.34454727172852 10.2707433700562 12.0540561676025 22.9202537536621 10.9846811294556 7.42600536346436 4.14640378952026 8.9745922088623 2.17543840408325 1.79756760597229 2.31147408485413 5.63768339157104 7.9170126914978 8.21793079376221 50.0488128662109 10.0124082565308 14.6175146102905 5.78421354293823 5.36646366119385 17.0060138702393 13.6753091812134 26.1321029663086 20.0615673065186 16.1833744049072 24.2295360565186 17.4287719726562 23.969747543335 14.9541873931885 27.1290626525879 15.2676649093628 15.2212562561035 13.0390567779541 11.5054616928101 10.8372964859009 10.3603219985962 10.4521255493164 10.1281843185425 9.70253944396973 9.36500549316406 9.12489986419678 8.91354370117188 8.69803714752197 8.45822525024414 8.22748279571533 7.18576145172119 7.62319993972778 7.39438438415527 7.18320226669312 6.96366310119629 6.72986650466919 6.50538778305054 6.31983995437622 6.11603927612305 5.02726793289185 27.276704788208 14.4968376159668 5.02670621871948 20.7442493438721 10.7236747741699 7.21985292434692 5.43907356262207 4.94379854202271 4.82011985778809 4.70439958572388 4.59520864486694 4.45820236206055 4.3595290184021 4.45766401290894 4.34893989562988 4.25068140029907 4.16120433807373 4.07237339019775 3.7262806892395 3.15929508209229 2.52610039710999 15.06236743927 8.97002029418945 2.66670489311218 18.6573753356934 10.3102970123291 9.86738586425781 7.44452476501465 3.47319984436035 3.08691501617432 0.468160063028336 23.2364482879639 10.7263441085815 6.14023208618164 19.3627433776855 9.97862815856934 6.69155311584473 5.07476854324341 4.03718280792236 3.37800884246826 2.91435575485229 2.55064582824707 2.27482223510742 2.05178236961365 1.87539350986481 1.70862305164337 1.56582915782928 1.60531210899353 1.50821959972382 1.37598657608032 1.25862383842468 0.755749702453613 0.743840932846069 -0.145990327000618 30.9794788360596 13.3165349960327 12.2784700393677 9.90202713012695 10.5668973922729 8.07343578338623 10.4549283981323 7.7826828956604 6.5645055770874 5.92210817337036 7.86899900436401
21.2175235748291 19.314868927002 11.8822975158691 35.6491584777832 10.6475143432617 25.5712070465088 14.1570901870728 10.3780193328857 9.59091854095459 8.71404266357422 3.67756700515747 2.75727486610413 1.7962498664856 -0.142858996987343 -0.868463516235352 3.6863055229187 11.2061185836792 14.2654867172241 2.22804379463196 -1.16572964191437 -1.95819163322449 3.64173698425293 -2.24095392227173 -2.27163624763489 -2.48306035995483 5.39761638641357 4.75284099578857 4.07433700561523 21.2440433502197 9.60612487792969 12.1888933181763 7.71319532394409 17.2757816314697 6.04348707199097 3.70770215988159 26.1585254669189 7.74065542221069 14.8968362808228 5.84450244903564 4.76169681549072 4.66447734832764 4.34769058227539 21.5583248138428 8.30972194671631 2.88550758361816 14.0431652069092 3.70036363601685 2.22356128692627 4.33143520355225 3.02136921882629 1.80934929847717 8.33861446380615 6.29695177078247 4.88598680496216 4.29591464996338 2.75900983810425 10.1147680282593 39.5768737792969 24.50950050354 13.6314325332642 7.32305860519409 2.60595202445984 1.99071645736694 6.42441987991333 1.76168930530548 5.63114643096924 2.54865574836731 2.11171197891235 1.88373196125031 36.4467391967773 44.5438346862793 17.9904232025146 15.5982027053833 7.3560938835144 40.0305786132812 32.1008453369141 21.2822589874268 16.3785076141357 27.7347774505615 18.3329677581787 17.3652763366699 12.3759326934814 27.1220378875732 15.1665163040161 11.9095125198364 11.057788848877 10.3355083465576 9.72469043731689 9.25712013244629 10.375262260437 10.0100517272949 9.56882190704346 9.16515350341797 8.86849880218506 8.59698677062988 8.38077354431152 8.20211505889893 8.02322101593018 7.83287763595581 7.85085916519165 7.64205265045166 7.44379377365112 7.25321245193481 7.04429149627686 6.83117723464966 6.62077045440674 6.42756032943726 6.15037441253662 4.94210243225098 31.627067565918 17.1297664642334 11.5068855285645 4.6840934753418 25.8251209259033 13.6262922286987 9.18872451782227 6.91132831573486 4.6706428527832 4.56171131134033 4.45060157775879 4.47830057144165 4.37866687774658 4.28076028823853 4.18426895141602 4.09459638595581 3.66018724441528 3.46177744865417 3.32643055915833 3.2596161365509 2.60731840133667 2.45605230331421 21.1846160888672 2.14376330375671 1.95377266407013 29.1588401794434 18.6546154022217 12.7789754867554 9.65383911132812 4.8942437171936 1.69401288032532 11.1377038955688 1.06934881210327 8.04331493377686 13.0462551116943 7.5425500869751 6.33599328994751 5.46285152435303 4.81265592575073 4.28076839447021 3.86434388160706 3.51159882545471 3.22437286376953 2.98626041412354 2.76973176002502 1.70701193809509 1.54351127147675 1.43372857570648 1.32319915294647 1.17924046516418 1.11628711223602 1.046835064888 0.393166154623032 -0.027034018188715 6.52908897399902 1.84818577766418 3.28441786766052 9.86160373687744 10.8694496154785 9.17555332183838 7.9098334312439 6.93797445297241 6.17928314208984 5.5650110244751 5.06762981414795
11.8154354095459 11.6480293273926 9.66419696807861 38.1818656921387 9.47705554962158 6.99055147171021 35.7090301513672 19.7691993713379 13.94788646698 4.84098386764526 3.49606490135193 3.34427905082703 1.067302942276 -0.834910869598389 -1.2469767332077 -1.50101506710052 9.69074153900146 -1.60703134536743 30.7797470092773 1.60206770896912 10.5459642410278 -0.437178254127502 -2.05175352096558 -1.97520732879639 -2.15336680412292 -2.23802280426025 3.76915097236633 10.2398710250854 5.22981595993042 12.6674118041992 3.79337167739868 3.08193182945251 13.4465351104736 11.4270009994507 8.60985851287842 2.68669486045837 15.237455368042 10.0658931732178 7.66764354705811 2.81697750091553 30.465705871582 23.9163856506348 13.4324932098389 9.65240669250488 1.89783036708832 1.62131536006927 9.04185962677002 2.23537516593933 1.67361414432526 1.64232993125916 1.45951998233795 7.62942790985107 5.02256488800049 1.47448527812958 1.78028666973114 19.9475765228271 12.9849109649658 13.7458591461182 25.9888362884521 4.85038423538208 1.90577590465546 1.8076331615448 1.74136626720428 10.3570604324341 1.61068654060364 1.50707101821899 7.40025568008423 13.3847951889038 5.57963275909424 14.3552417755127 33.1427917480469 23.3205852508545 18.9980392456055 21.1477870941162 16.5603809356689 29.5837364196777 15.7346849441528 24.4729499816895 14.9960079193115 12.0001182556152 36.9500312805176 21.0339698791504 14.9112796783447 11.8990669250488 10.9659280776978 10.1863260269165 9.57189273834229 9.31750392913818 9.26215744018555 8.88479709625244 8.50862407684326 8.14874839782715 7.8326849937439 7.5753026008606 7.34161949157715 7.13902997970581 7.10928630828857 6.98880481719971 7.64761877059937 7.49207782745361 7.33355569839478 7.16532373428345 6.99779653549194 6.82579660415649 6.63429594039917 6.44614028930664 6.21448945999146 5.9910044670105 5.8736310005188 5.80699396133423 5.64444780349731 5.46450424194336 4.57361888885498 28.3811302185059 15.8919506072998 10.7608346939087 8.11938095092773 5.43683338165283 4.55933284759521 4.44504165649414 4.34801626205444 4.25246667861938 4.15701293945312 4.06792068481445 3.67193222045898 3.58842372894287 3.01105999946594 2.56287336349487 2.29489874839783 2.24706840515137 2.32755851745605 2.28360199928284 2.23061609268188 1.59052991867065 1.93868386745453 16.0401706695557 12.565055847168 8.44983386993408 7.51591157913208 5.33518743515015 4.50051259994507 3.13032579421997 13.5314521789551 7.29372596740723 4.99652338027954 3.76392459869385 4.23607015609741 3.57366943359375 3.08261609077454 2.70412349700928 2.40279531478882 2.168288230896 1.97418773174286 1.79889166355133 2.5578305721283 2.40266251564026 2.25069737434387 2.0903525352478 1.94067430496216 1.85550427436829 1.76581680774689 1.68258500099182 1.04726684093475 12.6461181640625 6.35876417160034 4.19822978973389 3.13393020629883 3.73348307609558 3.15766143798828 3.03336977958679 2.52471518516541 2.18966960906982 1.90690624713898 1.72135531902313
11.8563680648804 12.2961483001709 28.5813541412354 15.0865802764893 11.1048536300659 9.36935615539551 8.85523891448975 8.08707714080811 7.11918163299561 4.95235633850098 4.22159194946289 3.38177871704102 1.36300504207611 -0.391038537025452 -0.626458942890167 -0.827373087406158 -0.898255407810211 -0.148444265127182 8.48025321960449 4.22856950759888 3.19738531112671 -1.06533229351044 -2.19131183624268 6.02575731277466 -2.19317126274109 -2.31298613548279 -2.40361762046814 0.274085193872452 11.9417476654053 6.82963943481445 6.0056939125061 8.87443923950195 2.88344931602478 16.7686595916748 14.8084487915039 1.41717767715454 9.78577327728271 3.27587008476257 13.426944732666 1.49049723148346 15.7886266708374 9.24588775634766 0.804921090602875 0.790034413337708 15.3443698883057 6.52097988128662 22.8064880371094 9.468337059021 6.64290285110474 2.82364392280579 3.16823673248291 0.691200137138367 20.9604225158691 9.6032133102417 6.32593965530396 5.83364534378052 14.9681940078735 13.1501045227051 9.87127780914307 5.5650749206543 2.81926774978638 1.7907212972641 15.8938074111938 1.61828100681305 1.21837055683136 1.20174086093903 22.1579551696777 18.5573253631592 11.294527053833 10.7847700119019 39.8496971130371 37.1410865783691 14.3599252700806 46.7535133361816 24.0706882476807 21.6307907104492 15.1371517181396 12.0545969009399 18.7824859619141 26.8218250274658 15.6707773208618 12.0182876586914 11.4296922683716 11.46448802948 10.8794860839844 10.3738374710083 9.93515396118164 9.51413631439209 9.16727161407471 8.82789993286133 8.53186988830566 8.25188255310059 7.27056980133057 7.0632963180542 6.88247108459473 6.70786237716675 6.63027763366699 6.67417907714844 6.57766389846802 6.48987007141113 6.38262510299683 6.26223564147949 6.13625907897949 6.00946521759033 5.88119506835938 5.72734689712524 5.35032081604004 11.6067800521851 6.0848970413208 5.69471073150635 5.53914546966553 4.86124420166016 6.90323734283447 10.8033103942871 6.26821613311768 5.82008504867554 4.84662818908691 6.38934183120728 5.36699199676514 4.61709403991699 4.48134088516235 4.38497114181519 4.28835916519165 3.70240831375122 3.21481585502625 2.87104177474976 2.81576371192932 2.75192356109619 2.48831295967102 1.66188251972198 2.09974122047424 2.06132388114929 2.05845355987549 2.0090491771698 1.4334511756897 0.962882280349731 38.1832809448242 21.5283679962158 12.813684463501 9.64220809936523 2.20342087745667 11.8567276000977 6.1152548789978 4.39482736587524 3.35710668563843 2.43124794960022 2.95875334739685 2.4996976852417 2.67897272109985 2.51153826713562 2.36996841430664 2.24275135993958 2.12258362770081 2.02057719230652 1.916672706604 1.8316285610199 1.74429821968079 1.23300266265869 1.17731261253357 1.11187613010406 1.05908834934235 1.02058851718903 0.985408186912537 1.53160333633423 1.46448969841003 1.40877115726471 1.35593473911285 2.52083992958069 2.10547399520874 1.7924280166626 1.58432447910309 1.40458750724792 1.25673246383667 1.13849532604218
25.7404937744141 21.186580657959 20.2570648193359 9.63444995880127 9.48219585418701 8.32123565673828 7.87899303436279 25.9840545654297 7.23725891113281 5.75485849380493 4.63647317886353 3.34891676902771 1.7428914308548 0.615933775901794 -0.438684374094009 -0.761387050151825 -1.24664318561554 0.587758123874664 -1.2601615190506 12.9611825942993 9.20653820037842 6.82394886016846 2.47332286834717 -1.66761672496796 12.4482202529907 3.51771354675293 -1.68960523605347 7.14366292953491 -1.56492340564728 6.82070255279541 3.62300753593445 2.07158708572388 12.0317716598511 16.1297702789307 6.94571447372437 2.63231801986694 1.92412543296814 4.37256622314453 7.99645042419434 1.47038018703461 0.628003358840942 6.88766002655029 1.00889492034912 7.84652614593506 0.313568383455276 2.95414638519287 9.48619365692139 19.2396335601807 10.8500642776489 6.6643443107605 9.97855472564697 16.5596866607666 9.12363815307617 6.79330492019653 3.10236406326294 23.4801616668701 13.8207626342773 13.9549751281738 7.57499122619629 5.24106502532959 4.30557918548584 3.26829171180725 7.54446506500244 12.3314161300659 2.01569700241089 4.83706283569336 11.4633083343506 40.7219047546387 21.10080909729 14.8433723449707 27.4872856140137 35.8448181152344 25.6300582885742 20.2736835479736 23.7184638977051 17.6173553466797 16.4059467315674 13.5157127380371 27.3840198516846 14.3848276138306 12.4200897216797 11.3943777084351 10.6038475036621 10.5518493652344 10.0385684967041 9.61554050445557 9.2193489074707 8.86701107025146 8.51835250854492 8.21853446960449 7.94201755523682 7.9619927406311 7.96951150894165 7.71159315109253 7.46425485610962 7.24580574035645 7.05338478088379 6.90401554107666 6.7987847328186 6.71401500701904 6.61584711074829 6.51174354553223 5.972083568573 5.88460111618042 5.78953742980957 5.17273473739624 17.2415046691895 11.0767755508423 7.46445751190186 5.59519052505493 5.03397178649902 4.92466926574707 4.61069250106812 4.45182514190674 4.37352609634399 10.5741262435913 5.54454231262207 4.71557760238647 4.61416816711426 4.51829957962036 4.42302989959717 4.32898235321045 3.96042680740356 3.83252358436584 3.30014610290527 3.22974991798401 2.93830323219299 2.87149119377136 1.82292401790619 1.65285694599152 1.41427981853485 9.91049861907959 1.10300481319427 9.9193000793457 0.710314214229584 9.26106643676758 0.32833206653595 21.6622047424316 11.8842792510986 8.30221748352051 6.27181339263916 12.9904413223267 6.66014242172241 5.70377588272095 5.12655067443848 4.63161325454712 4.23308992385864 3.88831758499146 3.58235692977905 3.32550120353699 1.6898273229599 1.59989178180695 1.50847887992859 1.43522036075592 1.37087833881378 1.30746781826019 1.35039854049683 1.59155786037445 1.54615092277527 1.49055635929108 1.43566834926605 1.38140690326691 1.33182644844055 1.28816878795624 1.24377596378326 1.19907021522522 1.16731977462769 0.843070566654205 0.81578540802002 0.795032739639282 0.775703310966492 0.755754172801971 0.735607147216797 1.08029472827911
14.5381412506104 12.8222103118896 11.9322814941406 10.1568031311035 12.6546125411987 8.52163124084473 18.3650646209717 9.2189826965332 6.09277057647705 5.20660495758057 3.79209518432617 3.38650512695312 1.50430905818939 0.181768894195557 -0.219635590910912 -1.06194865703583 -1.36276733875275 -1.36737620830536 -1.47112214565277 -1.75825583934784 6.22597455978394 21.0434188842773 9.64653873443604 13.5538921356201 1.17212092876434 7.42661619186401 -1.53577601909637 10.136812210083 8.64890193939209 5.7056770324707 4.50458908081055 0.649640023708344 8.58498287200928 7.47300624847412 4.76371765136719 1.62952649593353 3.74315524101257 1.34155511856079 23.3648090362549 1.05335259437561 1.07994902133942 0.550051808357239 7.83382272720337 1.85990631580353 0.127105757594109 -0.161809608340263 -0.200140744447708 17.1989688873291 13.9804573059082 11.8813638687134 11.5311450958252 6.88764524459839 5.36752319335938 14.5344839096069 18.1133995056152 10.8428554534912 15.1667003631592 7.69717025756836 9.43609619140625 7.60883903503418 2.99119782447815 28.1647071838379 6.45848083496094 40.6435699462891 2.24986100196838 1.65284383296967 7.01002597808838 40.1028060913086 32.9147453308105 29.6324996948242 29.1671905517578 23.3274688720703 21.4080810546875 18.0191287994385 15.3995399475098 14.8430032730103 20.838508605957 14.2242870330811 13.1016912460327 12.0952119827271 11.9593734741211 11.2500772476196 10.6808929443359 10.1660709381104 9.72092819213867 9.35128211975098 9.03057861328125 8.73494052886963 8.47133827209473 7.90600395202637 7.67316627502441 7.44085836410522 7.42089986801147 7.16698408126831 6.93618059158325 6.7319598197937 6.55890512466431 6.400719165802 6.28449773788452 6.19139003753662 6.20013189315796 6.25372791290283 6.30782175064087 6.21300172805786 6.12069845199585 6.0137677192688 5.88895559310913 5.53663063049316 9.59367275238037 5.51069784164429 5.38046360015869 4.93006229400635 4.88556480407715 4.77266216278076 4.60835075378418 4.45429420471191 4.32114315032959 4.22929716110229 4.14958190917969 4.06690979003906 3.98455810546875 3.61658620834351 3.39899826049805 2.80505704879761 2.51391506195068 2.34323477745056 2.06328868865967 2.01972436904907 1.55125820636749 1.46687507629395 0.785854279994965 16.8519897460938 8.63872718811035 5.79501247406006 4.91138935089111 0.542028188705444 14.5673112869263 0.38797664642334 1.82086157798767 2.50041079521179 5.13569974899292 13.5262956619263 6.8245153427124 4.85515737533569 4.01191759109497 3.5778603553772 3.2506628036499 2.97733235359192 2.72644519805908 2.52631688117981 3.09319972991943 2.89083290100098 2.72744464874268 2.57958436012268 2.43972039222717 2.312739610672 2.12300443649292 2.05121064186096 1.95812273025513 1.04901134967804 1.00979340076447 0.971169233322144 0.936873614788055 0.904737591743469 0.874264240264893 0.845511674880981 0.930425822734833 1.1327623128891 1.1004022359848 1.06927478313446 1.04053163528442 1.01392292976379 0.985934138298035 0.961697936058044
18.2546730041504 17.3393096923828 13.9541883468628 10.8409299850464 9.95981693267822 9.1472053527832 9.16717624664307 8.5861759185791 5.97640609741211 5.73196125030518 5.19463539123535 2.67983293533325 0.636247515678406 -0.20379014313221 5.87255096435547 -1.14662325382233 -0.502918481826782 -1.34258699417114 -1.86821758747101 -2.04994440078735 -2.26940083503723 26.849573135376 26.7612171173096 19.0473289489746 11.4470977783203 3.5795886516571 0.544749855995178 0.324731737375259 2.40355324745178 8.80004024505615 1.27510416507721 19.4700412750244 8.88794231414795 2.18834781646729 2.07326126098633 1.7613388299942 3.8522036075592 0.685052096843719 0.126062944531441 4.99719047546387 1.48396110534668 1.22341239452362 3.41232752799988 -0.277701109647751 -0.623582065105438 6.26652431488037 13.5217571258545 7.94911670684814 7.84027719497681 11.6462821960449 8.12718868255615 8.78437232971191 7.17266845703125 21.0622234344482 33.8229484558105 20.3376483917236 14.1989974975586 7.25033760070801 9.38506412506104 5.94451284408569 5.37513256072998 4.70690155029297 6.56098699569702 19.035472869873 22.3735427856445 10.6579465866089 7.998291015625 8.09950828552246 27.3867721557617 31.156120300293 26.4487895965576 26.7852745056152 23.1643314361572 19.0097713470459 16.9333076477051 28.2591209411621 16.7127437591553 15.3798675537109 14.2046728134155 13.1023721694946 12.1772985458374 10.5782566070557 10.0275621414185 9.53579998016357 9.08218479156494 8.696702003479 8.37921714782715 8.14745330810547 8.14229011535645 8.2196626663208 7.96759796142578 7.71789216995239 7.48724603652954 7.25576114654541 7.04160785675049 6.85483169555664 6.68777894973755 6.54582452774048 6.41930198669434 6.10031366348267 6.0032114982605 5.92208909988403 5.86611461639404 5.7888822555542 5.67752075195312 5.59048700332642 5.50478601455688 5.39908123016357 5.19741487503052 4.98338174819946 13.257396697998 6.84273338317871 5.12406635284424 5.01708507537842 4.90924024581909 4.822021484375 4.03125905990601 3.94951963424683 3.87698578834534 3.80167651176453 3.7210476398468 2.70755982398987 2.40782117843628 2.35919809341431 2.31100034713745 1.97022354602814 1.92086100578308 1.39684665203094 6.48360157012939 1.18698394298553 2.85161304473877 13.5534505844116 6.04642152786255 4.00079774856567 3.26722741127014 3.55972862243652 0.781917929649353 0.202934399247169 14.486273765564 10.3418111801147 9.9965934753418 7.58638381958008 4.52850151062012 4.3054141998291 3.85298490524292 3.22750639915466 2.78041291236877 2.44339776039124 2.20264434814453 2.0108802318573 1.84267663955688 2.15618991851807 2.02316188812256 1.90380144119263 1.7979964017868 1.65113198757172 1.5375497341156 1.48585832118988 1.42045271396637 1.86993193626404 1.79726481437683 1.72691798210144 1.66389143466949 1.6015659570694 1.54511225223541 1.49430501461029 1.44583213329315 1.3972544670105 1.36185503005981 0.749094784259796 0.730194747447968 0.711113691329956 0.692863285541534 0.675843417644501
15.0298852920532 13.955982208252 10.8428001403809 11.7896575927734 10.0935697555542 8.49178218841553 8.10677814483643 7.60618257522583 4.27845859527588 4.3204493522644 4.15689659118652 2.70033979415894 1.00812089443207 -0.228381022810936 -0.707899153232574 -1.36996173858643 3.81965804100037 -1.55961263179779 -1.55061173439026 -1.6557389497757 4.4403018951416 6.15284442901611 13.7767114639282 6.43042516708374 6.34978580474854 7.39359045028687 4.30407762527466 4.75001907348633 1.42204570770264 4.81666326522827 13.2205038070679 8.93067646026611 4.23832130432129 2.26719689369202 1.42115712165833 6.91123676300049 -0.277928829193115 14.5187540054321 0.401081293821335 23.9591369628906 5.01375913619995 2.49261832237244 1.15118277072906 -0.0612514242529869 -0.400306850671768 8.80416011810303 -0.535113871097565 12.8889427185059 11.6816005706787 9.95899486541748 7.01162195205688 13.5454072952271 25.6590213775635 21.5876884460449 14.6687717437744 28.3482780456543 11.2141046524048 11.7244930267334 4.9900279045105 3.18982625007629 5.98412799835205 30.2831859588623 20.6230278015137 23.7772521972656 14.0122718811035 6.79383039474487 8.74725246429443 7.8389573097229 33.333984375 25.2692356109619 15.6103982925415 33.7515144348145 15.0847930908203 29.6609210968018 16.6554737091064 13.8950538635254 12.5074481964111 11.4190673828125 10.499363899231 11.1907720565796 11.910346031189 11.4996061325073 10.8014793395996 10.2168140411377 9.7365198135376 9.25112628936768 8.83869934082031 8.56255722045898 8.3515567779541 8.13219356536865 7.49686288833618 7.27306699752808 7.03718233108521 6.82284450531006 6.61865615844727 6.43799352645874 6.28261089324951 6.14653873443604 6.24082899093628 6.31477451324463 6.2208456993103 6.13738393783569 6.05935335159302 5.93388795852661 5.82069683074951 5.71768188476562 5.62804841995239 5.53070068359375 5.2556266784668 5.15782880783081 5.05065298080444 4.95158576965332 4.8445200920105 4.69432210922241 4.60354614257812 4.51793718338013 4.21742677688599 3.44982671737671 3.20931148529053 3.01426792144775 2.74094867706299 2.68144464492798 2.35418844223022 2.31039571762085 2.26396369934082 2.21405553817749 2.15780091285706 0.84989321231842 3.16059136390686 0.924280762672424 1.73993372917175 11.6391382217407 4.97823762893677 3.19827604293823 1.61846399307251 0.610160946846008 15.8203048706055 0.325450569391251 0.188231825828552 3.36016082763672 24.4781761169434 12.8593521118164 8.66127109527588 6.63072967529297 4.39423418045044 3.88256597518921 3.45584654808044 3.10556507110596 2.82966470718384 2.5810661315918 2.38515973091125 2.23064064979553 1.58371496200562 1.4794727563858 1.38552534580231 1.21167778968811 1.19754660129547 1.13741791248322 1.08429145812988 1.03563702106476 1.2942191362381 1.243812084198 1.19624090194702 1.15186846256256 1.10809183120728 1.06687808036804 1.02952396869659 0.999018371105194 0.971943318843842 1.3137743473053 1.27620112895966 1.23923587799072 1.20939040184021 1.17904913425446
20.2747955322266 15.1893625259399 11.7573156356812 10.1160678863525 9.20291614532471 8.28392601013184 7.6308126449585 7.23239421844482 4.01549768447876 13.419903755188 3.82112312316895 3.49060964584351 1.93190836906433 -0.143728226423264 -0.786945581436157 -1.33391511440277 -1.62300038337708 -2.0742449760437 -1.739750623703 -1.86020135879517 -2.05338740348816 9.77427387237549 2.43234443664551 16.4239120483398 13.2044477462769 22.2354106903076 14.6053171157837 4.97391557693481 2.4037082195282 0.560286402702332 8.07307147979736 3.87235927581787 15.6197576522827 3.77175974845886 17.636775970459 3.68971228599548 1.03925573825836 3.23338437080383 1.60568761825562 1.0063556432724 10.9859504699707 1.00905704498291 3.05533146858215 1.35922682285309 0.472113847732544 2.53585648536682 7.11410522460938 7.56899929046631 5.98796892166138 8.88968372344971 8.47412490844727 10.6938714981079 25.2642955780029 15.2992792129517 24.1833400726318 18.9504680633545 12.2976722717285 8.42903709411621 6.23589372634888 4.28048849105835 14.8549165725708 12.023078918457 15.0491962432861 13.683177947998 26.9203796386719 16.3318881988525 13.5948724746704 32.4459190368652 17.8977298736572 12.4561185836792 13.0192565917969 12.6104354858398 40.5578002929688 24.1098136901855 16.8642845153809 13.5525388717651 12.2164573669434 11.1981449127197 10.2930698394775 9.48790550231934 8.75777435302734 8.20634174346924 7.88479137420654 7.44018936157227 7.22466850280762 6.94896221160889 6.70856142044067 6.51953506469727 7.45191383361816 8.04416465759277 7.87642526626587 7.64644050598145 7.39875936508179 7.14961624145508 6.93368053436279 6.73860597610474 6.57708358764648 6.42958116531372 6.31924104690552 6.21460342407227 5.9013729095459 5.83355331420898 5.71878433227539 5.60786390304565 5.49296045303345 5.38944578170776 5.3007025718689 5.38197994232178 5.39255237579346 5.29296207427979 5.18374347686768 5.07458209991455 4.98023891448975 4.49410676956177 4.35915040969849 4.27742147445679 4.09637498855591 3.32677674293518 3.27009844779968 3.20722985267639 2.42994070053101 2.38293695449829 2.33221626281738 2.28993511199951 2.24752163887024 1.83678925037384 1.03378057479858 0.846720159053802 1.42036914825439 7.91604232788086 1.33681428432465 4.24814128875732 6.31984806060791 2.6034848690033 1.08315217494965 0.620863616466522 13.716362953186 1.01138043403625 0.381089299917221 18.5458679199219 9.72025394439697 6.53249979019165 4.90494775772095 5.79328489303589 5.17666435241699 4.36987161636353 3.73800563812256 3.30222606658936 2.98583364486694 2.70266437530518 2.47889971733093 2.30245423316956 2.14661502838135 1.91739392280579 1.76657772064209 1.63470840454102 1.58426916599274 1.50475788116455 1.43128407001495 1.36658275127411 1.30297636985779 0.938094139099121 0.902513563632965 0.865012168884277 0.83425509929657 0.804244041442871 0.776339650154114 0.752409040927887 0.727105021476746 0.707161664962769 0.911098062992096 0.883115887641907 0.856121361255646 0.832268178462982
35.1657752990723 20.7439632415771 14.1577043533325 10.8172903060913 7.89208030700684 7.02139091491699 6.67681074142456 6.60089588165283 3.43694615364075 3.04946327209473 20.045503616333 5.74558734893799 1.26208484172821 -0.876367568969727 6.87173414230347 -1.33771479129791 -1.81810879707336 -2.33581233024597 7.45330190658569 2.17064142227173 0.598337411880493 13.9127569198608 3.32678771018982 8.47421360015869 17.9013500213623 24.3861503601074 9.23630142211914 8.19838047027588 7.18970727920532 2.72333955764771 2.26981568336487 12.3384304046631 5.55519342422485 2.50635457038879 2.4532413482666 1.40788459777832 0.68733811378479 1.12508261203766 1.26583790779114 1.39631140232086 0.740136861801147 0.661265432834625 2.61778402328491 16.1644039154053 6.89092350006104 2.53678488731384 15.5221366882324 12.473596572876 11.3595476150513 12.0208768844604 13.5524215698242 13.90061378479 14.7539968490601 14.6346597671509 14.8513135910034 14.8238611221313 7.4198956489563 27.9814949035645 6.90546083450317 4.84605407714844 19.6274166107178 14.1552381515503 11.1438407897949 18.0262393951416 14.46604347229 26.7661266326904 12.9100341796875 19.8168849945068 11.8292188644409 10.496392250061 10.3416509628296 34.3805465698242 9.6851863861084 41.4985656738281 24.060791015625 16.8370933532715 13.1741628646851 10.7460241317749 10.170280456543 9.63899898529053 9.22439575195312 8.81140995025635 8.42079162597656 8.06649398803711 6.98501396179199 6.77379179000854 6.52450084686279 6.31014680862427 6.17104911804199 6.07078266143799 5.97651338577271 5.85698747634888 5.71643972396851 5.56643056869507 5.61793565750122 5.48679113388062 5.38275623321533 5.3058032989502 5.84599828720093 6.25572347640991 6.16644287109375 6.06618022918701 5.94900035858154 5.83104419708252 5.7148642539978 5.60414266586304 5.48770904541016 5.37643766403198 5.23529624938965 4.97942304611206 4.88674736022949 4.79086589813232 4.69084644317627 4.45738935470581 3.66284823417664 3.59064936637878 3.53152918815613 2.92072248458862 2.12960267066956 2.0851616859436 2.0511839389801 1.90738880634308 1.87372982501984 1.84224379062653 1.80917012691498 0.865190982818604 0.736909508705139 21.7664909362793 4.68666791915894 0.974818885326385 0.672738552093506 2.50022530555725 2.85158586502075 0.791073262691498 0.769972085952759 15.4475040435791 4.76935386657715 0.474422305822372 0.38436895608902 17.5237045288086 9.07237911224365 6.19489336013794 4.66491222381592 3.82981085777283 3.2113516330719 2.78730082511902 2.4448344707489 2.18083930015564 1.96778178215027 1.78924417495728 1.63941597938538 1.5233861207962 1.65579414367676 1.95209503173828 1.75075137615204 1.69829761981964 1.51915371417999 1.65176498889923 1.45518529415131 1.38827228546143 1.31619966030121 1.25731468200684 1.19546592235565 1.15190660953522 1.1105443239212 1.06970870494843 1.03245532512665 0.997085154056549 0.965742290019989 0.936747670173645 0.906981885433197 0.661551356315613 0.64108145236969 0.621152400970459
38.4007148742676 23.730640411377 18.2822647094727 12.014121055603 8.61185264587402 7.27920341491699 6.89923286437988 6.56147432327271 3.87341809272766 3.49683213233948 2.39351677894592 2.32473349571228 2.01402926445007 0.96507728099823 -0.897013545036316 -1.71511423587799 -2.23471117019653 2.71116614341736 -2.25085854530334 -2.36310148239136 8.30232238769531 4.91671848297119 3.70551753044128 5.12743377685547 28.7622375488281 16.7061176300049 21.87380027771 11.646692276001 8.82624435424805 6.99693250656128 3.67630672454834 2.86764121055603 7.19850730895996 20.4940357208252 13.8728590011597 1.84013378620148 0.611836731433868 23.9479427337646 11.7596092224121 5.06259250640869 2.9033031463623 9.97075366973877 9.21085071563721 6.62612342834473 8.40634059906006 6.93907976150513 11.8944845199585 9.268798828125 9.28036212921143 12.5950870513916 10.3645401000977 19.5005950927734 18.461088180542 9.39715957641602 15.7094326019287 5.89259767532349 36.8884353637695 17.5456447601318 11.1980333328247 10.8081321716309 7.14406490325928 6.84172534942627 6.44996738433838 23.2462902069092 14.9580173492432 25.6468639373779 10.642970085144 10.2626209259033 15.5718488693237 19.4444713592529 11.2291316986084 34.8610916137695 19.9249477386475 13.9887170791626 14.4840698242188 12.921669960022 10.8828506469727 10.6521148681641 9.49374198913574 9.07830619812012 8.67852687835693 8.29116821289062 7.93597221374512 7.98522901535034 7.78639078140259 7.50250196456909 7.2432541847229 7.01846265792847 6.83103084564209 6.68969249725342 6.55573797225952 6.42802619934082 6.28850936889648 6.13711881637573 5.40434789657593 5.29165077209473 5.19617700576782 5.12128257751465 5.07048273086548 5.00821018218994 4.9429988861084 4.86759805679321 4.79141712188721 4.88512086868286 4.80254173278809 4.71458435058594 4.62244653701782 4.96636629104614 5.23827838897705 5.14501476287842 5.05453491210938 4.96418190002441 4.86675643920898 4.7212553024292 3.71284222602844 3.17658114433289 2.69800996780396 2.07658934593201 1.97497999668121 1.93869376182556 1.89652717113495 1.86096107959747 1.62265515327454 1.30028772354126 1.29104924201965 0.777902841567993 2.57335329055786 0.652434229850769 10.9877223968506 13.6438522338867 1.65086686611176 0.884627044200897 11.2784576416016 5.49120426177979 3.50582265853882 0.896115362644196 14.9266109466553 8.57779312133789 5.75863027572632 4.32990646362305 3.01947617530823 2.60475301742554 3.44725728034973 3.58624720573425 2.98594784736633 2.56118392944336 2.24408745765686 2.03052806854248 1.83391296863556 1.68956089019775 1.56097531318665 1.44705438613892 1.3224675655365 1.25626063346863 1.15464007854462 0.827227294445038 2.34909844398499 1.58769166469574 2.14848017692566 1.3207471370697 0.876857221126556 1.01594710350037 1.20370757579803 1.15762186050415 1.1150951385498 1.0731942653656 1.03488767147064 0.998645663261414 0.96595311164856 0.934865236282349 0.903934895992279 0.878667891025543 0.849796056747437 0.823364198207855
39.5048522949219 23.0130558013916 16.0369968414307 14.9538660049438 12.3377285003662 10.5616092681885 9.23010635375977 8.16475296020508 3.02824401855469 3.25189399719238 1.79099857807159 4.25126838684082 13.0686187744141 0.24407796561718 -0.662405371665955 -1.27135026454926 -1.78570938110352 -2.22621893882751 5.96152400970459 -2.4199481010437 1.02364897727966 -2.76643419265747 19.3931407928467 14.6590137481689 35.0782585144043 19.1856861114502 17.936243057251 7.03759765625 14.070200920105 6.23028993606567 3.5471887588501 20.2186546325684 4.99775981903076 36.39794921875 3.23311853408813 2.85540461540222 1.06713783740997 10.4194936752319 1.03508734703064 0.812991678714752 7.61624956130981 3.21345925331116 15.3037195205688 8.33448219299316 14.264310836792 14.9211750030518 9.56733131408691 8.40057945251465 11.4551420211792 23.589822769165 8.12086868286133 15.5454139709473 10.9606618881226 10.302173614502 8.94209575653076 12.0488338470459 6.53920698165894 32.6475563049316 16.2413787841797 12.23131275177 13.7487926483154 11.9275846481323 10.725417137146 10.2446403503418 7.86691236495972 8.8046989440918 6.2387056350708 7.4042010307312 25.7051181793213 14.7666807174683 37.8750152587891 21.8390598297119 15.3768625259399 12.9473934173584 11.1703262329102 9.99856281280518 9.37067031860352 8.90932083129883 8.48880958557129 8.09174919128418 7.71638345718384 7.36748075485229 7.06318092346191 7.63765382766724 7.38328313827515 7.13470506668091 6.92005920410156 6.71547937393188 6.53185510635376 6.36876583099365 6.23143005371094 6.10729503631592 5.98183822631836 6.11589336395264 5.97555541992188 5.83236503601074 5.73166465759277 5.66059589385986 5.58560085296631 5.49640655517578 5.40892124176025 5.32406949996948 5.22036933898926 4.67469596862793 4.59279680252075 4.5097336769104 4.43333101272583 4.35281276702881 4.27287435531616 4.15257596969604 3.78527450561523 3.72406721115112 3.65874743461609 3.5930323600769 3.48261737823486 2.87003040313721 2.15216732025146 1.95867431163788 1.92529189586639 1.88973939418793 1.85129141807556 1.81474542617798 1.30775880813599 1.28455650806427 1.14647996425629 2.86468887329102 0.459839522838593 0.341710656881332 5.43987798690796 26.7252540588379 8.67472267150879 14.4586305618286 5.44167184829712 2.39372682571411 1.98474621772766 1.72257435321808 0.865699768066406 16.0872669219971 8.20259666442871 5.46653699874878 4.14535331726074 2.83475756645203 2.42556548118591 2.11140275001526 1.98882043361664 1.81849586963654 1.68910026550293 1.42671489715576 1.33262062072754 1.25692558288574 1.17891836166382 1.09310173988342 1.14793515205383 1.13452982902527 1.11326801776886 0.333330750465393 0.329059779644012 1.58493173122406 7.22495651245117 4.39133834838867 3.64436531066895 2.71470856666565 0.918916344642639 0.765645325183868 0.730383157730103 0.713789045810699 0.687852561473846 0.661905407905579 0.639360547065735 0.621465742588043 0.601352989673615 0.714597940444946 0.843847990036011 0.809229969978333
21.1858787536621 14.8890047073364 11.5424451828003 9.13049507141113 9.63077163696289 7.99377346038818 6.83874893188477 6.14491558074951 3.99632167816162 3.69918489456177 2.13208556175232 1.4644091129303 1.07864511013031 1.05455756187439 0.911417365074158 -0.55131608247757 -1.43670129776001 -1.60316848754883 -2.4715051651001 10.3963994979858 0.686548709869385 -2.46938800811768 11.4022941589355 35.5322647094727 25.1181735992432 26.1075668334961 13.3776540756226 12.6952629089355 10.589259147644 8.25349998474121 7.92948341369629 8.4819164276123 25.7939033508301 7.71742105484009 7.46054553985596 7.62249994277954 3.82887816429138 1.68231201171875 0.862327039241791 5.70261335372925 3.09338879585266 0.52973085641861 17.4280033111572 22.5263595581055 16.590612411499 28.1756706237793 19.0521354675293 12.8435678482056 10.2078056335449 8.54783821105957 15.3107957839966 10.3684492111206 8.1732063293457 7.52107191085815 5.92404222488403 24.0263385772705 23.8225173950195 14.7078723907471 11.9201059341431 6.73103141784668 6.50727939605713 8.92965888977051 8.1249885559082 5.30520582199097 21.3854522705078 7.07167339324951 6.02093887329102 15.8900995254517 25.9521865844727 17.7107353210449 20.7996253967285 16.6024169921875 15.523627281189 13.0184803009033 11.1537036895752 9.63065910339355 8.50728607177734 7.67538690567017 7.14608001708984 6.76525115966797 6.42314910888672 6.24178695678711 6.09801959991455 6.84328985214233 6.61661529541016 6.40059089660645 6.21257019042969 6.03704309463501 5.86745405197144 5.74796772003174 5.65165281295776 5.56662607192993 5.48425769805908 5.82416486740112 5.69916200637817 5.58690643310547 5.49426603317261 5.41158390045166 5.30231809616089 5.21139478683472 5.13111782073975 5.05705213546753 5.18096494674683 5.09851026535034 5.01244354248047 4.93229722976685 4.84628343582153 4.73697805404663 4.04782915115356 3.87037205696106 3.79918694496155 3.73699903488159 3.68135070800781 3.5102972984314 3.36657929420471 2.5950300693512 2.44340944290161 2.4000723361969 1.89327478408813 1.85646188259125 1.32665586471558 1.29657626152039 1.26277506351471 1.21584212779999 1.16773080825806 1.15125668048859 1.13557255268097 1.11897611618042 1.11449384689331 1.08061265945435 1.03612780570984 0.461662948131561 20.0264415740967 14.6943988800049 6.52394104003906 4.84526205062866 2.94531679153442 10.5385494232178 5.34276151657104 3.53070974349976 2.85378003120422 3.23250412940979 2.70465755462646 2.33438372612 2.00922226905823 1.7285703420639 1.56155204772949 1.53709018230438 1.38197910785675 1.2913384437561 1.20233201980591 1.05170857906342 0.995925784111023 0.895617842674255 0.87710702419281 0.833443522453308 0.811184883117676 0.366686999797821 6.95186853408813 4.07486963272095 0.369757562875748 0.381947666406631 8.24011325836182 4.14700889587402 2.89238691329956 2.16130828857422 0.230790004134178 11.4762086868286 5.74549531936646 3.94966912269592 2.91242647171021 0.745449125766754 0.54994785785675 0.525748014450073
15.4071207046509 10.9017791748047 10.3806667327881 9.27037811279297 7.51736831665039 6.91496181488037 6.51268339157104 6.15752601623535 5.74456453323364 3.74065518379211 2.51885914802551 1.73671126365662 0.751310229301453 14.1827144622803 -0.238483384251595 -1.0011590719223 2.14463901519775 -1.65586090087891 -1.55385160446167 -1.6461945772171 -2.33808326721191 8.62955379486084 15.0077743530273 15.544713973999 31.4280166625977 18.591344833374 12.9111928939819 13.9412021636963 10.3998222351074 11.5512847900391 8.60586929321289 21.9459228515625 16.4555816650391 6.98854827880859 6.72910737991333 4.93142509460449 4.4169487953186 2.53510761260986 6.48128461837769 1.52757239341736 6.34357357025146 2.73832440376282 38.0913848876953 17.9250240325928 20.0665626525879 22.2414073944092 19.8688774108887 13.1323766708374 12.5162496566772 11.2864227294922 8.3773136138916 24.9319686889648 11.4952020645142 14.9056329727173 8.62689208984375 7.34351062774658 6.59639358520508 17.8460540771484 13.235668182373 6.46720170974731 5.61307859420776 21.5594043731689 17.4263858795166 13.3459787368774 25.7167453765869 6.17329549789429 6.73359394073486 15.017689704895 11.8133478164673 31.620922088623 17.9368000030518 15.1824083328247 12.674934387207 10.8484497070312 9.35391330718994 8.1399097442627 7.23619842529297 6.56649541854858 6.0172438621521 6.26436185836792 6.03760242462158 5.82742071151733 5.69315004348755 5.59260654449463 5.48339080810547 5.36575031280518 5.34407615661621 5.45890283584595 5.42382955551147 5.32624053955078 5.23016738891602 5.14511346817017 5.06450366973877 5.20119285583496 5.10559415817261 5.01450109481812 4.91498136520386 4.81278562545776 4.71359491348267 4.62659311294556 4.56330299377441 4.50103044509888 4.9118218421936 4.83525085449219 4.76421976089478 4.69115209579468 4.60964584350586 4.3091459274292 4.13103866577148 3.81351780891418 3.56511330604553 3.11880660057068 3.07742118835449 3.026606798172 2.514080286026 2.46215486526489 2.43626880645752 2.30137896537781 2.16820955276489 1.23805952072144 1.24012541770935 1.22470474243164 1.1863614320755 1.15247881412506 1.10646557807922 1.087247133255 1.05911135673523 1.03895056247711 1.02929735183716 1.02685642242432 1.02126252651215 0.514161765575409 0.346559703350067 20.5913906097412 10.4474544525146 10.1714935302734 7.68152046203613 4.89763402938843 4.23064470291138 3.65286493301392 3.29498815536499 2.9489951133728 2.66880631446838 2.47677135467529 2.26697278022766 2.0780508518219 1.90575110912323 1.8662326335907 1.74674415588379 1.67992353439331 1.58891201019287 1.39843666553497 1.01669561862946 1.0143803358078 0.890117228031158 0.833697855472565 0.806621313095093 0.790768146514893 0.773588299751282 0.755266964435577 0.55193042755127 0.501071810722351 1.12349987030029 2.30447006225586 1.25784909725189 1.45334196090698 0.0341240428388119 4.97793674468994 1.61940944194794 10.5751638412476 8.66387176513672 5.76967096328735 4.30118989944458 1.53838849067688
10.9048738479614 8.56893634796143 8.14982128143311 7.75194931030273 8.08266639709473 7.55417823791504 7.13705635070801 6.76208639144897 6.35459280014038 3.42014908790588 1.13556802272797 5.2917218208313 1.12542879581451 -0.0533489733934402 4.86329889297485 -0.345460385084152 -0.57785165309906 -1.68363726139069 -2.38384056091309 0.0501827523112297 -1.94581997394562 4.98573732376099 9.1762113571167 33.6035842895508 20.0798110961914 15.6946229934692 7.98663187026978 17.5032634735107 14.7272291183472 7.80404853820801 27.2686862945557 11.7770433425903 7.07679224014282 6.70978879928589 4.98592329025269 3.43218994140625 3.82901167869568 3.1982626914978 1.56295883655548 4.37045288085938 5.38518142700195 6.81103801727295 9.96574401855469 11.0780925750732 26.2644214630127 22.4299907684326 13.4539670944214 11.5929708480835 7.16324234008789 4.64056873321533 22.579833984375 14.0353536605835 10.5231065750122 9.39294338226318 11.977611541748 5.78857040405273 24.8134326934814 10.4526290893555 31.2566356658936 22.0395050048828 14.7002210617065 15.7967090606689 12.9863615036011 11.8411540985107 15.2509460449219 12.2972860336304 9.68833541870117 20.3209114074707 17.878791809082 16.3998489379883 13.878698348999 12.4512825012207 10.2432432174683 8.52549934387207 7.34242963790894 6.35671472549438 5.94040775299072 5.71326160430908 5.93274736404419 5.54283237457275 5.28336954116821 5.1740779876709 5.06411123275757 5.06742429733276 5.22791004180908 5.18418836593628 5.08179950714111 4.98509883880615 5.06442975997925 4.97633171081543 4.88606691360474 4.79912948608398 4.71891307830811 4.41420602798462 4.24784898757935 4.15818023681641 4.08554840087891 4.0148777961731 3.73557448387146 3.90339016914368 3.85026288032532 3.80952906608582 4.37652969360352 4.31729745864868 4.25936412811279 4.1952600479126 4.13040542602539 3.71681833267212 3.55519080162048 3.46666765213013 3.11001777648926 3.06976938247681 2.80827879905701 2.77374792098999 2.57789826393127 2.53926396369934 2.48230338096619 2.32881045341492 2.12113070487976 2.08016014099121 1.15544974803925 1.12974882125854 1.09935748577118 1.07368445396423 1.03482294082642 1.00173592567444 0.979249000549316 0.947639405727386 0.904628217220306 0.880075633525848 0.991125524044037 1.62325179576874 3.19268727302551 0.446704924106598 4.38653802871704 18.7767181396484 9.68194198608398 6.47664356231689 5.09067630767822 4.33029508590698 3.84921956062317 3.41228485107422 3.06325221061707 2.79242444038391 2.57175898551941 2.34752368927002 2.18189740180969 1.86084759235382 1.70126712322235 1.6142954826355 1.5889003276825 1.51357078552246 1.44462203979492 1.39418625831604 1.37560105323792 1.31536757946014 1.26055359840393 1.20122110843658 1.16932690143585 1.13527798652649 1.10806083679199 0.268188565969467 9.47617244720459 8.09913158416748 5.44091606140137 1.64591372013092 0.202174037694931 0.187959685921669 0.185588896274567 2.13208889961243 13.8727426528931 6.96120166778564 4.59184265136719 3.35408234596252
11.0893955230713 8.81600284576416 7.65171051025391 7.27940320968628 6.30686664581299 5.8537802696228 5.53591442108154 5.25403833389282 4.9290828704834 3.81848573684692 2.17467474937439 1.48989272117615 0.854740023612976 0.161863103508949 13.578896522522 3.95769071578979 -0.377018332481384 -1.00052332878113 -1.83878147602081 14.8740739822388 18.8567237854004 5.4165096282959 4.30685567855835 30.359468460083 17.5630855560303 15.6190366744995 10.8669281005859 5.15330410003662 30.8407917022705 8.18184661865234 30.7395153045654 16.6745491027832 6.58085680007935 6.57346868515015 5.02181005477905 1.7442147731781 22.2459106445312 16.4361915588379 2.16891813278198 7.65569639205933 1.65614867210388 4.42493057250977 9.34457206726074 21.5959320068359 12.6347875595093 10.575403213501 25.6334915161133 7.64000082015991 5.15355777740479 2.44317173957825 8.76601314544678 17.1041984558105 29.7022476196289 22.8878688812256 10.9889211654663 7.23904848098755 10.6764688491821 10.4275484085083 7.0815896987915 35.4311637878418 28.9918899536133 22.5376052856445 18.4468784332275 10.9910106658936 19.7431221008301 9.0289134979248 8.82650375366211 26.9099903106689 15.3886547088623 10.4912595748901 9.41409111022949 10.0039949417114 8.11982250213623 6.9170823097229 6.67619943618774 6.81292533874512 6.36591100692749 5.96108484268188 5.60759353637695 5.44985580444336 5.31632709503174 5.21264600753784 5.11295366287231 5.01796293258667 4.90789127349854 4.81339979171753 4.71846723556519 4.63040542602539 4.43562936782837 4.34072494506836 4.26967000961304 4.12770318984985 4.05901193618774 3.97844314575195 3.89460444450378 3.78874254226685 3.72945380210876 3.66761517524719 3.89502000808716 3.83659863471985 3.77848529815674 3.73622131347656 3.68850064277649 3.30372786521912 3.29315876960754 3.32622885704041 3.2814314365387 3.22693753242493 3.17519450187683 3.12617158889771 2.72127270698547 2.68275904655457 2.64871644973755 2.61438417434692 2.48032665252686 2.16214609146118 1.82767248153687 1.8069030046463 1.0977988243103 1.07950091362 1.05576908588409 1.03234076499939 1.01643264293671 0.981853365898132 0.956562578678131 0.938653230667114 0.922991812229156 0.870972752571106 0.797819972038269 0.741209208965302 0.730932891368866 2.15564179420471 3.42381310462952 3.61575269699097 0.466073364019394 19.4007987976074 9.81681346893311 6.72225856781006 5.07456350326538 3.92618203163147 3.39022541046143 2.99048066139221 2.65331697463989 2.38344144821167 2.15408134460449 1.98301160335541 1.86793839931488 2.01564073562622 1.93473148345947 1.82278978824615 1.6756409406662 1.57668519020081 1.51558232307434 1.43060851097107 1.34829103946686 1.29525589942932 1.1618903875351 1.1437029838562 1.09696793556213 1.05277693271637 0.985057234764099 0.881258547306061 0.508008718490601 11.6553869247437 6.63552188873291 0.486689060926437 0.34601828455925 13.1602907180786 -0.0717071443796158 34.3036880493164 18.6694011688232 12.6799621582031 9.56674003601074 3.03046894073486
9.79970073699951 7.93028879165649 7.24344968795776 6.60145425796509 6.78972387313843 6.30233669281006 5.93701219558716 5.62834024429321 5.32867813110352 3.96098566055298 1.78866398334503 1.21647644042969 -0.820134878158569 -1.4722341299057 -1.59905505180359 -1.93784189224243 16.2690277099609 8.87554931640625 -2.07244539260864 -1.85609543323517 21.1720237731934 23.2248840332031 16.8966846466064 14.5566854476929 9.95167922973633 7.48561334609985 5.30403852462769 4.17127561569214 23.8338394165039 15.9748668670654 14.067253112793 11.1116285324097 9.43184947967529 7.33628988265991 4.09033441543579 3.56259727478027 2.99301695823669 2.46982979774475 4.66251373291016 1.70670509338379 3.38968372344971 6.06219387054443 13.5981502532959 11.3905401229858 16.3531837463379 12.6690845489502 11.3357725143433 5.62224102020264 1.77708339691162 1.63063025474548 1.53341019153595 15.8779401779175 13.6897268295288 31.0360221862793 11.672342300415 35.3229942321777 22.2127056121826 10.6362171173096 21.4467296600342 18.4589462280273 22.75954246521 17.0775012969971 11.2261972427368 11.3795890808105 11.7774753570557 29.43869972229 16.7407131195068 12.4048566818237 9.27307605743408 8.24690532684326 6.83159399032593 25.2137889862061 12.0235376358032 7.00404834747314 6.39473819732666 6.44225883483887 6.24946975708008 6.06595993041992 5.88787603378296 5.72482395172119 5.58672571182251 5.46895933151245 5.36278963088989 5.26009082794189 4.91572523117065 4.8230299949646 4.72995042800903 4.62950754165649 4.54060983657837 4.29443836212158 4.22963666915894 3.94206953048706 3.73019433021545 3.65830612182617 3.55979490280151 3.44054770469666 3.37270712852478 3.21958208084106 2.94146776199341 3.19053387641907 3.1478476524353 3.11612153053284 3.07316851615906 3.03976917266846 2.71388292312622 2.69012117385864 2.45680046081543 2.47599816322327 2.45231151580811 2.63011431694031 2.58495187759399 2.54206728935242 2.51656532287598 2.48757576942444 2.38763880729675 1.8270435333252 1.79415488243103 1.03690791130066 1.02740609645844 1.00645089149475 0.978232502937317 0.962380528450012 0.940555989742279 0.92126077413559 0.901019811630249 0.898448646068573 0.857929587364197 0.815808713436127 0.752234756946564 0.688730657100677 0.645979225635529 1.10896122455597 2.23880672454834 4.2275071144104 4.12565183639526 3.38896608352661 2.50693273544312 1.45268607139587 1.32987713813782 3.89437890052795 3.30155038833618 2.87666320800781 2.53206849098206 2.29885125160217 2.05641722679138 1.86873853206635 1.73602902889252 1.55893325805664 1.56271958351135 1.45994460582733 1.37693226337433 1.31777572631836 1.24906873703003 1.18080532550812 1.0896669626236 1.04455661773682 1.24586284160614 1.18459486961365 1.1335027217865 1.09272515773773 1.18942952156067 0.918286442756653 0.323182642459869 13.3107805252075 4.58146381378174 5.66250705718994 2.85962748527527 -0.4117691218853 35.5162124633789 21.1821575164795 14.441912651062 10.9803476333618 3.71438384056091 7.57201194763184
9.49887943267822 7.73557662963867 6.93161964416504 6.55710601806641 5.90600872039795 5.32522773742676 4.90497159957886 4.54204845428467 4.18278408050537 3.58865284919739 2.55374073982239 -0.11873959004879 -0.358298569917679 -0.62192165851593 -0.661433219909668 -2.04528856277466 36.8186111450195 10.0108852386475 -2.2141535282135 -2.62877011299133 2.90656900405884 15.1981019973755 24.7511653900146 12.0701580047607 30.0252113342285 7.95154094696045 7.80164766311646 4.95427465438843 25.8300151824951 21.4241504669189 15.2134599685669 11.0919179916382 9.15164852142334 4.42583751678467 3.053466796875 2.36257433891296 6.95417833328247 2.17118239402771 1.00581157207489 0.634352147579193 0.562834143638611 6.19359445571899 19.9113273620605 15.365611076355 14.7574968338013 12.2665252685547 4.60879755020142 1.51605522632599 0.976859748363495 0.690172135829926 3.53527688980103 1.33774995803833 13.7312631607056 32.2177963256836 22.0572643280029 33.6582527160645 21.5205612182617 11.6859674453735 28.6110305786133 20.3743553161621 17.5579357147217 11.7988367080688 9.68124961853027 41.5970726013184 24.8523063659668 18.2839450836182 7.8998327255249 7.27487468719482 13.8605241775513 8.64247035980225 6.36671304702759 36.765495300293 21.7504539489746 13.8464155197144 9.68087005615234 6.18223714828491 5.92768478393555 5.70808553695679 5.49656915664673 5.29807472229004 5.13337278366089 5.00340175628662 4.88005256652832 4.86342144012451 5.15322685241699 5.04432058334351 4.94922161102295 4.84597301483154 4.74149751663208 4.37436485290527 3.89762926101685 3.71550273895264 3.57909250259399 3.36157512664795 3.29023671150208 3.22160530090332 3.15423917770386 3.26347064971924 3.21855998039246 3.16505789756775 3.12900042533875 3.09360456466675 2.77319693565369 2.30990076065063 2.28572177886963 2.27131843566895 2.57586884498596 2.54461669921875 2.5266752243042 2.4925651550293 2.43297934532166 2.21919727325439 2.19882035255432 2.18052792549133 1.86260724067688 1.29977178573608 1.22338438034058 1.15709185600281 0.932983875274658 0.926193237304688 0.895958244800568 0.882363617420197 0.861902296543121 0.847115516662598 0.844298303127289 0.845608532428741 0.814050853252411 0.774940073490143 0.728679418563843 0.664528965950012 0.612330615520477 0.571943819522858 0.563962042331696 3.25954723358154 4.80562210083008 4.31220722198486 3.54076814651489 2.72008562088013 1.74684202671051 1.48200857639313 1.32855761051178 1.22793865203857 1.15126037597656 1.10066640377045 1.03936350345612 0.938880860805511 0.793504953384399 0.669757485389709 0.641842603683472 1.37108290195465 1.27442181110382 1.19427824020386 1.13132119178772 1.07659459114075 0.997332215309143 0.94481348991394 0.903461515903473 0.970674991607666 0.922874212265015 0.875287771224976 0.825993061065674 1.54746747016907 0.747581303119659 0.395410984754562 5.0980749130249 2.78413438796997 0.670425295829773 4.85557889938354 4.70539283752441 2.87490677833557 2.47472906112671 2.22235941886902 8.64591407775879 7.26525735855103
7.58271312713623 7.17464637756348 6.70249795913696 6.18216419219971 5.57107019424438 5.12678575515747 4.7239294052124 4.37902784347534 3.46313309669495 3.91988110542297 2.79957795143127 0.655884265899658 -0.373603641986847 -1.11428165435791 -1.55456900596619 -2.28730726242065 7.27251720428467 5.04175662994385 8.88060569763184 -2.02858924865723 9.90177631378174 2.09157800674438 9.42374897003174 31.8533039093018 8.90749645233154 19.06955909729 7.68035650253296 5.7968373298645 21.6770496368408 11.6461277008057 7.55818843841553 6.93856954574585 8.36378002166748 7.10525465011597 4.80622148513794 10.1059350967407 2.74014091491699 4.60470008850098 1.16877722740173 4.51421022415161 16.5677433013916 10.5565023422241 10.1455345153809 15.6373176574707 9.6425085067749 11.3477735519409 5.38400268554688 3.44238710403442 1.25527822971344 0.841163456439972 3.55215644836426 0.318717241287231 42.4238128662109 25.4163246154785 33.9465789794922 23.8496036529541 19.4385604858398 16.2646923065186 15.1715402603149 13.64466381073 31.336555480957 21.2927112579346 19.5114727020264 15.4356927871704 11.0463190078735 8.77354621887207 47.2138824462891 7.30105781555176 16.2182998657227 11.8764495849609 29.7118835449219 14.9226016998291 9.85642528533936 7.63347673416138 6.95449209213257 7.51327610015869 6.311448097229 6.06682348251343 5.85369396209717 5.65165758132935 5.45938158035278 5.30950880050659 5.18894338607788 4.9560751914978 4.65607357025146 4.55497264862061 4.45895338058472 4.37344455718994 4.28384733200073 4.10727977752686 4.01764678955078 3.93262934684753 3.40023756027222 3.47332739830017 3.39956641197205 3.32359862327576 3.24828672409058 3.18549561500549 2.87117743492126 2.83203625679016 2.79198431968689 2.75541830062866 2.7151358127594 2.67128229141235 2.63375568389893 2.6033787727356 2.55726742744446 2.54031252861023 2.09768223762512 1.8968585729599 1.85373759269714 1.84041666984558 1.83067202568054 1.71843981742859 1.60707712173462 1.41200590133667 1.44967138767242 1.35049831867218 1.06505215167999 0.82877790927887 1.06286036968231 0.793960571289062 0.771503448486328 0.758930325508118 0.780315577983856 0.771998703479767 0.763659775257111 0.731025457382202 0.700230658054352 0.653934240341187 0.594180405139923 0.548747956752777 0.528904736042023 1.35579895973206 3.51590061187744 4.12873697280884 3.7914674282074 3.20052099227905 2.33009719848633 1.96759033203125 1.73738062381744 1.54307532310486 1.39933514595032 1.37677979469299 1.25923979282379 1.14705657958984 1.06746470928192 0.857276380062103 0.810335516929626 0.761661171913147 0.72489732503891 0.68510890007019 0.655402004718781 0.616304636001587 0.566797316074371 0.466891586780548 0.420010209083557 0.399468064308167 0.831844985485077 0.780572414398193 -0.00631031347438693 12.8422527313232 10.1428461074829 5.98408174514771 -0.0580279901623726 3.78673458099365 13.3282928466797 8.9704418182373 5.66662883758545 4.36359977722168 1.67459464073181 1.95825219154358 1.62749910354614 1.36268258094788
5.56839942932129 5.748619556427 5.21837711334229 4.87663793563843 4.23159456253052 3.76753044128418 3.41032862663269 3.18103003501892 4.14111566543579 3.8555588722229 3.60600304603577 2.16189408302307 -0.673139572143555 -1.47915971279144 9.40602111816406 -2.52964901924133 -1.85702705383301 4.91645812988281 1.65457129478455 -2.01185607910156 -0.0702503174543381 -0.107832819223404 28.5340518951416 14.0260753631592 4.70991134643555 1.53695476055145 11.7331228256226 21.5486965179443 11.0136680603027 8.31639385223389 5.89696073532104 6.94631242752075 2.78427910804749 15.6150798797607 3.96238160133362 6.38153076171875 3.45779895782471 2.86044311523438 2.76035165786743 1.71467280387878 11.6586837768555 7.7449688911438 16.810962677002 12.2145299911499 7.35644102096558 12.5735054016113 2.5908055305481 1.27185297012329 1.08320188522339 11.4012651443481 0.81841379404068 10.2923851013184 27.7960147857666 24.4192600250244 24.2338943481445 19.7892932891846 13.7417621612549 30.1236209869385 28.2661285400391 22.3277626037598 13.7873516082764 37.52490234375 22.8110313415527 11.0127983093262 10.0372858047485 9.08101749420166 8.41115951538086 45.4078788757324 26.8674392700195 7.1426305770874 9.18919658660889 25.6876411437988 20.0695381164551 12.5225448608398 8.56158065795898 6.77132654190063 6.31764888763428 6.05398178100586 5.82562112808228 5.62272500991821 5.43188667297363 5.26582431793213 5.1346435546875 5.05482053756714 4.94156742095947 4.82174301147461 4.69179916381836 4.57491874694824 4.46838665008545 4.35419273376465 4.24392080307007 4.14080810546875 3.94009613990784 3.73799872398376 3.66277360916138 3.58646535873413 3.50899839401245 3.00340437889099 2.916996717453 2.87580966949463 2.83407878875732 2.78473424911499 2.74809098243713 2.37088847160339 2.34034705162048 1.62313365936279 1.43493354320526 1.4339964389801 1.55262732505798 1.38034629821777 1.36175978183746 1.34955203533173 1.33778727054596 1.33192563056946 1.58787190914154 1.50311636924744 1.89208030700684 1.73075556755066 1.38002550601959 1.04937195777893 0.790262699127197 0.981088101863861 0.737260699272156 0.690929234027863 1.01442301273346 0.869129538536072 0.691766142845154 0.674786925315857 0.653884172439575 0.627808153629303 0.573474884033203 0.534657120704651 0.516168594360352 0.950265407562256 1.82232177257538 3.3660147190094 3.4603590965271 3.20720386505127 2.73161959648132 2.13310742378235 1.80243027210236 1.57516932487488 1.42119777202606 1.38807761669159 1.26749670505524 1.17295038700104 1.08857500553131 1.00244891643524 0.931966543197632 0.877290844917297 0.828649163246155 0.78843367099762 0.74556964635849 0.705150604248047 0.664419829845428 0.628702759742737 0.531891524791718 0.512363731861115 0.4822678565979 0.444813281297684 -0.212541103363037 -0.223796561360359 7.15974760055542 13.4629163742065 5.56770801544189 3.39945650100708 0.629376888275146 15.876916885376 7.80357885360718 5.52592992782593 4.27747440338135 3.1812572479248 2.79573082923889 2.47259664535522
6.87047100067139 6.60509157180786 6.28787565231323 6.05387735366821 4.6949257850647 4.4379940032959 4.21966648101807 4.00713109970093 3.81102466583252 3.61723756790161 3.41524195671082 2.86374759674072 0.161920428276062 -1.17458236217499 7.1801905632019 -1.40202295780182 4.52338981628418 -0.984480321407318 -1.81739115715027 0.243792563676834 1.88960528373718 2.94876766204834 2.69928121566772 12.6857299804688 3.85344362258911 3.10155415534973 5.78449583053589 12.3636093139648 12.8635911941528 7.12143850326538 7.06174993515015 18.4227523803711 4.57805109024048 1.42778599262238 1.27923452854156 23.1113224029541 3.31779408454895 5.53550863265991 2.71789789199829 3.30521130561829 2.21429347991943 11.5560216903687 8.4123067855835 6.08207368850708 8.22187232971191 5.83341932296753 1.36255991458893 0.859847486019135 11.7588186264038 0.658678293228149 0.617014706134796 24.2545490264893 11.9718780517578 17.972110748291 38.0512199401855 19.5303440093994 14.8465595245361 35.2012710571289 22.9773063659668 18.0920753479004 16.0163631439209 19.3774852752686 9.78130912780762 8.74347019195557 14.090633392334 10.1530456542969 34.6770095825195 7.22017335891724 8.20226383209229 47.1014938354492 6.98955631256104 24.8862342834473 23.3299465179443 14.665244102478 10.4369945526123 7.09730052947998 6.73234605789185 6.43696546554565 6.16938543319702 5.93883800506592 5.73665332794189 5.54868173599243 5.39040374755859 5.26387023925781 5.139319896698 4.76606845855713 4.63962125778198 4.51150941848755 4.39524936676025 4.28698253631592 4.17026472091675 4.05458211898804 4.00676536560059 3.92389917373657 3.84446263313293 3.76729965209961 3.68895053863525 3.50453209877014 3.13581991195679 2.733562707901 2.69463086128235 2.64884161949158 2.60821580886841 2.4048388004303 2.27426695823669 2.23167490959167 1.38075375556946 0.954157412052155 1.40153479576111 1.25705170631409 1.27347028255463 1.00529384613037 0.933030009269714 0.80167281627655 1.04385161399841 0.977250635623932 1.67047762870789 1.99273705482483 1.89038145542145 1.69954001903534 1.37692975997925 0.976188838481903 0.696174383163452 0.662028193473816 0.920698523521423 1.12346315383911 0.817185819149017 0.694838643074036 0.639388501644135 0.605830907821655 0.575766026973724 0.516139328479767 0.506143867969513 0.87068647146225 1.33450055122375 2.08908438682556 3.28281688690186 3.55824995040894 2.88914585113525 2.34890341758728 1.82007765769958 1.59458208084106 1.42782378196716 1.34500551223755 1.26074612140656 1.13824892044067 1.05679893493652 1.00995528697968 0.947472512722015 0.885107457637787 0.834702372550964 0.791134476661682 0.754413485527039 0.714303851127625 0.664437770843506 0.629745185375214 0.590889871120453 0.561871349811554 0.530889987945557 0.358080565929413 -0.179128542542458 -0.207609683275223 7.30688190460205 4.43423223495483 -0.710554122924805 10.5687246322632 8.48039817810059 20.7161540985107 10.5249938964844 7.29761552810669 5.62376022338867 3.35180854797363 2.852623462677 2.41865587234497
5.47266435623169 4.8716607093811 4.58162069320679 4.37602043151855 5.60296726226807 5.27225780487061 4.99247312545776 4.74596357345581 4.51828098297119 4.27545309066772 4.03290224075317 3.83666086196899 2.56581163406372 0.722726225852966 10.7321529388428 -0.0879449918866158 -0.249926447868347 -0.741502046585083 -1.20562303066254 0.776670634746552 -1.39269959926605 8.94183444976807 4.37445640563965 5.79666757583618 15.867639541626 10.7035188674927 3.31218290328979 5.44310569763184 11.2421188354492 4.43495416641235 5.72827768325806 8.08790016174316 3.84470319747925 0.784101486206055 6.55449914932251 0.816665768623352 0.998166680335999 17.1821517944336 6.34076976776123 8.23390197753906 5.77553272247314 6.09945440292358 3.71095681190491 3.89357662200928 12.3476676940918 4.42632818222046 2.08936452865601 0.634423017501831 0.356088042259216 0.202452182769775 11.9881887435913 9.23745632171631 8.7224063873291 11.4107789993286 24.5955772399902 24.4429798126221 13.0101547241211 42.4267120361328 28.4059066772461 21.8522663116455 17.946533203125 9.33170223236084 10.5054578781128 8.33819198608398 46.4089202880859 27.6421356201172 7.56556034088135 6.97409629821777 6.15886116027832 6.04578590393066 45.5609474182129 5.39907312393188 45.4131240844727 25.0959396362305 16.4177856445312 12.0276136398315 6.82567501068115 6.50921678543091 6.22822380065918 5.98334550857544 5.78097724914551 5.58462429046631 5.41072607040405 5.2816367149353 5.16255378723145 4.98912858963013 4.85442161560059 4.7183690071106 4.58110380172729 4.45934867858887 4.33927440643311 4.20799779891968 4.08800935745239 3.98742318153381 3.73730874061584 3.6550076007843 3.58211445808411 3.51615834236145 3.17479372024536 2.93085837364197 2.5829930305481 2.54718375205994 1.99695086479187 1.97276997566223 1.95245051383972 1.48167395591736 1.19165945053101 1.17929816246033 1.17436480522156 1.17428779602051 1.16320204734802 1.14260673522949 1.12749207019806 0.664055347442627 0.798329174518585 1.00894689559937 1.17031311988831 1.68393528461456 2.07009410858154 2.13056921958923 1.94950306415558 1.38447964191437 0.873281359672546 0.680660128593445 1.71188712120056 1.11050426959991 1.02415978908539 1.07889211177826 0.72209757566452 0.640277326107025 0.590953826904297 0.544586777687073 0.513678848743439 0.638568937778473 1.5772385597229 1.91396737098694 3.33353233337402 3.3937714099884 3.02662563323975 2.47980690002441 1.88434195518494 1.62346756458282 1.42337739467621 1.36599838733673 1.25978684425354 1.14466047286987 1.06059873104095 0.985702931880951 0.911039769649506 0.854811012744904 0.805331945419312 0.763201773166656 0.722854018211365 0.68154776096344 0.648819625377655 0.618932068347931 0.611107587814331 0.579827606678009 0.537749707698822 0.515694856643677 0.0531915389001369 7.41171169281006 -0.0237510465085506 7.73886871337891 7.44381427764893 -0.693140745162964 8.54686641693115 14.3658227920532 15.4673080444336 10.2064142227173 7.71648597717285 5.57335042953491 4.91258955001831 4.37882947921753
8.95590400695801 4.17430353164673 3.92593932151794 3.91873979568481 2.93421387672424 2.58223342895508 3.45876359939575 3.27538561820984 3.1074116230011 2.9210798740387 2.74294567108154 2.59872698783875 0.966638565063477 1.29572713375092 15.3228750228882 0.827666342258453 0.32964164018631 0.319381982088089 -0.376226663589478 -0.797445833683014 4.85822105407715 1.26771247386932 2.30047655105591 7.68060970306396 13.8085508346558 9.94309329986572 5.53549814224243 8.0559253692627 5.52408123016357 7.67210054397583 5.87558841705322 18.5710315704346 7.78108930587769 0.465384960174561 -0.184181347489357 -0.366224944591522 10.8482303619385 23.5652275085449 7.80964374542236 6.7993426322937 6.14322280883789 6.99012756347656 5.85782289505005 5.48742580413818 5.46825504302979 4.19915008544922 3.02746343612671 1.96708536148071 1.3696882724762 8.08755207061768 1.51752781867981 1.52195453643799 25.7093887329102 9.89163112640381 11.8883180618286 11.8656139373779 23.4996471405029 12.4121541976929 35.5139312744141 22.2064647674561 7.17769432067871 24.0743713378906 38.5388107299805 22.3802089691162 8.13056755065918 6.91061544418335 6.60068845748901 6.43525648117065 6.07852697372437 6.05886697769165 4.73349857330322 51.8794898986816 23.6489582061768 21.5792541503906 15.7378940582275 7.84145879745483 9.45679187774658 7.51870536804199 6.28645515441895 5.39501094818115 5.20525312423706 5.03046751022339 4.86865139007568 4.74280118942261 4.5990891456604 4.99228143692017 4.85326957702637 4.72073221206665 4.58347845077515 4.4501371383667 4.31635093688965 4.19353103637695 4.07660293579102 3.97727632522583 3.85118937492371 3.7629063129425 3.68777823448181 3.61591219902039 3.54938793182373 3.25582551956177 2.49513292312622 2.28706812858582 1.82324016094208 1.7996723651886 1.77606439590454 1.17183995246887 1.15606033802032 1.14567923545837 1.13869738578796 1.1307624578476 1.05517649650574 1.04307377338409 1.03278815746307 1.02753114700317 1.01850748062134 1.05412077903748 1.46326839923859 1.80235660076141 1.80489492416382 2.05540084838867 1.89092040061951 1.57475423812866 1.02115535736084 1.8091527223587 1.24917340278625 0.986951231956482 0.903221130371094 1.2174209356308 0.85392814874649 0.800996661186218 0.705677330493927 0.565098464488983 0.514090240001678 0.829086124897003 1.63251972198486 2.3894259929657 3.11157202720642 3.46298599243164 3.00867104530334 2.58778214454651 1.86309969425201 1.73240303993225 1.54326522350311 1.47068548202515 1.35278177261353 1.24161005020142 1.14489495754242 1.07039034366608 0.949713230133057 0.854150354862213 0.805431485176086 0.766161441802979 0.722264885902405 0.671764433383942 0.593263804912567 0.69338059425354 0.58470606803894 0.551283955574036 0.520047664642334 0.504576802253723 0.48073410987854 0.278088688850403 0.261473029851913 -0.261417746543884 -0.308655351400375 22.6497707366943 11.7288227081299 3.14739537239075 2.06734704971313 11.8579912185669 7.68483018875122 6.50501298904419 5.59857559204102 4.91099691390991
3.65567183494568 8.15411853790283 7.17822551727295 6.15882205963135 5.24328279495239 4.71353912353516 4.26913642883301 3.92240619659424 3.61869764328003 3.33897757530212 3.10197758674622 1.66931545734406 1.57626056671143 0.722057819366455 -0.363540560007095 0.0570441596210003 2.72432971000671 -0.369505673646927 -1.02236890792847 -1.47205603122711 7.71004581451416 -1.17438721656799 15.3833656311035 12.5824346542358 9.64774131774902 15.0770587921143 12.2008714675903 12.2922801971436 9.40283298492432 6.41496133804321 21.3290271759033 11.4488306045532 7.8590292930603 5.9761266708374 1.56954479217529 2.14371204376221 1.46632659435272 2.94986581802368 20.8044490814209 5.60869121551514 7.45989799499512 4.17937707901001 15.5641775131226 8.91506481170654 7.15663909912109 5.50895071029663 3.14132905006409 5.16833972930908 2.59100866317749 5.7174072265625 20.2643909454346 11.2455425262451 9.9694652557373 9.77386093139648 7.224205493927 4.46607255935669 50.1656341552734 32.4443511962891 10.6186628341675 16.5545883178711 35.4781150817871 19.4348011016846 6.48964643478394 5.50592660903931 10.7773580551147 11.274676322937 8.45835018157959 6.13034391403198 5.73287010192871 5.28003931045532 4.25402927398682 4.21797227859497 3.85214495658875 47.8800926208496 27.5979080200195 18.6029434204102 14.0102033615112 8.8213529586792 7.35629892349243 6.40945959091187 5.70526552200317 5.11447620391846 4.71288299560547 4.57577228546143 4.58915376663208 4.46020603179932 4.33963346481323 4.21988821029663 4.10716199874878 3.98494505882263 3.85635375976562 3.7459499835968 3.65661454200745 3.54492902755737 3.83185410499573 3.74392771720886 3.66370487213135 3.58993172645569 3.52829027175903 2.4400737285614 2.39026880264282 1.57528042793274 1.50155091285706 1.49209332466125 1.46397650241852 1.27509212493896 1.21344196796417 1.04660964012146 1.07835698127747 1.06730091571808 1.04017102718353 1.03179657459259 1.02325451374054 0.946138858795166 0.935764312744141 0.721735239028931 1.34484946727753 1.97809708118439 2.26723098754883 2.15989112854004 1.91021156311035 1.70018374919891 1.26975309848785 0.973085880279541 1.64171922206879 1.26633620262146 1.08891975879669 1.01172935962677 0.923826515674591 0.86851692199707 0.785780668258667 0.638914942741394 0.574695587158203 0.550004303455353 1.32366001605988 2.97479486465454 3.01588201522827 2.99152421951294 2.9674379825592 2.60049796104431 2.08381509780884 1.9328396320343 1.72924661636353 1.60769212245941 1.4777979850769 1.36566519737244 1.26222777366638 1.1744931936264 1.05083835124969 0.924223601818085 0.865651607513428 0.816888749599457 0.770705223083496 0.697507739067078 0.614118754863739 0.670120298862457 0.626433134078979 0.538294970989227 0.52329021692276 0.501061677932739 0.476045042276382 0.454220205545425 0.431946039199829 0.268564820289612 0.256845206022263 -0.0294636487960815 -0.100154899060726 4.91580486297607 6.18274450302124 2.22915601730347 12.012414932251 5.99551153182983 4.02991390228271 3.06024479866028
3.17981505393982 3.08815121650696 2.96804594993591 2.27187490463257 1.9300137758255 1.78182101249695 1.65810370445251 1.53725576400757 1.43707501888275 1.41149616241455 1.5921345949173 2.96160101890564 2.78706216812134 2.42735695838928 1.46801400184631 -0.560121953487396 10.8911428451538 -0.776624441146851 1.533371925354 -1.08239758014679 3.80777716636658 0.4140265583992 9.65479946136475 1.27165138721466 29.2094745635986 16.300142288208 11.6557302474976 9.94327449798584 8.78545570373535 8.06739521026611 7.46124744415283 6.83785104751587 6.10658502578735 5.41826343536377 2.85822820663452 2.71687936782837 2.19638681411743 0.984875917434692 1.24687814712524 24.6173057556152 13.6198978424072 9.58181285858154 23.2054748535156 8.12445640563965 7.17309761047363 27.8184356689453 7.49569988250732 7.24804592132568 2.30690908432007 2.47264575958252 30.3484973907471 9.34690189361572 35.969898223877 20.0600776672363 13.6424446105957 11.1123600006104 2.21744680404663 8.67848873138428 12.2871780395508 43.9609642028809 5.18277215957642 4.76325607299805 3.39213705062866 16.3337917327881 3.82799315452576 3.36098575592041 23.4237384796143 8.98034572601318 6.92942237854004 3.3796660900116 2.41005301475525 2.93684911727905 12.6845731735229 3.45352792739868 47.5269432067871 27.6053905487061 18.808277130127 14.1848878860474 9.22609233856201 7.45686149597168 6.40519142150879 5.57129859924316 4.97722911834717 4.51117992401123 4.40913534164429 4.2591724395752 4.12668132781982 4.01068830490112 3.90013408660889 3.79386019706726 3.67941617965698 3.56731271743774 3.4783341884613 3.5149884223938 3.42960596084595 3.35258650779724 3.27662754058838 3.2119026184082 3.00792717933655 2.38576579093933 2.13756275177002 2.09201860427856 2.04541182518005 2.01532244682312 1.34274113178253 1.31616294384003 1.30732941627502 1.28889763355255 1.26158821582794 1.23661267757416 1.03217816352844 0.894828796386719 0.903261840343475 0.887528479099274 0.87540066242218 0.867069661617279 1.24229860305786 1.61033940315247 2.45970559120178 2.29615187644958 2.04436373710632 1.94023382663727 1.70281100273132 2.09676480293274 0.983452558517456 2.83869218826294 1.40341198444366 1.26674807071686 0.980638265609741 0.921633362770081 0.852411150932312 0.738122642040253 0.651971876621246 0.626296937465668 1.22594106197357 2.67026734352112 2.92148303985596 2.86170744895935 2.84715437889099 2.63101625442505 2.38737010955811 2.13163661956787 1.93814015388489 1.80590128898621 1.65593385696411 1.51784265041351 1.39179301261902 1.28621387481689 1.1901570558548 1.0181599855423 0.955213844776154 0.8972327709198 0.843751847743988 0.778480768203735 0.733157575130463 0.688815355300903 0.664635479450226 0.597547590732574 0.554542005062103 0.533290922641754 0.510216414928436 0.493593275547028 0.466066300868988 0.453465908765793 0.439740687608719 0.41946804523468 0.401327461004257 0.373271763324738 0.870111703872681 0.935409963130951 2.85880637168884 3.32518339157104 2.76344537734985 2.38598704338074
2.5049934387207 2.37463879585266 2.34488368034363 1.71858692169189 1.49071455001831 1.3779000043869 1.27954411506653 1.19081604480743 1.12061762809753 1.17900228500366 1.31558871269226 1.24441528320312 1.18097460269928 1.10325467586517 -0.133706048130989 5.58359384536743 -0.250407546758652 -0.597036123275757 -0.660003840923309 -0.708338677883148 5.42866325378418 4.53417539596558 0.347889602184296 19.8111057281494 11.3619518280029 7.31776475906372 6.2325005531311 5.41816520690918 8.2913875579834 7.41654300689697 6.79929542541504 6.26488065719604 5.75629138946533 5.20772361755371 2.35367321968079 2.30457234382629 5.80059957504272 2.5010666847229 1.80965220928192 7.45543432235718 24.5988941192627 18.9242134094238 13.9438953399658 13.6158018112183 11.5502395629883 9.96166896820068 8.63747024536133 7.46727752685547 6.68131351470947 7.25173854827881 6.11894226074219 8.19047737121582 6.95644044876099 0.584346294403076 3.93364953994751 21.5404186248779 13.8345880508423 44.39697265625 3.80221390724182 2.22220897674561 2.16050171852112 2.02081894874573 11.3076972961426 1.9857565164566 1.85623061656952 5.09850025177002 14.9271078109741 10.7961702346802 1.84586441516876 1.7863597869873 7.08703804016113 4.81472778320312 2.01662659645081 2.01559925079346 1.87263381481171 47.9520950317383 28.2040176391602 19.2907047271729 14.4011039733887 9.0375509262085 7.38732862472534 6.35912179946899 5.56475591659546 4.95012140274048 4.38269901275635 3.88045811653137 3.46464109420776 3.34452891349792 3.25545859336853 3.16083431243896 3.2516393661499 3.16558837890625 3.32500338554382 3.33658051490784 3.26479601860046 3.19577789306641 3.12042903900146 3.06060314178467 2.61667704582214 2.57912635803223 2.20352554321289 1.66661286354065 1.60939109325409 1.55293452739716 1.11673176288605 1.14057612419128 1.12647318840027 1.11421954631805 1.08821761608124 1.05423676967621 1.13881051540375 1.11979603767395 1.09893488883972 1.08410513401031 1.06456565856934 0.893533110618591 0.922487616539001 1.18187856674194 2.46173715591431 2.09419322013855 1.93501245975494 2.16017079353333 3.01909685134888 2.00684928894043 1.33285534381866 2.08331370353699 1.5900285243988 1.29264438152313 1.02044928073883 0.988393187522888 0.899319171905518 0.894067466259003 0.767810702323914 0.682537853717804 1.33534705638885 2.44683384895325 2.4358434677124 2.37926197052002 2.54841017723083 2.54232978820801 2.7837188243866 2.5910472869873 2.23950910568237 1.95879662036896 1.82384562492371 1.64328610897064 1.55048274993896 1.43459665775299 1.32777678966522 1.13701450824738 1.04478013515472 0.982096016407013 0.915881514549255 0.861289024353027 0.81152606010437 0.773516356945038 0.736932337284088 0.681496500968933 0.622870326042175 0.598606705665588 0.572287440299988 0.553306460380554 0.52911388874054 0.510573923587799 0.492173612117767 0.479009479284286 0.453712970018387 0.402424424886703 0.386450260877609 0.408547669649124 0.383403837680817 0.37067386507988 0.364772796630859 0.34721827507019
