NCOLS 175
NROWS 31
XLLCORNER 354016
YLLCORNER 6701184
CELLSIZE 16 
NODATA_value -3.4e+38 
6.99314641952515 8.68859958648682 10.0189142227173 13.72496509552 8.22568035125732 -0.40094193816185 -1.09327280521393 0.468208640813828 1.37967133522034 5.38943815231323 9.92065525054932 3.53481578826904 6.18472385406494 9.03199577331543 9.27320957183838 9.75166702270508 18.9575157165527 23.5521202087402 25.3246173858643 34.4121398925781 16.3251113891602 16.7593116760254 11.2530117034912 9.65566253662109 6.6503472328186 5.51029491424561 4.06450176239014 9.20153713226318 1.69114375114441 0.266488015651703 0.711080610752106 13.9803371429443 3.87190985679626 20.5356369018555 11.1609754562378 9.98725128173828 -0.779615640640259 0.0639283433556557 3.1601254940033 7.3869457244873 17.7712306976318 19.8215274810791 12.2483434677124 15.4592685699463 11.5839424133301 0.904669404029846 0.73535680770874 4.0026969909668 10.2329635620117 15.1060409545898 -1.58191823959351 -1.70440375804901 6.42113256454468 -2.75827646255493 -2.56169271469116 -2.87054944038391 -2.50282716751099 -2.38440012931824 -1.49025392532349 -1.75064873695374 -1.24461424350739 -1.39389336109161 4.72947406768799 -0.0652496069669724 -0.232837229967117 0.184270963072777 0.19803749024868 0.210451915860176 0.25663486123085 0.310788929462433 0.394278049468994 0.494168907403946 0.616602897644043 0.719276010990143 1.10060346126556 1.51515734195709 1.64573776721954 1.34578418731689 1.0779128074646 1.18002820014954 1.68132257461548 1.98558688163757 3.46363353729248 1.88954198360443 2.83180022239685 3.56979084014893 2.77110934257507 2.53552532196045 21.5813884735107 4.53904914855957 1.06012606620789 12.6565952301025 4.76280689239502 1.55292570590973 1.57278203964233 2.0408022403717 1.6117057800293 1.65706825256348 2.30000352859497 2.64006495475769 2.2745475769043 2.13228058815002 1.98724937438965 2.64129257202148 3.03014755249023 3.51009392738342 3.70689654350281 3.84989714622498 5.132399559021 8.24389839172363 2.97960782051086 3.61431312561035 20.1693458557129 16.8270320892334 6.43603515625 2.93782091140747 2.57038474082947 2.09191107749939 2.42290472984314 24.7342891693115 8.73775196075439 1.96158707141876 6.63719987869263 1.23132979869843 1.67198312282562 2.00005435943604 1.68871629238129 1.50731754302979 1.48556280136108 0.861337542533875 1.59700834751129 1.33369779586792 0.936586856842041 0.782949328422546 1.03274524211884 1.2794885635376 2.2387318611145 2.08572769165039 1.02591562271118 1.09923672676086 17.0576362609863 -0.953731834888458 1.04720377922058 -1.2228592634201 -0.822188138961792 -0.736606478691101 -0.763093292713165 -0.185075849294662 -0.362201154232025 -0.703797399997711 0.0578142404556274 0.617982625961304 1.22671794891357 2.11889719963074 2.00326776504517 2.43892884254456 3.54857778549194 3.43870401382446 3.71618819236755 7.44326877593994 10.2705984115601 9.42628860473633 32.5726089477539 8.12537574768066 4.83301877975464 6.83929061889648 12.5323066711426 11.6834869384766 12.776177406311 16.8332328796387 25.3629379272461 40.5929794311523 30.5041065216064 33.6499252319336 34.4621620178223
1.11065089702606 7.34317779541016 11.5695810317993 -0.238488033413887 11.9827260971069 14.22789478302 7.98486423492432 12.4956016540527 10.0080051422119 2.66171312332153 7.38619136810303 11.181957244873 8.96940135955811 5.31878566741943 11.564905166626 13.6868276596069 14.1060810089111 9.50839042663574 17.2249889373779 12.0224561691284 11.2632884979248 16.4053077697754 14.3598794937134 11.0072317123413 9.51514148712158 9.33347225189209 18.9289169311523 5.34986352920532 9.8971700668335 3.8693699836731 1.2588711977005 -0.361248701810837 -3.58021402359009 9.00935935974121 3.23378014564514 13.7462863922119 -0.439260929822922 -0.685764253139496 0.504509568214417 9.80367565155029 14.3038778305054 21.2176952362061 20.2915935516357 21.8901557922363 10.8558626174927 -0.804729044437408 -0.61085319519043 2.51194834709167 7.26025295257568 -2.30611991882324 9.24872779846191 -1.27265405654907 -1.07099187374115 -2.547523021698 -2.50107836723328 -2.12548804283142 -1.90828466415405 -1.29988753795624 -0.990157604217529 -0.829892933368683 -0.287884742021561 -0.505054712295532 0.0372558906674385 -0.348190069198608 0.273315787315369 0.295339792966843 0.313319683074951 0.329393565654755 0.355036199092865 0.398117393255234 0.464955002069473 0.553610801696777 0.661725282669067 0.699107587337494 0.759438931941986 1.31145119667053 1.88130724430084 2.00436186790466 1.75528132915497 1.48464488983154 1.31128525733948 1.74220991134644 2.05272364616394 4.4770040512085 2.13171315193176 3.74507284164429 3.68489050865173 2.70746660232544 24.802116394043 1.9231014251709 5.48511028289795 3.59700012207031 4.88974571228027 1.59982693195343 1.62011933326721 1.65109646320343 2.1201593875885 1.74713242053986 1.89545142650604 2.53291010856628 2.91296672821045 2.51086568832397 2.26228594779968 2.31005764007568 3.28298735618591 4.21984481811523 4.67484951019287 5.07835674285889 5.05949401855469 8.26731109619141 4.34879636764526 4.76146697998047 21.518684387207 6.391273021698 9.54446697235107 2.81135368347168 2.90215182304382 2.1070408821106 2.63383507728577 12.4302606582642 1.08797228336334 5.29403972625732 1.41848266124725 1.44883942604065 1.87238526344299 2.16384482383728 2.06015682220459 1.74485218524933 1.55490469932556 1.53113663196564 1.65116226673126 1.61217391490936 1.44133830070496 0.904854357242584 0.510783076286316 1.10300624370575 2.3183765411377 1.06041538715363 2.24565553665161 1.07260406017303 1.13528907299042 -0.470983028411865 -0.464511156082153 -1.13085412979126 -0.394021540880203 -0.535997033119202 -0.303719192743301 -0.226899966597557 0.0140843279659748 -0.0718104541301727 0.16907824575901 0.197559401392937 0.671323478221893 1.98509347438812 2.22668218612671 1.780881524086 3.66646385192871 3.5054714679718 4.15897941589355 6.68930006027222 9.45328998565674 13.995044708252 19.4136009216309 3.61289477348328 10.6238346099854 8.34952259063721 10.573335647583 15.7178363800049 16.1512069702148 17.5421543121338 36.7569351196289 41.4168891906738 6.02562808990479 46.113338470459 46.8169364929199
3.75192809104919 -0.672316908836365 14.673243522644 4.33513021469116 3.13857865333557 -1.53999722003937 2.7542712688446 4.46455574035645 0.269082188606262 9.42596244812012 7.37601041793823 15.3221378326416 9.47322559356689 11.2569303512573 9.26836013793945 12.8804655075073 20.3645915985107 16.6495571136475 17.2892398834229 20.0639591217041 14.9368228912354 17.0023040771484 24.1725597381592 31.8611240386963 25.1557121276855 12.0604438781738 10.1535634994507 8.58722400665283 7.64052438735962 10.0334253311157 13.3315725326538 4.85748958587646 1.7447497844696 8.6740779876709 8.85909748077393 1.37277126312256 0.637147903442383 1.22153055667877 11.2957859039307 21.8702297210693 28.0598945617676 17.5984668731689 -1.16700422763824 0.183253899216652 5.56374549865723 0.851089954376221 -3.13715767860413 -2.17400598526001 -2.68726778030396 -3.36322665214539 -1.75603806972504 14.2514600753784 -1.67427718639374 -0.84993702173233 -2.21697330474854 -1.19166016578674 -0.682446599006653 -0.785488724708557 -0.760970890522003 16.1106204986572 -0.0285278633236885 0.0818862840533257 -0.290873825550079 0.331970036029816 0.36496701836586 0.384675472974777 0.400339335203171 0.424391359090805 0.44792115688324 0.480047285556793 0.533686220645905 0.624421417713165 0.666891634464264 0.694960951805115 0.750943601131439 0.809257566928864 1.42486917972565 1.84726071357727 1.76698136329651 1.32982981204987 1.43807446956635 1.34467256069183 1.79801559448242 2.12782692909241 6.19069528579712 2.19471192359924 5.897780418396 3.83224511146545 2.72146534919739 1.68949246406555 2.85964274406433 8.83955478668213 19.4343852996826 1.05140912532806 2.13221764564514 1.69142127037048 1.80822420120239 2.20029616355896 1.93969058990479 2.14763259887695 2.82714128494263 3.24283075332642 2.798672914505 2.61970353126526 3.70937538146973 4.76100206375122 5.17959642410278 5.07004976272583 5.22509145736694 5.21625280380249 4.57802438735962 4.38825845718384 4.9605598449707 3.89298987388611 2.40785646438599 16.6356105804443 4.15511560440063 3.71670484542847 2.77170276641846 4.49688482284546 1.5680319070816 4.99067449569702 1.33001387119293 1.65250194072723 1.93912196159363 1.91490066051483 2.23079609870911 2.12686800956726 1.80255699157715 1.60256147384644 1.58201920986176 1.74641847610474 1.32075321674347 1.57398962974548 0.96576589345932 0.600702702999115 1.17913353443146 2.48861575126648 1.49586546421051 2.35310459136963 1.21890795230865 0.953503251075745 1.13242626190186 -0.343830823898315 -0.199270039796829 -0.24776254594326 -0.163561254739761 0.0611695349216461 0.12759992480278 0.164957165718079 0.237152248620987 0.302955836057663 0.376125693321228 0.716971218585968 2.08550500869751 2.34449243545532 2.58320093154907 3.85176372528076 3.69049739837646 5.32109117507935 8.53393363952637 12.9828634262085 22.6655673980713 19.9441566467285 16.4575672149658 14.3850708007812 9.97586917877197 13.5561571121216 21.424409866333 24.9642105102539 37.3387680053711 9.96990394592285 5.69868326187134 6.20091867446899 7.86743402481079
2.54247784614563 11.8980674743652 18.4416160583496 0.957913994789124 1.37247729301453 1.8467835187912 2.06968832015991 4.53632116317749 5.18975639343262 2.25676608085632 8.22474765777588 5.0541729927063 -0.0655135214328766 4.35124015808105 7.93192720413208 21.1918334960938 5.68006944656372 15.4018468856812 9.37500381469727 20.5967922210693 14.5537157058716 25.1108646392822 43.6194305419922 39.5577964782715 31.2331943511963 17.1929016113281 11.2864608764648 8.70487213134766 5.35121154785156 0.0474677495658398 -0.0405429042875767 4.75959873199463 -3.38941669464111 -1.81719827651978 -3.58925008773804 -3.5709855556488 2.65402293205261 2.59529542922974 2.29454565048218 26.2192459106445 14.6371879577637 3.13264226913452 -3.9411473274231 1.86322963237762 15.8609437942505 7.19637012481689 -3.31641530990601 -2.04654407501221 -2.13236021995544 -2.56380367279053 -2.50318431854248 -1.15965378284454 -0.0678394883871078 -0.248048409819603 -1.02599215507507 -1.15354466438293 -0.460518777370453 3.73225116729736 8.34008598327637 -0.499659031629562 -0.585499286651611 0.32725116610527 0.35430172085762 0.411409944295883 0.449075818061829 0.461467057466507 0.467390179634094 0.501269519329071 0.529270589351654 0.55622935295105 0.618535041809082 0.656338155269623 0.679691970348358 0.717718839645386 0.759198307991028 0.800220251083374 0.847870290279388 1.06749176979065 1.21475434303284 1.65904581546783 2.04093670845032 1.48460257053375 1.39410805702209 1.86404776573181 2.19828319549561 9.81646347045898 8.80886268615723 2.62603068351746 3.88392663002014 2.84991359710693 2.92917466163635 13.814453125 8.44828033447266 0.968488216400146 4.54749345779419 1.71492767333984 1.74250817298889 1.86292314529419 2.29020261764526 2.10958337783813 3.01892137527466 3.47596311569214 3.17936825752258 3.26064896583557 3.68379592895508 5.47824239730835 5.06661796569824 5.40619850158691 5.57657480239868 5.81727457046509 5.31242084503174 5.1104154586792 5.01972627639771 5.11140251159668 4.11934852600098 13.7092542648315 9.91244411468506 5.83759164810181 5.14838457107544 4.17908239364624 4.01221704483032 1.88688826560974 1.54636681079865 1.92354142665863 2.06557536125183 2.16506600379944 2.06062150001526 2.30162596702576 2.19841623306274 1.73978352546692 1.65622925758362 1.12024581432343 1.85884404182434 1.65473854541779 1.33606851100922 0.997433662414551 0.630379974842072 1.27821278572083 2.64714741706848 1.56089508533478 2.56145048141479 1.3354275226593 0.543205857276917 -0.200982257723808 0.108426034450531 0.0925013273954391 0.103628426790237 0.109999872744083 0.140705540776253 0.20617601275444 0.291433215141296 0.366935759782791 0.450986921787262 0.52392166852951 1.41559255123138 2.42118692398071 2.2625150680542 2.90566968917847 4.05856704711914 3.94327878952026 7.30765247344971 11.6886386871338 32.5954627990723 10.260235786438 3.68211889266968 18.4621353149414 22.5715446472168 11.581111907959 18.4850769042969 36.2477111816406 38.4112091064453 14.4358329772949 5.59910297393799 6.61847400665283 7.58509159088135
16.6736812591553 7.76003980636597 1.69741952419281 1.87461173534393 -0.418048530817032 -1.19865548610687 -1.2047530412674 -3.34018087387085 -3.63148307800293 0.0862926691770554 0.937591552734375 5.49132776260376 3.1956799030304 0.854550719261169 6.28928232192993 21.4560623168945 1.60443234443665 4.23564529418945 1.69134211540222 13.4825191497803 10.2650928497314 16.4690570831299 21.1271209716797 5.52076482772827 6.03393983840942 15.1371479034424 14.4297122955322 17.0629863739014 10.414457321167 7.47948026657104 -0.243094116449356 0.993355572223663 -3.76319789886475 -3.31722116470337 -0.72547858953476 -3.52281260490417 -0.486877977848053 4.39009046554565 5.47154712677002 7.69816923141479 3.42912268638611 -1.9557329416275 -3.89594483375549 -3.0842616558075 0.810697317123413 -2.28512811660767 -3.55883288383484 -2.96203851699829 -1.5212185382843 -2.04200744628906 -2.17913627624512 -1.16573393344879 0.387855380773544 -0.30078986287117 1.11959207057953 -0.585337698459625 -0.214978069067001 -0.374545484781265 -0.61437201499939 0.765048563480377 1.28309047222137 1.37240171432495 1.5284298658371 1.73316156864166 1.7387775182724 0.526142120361328 0.534573197364807 0.571340322494507 0.592879295349121 0.635729372501373 0.668653845787048 0.703119277954102 0.73122501373291 0.757099509239197 0.786063075065613 0.815196752548218 0.831599771976471 0.878905534744263 0.960417449474335 1.57778263092041 1.72391653060913 2.11470746994019 1.53588223457336 1.84507215023041 2.19415783882141 14.6671133041382 3.04175925254822 2.19896101951599 4.02395296096802 3.09838366508484 2.84967803955078 3.05594706535339 2.29638409614563 1.32778763771057 4.30205392837524 1.63558399677277 1.76268589496613 1.80652558803558 2.34517455101013 2.12546539306641 2.27751159667969 3.45120406150818 3.95934200286865 3.41901063919067 3.70854330062866 4.81488132476807 6.14490556716919 5.77153730392456 7.19721508026123 8.19171619415283 7.30486917495728 5.4687294960022 5.7315468788147 5.18476009368896 14.3200950622559 4.29138851165771 2.43223690986633 10.0454158782959 9.31649589538574 5.53112411499023 4.8172082901001 1.73630118370056 2.13117790222168 1.99388790130615 2.0270574092865 2.15663743019104 2.23180460929871 2.12394380569458 2.37801623344421 1.90019989013672 1.68668627738953 1.66819381713867 1.27736568450928 1.98375451564789 1.82880449295044 1.15738487243652 0.886776030063629 1.35187518596649 1.57798528671265 2.84043431282043 2.69469213485718 1.34243357181549 1.48009419441223 0.600345492362976 0.10971000790596 0.0929861143231392 0.098391056060791 0.120067924261093 0.166748553514481 0.24770200252533 0.322858154773712 0.392580181360245 0.464480131864548 0.558591544628143 0.771799862384796 1.48924994468689 2.53522872924805 2.35234951972961 4.18934392929077 4.04097557067871 4.17199802398682 11.7209587097168 30.6580505371094 4.04197120666504 14.0581550598145 4.64538145065308 33.7721481323242 22.5905895233154 16.0225353240967 44.7860908508301 5.69677734375 5.48976898193359 5.07616424560547 7.63114166259766 7.05619478225708
19.1793594360352 9.28487682342529 9.48492813110352 0.757186651229858 -3.90478229522705 0.111680343747139 7.27849435806274 -0.927520275115967 -0.275030761957169 -4.62799978256226 -3.25171256065369 0.57442981004715 -2.46531128883362 0.666702091693878 9.22853755950928 10.1903400421143 0.292455404996872 2.37136840820312 4.22422027587891 9.17092132568359 1.06983196735382 0.0979534015059471 1.47724115848541 4.13682126998901 11.2207307815552 8.43125152587891 11.1009798049927 5.45473384857178 11.8083171844482 7.91952037811279 0.0109743997454643 5.17504453659058 13.6860790252686 3.78773641586304 -3.10371088981628 -3.55815172195435 -0.14053550362587 4.40561962127686 12.5802803039551 7.75847291946411 6.08086824417114 -2.83361768722534 -3.10676217079163 -3.11188626289368 13.461745262146 2.58313202857971 1.03152215480804 -2.96602845191956 -1.71062767505646 -0.802554845809937 -1.22749662399292 -1.27086305618286 0.72492378950119 0.896722197532654 1.27318120002747 3.68141484260559 -0.221136629581451 -0.0259787887334824 -0.144233122467995 0.56348979473114 1.44951462745667 1.33681309223175 1.41816818714142 1.596275806427 1.818190574646 1.8302503824234 0.731178104877472 1.01382231712341 1.15544629096985 0.679837226867676 0.718267261981964 0.753011763095856 0.784466326236725 0.803119599819183 0.820757985115051 0.840744316577911 0.84856379032135 0.869631290435791 0.917327105998993 1.48162817955017 1.65025448799133 1.78708004951477 2.18104767799377 1.58123159408569 1.90671718120575 2.26624941825867 2.17356848716736 3.70663285255432 2.62277293205261 6.18778419494629 3.05575752258301 2.97282242774963 3.19165349006653 2.73772668838501 1.45366144180298 1.49680507183075 1.77065682411194 1.80910193920135 2.50579428672791 2.43755030632019 2.18807005882263 2.34667611122131 3.99846339225769 4.57661962509155 3.93889236450195 5.07182264328003 5.2852201461792 10.002459526062 11.3211803436279 11.1207628250122 11.9373006820679 5.33579921722412 5.64195680618286 5.20750904083252 5.38119125366211 4.48053741455078 3.97817301750183 2.86899256706238 8.71516609191895 7.92346239089966 5.00416231155396 2.05543780326843 2.17886066436768 2.00239276885986 2.09456753730774 2.73939347267151 2.58708739280701 2.97377729415894 2.56609535217285 2.31548953056335 1.96356499195099 1.74257445335388 1.72490191459656 2.05241441726685 1.99197506904602 2.02197670936584 1.35006868839264 0.612166583538055 1.36016702651978 2.995441198349 1.88468635082245 2.97932124137878 1.59098815917969 1.22970628738403 0.126529425382614 0.122533217072487 0.107277743518353 0.128256872296333 0.200272247195244 0.294089019298553 0.370624333620071 0.421229481697083 0.474828243255615 0.548970341682434 0.630148649215698 0.817920386791229 2.34169888496399 2.65609669685364 2.94076633453369 4.4291033744812 4.66531181335449 18.3502578735352 28.0876178741455 3.40040826797485 3.58788132667542 4.36093091964722 5.28381538391113 4.93085956573486 19.689094543457 40.809024810791 4.64896869659424 5.48385906219482 5.51642942428589 5.7064962387085 6.64961528778076
8.89401245117188 1.54036867618561 2.96770334243774 -0.514168322086334 6.09253263473511 -3.73326277732849 10.1841230392456 -3.26194834709167 4.22152042388916 5.26899766921997 6.14919090270996 -2.02302813529968 -3.20562052726746 0.267284005880356 2.91143298149109 2.49464249610901 3.83808660507202 3.29402041435242 3.75916290283203 16.9444408416748 1.0332795381546 1.30036127567291 -2.15048742294312 10.4829502105713 11.6346683502197 0.458932757377625 -1.53805506229401 -4.77757215499878 -4.46009159088135 -2.6918625831604 1.61185836791992 1.13943243026733 1.10291087627411 -3.55496072769165 -3.28268980979919 -2.88265085220337 -2.66335678100586 12.5268249511719 11.5971803665161 23.2037982940674 15.9827852249146 -2.87326693534851 7.86789274215698 -2.88669633865356 7.09953022003174 -2.26242446899414 -2.50374221801758 -2.46380186080933 -2.15711283683777 -0.382154285907745 -0.145965173840523 0.735956430435181 0.765149474143982 7.13130664825439 2.98590540885925 0.719420433044434 1.60634934902191 0.452745825052261 0.549073696136475 0.595287799835205 1.11448180675507 1.48547780513763 1.39373016357422 1.51394760608673 1.704021692276 1.93180584907532 1.94624817371368 0.865454018115997 1.1002448797226 1.25053977966309 0.771043717861176 0.801115214824677 0.832412242889404 0.853970289230347 0.863079845905304 0.867195904254913 0.876043140888214 0.905029475688934 0.933628797531128 1.74198639392853 1.56383216381073 1.71528100967407 1.84879374504089 2.25439453125 1.45842611789703 1.98489487171173 2.35411882400513 2.7723605632782 2.20491480827332 9.51819610595703 4.40160322189331 3.19440937042236 3.03172755241394 3.36093950271606 1.70440244674683 1.73859310150146 1.78759980201721 2.15726613998413 2.41913175582886 2.57686305046082 2.54367733001709 2.61346936225891 3.61720871925354 4.74874639511108 5.44741010665894 4.68953275680542 5.22744989395142 15.4956302642822 11.1317348480225 5.766676902771 5.60210847854614 5.62033462524414 5.75687551498413 5.82169198989868 5.49177360534668 7.25135517120361 4.57991027832031 15.0562925338745 2.88037061691284 2.19188332557678 2.54056811332703 2.13524055480957 2.51234793663025 2.26673650741577 3.04230833053589 3.3904013633728 3.66438794136047 3.22113347053528 3.06271433830261 2.76266980171204 2.39849758148193 1.8978031873703 1.98454654216766 1.95891225337982 2.21181273460388 2.1547327041626 1.71149241924286 1.19340527057648 0.687453806400299 1.54887020587921 3.30515050888062 2.14156079292297 3.30728077888489 1.80616354942322 0.733331859111786 0.132879674434662 0.132289901375771 0.14029486477375 0.217692419886589 0.324671804904938 0.37975811958313 0.413225293159485 0.46411144733429 0.526604831218719 0.600710034370422 0.696663081645966 1.6169341802597 2.73585438728333 2.79079055786133 3.30219578742981 4.89582395553589 6.11793661117554 3.6675226688385 3.05718803405762 4.9479193687439 4.62875318527222 8.40258026123047 5.61277151107788 5.24737739562988 36.2257041931152 5.31682586669922 5.33909368515015 11.2317714691162 5.78351497650146 6.89464855194092
-1.10581386089325 -4.24562168121338 6.95513963699341 12.1241998672485 14.3961038589478 5.98625516891479 5.81511163711548 -3.89264631271362 2.70683217048645 0.995372772216797 -2.24923205375671 -3.82745122909546 7.6811580657959 8.19912719726562 4.05296850204468 1.21444284915924 13.0034646987915 5.45110416412354 4.85171604156494 -3.14090180397034 -0.810730755329132 0.938296914100647 1.79454445838928 6.79411554336548 -1.86636757850647 -4.7224178314209 0.922198593616486 1.39411330223083 -4.156334400177 -3.67790961265564 6.05499887466431 -2.62154316902161 -3.72629952430725 -3.65279507637024 -3.19830369949341 2.09160971641541 3.18016481399536 4.13052034378052 7.67028999328613 25.9823417663574 14.7194948196411 -2.61469793319702 -2.67393398284912 -2.78818511962891 -2.42679977416992 13.7683620452881 0.0241406373679638 -1.1730682849884 -0.975313723087311 -0.190331891179085 8.48789691925049 7.59335279464722 7.12539291381836 0.770684480667114 1.10696744918823 1.67141473293304 2.26510643959045 0.634031891822815 0.637753188610077 0.91897189617157 1.22113788127899 1.15660691261292 1.57942843437195 1.49916291236877 1.61943542957306 1.80573356151581 2.03449058532715 2.0435905456543 1.35887789726257 1.20855641365051 1.36117446422577 0.860416114330292 0.882170915603638 0.906077027320862 0.913440227508545 0.912555932998657 0.929104149341583 0.958099663257599 0.984864592552185 1.40581357479095 1.85188317298889 1.65532910823822 1.8557323217392 2.26844191551208 1.64780330657959 1.97042071819305 2.35387539863586 2.80248093605042 2.25551581382751 2.66430640220642 2.49261879920959 4.59676074981689 3.34277629852295 3.4328978061676 3.33104491233826 1.74519741535187 1.79430496692657 1.84640288352966 2.21902751922607 2.49802231788635 2.65811777114868 3.83762764930725 2.68484091758728 5.30979442596436 6.12404870986938 6.8127269744873 5.06847476959229 13.1656179428101 5.59557819366455 5.62284231185913 5.86602544784546 5.83042478561401 5.99447870254517 5.93862962722778 5.65173435211182 9.858078956604 5.72270965576172 6.68246507644653 3.06840062141418 7.36598920822144 2.83087134361267 2.49540734291077 2.59877777099609 2.61071825027466 3.42117929458618 3.56807661056519 3.81915044784546 3.77747511863708 3.50970935821533 3.14914989471436 2.84031510353088 2.07063150405884 2.21011257171631 2.16921758651733 1.91629207134247 2.37224769592285 2.33315443992615 1.46139085292816 1.4785019159317 1.65914011001587 2.10061383247375 3.68051290512085 3.54307293891907 1.90427601337433 2.09571480751038 0.846825301647186 0.146795004606247 0.137705117464066 0.177461341023445 0.248856127262115 0.331955552101135 0.390370190143585 0.424944430589676 0.492079585790634 0.591246128082275 0.713241100311279 2.34887599945068 2.83060741424561 3.03184080123901 3.47328972816467 3.94470548629761 6.69965982437134 8.24655914306641 6.09929800033569 8.01629161834717 12.8231029510498 10.7678604125977 4.67627620697021 6.94924211502075 42.3404541015625 5.92654418945312 5.69319343566895 6.28694200515747 8.62632369995117 20.2303028106689
6.74370098114014 2.93921160697937 10.7198219299316 8.76899337768555 0.967268407344818 -3.57984375953674 -3.54941773414612 -3.78491449356079 -3.58529710769653 -3.95070719718933 -3.78642296791077 -1.21682894229889 -3.49943327903748 -1.60883188247681 -1.19878554344177 0.437435656785965 7.13061618804932 -4.34468269348145 1.97119283676147 -4.44678497314453 3.66292905807495 4.03065872192383 0.0571253560483456 -1.6447548866272 -1.38920915126801 -4.41506385803223 -4.07147645950317 -4.34814548492432 -4.08848762512207 -4.14401435852051 -3.92942690849304 -4.0032434463501 -3.69881057739258 -3.03610849380493 -0.681729018688202 -2.74200487136841 11.2568473815918 7.36512660980225 16.9733180999756 6.55711555480957 -3.21475553512573 -3.08079648017883 -2.37560677528381 -2.31409955024719 -1.46601521968842 -2.34925723075867 -1.92414927482605 -1.04766833782196 -0.799767851829529 0.910581052303314 2.04239726066589 0.61194920539856 10.9452486038208 0.204435750842094 1.45181083679199 2.24841380119324 2.79212760925293 2.43353056907654 0.697463035583496 1.06434798240662 0.964726686477661 1.30110049247742 1.66659986972809 1.55666816234589 1.67390847206116 1.87849545478821 2.08956575393677 2.07303380966187 1.41025912761688 1.46894073486328 1.3152083158493 1.4694002866745 0.943201124668121 0.954626739025116 0.967134952545166 0.962818443775177 0.977447330951691 1.00985527038574 1.02925705909729 1.49998354911804 1.52413237094879 1.99259972572327 1.87741017341614 2.02603030204773 2.40764307975769 1.72790467739105 2.0655734539032 2.45388007164001 2.90469455718994 2.57769012451172 2.87395262718201 4.69875526428223 3.59746718406677 3.31416416168213 3.59292554855347 3.5027003288269 1.81308746337891 1.85705673694611 1.91003513336182 2.55975985527039 2.5773937702179 3.51985120773315 3.94751906394958 3.45913124084473 6.78855991363525 8.77122497558594 10.8733587265015 12.8573608398438 5.12126111984253 5.94519853591919 6.04521131515503 5.97041416168213 6.53489780426025 7.04731798171997 6.56957340240479 5.68430089950562 5.46237993240356 8.32267761230469 4.01619386672974 3.21473264694214 3.01334667205811 3.19177651405334 2.59417128562927 2.70367884635925 2.73760437965393 3.52328586578369 3.67536973953247 3.93414711952209 3.89214754104614 3.61455321311951 3.24467492103577 2.9219696521759 2.14845752716064 2.79791259765625 2.72512197494507 2.38072299957275 2.44771885871887 2.69353842735291 1.66934370994568 0.879561483860016 1.89251828193665 3.92991423606873 1.96267175674438 4.03343152999878 2.26194405555725 2.49213647842407 0.996364772319794 0.150441408157349 0.149828061461449 0.186697423458099 0.253158628940582 0.342469692230225 0.400190860033035 0.438642650842667 0.569509148597717 1.55966091156006 2.85929656028748 2.87738108634949 3.39766192436218 3.90055322647095 4.15584802627563 5.89886856079102 14.8335056304932 4.18966484069824 7.74162340164185 16.2722015380859 9.8632984161377 20.6141376495361 5.87144756317139 20.3020515441895 4.98238372802734 6.24754285812378 12.8653202056885 19.2261695861816 12.191309928894
2.26727080345154 -4.12233543395996 -1.72312104701996 -4.21096897125244 -4.04769659042358 -3.51498651504517 4.50324535369873 10.2521371841431 -3.36942625045776 5.09295320510864 -3.72502112388611 -3.50807809829712 -3.57803130149841 6.08657169342041 -3.65324544906616 11.9893884658813 10.1939220428467 -3.99216890335083 -2.6860032081604 -1.04003942012787 -4.30414485931396 7.18844795227051 -4.36435461044312 -4.28774881362915 -4.0498685836792 -3.95587348937988 -3.96484804153442 -3.83292388916016 -3.73684811592102 -3.73920869827271 -3.87222146987915 -3.50771927833557 -3.53852915763855 -2.83574247360229 -2.75835561752319 9.9419584274292 22.4415988922119 -2.47799968719482 -2.77935171127319 -1.15062499046326 -2.89707684516907 -2.61274790763855 -2.54422926902771 -2.2172589302063 -2.18530631065369 -1.14378869533539 -1.13174533843994 -0.952547669410706 5.81646490097046 7.60495042800903 1.22053837776184 0.981733024120331 0.938188016414642 2.19518899917603 1.1415581703186 2.37075471878052 2.2758629322052 3.00103759765625 2.64432883262634 0.809421837329865 1.54309165477753 1.0501275062561 1.39235746860504 1.77970814704895 1.68327975273132 2.11884999275208 2.36620020866394 2.20365333557129 2.21303510665894 2.22569465637207 2.58094096183777 1.50716376304626 0.990050256252289 1.00658559799194 1.01159930229187 1.02660644054413 1.03799057006836 1.05811142921448 1.43437242507935 2.00784087181091 1.64163744449615 1.67684352397919 2.17585587501526 2.02652716636658 2.14097023010254 2.53217792510986 1.63207900524139 2.18684601783752 2.564857006073 3.0196647644043 2.69543743133545 2.99147200584412 4.91857194900513 3.57521176338196 3.4822199344635 3.78279876708984 1.83482432365417 1.88912451267242 3.00525403022766 3.05398392677307 2.63770532608032 2.78002953529358 3.62451457977295 4.07232189178467 3.56802463531494 13.6077041625977 16.8654937744141 6.83636140823364 5.22538042068481 5.30918788909912 10.0088300704956 6.30958795547485 6.29321908950806 11.9520492553711 9.56900310516357 6.16249799728394 5.69678354263306 12.2143201828003 5.31967449188232 3.74710154533386 4.18375158309937 3.88911557197571 3.31615734100342 2.87535119056702 2.88769578933716 2.81722354888916 3.6299467086792 3.77824378013611 4.04780530929565 4.01241636276245 3.7180163860321 3.24133062362671 3.01391625404358 2.22922372817993 3.75186491012573 3.49388456344604 2.88007712364197 2.52920246124268 3.20659375190735 2.12226033210754 0.940484464168549 2.17604160308838 4.46851539611816 3.3157811164856 4.66787147521973 2.80169677734375 2.06236124038696 0.181860387325287 0.193195328116417 0.17926724255085 0.211755573749542 0.275860488414764 0.353535681962967 0.412451148033142 0.51548159122467 1.31869947910309 2.32383799552917 2.92625451087952 3.51369881629944 3.82644248008728 4.14542531967163 4.35358667373657 7.70518112182617 6.63915014266968 7.91742849349976 19.4863452911377 18.0049839019775 5.58693218231201 4.98323345184326 28.2326488494873 11.370903968811 21.2014846801758 7.22086811065674 8.90966701507568 5.55925607681274
-1.26458632946014 -0.0987181812524796 1.88039720058441 -4.11611366271973 -4.18184280395508 -3.60591554641724 -2.89140582084656 -1.98926627635956 -3.37834858894348 -3.31689524650574 -3.72249817848206 -3.67290830612183 -2.52205586433411 -3.30142116546631 -3.41584634780884 -0.0896425247192383 9.36403942108154 -2.21987724304199 -3.49144244194031 -1.91040122509003 0.454477727413177 -3.8762423992157 -4.03667211532593 -3.94753623008728 -3.37270426750183 -3.63016986846924 -3.61818408966064 -3.33498096466064 -3.01003503799438 -2.9769127368927 -2.90163230895996 -2.90897417068481 -2.3490936756134 -0.634009718894958 -2.18361353874207 19.617467880249 3.14407873153687 -2.67779397964478 -0.693356513977051 -2.43390679359436 -2.45294165611267 -2.08034658432007 -1.93375253677368 -1.90125131607056 -1.60037684440613 -1.78891289234161 4.96218872070312 -0.957844197750092 0.691971480846405 1.31838190555573 1.19703590869904 1.35956192016602 1.86276209354401 0.746955990791321 2.46175360679626 1.29123163223267 2.60420608520508 3.18517470359802 2.32426047325134 2.8512270450592 0.861995995044708 1.6332072019577 1.14283502101898 1.49250733852386 1.88958477973938 1.79087901115417 2.22311186790466 2.48304533958435 2.35097718238831 2.37603545188904 2.36693501472473 2.72539973258972 1.68146026134491 1.07319462299347 1.08517265319824 1.09215247631073 1.10213994979858 1.1220064163208 1.96740162372589 2.09101796150208 2.17302346229553 1.78973233699799 2.21788144111633 1.99264311790466 2.18854331970215 2.59230470657349 1.87335896492004 1.72250556945801 2.27575850486755 2.66815781593323 3.14240121841431 2.81181406974792 3.22210216522217 5.17853832244873 3.76138138771057 3.90091633796692 3.81444835662842 3.16107439994812 2.92995023727417 3.1023805141449 3.13908004760742 2.71669268608093 3.2192542552948 3.7308361530304 4.20416069030762 15.196457862854 6.46875667572021 6.5666675567627 14.0953092575073 5.49411535263062 6.13806104660034 5.92788124084473 6.37033605575562 6.34170818328857 6.09869575500488 6.10299968719482 6.20621919631958 5.96857070922852 5.85288524627686 5.34813404083252 4.27849006652832 3.97088742256165 3.1610221862793 3.44919013977051 2.96053743362427 2.96876263618469 2.89810681343079 3.73573303222656 3.89339351654053 4.16984081268311 3.85185766220093 3.83002257347107 3.13646268844604 2.71159863471985 2.22229790687561 5.27172088623047 5.53149080276489 4.13526773452759 3.59211325645447 3.03475880622864 2.95737648010254 1.02566146850586 2.58280491828918 5.1912693977356 4.24631404876709 5.57991743087769 3.59632468223572 1.45685386657715 0.219592392444611 0.228283554315567 0.233818545937538 0.27891543507576 0.361518353223801 0.422425419092178 0.481467574834824 1.89864087104797 2.70117974281311 3.09258222579956 3.69899749755859 3.92311835289001 4.31230449676514 4.27398204803467 5.05521821975708 21.6751575469971 4.13999080657959 4.93550491333008 3.76706600189209 4.98476982116699 7.5131721496582 5.87743949890137 7.06108379364014 13.4182090759277 6.26460552215576 7.40305137634277 5.50875377655029
-3.8222439289093 6.0169529914856 -3.75374412536621 -3.99166560173035 -4.0124683380127 -3.36550974845886 -3.30520296096802 18.0906391143799 1.38137423992157 4.12309646606445 11.6820125579834 -3.44765543937683 -2.52950716018677 -3.21957516670227 6.92862367630005 16.4938411712646 3.53108668327332 -3.81999063491821 7.67418718338013 8.79809188842773 -1.6196620464325 2.15660762786865 -1.38114321231842 -2.10977149009705 -3.29918456077576 -2.05678296089172 -1.65004301071167 -0.604413628578186 -2.59975337982178 -2.57759261131287 -2.46458292007446 -2.70147466659546 -2.26243925094604 -0.629294097423553 -1.98681819438934 -1.93628513813019 -2.73619627952576 -1.64840483665466 -1.76543712615967 -2.05180525779724 -1.49210608005524 -1.52758800983429 -1.52465152740479 -1.56329929828644 -1.01558303833008 -1.00912797451019 17.5222072601318 -0.768706381320953 0.0816632136702538 1.25587046146393 2.06236362457275 1.9587310552597 2.82552456855774 2.74072504043579 2.64524173736572 1.9893946647644 1.96221876144409 2.85991764068604 3.39626288414001 2.9559919834137 2.05225658416748 0.982024610042572 1.72892320156097 2.1279149055481 3.02378463745117 2.75180816650391 3.00172400474548 2.8040783405304 2.62269973754883 2.4541711807251 2.13484883308411 2.50959753990173 2.86223816871643 1.77293395996094 1.14975690841675 1.15353715419769 1.16167974472046 1.19368004798889 1.89097082614899 2.1158983707428 2.24307823181152 2.31431174278259 1.89578008651733 2.32518887519836 2.16934251785278 2.28948783874512 2.69642615318298 1.9310462474823 2.30061197280884 2.69837284088135 3.18483471870422 2.58415222167969 3.20465874671936 5.33952379226685 4.05550050735474 3.76560401916504 4.12170124053955 4.07158327102661 3.26485633850098 3.01885604858398 3.19593143463135 3.23188900947571 3.21527695655823 3.31153035163879 4.26040363311768 3.36119222640991 8.26897621154785 13.5152912139893 5.06705856323242 4.95218753814697 10.3056144714355 6.36484909057617 6.45613718032837 6.62220191955566 6.74642276763916 6.59793615341187 6.38285160064697 6.46389818191528 6.46484422683716 6.58626413345337 6.08729648590088 4.46192407608032 4.13619184494019 3.52443981170654 3.04105520248413 3.04368233680725 3.22006034851074 3.7911741733551 3.957927942276 4.24001216888428 4.21271371841431 3.90320229530334 3.52664279937744 3.15805888175964 2.34022784233093 8.40534114837646 5.11953067779541 5.65574979782104 3.06415963172913 4.61313915252686 4.86813879013062 4.69546175003052 2.93465614318848 3.70468878746033 6.18715953826904 6.27557516098022 5.3274974822998 4.97657442092896 2.01384043693542 0.258548378944397 0.244879990816116 0.281292259693146 0.362331241369247 0.448077499866486 1.63618159294128 1.11413681507111 2.31620478630066 3.43859934806824 3.79273223876953 4.06760454177856 4.05236530303955 4.46178388595581 4.4168062210083 5.84724807739258 4.62172222137451 4.41731882095337 4.90481615066528 29.2883205413818 6.07844591140747 6.01735734939575 12.7874479293823 20.8228321075439 6.67372512817383 8.12476253509521 11.4942150115967
-1.74214434623718 8.09401226043701 -3.89270663261414 -3.64231300354004 -3.74689602851868 0.00790021196007729 0.260031670331955 5.0089282989502 -3.3587327003479 -3.05781221389771 -3.20208072662354 -3.47092700004578 -2.84429121017456 0.348729848861694 4.10238552093506 -2.87121105194092 -2.233234167099 -3.59344911575317 7.63958692550659 -2.72012066841125 -3.50415229797363 8.54640674591064 -3.54087448120117 -3.12174892425537 -3.23023867607117 -2.41017818450928 0.73023909330368 1.10194087028503 0.915302574634552 0.583915829658508 9.07418727874756 -2.30088639259338 -1.04518389701843 -0.314570844173431 14.2054929733276 2.39852142333984 4.92328453063965 -2.00119018554688 -1.10838067531586 3.34625101089478 6.42289590835571 -0.615640878677368 -0.663364768028259 9.54495334625244 -0.340921312570572 -0.752628445625305 -0.606020212173462 -0.673118531703949 0.216180294752121 1.12531876564026 1.65715539455414 3.04793906211853 3.05251169204712 3.05238437652588 3.00920748710632 2.90167355537415 1.71693539619446 2.97028970718384 2.89580488204956 3.65786957740784 3.17270612716675 1.53770983219147 2.24606370925903 2.54936909675598 2.79151749610901 3.63960409164429 3.5120689868927 3.27094435691833 3.15796446800232 2.78716087341309 2.63528776168823 2.26684474945068 2.64436960220337 2.99392199516296 1.96932947635651 1.21773421764374 1.22089171409607 1.26899385452271 1.34349572658539 2.03130722045898 2.23968100547791 2.35269045829773 2.4151074886322 1.91865468025208 2.41398310661316 2.25087022781372 2.36784791946411 2.79510807991028 2.00799775123596 2.39516115188599 2.8092200756073 3.30704379081726 2.98036193847656 3.34421539306641 5.63476610183716 4.07955026626587 3.99109125137329 4.39040470123291 4.34695959091187 3.36332273483276 3.10549283027649 3.28590512275696 3.32621216773987 3.29936051368713 3.90079236030579 4.29813528060913 3.80265498161316 3.54823017120361 4.21552038192749 4.61595392227173 6.06616735458374 10.802321434021 13.7418756484985 6.99101734161377 6.85828399658203 6.99292993545532 6.72945165634155 6.58364963531494 6.78009176254272 6.74041128158569 6.22717237472534 5.29715156555176 4.66552543640137 4.32059097290039 3.6595664024353 3.54596900939941 3.4561619758606 3.38213777542114 3.91896510124207 4.0889778137207 4.38608646392822 4.3614387512207 4.02591180801392 3.51334023475647 3.23444986343384 2.44177055358887 1.76025462150574 1.74510407447815 2.50575542449951 2.96505069732666 6.1658501625061 7.44300651550293 2.74589681625366 3.75493741035461 6.94486141204834 4.57267189025879 9.41502952575684 7.22106599807739 7.95853614807129 3.21342921257019 0.331151217222214 0.309502899646759 0.400308310985565 0.439473837614059 1.01321256160736 1.67107224464417 2.00560331344604 3.0128059387207 3.56570339202881 3.89092755317688 4.2089638710022 4.18882131576538 4.60156583786011 4.64973497390747 25.6631240844727 17.0078601837158 5.07874488830566 5.03784704208374 4.48722553253174 6.47728109359741 6.24260330200195 6.36896228790283 6.9985179901123 10.1386651992798 8.28790760040283
12.0841207504272 -0.344181537628174 -3.78362488746643 -3.61024332046509 -2.90041923522949 -2.65413904190063 18.03635597229 -2.79110240936279 -1.93158531188965 -2.67418932914734 -2.95252561569214 -2.90168690681458 -1.99223780632019 11.8762903213501 12.5028266906738 11.4985523223877 8.10189723968506 15.0785894393921 -1.33760488033295 -3.43270182609558 -3.47611379623413 -3.36122512817383 -3.61868190765381 -3.30721235275269 -2.85831022262573 -1.11451864242554 4.82086038589478 6.6694769859314 10.7472887039185 8.50028514862061 1.67558872699738 2.66523861885071 3.55575203895569 1.22255706787109 -0.950376749038696 -2.14351677894592 1.97405636310577 7.39461469650269 -1.20218908786774 10.6677856445312 11.6066255569458 -0.779769837856293 -0.525331497192383 -0.546757280826569 -0.93758636713028 -0.306256353855133 -0.72642320394516 -0.716483950614929 -0.075660802423954 1.49105644226074 1.84178161621094 2.92441201210022 3.29226756095886 3.19764637947083 2.81483435630798 3.22467470169067 3.08850479125977 1.68559098243713 3.22166967391968 3.79638195037842 2.81254005432129 3.3705427646637 1.93665313720703 2.65314626693726 2.75149750709534 3.56049966812134 3.80205655097961 3.73109292984009 3.43202376365662 3.31473302841187 2.80547881126404 2.80379390716553 2.69228410720825 3.04385805130005 2.35614967346191 2.0523464679718 1.322585105896 1.3720725774765 1.43104922771454 1.44991230964661 2.09942293167114 2.31462478637695 2.43411087989807 1.97031462192535 2.42272305488586 2.1703200340271 2.33288288116455 2.4587459564209 2.89944458007812 1.88181805610657 2.48442316055298 2.90881443023682 3.43392443656921 3.11099290847778 3.62098169326782 5.94408941268921 4.32718467712402 4.23726224899292 4.66643857955933 4.10657787322998 3.45367002487183 3.32826972007751 3.37278652191162 2.91152048110962 3.37673664093018 3.9795241355896 4.50743722915649 4.3324818611145 4.43585252761841 5.20275926589966 5.52008008956909 14.9602069854736 5.63617324829102 7.18494462966919 8.76977252960205 7.12116575241089 7.28005456924438 7.02835464477539 7.33109331130981 6.921706199646 7.03939580917358 6.5047492980957 4.83848476409912 4.88316822052002 4.52706527709961 3.82148909568787 3.61816692352295 3.52073240280151 3.46412754058838 4.06184053421021 4.2378249168396 4.53958463668823 4.17719984054565 4.15620756149292 3.37524199485779 2.98089623451233 2.54419851303101 2.75170159339905 1.84745562076569 3.45253396034241 3.4934709072113 5.42282676696777 1.30322277545929 1.99756705760956 4.57565450668335 8.52488899230957 13.4313869476318 7.81872367858887 12.3126096725464 6.46750736236572 0.433101624250412 0.388359278440475 0.324313670396805 0.424398005008698 1.12858974933624 1.33175647258759 1.95070171356201 2.66683864593506 3.50824928283691 3.68085503578186 4.0338659286499 4.34337282180786 4.41397285461426 4.7454719543457 7.74568319320679 4.89177799224854 5.78974771499634 6.48452425003052 7.72422790527344 7.69245147705078 8.93331527709961 8.50101566314697 9.95066452026367 8.48277282714844 14.3179531097412
4.50079202651978 -3.06726861000061 -3.19297385215759 -3.06234288215637 -2.7619948387146 1.15031266212463 20.0929718017578 -1.87941801548004 -2.47088527679443 -2.71249341964722 -2.38063669204712 -2.34768581390381 1.22051656246185 7.09419965744019 0.0132410312071443 20.2807674407959 7.97891139984131 5.96151208877563 5.11717510223389 6.60759925842285 -3.29753732681274 -3.31232333183289 -3.2393536567688 4.59167957305908 -1.95822763442993 3.08413219451904 9.01182174682617 12.9389553070068 6.42665767669678 20.3707275390625 14.6541805267334 0.0383920669555664 7.91082143783569 1.37547385692596 5.24870872497559 7.88918018341064 -1.63368189334869 -1.47453796863556 1.79234755039215 -0.79533326625824 -1.01583027839661 -1.10897588729858 -0.704076051712036 -0.259671002626419 -0.234429761767387 3.31146121025085 -0.19251549243927 -0.053672056645155 0.909253120422363 0.587246716022491 2.27017498016357 2.68456482887268 3.45374894142151 3.41744089126587 3.36630868911743 3.39083290100098 3.25847721099854 2.27342343330383 2.38089275360107 3.46584391593933 4.0628514289856 3.51663041114807 2.29651021957397 2.60178256034851 2.8475706577301 3.31361031532288 3.71956443786621 3.97762250900269 3.89357757568359 3.58586287498474 3.46529364585876 2.97733783721924 2.97046732902527 2.81795287132263 3.1729850769043 1.97844135761261 2.15652847290039 1.43471205234528 1.68016338348389 1.45578074455261 1.46426427364349 2.30082178115845 2.42110323905945 2.48871493339539 2.02808213233948 2.50360107421875 2.24974608421326 2.47423005104065 2.92860698699951 2.09853267669678 1.94215619564056 2.57460618019104 3.0259153842926 3.5856339931488 3.55763292312622 3.81810998916626 6.31802034378052 4.59957647323608 4.80843639373779 4.76860046386719 4.20873308181763 3.22430896759033 4.12924814224243 3.4599883556366 2.9825975894928 3.51467704772949 4.57932043075562 3.46981143951416 4.46397876739502 5.25287818908691 5.17032814025879 5.69934558868408 5.96516799926758 6.71163988113403 7.13522100448608 7.55851364135742 7.75493431091309 7.69933938980103 7.68334913253784 7.25352764129639 7.21094799041748 7.35669660568237 6.79384326934814 5.02196407318115 4.66605472564697 3.72144937515259 4.00123500823975 3.73802781105042 3.66136527061462 4.1396689414978 4.32102346420288 4.61699867248535 4.62339735031128 4.24446058273315 3.88218379020691 3.43967151641846 3.11145853996277 3.01062107086182 2.76102566719055 1.79942035675049 4.52956199645996 11.5691118240356 5.96684455871582 1.62830018997192 1.95923125743866 8.95523834228516 11.3197736740112 -0.311284244060516 10.6379642486572 -0.242014616727829 -0.0140261575579643 0.492485731840134 0.471673488616943 0.527327477931976 0.497115433216095 1.49270474910736 1.74036288261414 3.28601455688477 3.41334557533264 3.85620379447937 4.079514503479 4.25761747360229 4.49024820327759 4.84373998641968 4.81450414657593 13.1919755935669 6.77851676940918 7.36660861968994 10.5975122451782 10.7818183898926 9.30662441253662 14.3206195831299 12.1736822128296 11.4189367294312 19.2188320159912
-2.19124603271484 -2.27608346939087 -2.57154250144958 -2.71136069297791 -1.44606375694275 -1.6877748966217 3.55585932731628 -2.86546325683594 -2.16885948181152 4.0684380531311 -2.18703508377075 1.13474225997925 4.1616358757019 1.26030719280243 4.31810474395752 28.368860244751 4.99905490875244 -2.33118939399719 3.04819536209106 -3.08670616149902 -3.06552314758301 -3.00433492660522 -2.89870500564575 -2.73053908348083 -1.99660074710846 2.77003860473633 11.7965536117554 9.31877136230469 15.5850477218628 16.1212005615234 1.72332072257996 5.18896675109863 1.72336256504059 -1.95086658000946 -1.76777780056 4.09282541275024 -1.50098359584808 0.869235813617706 -1.04306077957153 -0.518680393695831 -0.150359362363815 -0.0438642948865891 0.792264819145203 3.18834781646729 3.4483425617218 5.95141983032227 0.71731299161911 0.301451951265335 1.16578984260559 7.97378349304199 10.373966217041 2.48032164573669 3.18999433517456 3.62769603729248 3.56209945678711 3.47077584266663 3.56039953231812 3.48778796195984 2.09231162071228 2.5711042881012 3.74417424201965 4.3692512512207 3.78444218635559 2.65769839286804 3.24055647850037 3.36561894416809 3.72552537918091 4.09813022613525 4.13767004013062 4.04851627349854 3.73834705352783 3.60917496681213 3.04244256019592 2.5535728931427 2.94587850570679 3.31210613250732 2.7413649559021 2.20938062667847 1.43773663043976 1.71481215953827 1.47235405445099 2.14198040962219 2.37312602996826 2.49261283874512 2.56394124031067 2.0300600528717 2.58330011367798 2.41651487350464 2.55391216278076 3.02454876899719 2.16163277626038 2.59119582176208 3.06818532943726 3.63084959983826 3.31081366539001 3.759521484375 6.54359722137451 4.89527225494385 4.62775659561157 5.12109708786011 5.09416770935059 4.32434558868408 3.30917191505432 4.22692489624023 4.19354581832886 3.66531419754028 4.1613974571228 4.71355247497559 4.06392288208008 4.53127098083496 5.32461309432983 5.70936632156372 5.82009744644165 6.85190343856812 7.2138786315918 7.45325183868408 7.87848711013794 8.09012889862061 8.05931568145752 8.04598617553711 7.56625413894653 7.56557989120483 7.70049428939819 7.11467599868774 5.28848457336426 4.90646171569824 4.12632179260254 3.97117853164673 3.88376712799072 3.75863409042358 4.29106378555298 4.50206661224365 4.78773927688599 4.76509666442871 4.3932409286499 4.02558088302612 3.58592224121094 3.0638062953949 3.86562156677246 2.40002536773682 1.55586194992065 5.37182235717773 0.95723283290863 1.24096751213074 2.38736128807068 8.50585269927979 5.19207096099854 12.3294906616211 15.9452657699585 -0.214054480195045 -0.16584649682045 0.601214289665222 0.521812438964844 0.333272665739059 1.32029163837433 1.12858664989471 2.11074542999268 2.98332118988037 3.92037296295166 4.03943490982056 4.45737600326538 4.27928781509399 4.57887172698975 4.5732216835022 5.07657623291016 5.23551559448242 8.61403751373291 7.68721151351929 9.91035938262939 13.2965326309204 9.57830905914307 21.6929779052734 15.8694343566895 10.3760442733765 25.8924694061279
1.4479923248291 3.2352831363678 -1.59006559848785 -2.02471089363098 -1.683997631073 3.33369183540344 15.4717836380005 8.26420211791992 -2.2180118560791 -1.49891448020935 -1.5301718711853 2.32110738754272 1.60267019271851 -1.0507048368454 6.91887998580933 10.5955562591553 -2.96182537078857 -0.472874492406845 3.64629459381104 -2.51161527633667 -1.62926757335663 -2.78011441230774 -2.75642132759094 -2.5912024974823 0.738642036914825 1.95610737800598 3.17547535896301 21.6366500854492 19.1308422088623 11.1584138870239 -0.837534129619598 2.2582221031189 3.87718319892883 2.35141587257385 14.277361869812 -1.40633010864258 -1.37493336200714 -1.15745615959167 -1.20245242118835 -1.00464248657227 -0.230272009968758 1.40844464302063 9.39872646331787 12.286768913269 3.05514192581177 4.85562038421631 2.96019887924194 7.07408666610718 13.5354127883911 13.1879196166992 19.4862213134766 2.40872573852539 2.74569940567017 3.40320944786072 3.70753788948059 3.56686568260193 3.16086673736572 3.77322602272034 3.74132513999939 2.09303092956543 3.95291924476624 3.89673328399658 4.75219297409058 4.12225961685181 3.02532863616943 3.3814799785614 3.62799739837646 3.86131596565247 4.24338483810425 4.1085376739502 4.20493459701538 3.68051600456238 3.22010278701782 3.20045757293701 2.99607086181641 3.33572816848755 2.99064993858337 2.81099581718445 2.10659790039062 1.47255086898804 2.40093946456909 2.27546095848083 2.20934677124023 2.43769860267639 2.56095194816589 2.07385206222534 2.12324333190918 2.66108226776123 2.48305559158325 2.63010692596436 3.12325119972229 2.22398161888123 2.70123600959778 3.19906067848206 3.79761600494385 3.48415541648865 3.9713773727417 6.98883104324341 5.04959726333618 4.91506814956665 5.47536659240723 5.48037195205688 4.43488883972168 3.55867481231689 4.33435297012329 4.66334962844849 3.74828433990479 4.27670383453369 4.81614017486572 4.09326028823853 4.58038854598999 5.41052103042603 5.84599542617798 6.89005613327026 7.05915355682373 7.65396070480347 8.36481094360352 8.20419406890869 8.45088481903076 8.26913642883301 8.17560005187988 7.93101453781128 7.92220211029053 7.32153558731079 6.19919061660767 5.56987762451172 5.16612577438354 4.36410140991211 3.94394993782043 3.85370421409607 3.76208400726318 4.45825862884521 4.64006185531616 4.98015975952148 4.96276903152466 4.55496215820312 3.99775552749634 3.72203636169434 4.05247735977173 5.64486742019653 2.75708985328674 5.96455335617065 9.8340368270874 1.63434708118439 3.11293029785156 0.167936906218529 -0.264553964138031 14.5307092666626 -0.0621469095349312 -0.692679405212402 0.135155081748962 0.142300724983215 0.204624533653259 0.786492049694061 1.34648668766022 1.52942907810211 2.23512554168701 2.98328995704651 3.41349911689758 4.06478357315063 4.6098256111145 4.59911966323853 4.56197214126587 4.74542856216431 4.86703729629517 5.65149259567261 7.27905130386353 16.9687671661377 10.7925119400024 21.7244243621826 21.8422679901123 8.98354148864746 10.0839490890503 10.6034498214722 12.7078895568848
-2.44062995910645 -1.63002049922943 -1.09513592720032 0.610876381397247 1.74011361598969 9.6124324798584 0.239573568105698 3.85242819786072 -1.97469747066498 -1.12471747398376 -0.811223387718201 3.76447248458862 4.43477582931519 9.70483493804932 14.2262392044067 9.4338493347168 -0.81338757276535 -1.9645357131958 7.45964527130127 15.2683620452881 6.13372945785522 -2.47521829605103 -2.50549149513245 -2.2604455947876 -1.00769102573395 4.90406513214111 18.324125289917 27.3262271881104 16.6150875091553 5.04737234115601 2.50222635269165 2.18674850463867 3.80639338493347 -1.81294500827789 3.56690883636475 -1.45540904998779 -0.543756544589996 7.27377843856812 -0.759500503540039 -0.589610517024994 0.104984812438488 6.100341796875 20.4685535430908 1.01554036140442 0.597817003726959 7.69134283065796 27.0909576416016 30.2219181060791 24.1926116943359 12.9184818267822 21.1307315826416 1.60461246967316 2.68169474601746 3.05940318107605 3.82447600364685 3.76092004776001 3.69401001930237 3.92549133300781 3.53448510169983 4.00579071044922 2.24769043922424 4.31592464447021 4.98258781433105 3.85510492324829 4.48151540756226 3.1408269405365 3.74101901054382 3.78093957901001 4.10291910171509 4.38771343231201 4.27225542068481 3.95540547370911 3.82089567184448 3.38243818283081 3.34425354003906 3.08350300788879 3.44482636451721 2.45589351654053 2.87759208679199 2.15559267997742 1.89402651786804 2.45648121833801 2.33841037750244 2.4255588054657 2.54584884643555 2.61446356773376 2.52234077453613 2.64364528656006 2.35439300537109 2.55650901794434 2.74844193458557 3.22198700904846 2.22358727455139 3.16134810447693 3.32722735404968 3.97008347511292 3.66055917739868 4.37603759765625 7.48991680145264 5.38812494277954 5.24430274963379 5.86667680740356 4.48457145690918 4.27959203720093 4.30587196350098 4.65254831314087 4.77649831771851 4.11600208282471 4.37001466751099 4.91330766677856 4.64060020446777 5.45145988464355 5.39712953567505 6.02836513519287 7.16203355789185 7.35078001022339 8.67896270751953 8.72894096374512 8.56227779388428 8.83724975585938 8.67105293273926 8.55258560180664 8.16895866394043 8.32207012176514 7.70934343338013 5.76950836181641 5.34856176376343 4.32487487792969 4.58480548858643 4.08167791366577 4.00290584564209 3.87468481063843 4.65282297134399 4.84832143783569 5.18844604492188 4.77086782455444 4.74684190750122 3.91034579277039 3.75310277938843 5.23625087738037 8.52604675292969 3.74029088020325 7.02188205718994 1.56420946121216 6.41379976272583 2.78689932823181 2.60496163368225 -0.05054996535182 -0.788630366325378 0.0784147083759308 0.62189257144928 0.403435230255127 0.250159293413162 0.343454658985138 0.815064907073975 1.63993299007416 1.58975183963776 3.16218852996826 3.75761771202087 4.2933292388916 4.54366779327393 4.75733327865601 4.7502875328064 4.8397855758667 5.19976472854614 6.07088375091553 5.56773853302002 26.4385948181152 17.4936447143555 21.9919700622559 11.9133043289185 23.1226596832275 14.2777500152588 16.3759613037109 18.4559726715088
-2.54164528846741 -2.14065027236938 -1.4772857427597 -0.573961496353149 -1.17484962940216 13.6972732543945 -1.65276265144348 -0.150990679860115 -1.83669900894165 -1.1640659570694 4.56961250305176 2.2423996925354 6.69614219665527 6.70095157623291 -1.4492484331131 -1.67324721813202 -1.73708188533783 -1.05212450027466 15.0461349487305 -2.39156365394592 -2.53094434738159 -2.4111762046814 -2.35522365570068 -2.09962892532349 -1.90848696231842 4.9349799156189 15.9782400131226 3.90239000320435 0.0348663702607155 -2.41309285163879 -2.66451263427734 1.15009593963623 -2.47155618667603 -2.22701454162598 -1.45159661769867 -1.22706651687622 12.2859086990356 3.62737107276917 -0.618007898330688 4.24181604385376 1.29469764232635 2.98850464820862 2.30577778816223 0.18239463865757 17.6750011444092 31.5520114898682 21.0783081054688 3.11747527122498 1.0137380361557 5.70001840591431 3.03770685195923 1.18291556835175 1.83208537101746 2.76443862915039 3.49303126335144 3.93760776519775 3.89771914482117 3.83715009689331 4.16137456893921 4.20203733444214 2.69569325447083 3.15293765068054 4.7426929473877 5.43139457702637 4.68903541564941 3.27082133293152 3.56896066665649 3.87560558319092 3.90714740753174 4.25116300582886 4.54690837860107 4.43711185455322 4.10521936416626 3.95656967163086 3.52893042564392 3.48221969604492 3.18384218215942 3.55076122283936 2.56441640853882 2.95707249641418 2.6400465965271 2.89403748512268 2.52462291717529 2.38274693489075 2.47996377944946 2.59801077842712 2.67792105674744 2.3532600402832 2.69154381752014 2.5374801158905 2.7087619304657 3.18851661682129 3.30720734596252 3.25791621208191 3.54128289222717 3.99442005157471 3.44204878807068 4.24904251098633 4.63162565231323 8.04259777069092 5.75924253463745 6.04956579208374 6.12531518936157 4.59022378921509 4.31128168106079 4.69037055969238 4.76619577407837 4.9153265953064 4.26145076751709 5.02479600906372 3.74948668479919 4.80413484573364 5.63151931762695 5.56497430801392 6.25734853744507 7.4865517616272 8.852219581604 8.5162353515625 9.14871120452881 9.08187294006348 9.14076900482178 9.12304973602295 8.5515022277832 8.60317230224609 8.7814769744873 8.13084030151367 6.11370897293091 5.67782545089722 4.74886512756348 4.35618734359741 4.24489498138428 4.30211544036865 4.77123737335205 4.97281694412231 5.32715272903442 5.31669807434082 4.87574481964111 4.48212385177612 3.97974705696106 5.30659580230713 13.4752607345581 8.54599857330322 6.06074523925781 10.2338733673096 7.04385662078857 7.96082782745361 4.53944253921509 -0.0619776658713818 0.0603069923818111 0.151995703577995 0.142971560359001 0.171270757913589 0.467365950345993 0.58949089050293 1.47743237018585 1.88272666931152 1.69975900650024 2.32366514205933 3.27738475799561 3.99397802352905 4.43581581115723 4.68796539306641 4.9094705581665 4.90095376968384 5.01400375366211 5.3567943572998 6.90034580230713 6.80947160720825 5.50623893737793 7.88401937484741 16.6971416473389 15.2509841918945 25.4664402008057 30.9476490020752 12.6633329391479
-2.28554153442383 -1.50413119792938 -1.28999197483063 -0.769335985183716 17.2907619476318 2.99251556396484 8.52251052856445 -1.2885023355484 -1.46909022331238 -0.764773845672607 -0.94719934463501 -0.894134879112244 9.58455657958984 8.10481357574463 8.97647285461426 0.32221856713295 8.90682315826416 -1.58360409736633 -1.68765556812286 -1.99080693721771 -2.32580852508545 -1.77460920810699 -1.90956389904022 -1.63443219661713 6.39255142211914 -1.67807173728943 20.5923118591309 9.83179664611816 5.52231645584106 -2.36071395874023 -1.99740397930145 -2.40709567070007 -2.53830623626709 -1.35342943668365 -1.40405786037445 -0.522116839885712 20.2383136749268 -0.325812548398972 -0.337370008230209 -0.205502182245255 -0.0881865471601486 4.27427816390991 11.6013011932373 26.0087738037109 28.4772186279297 12.5679779052734 0.441990256309509 28.5611000061035 3.28166174888611 10.748706817627 9.49088764190674 12.9843454360962 2.83363461494446 2.73056793212891 3.02226901054382 3.59040904045105 4.07504844665527 4.04723119735718 3.98874258995056 4.42160749435425 4.52787113189697 2.70200085639954 3.43420362472534 5.23331737518311 5.948317527771 5.10084247589111 3.50245308876038 3.71552848815918 4.00761651992798 4.22661018371582 4.64423418045044 4.49942064285278 4.58795356750488 4.01418876647949 3.62768816947937 3.55324840545654 2.87748980522156 3.27992105484009 3.66868424415588 3.34482574462891 3.40775370597839 3.45821976661682 3.34962558746338 2.80356955528259 2.42817544937134 2.53712821006775 2.66025185585022 2.71195149421692 2.18959808349609 2.76810908317566 2.568687915802 2.70748257637024 3.28012633323669 3.39031744003296 3.62628483772278 3.6128363609314 4.15635538101196 3.86592268943787 4.49018478393555 8.33890914916992 6.05291366577148 5.72995805740356 6.50487899780273 6.63897848129272 4.69287347793579 4.69429588317871 4.80267333984375 4.87839221954346 5.02451753616333 4.57908010482788 5.19039678573608 4.4171576499939 5.01002979278564 5.85799503326416 6.34483337402344 6.55808210372925 7.86181974411011 9.31250190734863 9.39723587036133 9.33112812042236 9.54246425628662 9.43106555938721 9.23459720611572 9.01520919799805 9.07857990264893 8.39694595336914 7.08571147918701 6.50891637802124 6.04094743728638 5.04681253433228 4.3410816192627 4.50107717514038 4.28013944625854 4.9937744140625 5.19484567642212 5.56081819534302 5.57489252090454 5.13656044006348 4.69984817504883 4.39641952514648 13.5743503570557 2.07303786277771 4.35467195510864 5.39250755310059 16.1132659912109 3.00201773643494 1.83993005752563 0.0696966350078583 0.540163636207581 0.152286261320114 0.171101734042168 0.219946265220642 0.288970440626144 0.502256214618683 0.606459379196167 1.72803092002869 1.96330118179321 1.76631832122803 2.39841914176941 3.37670660018921 4.12751770019531 4.58399820327759 4.83602046966553 5.06978416442871 5.04650926589966 5.20511960983276 5.91923666000366 8.01180553436279 18.776891708374 7.32404088973999 12.6729364395142 7.9882116317749 9.86577796936035 11.2019786834717 11.2754859924316
-2.05236601829529 -1.95742297172546 -1.44562137126923 -0.0790330246090889 2.09756684303284 -0.256543308496475 -1.2710428237915 -1.10378420352936 -0.75665408372879 -0.838097989559174 -0.608222126960754 -0.763854622840881 7.11292219161987 3.65851211547852 15.648609161377 0.44667175412178 5.81994104385376 -1.06236398220062 -1.20840704441071 -1.16343140602112 -1.51736259460449 -1.54959392547607 -1.39844393730164 -1.15826272964478 -1.05653166770935 -1.72229588031769 19.470911026001 5.17290210723877 -2.385094165802 0.0288505330681801 8.58810424804688 -2.41080331802368 -2.04944705963135 -1.36607050895691 -0.927889347076416 -0.364585846662521 3.54417729377747 -1.09033381938934 -0.284885436296463 4.57937240600586 3.10289072990417 2.50157904624939 26.3100605010986 30.7997798919678 3.17414426803589 2.10497665405273 1.35791277885437 8.37364768981934 37.3262367248535 24.6424694061279 2.18508315086365 6.02248620986938 3.06327891349792 2.9168689250946 2.93963193893433 3.09310340881348 3.85737323760986 4.22547483444214 4.09835338592529 3.65676283836365 4.72030782699585 4.90453910827637 2.77470374107361 5.51049470901489 5.66607904434204 6.53331327438354 5.55159997940063 3.61692595481873 3.85169386863708 4.14361572265625 4.50852632522583 4.81145668029785 4.6533727645874 4.29726934432983 4.13724613189697 3.74533629417419 3.69475960731506 3.33035945892334 3.71645450592041 3.31828308105469 3.43292760848999 3.49447679519653 3.536292552948 3.65747666358948 2.86256814002991 2.35298681259155 2.60230612754822 2.69410467147827 2.13035988807678 2.19696569442749 2.81224060058594 2.60507559776306 3.08590245246887 3.37370133399963 3.43964004516602 3.68567872047424 3.81151127815247 4.33566570281982 4.06505107879639 4.72449111938477 8.9963264465332 6.28978300094604 6.16220140457153 7.07078266143799 5.01446390151978 4.93480730056763 5.19139051437378 4.98216009140015 5.06522750854492 5.14923000335693 4.73666286468506 5.40061569213867 4.5958776473999 5.25746965408325 6.13745355606079 6.67870092391968 8.00270748138428 8.19499206542969 9.8255729675293 9.87451457977295 9.74529457092285 10.0479602813721 9.97303676605225 9.72683238983154 9.43053913116455 9.60114765167236 8.88419628143311 6.8023157119751 6.94998693466187 6.44094562530518 5.36048269271851 4.66462802886963 4.84359931945801 4.66480255126953 5.21921920776367 5.43093013763428 5.80904006958008 5.83056020736694 5.3312840461731 5.10771989822388 13.2473583221436 2.66617608070374 2.18961238861084 2.87160038948059 26.046215057373 16.9873199462891 10.6379232406616 -0.0401649288833141 0.913079977035522 0.168994888663292 0.205175265669823 0.265635460615158 0.329794079065323 0.417615324258804 0.623152554035187 1.95427238941193 1.79593110084534 2.03523230552673 1.82658588886261 2.51234340667725 3.48439073562622 4.263756275177 4.74263334274292 5.1708984375 5.16816091537476 5.11046314239502 5.41055488586426 6.72737407684326 9.47283267974854 7.31591844558716 14.9171781539917 5.80155849456787 9.36097049713135 4.4392261505127 12.1401824951172
3.16762685775757 -1.2691193819046 -1.54146444797516 -0.185082986950874 0.470720559358597 -0.11739044636488 -0.0559442639350891 -0.420960038900375 -0.520706355571747 -0.377435386180878 -0.531183063983917 -0.566775560379028 4.98853874206543 3.63110208511353 -1.16427934169769 -1.36025106906891 11.1418437957764 -1.26204395294189 -0.985059499740601 -0.999275982379913 -0.915753245353699 -0.813641011714935 -0.892189204692841 1.05581116676331 -0.792779862880707 -1.02581107616425 -1.34738802909851 -2.21610474586487 -2.36355042457581 -1.52961122989655 -2.33315920829773 -2.32903027534485 -1.79087448120117 -1.64700150489807 -1.22457146644592 -0.230308592319489 2.12384915351868 -0.380559384822845 3.63035011291504 4.60200643539429 17.2607040405273 28.630033493042 27.3181705474854 2.85389828681946 0.557883083820343 8.3388843536377 10.2204208374023 34.2085609436035 1.47053253650665 1.92769277095795 29.9689788818359 5.39590978622437 5.43367624282837 3.64531207084656 2.79132699966431 3.00101900100708 3.45288014411926 4.36184358596802 4.34864282608032 4.27801990509033 4.92460107803345 4.5293984413147 5.36315202713013 3.04703068733215 6.15255689620972 6.88501691818237 5.51673030853271 6.05202436447144 3.73314905166626 4.21369218826294 4.2477068901062 4.66235733032227 4.97155141830444 4.79355955123901 4.42831945419312 4.25818204879761 3.88962578773499 3.83368444442749 3.43205642700195 3.84388589859009 3.6959490776062 3.514404296875 3.60581302642822 4.02491807937622 3.74090003967285 2.92415308952332 2.58279299736023 2.69213795661926 2.75626587867737 2.17693400382996 2.79044818878174 3.27198314666748 3.19163036346436 3.36082768440247 3.34885835647583 3.49157166481018 3.73012471199036 3.86399555206299 4.4904351234436 4.35959196090698 5.29772567749023 9.87670135498047 6.91715717315674 7.36024570465088 7.63317680358887 5.14466381072998 5.23555898666382 5.3147292137146 5.10184526443481 5.21032285690308 5.28598880767822 5.17300510406494 5.62292242050171 5.40744352340698 6.28328609466553 6.28815507888794 7.02901458740234 8.46190738677979 10.089542388916 9.60624408721924 10.3989248275757 10.3764524459839 10.6246480941772 10.603853225708 9.8739128112793 10.0182771682739 10.1913003921509 9.4336109161377 7.22391796112061 6.70160913467407 5.48917531967163 5.71286582946777 5.00885152816772 5.22899675369263 4.71166467666626 5.45197534561157 5.67552423477173 6.07504415512085 6.25963163375854 5.56867837905884 5.84032821655273 3.49911451339722 2.52337980270386 4.09016418457031 5.29665040969849 0.26422181725502 1.73406291007996 -0.0450641214847565 6.6597146987915 1.14025354385376 0.268596559762955 0.331004917621613 0.378334909677505 0.487492561340332 1.7789648771286 1.22251582145691 2.02435612678528 1.85492563247681 2.0990469455719 1.88906514644623 3.54637932777405 4.22171640396118 4.82410621643066 5.08910894393921 5.34565258026123 5.35827875137329 5.41603803634644 6.367347240448 10.6854047775269 17.6034755706787 9.66719150543213 21.7935810089111 17.6842956542969 4.48364782333374 13.0722141265869
-2.40633130073547 -2.59302067756653 -1.02416563034058 -0.515673220157623 0.126680359244347 0.916130125522614 1.74304163455963 0.380529254674911 -0.29582467675209 0.0957747548818588 -0.372428208589554 -0.501292765140533 -0.0682631954550743 8.15327644348145 -0.454621106386185 6.72050189971924 -1.21833312511444 -1.17683243751526 -0.721536219120026 -0.786244869232178 -0.532166421413422 -0.441552877426147 -0.587843894958496 -0.681897103786469 -0.906150579452515 -0.54271936416626 -0.722608268260956 -1.25106072425842 -1.69706058502197 -1.94612741470337 -2.14514803886414 -1.66371357440948 -1.48526048660278 -1.3561989068985 -0.875342428684235 1.61420238018036 1.91103708744049 -0.437105506658554 9.32092952728271 9.98273086547852 32.0205535888672 20.5472526550293 0.637337446212769 3.42808771133423 1.17774283885956 38.5590286254883 37.6880187988281 4.70960474014282 2.86743211746216 1.67349314689636 10.6012115478516 25.7339553833008 2.98602867126465 4.80677700042725 3.75105285644531 2.73526191711426 3.08893942832947 3.96605753898621 4.55154132843018 4.54239749908447 4.4742865562439 5.32031154632568 5.67328262329102 3.35325980186462 4.39621639251709 7.25743818283081 7.61962032318115 6.37048149108887 3.71611356735229 4.05685806274414 4.34210443496704 4.59024047851562 5.00428342819214 5.1228404045105 4.93947505950928 4.56609582901001 4.38002252578735 3.88700199127197 3.73596954345703 3.83063817024231 3.97265267372131 3.77387690544128 3.93232989311218 3.87062406539917 4.1170859336853 3.82319211959839 2.9663302898407 2.6341609954834 2.75503778457642 2.834397315979 2.9434027671814 3.16287231445312 3.39200019836426 3.22864437103271 3.55990767478943 3.44059133529663 3.54020237922668 3.89847779273987 4.44765138626099 4.40927505493164 5.06286811828613 10.3751449584961 7.34350490570068 6.91860198974609 8.15557098388672 8.76750946044922 5.24476146697998 5.36290597915649 5.46340227127075 5.24078035354614 5.36410999298096 5.45586919784546 5.75275087356567 4.2527379989624 5.67425584793091 6.56762504577637 6.61848163604736 7.45517349243164 9.00287342071533 10.7226533889771 10.706335067749 10.8161668777466 10.9737567901611 11.31578540802 11.3316402435303 10.4981317520142 10.6671733856201 10.8632678985596 10.0549697875977 7.75940418243408 7.19633626937866 5.94396114349365 4.99034595489502 5.41200160980225 5.6731219291687 5.61313152313232 5.84618377685547 6.25584268569946 6.50619316101074 7.23549175262451 6.44187784194946 4.70981121063232 3.77345609664917 5.39736318588257 11.5903749465942 6.50566720962524 -0.582617282867432 -0.410566478967667 0.178252413868904 5.29392242431641 0.296712964773178 0.398191183805466 0.503501236438751 0.598328232765198 0.731251955032349 1.82664811611176 1.26402175426483 2.09115147590637 2.14383625984192 1.92835342884064 2.61386513710022 3.67521739006042 4.49186706542969 4.99209117889404 5.26190376281738 5.52986097335815 5.50623035430908 5.75019216537476 8.08319473266602 13.5032749176025 12.4167404174805 17.234806060791 23.8698558807373 16.620979309082 4.65066719055176
-1.86310112476349 -2.22717308998108 -1.23265981674194 -0.793145656585693 -0.024909345433116 0.937089741230011 1.42849147319794 1.53185856342316 1.22212862968445 0.378067791461945 0.27325239777565 0.369944185018539 1.3070467710495 0.712972283363342 -0.732309997081757 -0.770672738552094 -0.92158830165863 -0.681412518024445 -0.30032029747963 -0.344178438186646 -0.364327698945999 -0.342712491750717 -0.146913677453995 -0.461027562618256 -0.219228282570839 -0.310358494520187 -0.555433571338654 -0.76107132434845 -1.09953212738037 -1.23110198974609 -1.06054151058197 -1.30563068389893 -1.03564035892487 0.0347219817340374 -0.445864140987396 0.673364520072937 -0.117275670170784 6.68260860443115 2.97799897193909 15.026177406311 21.4734363555908 0.0611564517021179 9.1914119720459 37.9004058837891 32.5466194152832 7.45835161209106 0.63483190536499 1.03094947338104 2.66157245635986 1.87663614749908 5.25047159194946 1.7848002910614 39.2650985717773 18.4810924530029 5.05993890762329 3.27971839904785 3.45306658744812 3.44296336174011 4.13343381881714 4.75954627990723 4.76384830474854 4.70510244369507 5.76521730422974 6.27141427993774 3.69931697845459 7.36309671401978 8.61249923706055 8.42897033691406 6.96104717254639 3.90023636817932 4.17583465576172 4.44595718383789 4.69982624053955 5.20900249481201 5.01471900939941 5.09457588195801 4.42783737182617 4.1009259223938 4.05242300033569 4.23118877410889 4.12819194793701 4.5576696395874 4.61071157455444 4.41489362716675 4.33122205734253 4.21047735214233 3.89529418945312 2.77880644798279 2.69537734985352 3.18786358833313 2.91058778762817 2.97306036949158 3.19463443756104 3.43643379211426 3.5815269947052 3.60851407051086 3.69555997848511 3.8102331161499 3.98655009269714 4.71213102340698 4.59160041809082 5.45628690719604 11.538067817688 7.87448024749756 7.78346300125122 9.41075325012207 10.2005701065063 5.37466382980347 5.50463962554932 5.59923362731934 5.43304777145386 5.50781297683716 6.0521674156189 5.9865198135376 5.10558080673218 5.98243188858032 6.89146518707275 7.60078525543213 9.24306678771973 9.42217826843262 11.3914432525635 11.3045816421509 11.5180721282959 11.7627382278442 11.7749271392822 11.3188524246216 11.1805772781372 11.2901887893677 10.4558134078979 8.76947212219238 8.37977027893066 7.7741265296936 6.45689678192139 5.19674348831177 5.96785974502563 5.91537046432495 5.88214921951294 6.13898944854736 6.84035158157349 7.68994331359863 8.63927364349365 7.68402719497681 6.29622840881348 4.04977130889893 2.50645089149475 2.45687675476074 11.9990358352661 8.54603672027588 0.285769253969193 -0.0574552454054356 0.203949421644211 0.36040386557579 0.487181186676025 0.605133950710297 0.727938532829285 0.833654463291168 1.88354158401489 1.30437445640564 2.1587221622467 2.21649575233459 1.99882900714874 2.7555935382843 3.80730652809143 4.64442873001099 5.17256546020508 5.6465311050415 5.66530752182007 5.57970333099365 5.99969577789307 11.0640296936035 24.2562141418457 5.89138889312744 25.5240592956543 4.53641414642334 4.50476026535034
-1.32036066055298 -1.81488609313965 -2.05398941040039 -0.465513348579407 0.323348134756088 0.943196535110474 2.18267798423767 2.61857628822327 3.44943690299988 2.51848483085632 0.898648321628571 1.4301483631134 1.77585303783417 2.63580679893494 11.8760776519775 0.133751332759857 0.0602860264480114 -0.305067718029022 -0.225978821516037 0.272102981805801 -0.164239391684532 -0.112640537321568 -0.334335952997208 0.138058423995972 -0.161745741963387 0.162067428231239 0.524775087833405 -0.478595405817032 -0.463669806718826 -0.589695334434509 -0.423331946134567 0.555532157421112 1.5143461227417 14.0510272979736 8.48024272918701 0.194499164819717 -0.355345457792282 29.6420021057129 25.0044708251953 5.09423112869263 15.687891960144 36.9966735839844 39.0254554748535 11.843936920166 2.7424590587616 7.11158275604248 6.35392999649048 8.42347621917725 10.0404329299927 12.3134107589722 14.5975570678711 4.97016906738281 2.10666394233704 2.09716653823853 26.319881439209 4.35005187988281 3.57126545906067 3.57559514045715 3.61520791053772 4.56033134460449 4.99058246612549 4.86994791030884 5.0700535774231 6.27868747711182 7.02162408828735 4.1138129234314 9.43922424316406 8.87971973419189 7.34195041656494 7.59767484664917 3.98106980323792 4.48793792724609 4.50454092025757 5.01197195053101 5.38623094558716 5.16918706893921 4.76769733428955 4.57209873199463 4.28467845916748 4.45166683197021 4.7281174659729 4.5988655090332 4.66618680953979 4.72149801254272 4.52351236343384 4.42500066757202 4.29843139648438 3.71683406829834 2.48789024353027 2.76686525344849 3.23909687995911 3.34448957443237 3.32248067855835 3.47959995269775 3.67390108108521 3.75181818008423 4.0673656463623 4.07471513748169 4.22995948791504 4.61606073379517 5.03712701797485 5.17623472213745 6.31731176376343 13.0821838378906 8.97522258758545 8.85099124908447 11.1812162399292 5.50021171569824 5.52576351165771 5.64579582214355 5.41381120681763 5.5760612487793 5.64286231994629 6.85343790054321 6.27657747268677 6.09681081771851 6.12693881988525 7.27022075653076 8.04072570800781 9.81998348236084 9.97017383575439 12.1162538528442 12.032431602478 12.0273761749268 12.6526947021484 12.6329488754272 12.0497913360596 11.8991861343384 12.1157341003418 11.2132720947266 8.92115211486816 9.10274600982666 8.4467658996582 6.89759731292725 6.19414615631104 6.46766519546509 6.14311838150024 6.6650767326355 7.6520299911499 8.66781997680664 9.70368671417236 8.62807655334473 8.5627269744873 8.17472839355469 4.43899726867676 3.70901465415955 3.253009557724 0.833695769309998 0.549302339553833 0.636911630630493 0.0299062374979258 0.362354964017868 0.45183801651001 0.53930538892746 0.619378507137299 0.742858469486237 0.852102816104889 1.94105207920074 2.18510413169861 2.00999283790588 2.2912700176239 2.06485795974731 3.88453793525696 4.62303161621094 5.2763409614563 5.56383991241455 5.85504817962646 5.8809757232666 5.90985536575317 6.33882474899292 20.4987850189209 14.0261669158936 18.8239059448242 4.32425689697266 4.73949766159058
-0.79040515422821 -0.256798297166824 -1.23255717754364 -0.921909153461456 0.277727723121643 1.67079198360443 2.54891157150269 2.93567228317261 3.79181098937988 3.19312596321106 2.48527908325195 1.9878842830658 2.27989149093628 2.45597553253174 17.7661571502686 0.562303960323334 0.773576259613037 0.494256883859634 -0.123807340860367 -0.115742795169353 0.492042750120163 1.02126371860504 1.11126112937927 5.15460824966431 3.39317297935486 1.5571014881134 10.5811262130737 8.09767055511475 12.2924699783325 -0.423856556415558 -0.383239507675171 7.15750408172607 0.644247174263 39.2898941040039 37.6971702575684 26.2040748596191 24.8760623931885 0.0170445367693901 0.834226489067078 9.97425746917725 40.3561058044434 4.6270751953125 4.86804819107056 2.26657128334045 13.6239719390869 3.81484436988831 1.86968517303467 11.5981245040894 12.5206890106201 18.8191452026367 8.06622409820557 2.02934646606445 2.11441397666931 6.67938709259033 2.01680898666382 25.661226272583 4.86628103256226 3.65909790992737 3.71742701530457 4.16484260559082 5.18405532836914 5.20861864089966 5.19709396362305 6.64625692367554 7.52239608764648 4.42633295059204 5.58504104614258 11.578893661499 10.1637439727783 8.37682723999023 3.93944549560547 4.22633981704712 4.58370590209961 4.61873626708984 5.16283702850342 5.55494117736816 5.33558034896851 4.92043733596802 4.71973371505737 4.5125527381897 4.60475969314575 4.84401178359985 4.71066284179688 4.78169107437134 4.84108972549438 4.61968278884888 4.5217981338501 4.07858467102051 3.09555792808533 2.75640439987183 3.42429447174072 3.639324426651 3.39212965965271 3.4797260761261 3.83980512619019 3.89234328269958 4.18156242370605 4.47890138626099 4.68506526947021 4.91942358016968 5.07045984268188 5.34020948410034 6.03943300247192 7.04183959960938 15.4947271347046 10.3499431610107 12.0394697189331 13.8070621490479 5.57547569274902 5.6792516708374 5.77688074111938 5.53937435150146 5.72734689712524 5.26025867462158 7.9197998046875 4.58838605880737 6.48615121841431 7.39361810684204 7.57498979568481 8.53731060028076 10.398157119751 12.5375471115112 11.7901802062988 12.8387098312378 12.9145021438599 13.6516609191895 13.6281471252441 12.4652519226074 12.8314437866211 13.0610074996948 12.0995140075684 9.58553981781006 8.89078044891357 7.47205829620361 7.45676898956299 7.0348162651062 7.24792718887329 7.15484142303467 7.70196104049683 9.77546501159668 11.0272197723389 12.3258275985718 11.0143165588379 9.21027851104736 5.81594371795654 4.57449340820312 4.35645198822021 1.61936318874359 1.90478539466858 1.32600843906403 0.918993890285492 0.363350450992584 0.416804730892181 0.477375686168671 0.557637393474579 0.63262277841568 0.765016734600067 1.96567332744598 1.50008940696716 2.24991512298584 2.32316970825195 2.10828757286072 2.85931038856506 4.03182697296143 4.91212892532349 5.47223091125488 5.76633453369141 6.07817935943604 6.11604166030884 6.12690544128418 27.1018333435059 25.4218006134033 11.5166101455688 5.5007438659668 5.08988666534424
0.410394757986069 0.484265148639679 9.48233413696289 -0.900939345359802 1.14344847202301 7.83212947845459 2.20530843734741 2.9006233215332 3.27775549888611 4.24725723266602 3.66748523712158 2.94883561134338 2.42526483535767 2.8408567905426 20.3485794067383 0.892921566963196 1.03644752502441 1.44970405101776 2.10133457183838 0.637020528316498 1.54780721664429 4.0463228225708 5.55970907211304 8.52330780029297 7.13756990432739 11.9357414245605 8.64749908447266 37.642448425293 38.3616333007812 28.6684513092041 25.8160076141357 30.6010208129883 27.631649017334 30.4538688659668 -0.483047991991043 -0.350207805633545 5.5770092010498 7.05585145950317 37.5521354675293 0.113540425896645 3.94618487358093 2.27056646347046 1.58414828777313 8.73863697052002 3.54347681999207 0.0535328425467014 2.26980519294739 10.4360828399658 17.6987590789795 4.3083028793335 0.649400115013123 1.75989758968353 2.75855898857117 2.21301484107971 2.28914022445679 2.06545662879944 7.61351776123047 4.41201591491699 3.58172106742859 3.84537172317505 4.76754426956177 5.45179414749146 5.68775606155396 5.55397844314575 7.3446946144104 8.47930431365967 5.12952375411987 6.12764072418213 15.1644735336304 13.0462875366211 9.2289400100708 4.07462692260742 4.40469551086426 4.69512891769409 5.00756120681763 5.51530456542969 5.75606250762939 5.51622343063354 5.0996241569519 4.90532875061035 4.62772083282471 4.88218212127686 5.01961851119995 5.19904184341431 4.89981174468994 4.95136642456055 4.73606586456299 4.64235544204712 4.1220326423645 3.04304766654968 3.15071487426758 3.46598482131958 3.70188045501709 3.45487499237061 3.91081190109253 4.18302822113037 4.24505662918091 4.50324678421021 4.79859447479248 4.92053604125977 5.05899143218994 5.33272409439087 5.25666332244873 6.78927898406982 16.8146800994873 11.2334909439087 11.1353616714478 14.8565464019775 18.4404678344727 5.69764041900635 5.81273984909058 5.91437578201294 5.68474578857422 5.90539503097534 8.57912349700928 6.74803924560547 5.763831615448 6.89859914779663 7.75187063217163 8.61254978179932 8.99353218078613 11.0688705444336 13.4597568511963 13.2693214416504 13.8518886566162 13.8517599105835 14.7786417007446 14.7767686843872 13.4422292709351 13.9182300567627 14.1668367385864 13.1194944381714 10.5351886749268 9.75977039337158 8.27827644348145 6.50344753265381 8.17212677001953 8.41675090789795 8.52585792541504 9.17069625854492 13.4408893585205 15.0949821472168 16.8650379180908 15.0605173110962 11.7530040740967 5.50842714309692 4.58298063278198 4.85529184341431 2.04085540771484 1.83600914478302 1.53576827049255 1.01574623584747 0.418647289276123 0.474207818508148 0.520585715770721 0.574185252189636 0.657073438167572 0.799293637275696 2.03198099136353 1.38658511638641 2.47429227828979 2.41636848449707 2.19550704956055 2.96401977539062 4.18585920333862 5.09166955947876 5.68326759338379 5.9849591255188 6.32252216339111 6.29078245162964 15.279595375061 5.71098136901855 5.15534830093384 6.31702280044556 5.72283029556274
0.608721971511841 2.35538792610168 1.72880971431732 -0.364693254232407 7.16569995880127 15.4418916702271 2.43679785728455 2.45669293403625 3.42213225364685 3.65779399871826 4.75968647003174 4.15573120117188 3.41888189315796 2.83580660820007 3.33023881912231 1.62031066417694 4.04003953933716 4.66085863113403 4.68547248840332 8.23784828186035 6.00370502471924 7.91316366195679 7.21190357208252 8.95457935333252 12.26819896698 8.36009883880615 21.6811676025391 34.1693344116211 -0.13963209092617 -0.364530384540558 4.03584241867065 6.43039417266846 2.12642455101013 3.53821301460266 2.15135526657104 7.91631555557251 40.4156188964844 0.267448157072067 0.331394881010056 2.45181703567505 0.137063920497894 -0.0926242619752884 4.52197408676147 0.386420160531998 0.0643561780452728 -0.0407936312258244 2.22635293006897 2.62343811988831 1.11962103843689 -0.0592077001929283 0.629870772361755 1.66766107082367 2.05725741386414 2.89153909683228 5.69467210769653 5.08187484741211 2.16687226295471 8.85597610473633 4.92597198486328 3.94325590133667 4.14445304870605 5.31889820098877 5.76634073257446 6.54065418243408 8.1145191192627 8.27445507049561 9.68401908874512 6.15572834014893 11.7938556671143 22.6025619506836 19.3112144470215 9.76571369171143 4.15528726577759 4.51769781112671 4.8243522644043 5.17522048950195 5.85465288162231 5.61850309371948 5.72830009460449 4.99031066894531 4.9074125289917 4.86693716049194 5.00598430633545 5.14368152618408 5.32815265655518 5.01351118087769 5.03546905517578 4.69202518463135 4.5755352973938 3.92892289161682 3.1264762878418 3.78755974769592 3.5270631313324 3.76510214805603 3.51655268669128 4.13108539581299 4.40771245956421 4.73463535308838 4.66410160064697 4.92211771011353 5.02109050750732 5.15328025817871 5.72967529296875 5.83340883255005 7.74944448471069 20.1441535949707 13.3800497055054 12.8539123535156 19.1065330505371 26.6900444030762 5.72475242614746 5.93317842483521 5.71082258224487 5.95973539352417 6.04542684555054 10.7003002166748 7.23631954193115 6.40560293197632 7.3252534866333 8.14986228942871 9.10569953918457 11.4035205841064 11.7429161071777 14.5108909606934 14.2533273696899 15.0285377502441 15.5166215896606 15.5039730072021 14.729133605957 14.6328077316284 14.8834562301636 13.7694597244263 11.4325866699219 11.6692600250244 10.8314733505249 10.8981456756592 8.07183742523193 9.72996997833252 10.0233907699585 10.2990522384644 11.0366973876953 21.0501098632812 23.4908542633057 26.0617809295654 23.4990539550781 16.1381549835205 6.14705324172974 5.20316648483276 5.36717748641968 2.34709739685059 2.23740243911743 1.0662145614624 0.687949359416962 0.478201895952225 0.523184359073639 0.57088828086853 0.671703994274139 2.0509147644043 1.62842464447021 2.09515190124512 2.36324620246887 2.58728194236755 2.51252174377441 2.28277635574341 3.16076922416687 4.35173940658569 5.28744888305664 5.90420246124268 6.46228981018066 6.5187840461731 6.5646014213562 6.28091669082642 38.365650177002 21.3091583251953 6.79198217391968
0.957644820213318 3.07421922683716 1.41009843349457 2.34349370002747 6.59237670898438 9.02539348602295 1.22095704078674 2.54637312889099 3.35432267189026 3.83162713050842 4.07256031036377 5.31989479064941 4.63572359085083 3.17288136482239 2.68560743331909 3.78890872001648 4.34063053131104 5.54891729354858 6.52843236923218 10.4587268829346 8.36051368713379 9.72024726867676 8.87483406066895 7.91943311691284 12.7194175720215 18.079833984375 34.6638259887695 17.0357322692871 0.631713807582855 10.6207809448242 12.3684997558594 1.39100456237793 0.748018383979797 0.0920599400997162 36.1439895629883 0.0673223212361336 0.0597688555717468 0.0492102913558483 0.296688228845596 7.96891307830811 2.32866907119751 0.198981881141663 -0.060605127364397 -0.127831131219864 -0.0547614879906178 0.0949515998363495 1.69064819812775 -0.101411268115044 0.0411736965179443 0.398223310709 0.0923810377717018 0.714782774448395 1.73863077163696 4.11170721054077 4.32780599594116 9.73430252075195 3.46780180931091 21.6969566345215 7.80454158782959 4.90846061706543 4.06721019744873 4.82068920135498 6.00153970718384 6.58078527450562 7.59645652770996 10.2240056991577 10.3037328720093 11.2257223129272 7.80359220504761 32.5200042724609 27.6312217712402 14.3309526443481 11.2723398208618 4.25177383422852 4.88912773132324 4.95670795440674 5.61043834686279 6.10125970840454 5.85940885543823 5.42192506790161 5.22810792922974 5.27124691009521 5.20962905883789 5.17221593856812 5.27930927276611 5.474928855896 5.1304497718811 5.18687915802002 4.82539319992065 4.33657598495483 3.26319026947021 3.17894959449768 3.86431860923767 3.59956645965576 3.85053157806396 3.57534027099609 4.20609664916992 4.49492883682251 4.84660911560059 4.80016279220581 5.04260683059692 5.1423544883728 5.27582502365112 6.24421215057373 6.42192602157593 9.1032657623291 26.0274658203125 17.263219833374 16.3926391601562 36.0421562194824 5.88785362243652 5.91348791122437 6.05998086929321 5.84088277816772 6.10188150405884 6.23383140563965 14.0208806991577 10.4338407516479 9.57796478271484 8.31888389587402 8.64826202392578 9.72429275512695 12.2914476394653 12.7069234848022 15.7506628036499 15.7130889892578 15.6590957641602 16.9950675964355 16.9755535125732 15.6216459274292 15.9372673034668 15.9915351867676 14.9873208999634 12.3276100158691 11.4697866439819 10.0057344436646 17.1930027008057 10.9258337020874 14.453465461731 13.5519580841064 13.926155090332 31.3392448425293 34.5087471008301 37.6153907775879 34.4116744995117 25.8832836151123 24.997932434082 5.92382478713989 5.93102836608887 2.17797803878784 2.81337952613831 2.68324685096741 1.15259218215942 0.479826480150223 0.520805358886719 0.581501424312592 2.24286723136902 2.44697046279907 2.37351560592651 2.57520771026611 2.6729462146759 2.80955600738525 2.8713071346283 2.90271091461182 2.84402441978455 4.45239067077637 5.29854536056519 6.04791641235352 6.37005472183228 6.74237632751465 6.79723215103149 6.93666076660156 7.37502479553223 5.55141115188599 5.75316381454468
1.24432563781738 1.2001850605011 3.65103626251221 1.57816410064697 2.55095767974854 14.8210830688477 0.115678198635578 1.97901403903961 2.88463544845581 3.68566012382507 4.22799158096313 5.58018159866333 4.75646448135376 3.96804094314575 3.50827479362488 4.44178104400635 4.94793510437012 5.37998628616333 6.74340343475342 8.03448963165283 13.6989593505859 9.42663478851318 13.0656080245972 12.298789024353 10.8833675384521 18.0533256530762 28.8282070159912 1.28770542144775 24.4751739501953 12.0437335968018 2.45967578887939 0.0478285402059555 37.6521987915039 10.3982887268066 0.161084800958633 7.27762794494629 0.127470806241035 0.198247134685516 0.0926543474197388 0.451489508152008 0.30800125002861 0.368271023035049 1.67660784721375 1.30149662494659 0.106914006173611 0.233198776841164 0.229372262954712 0.217859551310539 0.347306251525879 0.194388523697853 0.294973880052567 3.74422788619995 1.92919254302979 1.8882908821106 2.18720126152039 2.26151776313782 2.31136059761047 7.80334854125977 22.0768203735352 8.53469085693359 3.91300201416016 4.20215177536011 5.50049734115601 6.33170700073242 8.36601638793945 8.8837194442749 13.5739288330078 13.5373487472534 11.4443016052246 11.1974220275879 6.17430734634399 10.4162263870239 21.3706665039062 4.24571657180786 4.57876586914062 5.03622245788574 5.118323802948 5.84672403335571 6.379310131073 6.13760185241699 5.68694114685059 5.47104930877686 5.6715235710144 5.6008563041687 5.32718181610107 5.43799448013306 5.63569927215576 5.33832883834839 5.07851505279541 4.97052812576294 4.40988540649414 3.34441828727722 3.44028902053833 3.95066022872925 3.97259712219238 3.79167938232422 3.66462254524231 4.29762744903564 4.62053346633911 4.99150466918945 4.90783739089966 5.13311672210693 5.25758361816406 6.53577280044556 5.68800830841064 8.4313497543335 10.7198266983032 36.8588829040527 25.0821094512939 36.3644828796387 4.34932661056519 5.90073347091675 6.03920459747314 6.19904184341431 5.9911847114563 6.27424383163452 7.54857492446899 20.5179481506348 11.9554510116577 7.33672189712524 8.70003890991211 9.10396099090576 10.3983860015869 13.9301147460938 16.3225574493408 15.6568660736084 17.0756301879883 17.2122192382812 18.7000465393066 18.6087303161621 16.4887638092041 17.296257019043 18.7759952545166 18.1383056640625 15.3899755477905 12.9529209136963 25.7686729431152 10.6685962677002 22.1399784088135 20.7926578521729 21.3704509735107 26.344539642334 6.45953464508057 6.20951890945435 5.07189750671387 4.79390335083008 36.281623840332 7.47445631027222 6.0302906036377 6.96330738067627 2.52162909507751 3.37872982025146 2.25932574272156 1.24096310138702 0.525001347064972 0.583793878555298 2.18704128265381 2.42723345756531 2.56964659690857 2.44922542572021 2.65137720108032 2.75456023216248 2.89030766487122 2.95678067207336 2.99311208724976 3.26902675628662 4.6400032043457 5.62298536300659 6.29921865463257 6.63569736480713 7.03230142593384 7.12192058563232 7.63808012008667 7.74384641647339 7.50304698944092
1.36484801769257 1.39336609840393 1.34497046470642 4.26955556869507 1.60821759700775 3.01765155792236 -0.815646469593048 2.07858037948608 3.10912036895752 3.00782299041748 4.07684469223022 4.55602169036865 6.15746068954468 5.63668632507324 4.83152008056641 4.24421644210815 5.06069183349609 5.78602123260498 6.22962427139282 9.18244171142578 9.08826160430908 18.954460144043 12.4003410339355 18.4101886749268 17.24094581604 15.3391017913818 41.6473426818848 22.1451358795166 18.8927516937256 0.851237177848816 36.3867416381836 0.207531675696373 0.492181122303009 3.21928262710571 4.64226770401001 3.33455157279968 0.0109391212463379 1.38607287406921 1.26859724521637 0.899907648563385 0.717962324619293 0.751318156719208 0.552720248699188 0.381549745798111 0.388444632291794 0.770771622657776 1.27185928821564 3.68691349029541 2.47797870635986 2.31408405303955 17.9334125518799 3.37142109870911 0.804968535900116 1.71995377540588 2.38105463981628 2.45811176300049 2.70489096641541 3.85183358192444 2.68585991859436 23.7258358001709 7.44558334350586 4.32330226898193 4.75053071975708 5.80055809020996 6.68705654144287 11.0819673538208 9.53818130493164 20.2747402191162 20.1352100372314 8.55448627471924 7.93719863891602 36.0884132385254 29.8158340454102 23.9053249359131 4.39688158035278 4.87009143829346 5.20043706893921 5.63318538665771 6.50576877593994 6.2737922668457 6.3917875289917 5.57058620452881 5.85367822647095 5.8070650100708 5.35189533233643 5.51699876785278 5.72617149353027 5.41472148895264 5.39860677719116 5.02665138244629 4.90563249588013 4.52518463134766 3.29732275009155 3.50239276885986 4.03525304794312 4.04640483856201 3.87697219848633 4.17284727096558 4.47265005111694 4.70040130615234 5.06834077835083 5.15807104110718 5.29091691970825 5.68701124191284 6.97801733016968 7.07544803619385 9.85698223114014 48.0063667297363 33.6545829772949 32.5800552368164 4.17178344726562 6.01421928405762 6.04437685012817 6.1972918510437 6.36801099777222 6.1502251625061 6.41268014907837 27.9883327484131 7.14284086227417 6.01790761947632 8.32394218444824 9.18392086029053 10.3503351211548 11.0401611328125 18.1042308807373 17.617259979248 17.0741806030273 18.6286811828613 19.5599193572998 19.3529872894287 18.0337772369385 20.3238887786865 20.3178520202637 27.5516929626465 27.3299465179443 24.0245532989502 22.1879577636719 8.50320816040039 12.2452459335327 10.361496925354 11.5252408981323 13.2459564208984 11.6342744827271 6.72525310516357 6.33029890060425 5.50914859771729 4.7932391166687 3.98951482772827 8.69635772705078 6.94007635116577 8.29165649414062 3.78961110115051 3.88454294204712 2.67848920822144 1.35298204421997 0.582395017147064 2.38367676734924 2.2482168674469 2.50004434585571 2.64866709709167 2.52058172225952 2.73571705818176 2.83717656135559 2.9815936088562 3.04648160934448 3.0835108757019 3.40290307998657 4.84218645095825 5.85762023925781 6.56691884994507 6.91498708724976 7.35053300857544 7.53373289108276 8.07364845275879 8.14843463897705
