NCOLS 174
NROWS 32
XLLCORNER 353984
YLLCORNER 6700080
CELLSIZE 16 
NODATA_value -3.4e+38 
2.87739491462708 1.49687099456787 1.97266018390656 2.52633237838745 3.80241179466248 2.86096382141113 2.98396730422974 2.84066390991211 2.1569197177887 1.28965437412262 1.14366269111633 0.935248255729675 0.795510530471802 1.43947267532349 1.3427220582962 1.67767584323883 2.02467465400696 0.835915327072144 8.77094841003418 31.7437171936035 22.3312168121338 2.80444383621216 2.80378246307373 3.27978992462158 3.11317157745361 3.05075454711914 3.31824636459351 2.66478157043457 2.36464405059814 2.20462799072266 2.09512615203857 1.91108739376068 1.79721617698669 1.71741485595703 1.63479733467102 1.5763396024704 1.46325087547302 1.35635209083557 1.29233598709106 1.23032093048096 1.15554070472717 1.09405624866486 1.00264179706573 0.945161759853363 0.910255968570709 0.843518078327179 0.77139413356781 0.614172339439392 0.409816324710846 1.7835009098053 2.00906181335449 1.76911008358002 2.69773173332214 1.8999650478363 2.0017421245575 3.10194182395935 3.00147366523743 4.6354546546936 5.07310962677002 4.85079526901245 4.71762609481812 4.35878992080688 3.16848826408386 2.08533430099487 1.61753821372986 1.51073229312897 1.24818170070648 0.930199861526489 0.997145891189575 2.52276515960693 5.20737218856812 1.16513741016388 1.23286557197571 0.891566336154938 0.340299129486084 2.47438287734985 8.12194442749023 1.05702435970306 18.3467788696289 12.2645320892334 10.2209453582764 8.99903964996338 4.81882619857788 19.026538848877 7.12936019897461 0.352872401475906 0.963946104049683 2.00417423248291 12.2949628829956 12.5338134765625 9.7423677444458 3.92077922821045 0.834539830684662 0.764782309532166 8.47651958465576 12.2629117965698 9.15281295776367 2.23105025291443 0.67061573266983 7.99826622009277 3.18721961975098 16.2022933959961 12.2592620849609 15.1171731948853 9.24187088012695 0.487259447574615 3.18035173416138 -0.627323746681213 -1.19937682151794 -1.85256016254425 -1.97643649578094 -1.5491156578064 -1.29476475715637 0.853244781494141 1.87819743156433 5.26308298110962 5.33327150344849 6.63492679595947 13.6722545623779 10.6694631576538 0.453985124826431 3.16366529464722 -0.364345550537109 -1.15137732028961 -1.41336584091187 -1.70480668544769 -1.73795342445374 -1.35230267047882 -1.73732769489288 -1.67507910728455 2.28147077560425 -2.73216438293457 -2.67458128929138 -2.38185977935791 -2.12563610076904 3.38110661506653 5.08418273925781 6.69463634490967 14.9445838928223 14.1690540313721 8.99109554290771 10.8564748764038 8.59842586517334 40.2080726623535 29.3469429016113 4.16774082183838 5.1237359046936 5.01005363464355 5.08055973052979 5.1486382484436 2.02936339378357 3.02334880828857 1.4657154083252 5.32101249694824 5.12349796295166 3.94950103759766 2.93314218521118 2.41022181510925 1.62882208824158 1.20096945762634 2.53554725646973 4.28274917602539 5.06329345703125 4.85725212097168 4.9179482460022 5.21683740615845 5.04648447036743 4.03959608078003 3.61618876457214 3.1753237247467 2.78285002708435 2.64182162284851 2.43711638450623 2.29698610305786
2.20853018760681 2.71648716926575 2.62958693504333 2.91522026062012 3.30024719238281 3.34758615493774 2.66449427604675 2.33091068267822 1.38105666637421 1.13438928127289 1.03047204017639 1.74866580963135 1.57139265537262 1.88553428649902 2.17986583709717 2.07978820800781 2.14502096176147 0.967817902565002 1.2144079208374 2.89298605918884 3.30073833465576 3.54470086097717 3.28165245056152 3.65531420707703 5.01193046569824 3.85270690917969 3.02558159828186 2.87150478363037 2.54288554191589 2.37831234931946 2.20692420005798 2.03393411636353 1.95523977279663 1.82366347312927 1.71792769432068 1.60286605358124 1.4964907169342 1.45509910583496 1.3763724565506 1.27083027362823 1.2162811756134 1.15195429325104 1.08296811580658 1.02107310295105 0.966511070728302 0.934611201286316 0.866840898990631 2.46176934242249 2.48302221298218 2.28274130821228 2.56518220901489 2.88658380508423 2.74248313903809 3.01346182823181 3.24898862838745 2.87554597854614 2.54038333892822 2.46789932250977 3.31557393074036 5.08315086364746 5.0341739654541 4.67937707901001 2.4271240234375 3.01096057891846 2.38711404800415 1.79305016994476 1.13550651073456 5.95131826400757 1.91509020328522 2.20067477226257 1.51079857349396 1.77473199367523 1.35446441173553 0.933431565761566 0.703568875789642 -0.485922455787659 3.4906542301178 4.40643262863159 18.6841621398926 29.9894428253174 14.712366104126 11.0663366317749 -1.13038492202759 6.29244422912598 4.0118260383606 3.52730655670166 2.62641644477844 -0.145733043551445 1.19070506095886 1.25865638256073 1.0527708530426 0.935447156429291 3.22445917129517 0.924743950366974 10.6165199279785 12.5824756622314 1.60993111133575 10.8677988052368 4.17833137512207 38.2839736938477 19.1927623748779 22.0547943115234 20.9371776580811 23.9339351654053 22.6983108520508 15.9163436889648 9.75448608398438 3.52021336555481 0.378462642431259 -0.808182179927826 -1.21190059185028 -0.831816077232361 -0.74553769826889 0.11478378623724 1.85228753089905 6.52974796295166 10.7551565170288 22.5513591766357 17.5784912109375 9.29958724975586 10.1871471405029 -0.644165694713593 -0.927461504936218 -1.03354132175446 -1.83776485919952 -1.72398614883423 -1.4001796245575 0.355354875326157 -1.90736496448517 -2.30971813201904 -2.46480751037598 -2.18583011627197 -1.93219196796417 -1.75202167034149 -1.88751721382141 -1.76175558567047 1.97150158882141 7.57970476150513 16.9813003540039 21.9332981109619 18.3769683837891 14.4437313079834 -0.69797283411026 6.37208127975464 9.81017303466797 8.13144779205322 7.18230390548706 6.68289613723755 6.28522157669067 3.47237610816956 3.4588463306427 6.2235255241394 5.99329948425293 4.68965768814087 3.53430795669556 3.41440916061401 2.1511332988739 1.34244501590729 0.518840312957764 0.731823921203613 1.45727586746216 3.468022108078 4.36534881591797 4.36548852920532 3.98672842979431 4.0874547958374 3.98347592353821 3.86336779594421 3.5116012096405 3.15115237236023 2.74393486976624 2.51218914985657 2.30320334434509 2.25357222557068
2.86331510543823 3.15235090255737 3.09270977973938 3.4221613407135 2.8647928237915 2.73142147064209 1.67543876171112 1.51405107975006 1.26581466197968 1.02727687358856 1.94492638111115 2.25759220123291 2.53384399414062 2.38021159172058 2.36620903015137 2.62284159660339 2.5337598323822 2.12853693962097 2.41145396232605 2.40377283096313 3.08929753303528 4.01380491256714 4.02605056762695 2.61151146888733 3.35799837112427 3.71845459938049 3.05794978141785 3.04791855812073 2.69766306877136 2.5652961730957 2.43238353729248 2.22866988182068 2.0447473526001 1.8739823102951 1.75906240940094 1.64616596698761 1.57082295417786 1.49093949794769 1.46098804473877 1.39241182804108 1.31247782707214 1.26359117031097 1.17397570610046 1.08971726894379 1.04412925243378 0.992397129535675 2.93781971931458 2.80801916122437 3.12637853622437 3.36091184616089 3.1961841583252 3.36022710800171 3.6206431388855 3.4814624786377 2.89281678199768 2.60355687141418 2.48402047157288 5.47538185119629 5.16493940353394 5.28212833404541 4.58367013931274 4.23207855224609 3.08636116981506 3.51282429695129 2.50410580635071 1.63716983795166 1.11975204944611 1.50247812271118 7.34793901443481 1.80892217159271 5.3231315612793 1.451256275177 3.43975710868835 1.26902031898499 0.489708781242371 -0.487577080726624 2.14002346992493 0.988069891929626 0.780574440956116 28.1938743591309 1.25052988529205 19.730899810791 6.45160627365112 12.6365623474121 4.45979928970337 10.827844619751 5.73127317428589 1.66552770137787 1.57715666294098 1.06285917758942 1.06717395782471 6.11078548431396 11.6088132858276 0.0981575101613998 1.96769106388092 3.26738405227661 2.20000505447388 1.9857189655304 -1.13696336746216 20.1752796173096 0.630969762802124 12.2145214080811 32.3306732177734 23.872802734375 30.7177295684814 20.0646800994873 12.1605272293091 9.09601497650146 0.97277170419693 0.526927292346954 -0.271746188402176 -0.762664616107941 -0.770178914070129 -0.661562740802765 -0.325343251228333 2.56341433525085 20.6576709747314 21.6159420013428 20.0761260986328 18.890775680542 15.4442949295044 1.90647125244141 -1.52143788337708 -1.58507072925568 -1.4956476688385 -1.61696445941925 1.34558534622192 1.58683300018311 -1.18673014640808 -1.46644687652588 -1.62387180328369 -1.28852880001068 -1.62901592254639 -1.27636051177979 -1.64080190658569 -2.13562297821045 -1.72125291824341 4.2513689994812 31.2114944458008 24.8885307312012 9.13499736785889 7.17609596252441 4.92104768753052 1.44149959087372 14.5375957489014 11.2488241195679 8.59484958648682 3.99429535865784 3.9604115486145 1.83249187469482 6.8512020111084 5.47657632827759 4.07217502593994 3.95580220222473 2.73371243476868 1.88087809085846 1.76858043670654 0.827847898006439 0.779671251773834 0.709283471107483 0.326095908880234 2.22175145149231 3.52724862098694 3.88196420669556 3.87921547889709 3.52498459815979 3.42292928695679 3.26570177078247 3.20985078811646 3.23715138435364 2.74225759506226 2.47778415679932 2.43709540367126 2.51229906082153
3.32340168952942 3.73248934745789 3.65949201583862 2.80690836906433 1.79115450382233 1.79570686817169 1.54875040054321 1.38786339759827 2.24484729766846 2.12762832641602 2.47268033027649 2.78668856620789 2.75908064842224 3.0057578086853 2.82273411750793 2.29678273200989 2.53512334823608 2.47044467926025 2.24147248268127 1.96340763568878 1.97239303588867 2.89217662811279 3.91279935836792 3.01020836830139 4.41209936141968 3.77528214454651 3.27471089363098 3.1618549823761 2.89475131034851 2.72581768035889 2.47283005714417 2.24897885322571 2.05829668045044 1.92235028743744 1.82592988014221 1.75786685943604 1.68404734134674 1.61918103694916 1.52009999752045 1.47240602970123 1.41168797016144 1.35621130466461 1.30168426036835 1.168536901474 3.29619002342224 3.16074299812317 3.55149674415588 3.82067346572876 3.66794276237488 3.88435530662537 4.14679145812988 3.9138514995575 3.35116577148438 3.13914918899536 3.54880285263062 9.45396995544434 7.01236486434937 6.06705379486084 5.59835290908813 4.81040096282959 4.2967677116394 4.73321962356567 4.42560338973999 4.60443544387817 4.02758646011353 1.6111923456192 1.54623162746429 2.14397764205933 1.83344924449921 4.75872135162354 12.2978658676147 4.12039279937744 2.29681611061096 0.536485552787781 0.321305125951767 1.59486377239227 7.223952293396 1.21998262405396 1.06029391288757 8.29671859741211 6.09025287628174 9.21517086029053 21.0500297546387 16.211784362793 0.407563656568527 2.28255200386047 6.82879638671875 18.6510543823242 1.325031042099 2.15671515464783 1.22433412075043 0.523041009902954 2.07307720184326 4.09201002120972 5.05340957641602 5.68631362915039 4.55557489395142 4.94787216186523 0.347570270299911 1.42838704586029 -0.965693831443787 1.13279318809509 6.78304052352905 23.8716945648193 31.0338134765625 24.1975841522217 11.1465539932251 4.31111478805542 2.61528587341309 0.555951178073883 0.569834172725677 0.505625426769257 0.447453290224075 -0.410930097103119 -0.0798236131668091 -0.0455948822200298 17.7112808227539 40.0391807556152 28.9857959747314 15.2564764022827 11.4645919799805 13.5075120925903 5.26801109313965 -0.607165157794952 -1.16777372360229 -1.18654799461365 -0.344173818826675 1.43878555297852 -0.0577298998832703 -0.377221494913101 -0.540557205677032 -0.782505333423615 -0.655992805957794 -1.35571658611298 -1.71009814739227 -1.93617081642151 0.86952942609787 11.56529712677 10.2271375656128 12.5532541275024 5.44479036331177 5.29473686218262 6.31053924560547 6.20407152175903 14.500072479248 3.17957925796509 4.58538150787354 1.96202766895294 7.85194683074951 7.5183253288269 5.98550033569336 4.4266881942749 3.20735335350037 2.20323324203491 2.17485523223877 0.961269378662109 0.993496358394623 0.868442416191101 0.436215072870255 0.359722197055817 0.248448863625526 0.717721402645111 2.36100554466248 3.31396007537842 3.87087821960449 3.59156084060669 3.11884665489197 2.94335079193115 2.8036892414093 2.82040214538574 2.78454804420471 2.79915308952332 5.99841642379761 8.19867515563965
3.99789190292358 2.99480366706848 1.89314115047455 1.84235882759094 1.63079023361206 1.63750958442688 2.68050765991211 2.44666242599487 2.79494524002075 3.17814445495605 3.031174659729 3.00335669517517 3.27263736724854 2.66832327842712 2.85016489028931 2.69384551048279 2.37824988365173 2.04716730117798 1.98556244373322 1.94581425189972 1.89699912071228 2.18751239776611 3.14111137390137 3.25421690940857 4.66309070587158 4.02339792251587 4.95393228530884 3.59321594238281 3.16824078559875 2.87249398231506 2.55137276649475 2.32178783416748 2.17130494117737 2.06272459030151 1.97378885746002 1.83706700801849 1.75373196601868 1.69343221187592 1.61775743961334 1.53303456306458 1.49086689949036 1.40778958797455 3.65006685256958 3.59711146354675 3.12199831008911 4.26519107818604 4.07761001586914 4.33294820785522 4.67888116836548 4.47818565368652 3.7146418094635 3.51836490631104 10.6377029418945 26.0514106750488 16.7246379852295 10.8818140029907 8.15305709838867 5.89046621322632 5.00461435317993 5.36386156082153 5.17090797424316 5.54367399215698 5.15174865722656 2.95965576171875 3.98703551292419 3.3935227394104 2.65170526504517 1.47091519832611 1.63711190223694 1.31682360172272 1.63638556003571 3.26058125495911 1.7241792678833 0.0330358371138573 5.80541706085205 1.03775238990784 2.68233418464661 0.996354401111603 0.891304790973663 -0.371362745761871 -0.668486773967743 5.30729627609253 0.71725469827652 21.3047218322754 2.48362040519714 2.24255013465881 1.65126049518585 3.2284255027771 14.9854564666748 5.24059534072876 5.4750828742981 5.52147483825684 5.83356952667236 6.61698722839355 8.6881856918335 8.94979858398438 6.6303014755249 1.86041617393494 1.08672654628754 1.24743342399597 -1.37701451778412 -0.892168939113617 -0.775110840797424 9.72753429412842 3.22453093528748 18.6397018432617 6.39608287811279 6.58656311035156 1.33498430252075 8.08460903167725 1.11510002613068 0.854830205440521 0.989529728889465 -0.00655499054118991 0.0771767422556877 0.323810875415802 -0.249358579516411 27.2140731811523 17.4102325439453 47.5173377990723 35.2502365112305 20.5977363586426 1.21462857723236 -0.281049311161041 3.58886933326721 -0.160748839378357 4.03186559677124 3.77193427085876 -0.0778387561440468 0.410113573074341 0.165247187018394 -0.213532507419586 -0.721458315849304 -1.39752900600433 -1.76179528236389 -2.07076525688171 2.84330892562866 8.36230659484863 6.85310935974121 7.93075180053711 13.297926902771 10.5693092346191 0.154121890664101 3.91645359992981 5.59057283401489 5.36756277084351 9.3073902130127 8.7658109664917 6.87593793869019 4.78339815139771 4.49814701080322 3.46393537521362 2.42197203636169 1.67057490348816 1.27559673786163 1.08766138553619 0.988849937915802 0.698159396648407 0.439259201288223 0.527688801288605 0.632665514945984 0.750567615032196 1.24900674819946 2.62313890457153 3.46690821647644 3.52594017982483 2.89302945137024 2.70408964157104 2.70805692672729 3.01235127449036 3.24603247642517 6.52066802978516 8.93185710906982 8.91814231872559
3.20398330688477 1.9538905620575 1.69751453399658 1.67858779430389 2.829998254776 2.78234481811523 3.29849934577942 3.62791323661804 3.41151261329651 3.37962365150452 3.72249746322632 3.54004812240601 2.91011476516724 3.11663508415222 2.68571472167969 2.26128458976746 2.12693357467651 2.05417799949646 1.95505928993225 2.01901865005493 2.00568747520447 2.21920585632324 2.82769727706909 3.36442875862122 3.60294604301453 2.83948016166687 5.09044647216797 3.86590957641602 2.92604398727417 2.83131837844849 2.72380089759827 2.42295360565186 2.26999807357788 2.16658806800842 2.01816844940186 1.92423641681671 1.82438564300537 1.77009630203247 1.72660160064697 1.62716937065125 4.19592666625977 4.00652122497559 3.83364081382751 4.35251808166504 4.60890960693359 4.50342893600464 4.66348934173584 4.95189046859741 4.1329984664917 3.95356750488281 18.4121494293213 8.51818752288818 2.34847283363342 28.3497543334961 22.4574279785156 16.6576232910156 9.53872108459473 3.10432958602905 5.77893733978271 5.77794981002808 6.28178453445435 3.36109256744385 4.99515390396118 4.54444122314453 3.00939536094666 3.9773952960968 3.263756275177 3.94646239280701 2.15269994735718 2.05409097671509 0.888883888721466 13.7031860351562 1.48130285739899 1.08296155929565 2.27666044235229 1.42176032066345 1.20789921283722 1.16155576705933 6.97912502288818 0.761390626430511 1.48555314540863 2.85291218757629 2.60512828826904 8.21835136413574 4.20860528945923 3.46517109870911 32.0052833557129 19.7039432525635 9.71389389038086 18.2159099578857 18.717414855957 24.3739929199219 15.1553897857666 15.6752042770386 11.8856611251831 10.5957450866699 8.00884819030762 5.62410449981689 6.86225032806396 2.11970353126526 1.84147155284882 -0.435185253620148 1.83891129493713 1.92268347740173 16.8352527618408 22.4647827148438 24.0410022735596 2.21346712112427 1.73147749900818 1.62201905250549 15.1501922607422 2.03878664970398 5.65096378326416 1.34428322315216 0.536470174789429 -0.176148220896721 38.010383605957 26.1277904510498 -1.14254570007324 20.043758392334 42.3922500610352 30.4637508392334 6.05290412902832 0.295407950878143 0.0146392611786723 0.0370455719530582 0.224469929933548 0.580723404884338 0.621103465557098 0.467740327119827 0.0490805134177208 -0.40752649307251 0.750526905059814 6.59790754318237 3.78991413116455 -0.538322329521179 10.2938289642334 10.8591651916504 3.87168741226196 0.19570004940033 1.00982642173767 0.88467538356781 7.5244460105896 6.95829153060913 2.19012689590454 10.9767646789551 8.57296848297119 5.45288753509521 5.22493743896484 3.72958326339722 2.42759037017822 1.42018032073975 1.9188187122345 1.54864180088043 1.04654538631439 0.879898250102997 0.637111246585846 0.612386763095856 0.725367486476898 0.797455310821533 0.848010122776031 0.9067742228508 0.885536193847656 2.11173129081726 2.90207839012146 2.84209132194519 2.78382277488708 2.9547278881073 3.1432363986969 7.38030767440796 10.3588075637817 10.4207248687744 10.7870235443115 10.1122951507568
2.11692190170288 1.82465410232544 1.62197935581207 2.9626681804657 3.47936010360718 4.04218006134033 3.99344611167908 3.87963390350342 4.19657182693481 3.97706604003906 3.30788493156433 3.57130479812622 3.38573503494263 2.65679264068604 2.43197631835938 2.28613781929016 2.11076998710632 2.15095829963684 2.0878210067749 2.10439610481262 2.23287296295166 2.10538673400879 2.0023877620697 3.2055344581604 3.61574721336365 2.72487711906433 3.42138290405273 3.82656168937683 3.07042074203491 2.85037183761597 2.79174423217773 2.83257293701172 2.34546685218811 2.21281456947327 2.1110668182373 2.06763100624084 1.96947622299194 1.87255525588989 1.76293289661407 4.61639213562012 4.30905818939209 4.92563533782959 5.15064668655396 5.09446668624878 5.34790420532227 5.71432781219482 5.39015960693359 4.37958908081055 3.90053725242615 2.66816425323486 3.00933241844177 9.5800313949585 2.12497973442078 3.80364871025085 5.66969728469849 7.94665479660034 8.16526031494141 12.3246631622314 7.83006620407104 6.75788450241089 6.9477105140686 6.07999610900879 3.41016411781311 3.14045572280884 5.29152059555054 6.50315380096436 5.17000150680542 2.36987376213074 2.02277088165283 1.98617660999298 0.0798033028841019 18.2613639831543 2.18911981582642 1.29798400402069 5.21085691452026 5.63950538635254 8.55709743499756 0.673915684223175 3.89013576507568 5.70421838760376 8.04636287689209 4.33610868453979 2.09614849090576 2.47814679145813 13.9698352813721 0.975862681865692 13.6755466461182 23.2205696105957 15.5770301818848 21.0095500946045 15.6358909606934 37.8164939880371 25.3263149261475 29.7850017547607 18.2202739715576 12.9102296829224 11.4785413742065 11.2627038955688 7.25080823898315 7.85216331481934 6.36518383026123 3.0439076423645 3.05276560783386 2.59999370574951 1.48323774337769 3.84837007522583 3.40888786315918 7.88855791091919 2.45104622840881 6.87766981124878 11.5928516387939 7.28691387176514 8.23159790039062 3.53671598434448 -0.355767726898193 -0.490896105766296 36.2247047424316 -0.35222065448761 -0.319330364465714 1.35923385620117 30.588529586792 30.7173042297363 21.274938583374 2.76427793502808 0.380233347415924 0.566120386123657 0.842315435409546 0.745662152767181 0.420275300741196 -0.244076371192932 -0.357329934835434 -1.53689384460449 -0.974575042724609 0.324245929718018 0.0736120641231537 0.114809535443783 12.4556427001953 8.24320507049561 1.42824125289917 0.998074591159821 16.087869644165 12.3576126098633 2.32778215408325 14.3128862380981 13.1169652938843 10.5244846343994 6.68172836303711 4.783447265625 2.75637149810791 2.71761989593506 1.02864968776703 1.15694117546082 1.07639503479004 0.99775630235672 0.736450731754303 0.709540247917175 0.659734725952148 0.756431579589844 0.904927849769592 0.956592738628387 0.94738906621933 0.797754406929016 1.1683269739151 2.44178462028503 3.13471961021423 3.34447765350342 3.40754795074463 8.47734355926514 12.1537981033325 13.8982706069946 12.8479232788086 12.0269823074341 15.8909063339233 15.5818500518799
1.92174530029297 3.29671311378479 3.18649935722351 3.68605065345764 4.25914716720581 4.2799243927002 4.82545280456543 4.60085725784302 3.78661799430847 4.05490827560425 3.83780384063721 3.35175275802612 2.89792394638062 2.69051933288574 2.44660305976868 2.41578555107117 2.2708146572113 2.24850130081177 2.34415674209595 2.29010581970215 1.89734971523285 1.83049547672272 2.0171205997467 2.75525045394897 3.23861908912659 2.9342143535614 3.31640148162842 3.72060322761536 4.41796636581421 3.20095944404602 2.7009801864624 2.58518648147583 3.12603974342346 2.82550024986267 2.43263459205627 2.2214822769165 2.15917277336121 5.52330207824707 5.16840600967407 5.67777061462402 5.8290114402771 5.81109476089478 6.03176927566528 6.49542093276978 6.12879228591919 5.0303168296814 4.75493860244751 4.27928304672241 4.42489624023438 4.16620016098022 3.49834442138672 2.66077899932861 2.7126898765564 3.37754225730896 13.4942054748535 9.50468063354492 7.42444562911987 10.1474494934082 14.7976570129395 8.54485607147217 5.72050380706787 5.06511688232422 8.7728099822998 11.4722146987915 8.82327079772949 3.93565201759338 2.83793497085571 2.35751962661743 2.6497700214386 5.01130867004395 1.42670691013336 9.88806343078613 2.0028772354126 1.20874810218811 1.43589782714844 0.749427258968353 14.5278911590576 2.28053331375122 2.95323371887207 3.02176260948181 13.4695434570312 4.03981447219849 2.73675799369812 4.15570688247681 1.97051453590393 0.481609672307968 12.1603698730469 15.4950180053711 29.5396385192871 18.6099109649658 11.4244737625122 22.8836345672607 11.1956901550293 21.8816757202148 16.6626262664795 17.6402416229248 20.5097179412842 11.9748735427856 9.3275146484375 7.57378387451172 10.7433099746704 11.5522108078003 8.29492950439453 4.45905923843384 4.79624795913696 15.5245037078857 9.05662727355957 16.2735729217529 3.09036946296692 15.4827575683594 20.6466541290283 13.8561611175537 7.40356874465942 6.92385387420654 3.10050296783447 0.892200231552124 2.05987071990967 0.154681086540222 0.887104868888855 2.68933939933777 7.25434875488281 29.9438781738281 25.9429721832275 14.9459438323975 3.6348991394043 2.92831182479858 1.16345202922821 0.579308271408081 0.196079209446907 -0.497366487979889 0.00634565064683557 -0.557267963886261 24.2314739227295 16.8842220306396 2.293781042099 0.44223690032959 2.56047463417053 2.29323172569275 1.184250831604 0.694104254245758 3.90649604797363 21.8330841064453 18.8096256256104 15.0723876953125 8.87475967407227 8.26211738586426 6.36397361755371 3.61511206626892 1.42876255512238 1.42715549468994 1.21646702289581 1.13655161857605 1.1828328371048 0.940383493900299 0.735950350761414 0.814089298248291 0.896993458271027 0.929944217205048 0.982245981693268 0.815634727478027 0.801079392433167 1.06777501106262 2.40710210800171 3.90092539787292 4.06612968444824 4.73353385925293 9.68400001525879 30.0715389251709 20.7841968536377 14.594841003418 23.6168212890625 23.587718963623 19.7487277984619 15.282247543335
3.49363660812378 4.01879596710205 4.7011284828186 4.53968000411987 4.52911901473999 5.05582475662231 4.31638240814209 4.7206916809082 4.42251825332642 3.84158039093018 3.33168029785156 3.08975386619568 2.91887235641479 2.67884874343872 2.67098093032837 2.55012941360474 2.55184936523438 2.45052814483643 2.01664614677429 1.89997935295105 2.0630931854248 2.02859950065613 1.51721858978271 2.0788893699646 2.65333032608032 3.43059372901917 3.69167876243591 2.64270257949829 3.31241631507874 3.1801233291626 2.89932775497437 2.62465953826904 2.48216962814331 2.41173982620239 2.38094687461853 6.49473810195923 6.03738880157471 4.7828426361084 6.64230871200562 6.34768199920654 6.89005613327026 7.42980670928955 7.01539421081543 5.76281261444092 5.37499523162842 4.84797334671021 4.98842287063599 4.76250791549683 4.31854915618896 4.17988872528076 3.55947780609131 3.7110378742218 21.7461071014404 20.9119071960449 23.373851776123 13.142466545105 6.70176935195923 5.02456188201904 8.9180326461792 3.28621554374695 15.6046571731567 24.2364101409912 17.1749248504639 6.741286277771 4.55846977233887 3.40565037727356 4.1498236656189 6.59355640411377 5.56697463989258 1.73774135112762 2.33295130729675 2.16507315635681 2.15972518920898 0.929693996906281 1.345911860466 0.822635412216187 3.28263425827026 7.64420366287231 3.10136532783508 2.59481239318848 3.47512578964233 2.95511651039124 5.32901525497437 3.5841076374054 0.681382477283478 -0.971811294555664 2.75597906112671 5.77060317993164 19.7056655883789 30.1789302825928 21.6148853302002 15.4489784240723 26.1975746154785 30.1749534606934 18.1848983764648 10.4864807128906 16.9376926422119 12.1982564926147 9.68113040924072 20.1037750244141 16.628475189209 10.3326435089111 7.93786430358887 5.23644304275513 3.52090859413147 4.47356843948364 3.2548725605011 18.0263023376465 3.2401876449585 2.06794238090515 12.6065998077393 14.1147203445435 11.2367324829102 13.080415725708 10.5946569442749 3.87143135070801 5.71850347518921 4.20611190795898 4.13067483901978 1.84815239906311 2.55094218254089 2.94159340858459 4.14405536651611 13.092414855957 11.4288949966431 3.30104827880859 2.45476198196411 1.09098303318024 0.208700820803642 1.09169161319733 0.628685474395752 -0.242530837655067 11.4533863067627 6.16846370697021 5.80323839187622 4.75879287719727 1.45355725288391 1.84687793254852 1.7276531457901 41.9553070068359 37.2210998535156 27.259708404541 13.6852836608887 11.9171419143677 9.08998870849609 4.5407977104187 2.89473581314087 2.33777117729187 1.88478493690491 1.67553555965424 1.66979253292084 1.25118100643158 1.12784278392792 0.979745626449585 0.967171490192413 1.00578618049622 1.04456472396851 1.01386618614197 0.834830522537231 0.812637567520142 0.83997243642807 1.83590292930603 3.6074538230896 5.56223011016846 11.9318151473999 17.8499965667725 11.2729339599609 30.5836067199707 46.8883934020996 46.4999885559082 38.6178245544434 27.479793548584 16.7815246582031 14.4863538742065
5.26730012893677 4.96291542053223 5.03221368789673 5.62069225311279 5.3480863571167 4.54739713668823 5.00810098648071 4.42133331298828 3.8481912612915 3.57548093795776 3.37387919425964 3.08246493339539 3.07133817672729 2.9029541015625 2.97411417961121 2.79077196121216 2.25166082382202 2.06707382202148 2.21369433403015 2.13579154014587 1.55982565879822 1.3611524105072 1.3050833940506 1.65269994735718 2.13737463951111 2.66727733612061 3.21300649642944 3.19445109367371 3.59814071655273 4.00450038909912 4.2992377281189 3.2247359752655 2.97722673416138 2.57915425300598 7.26160907745361 5.87785959243774 6.95104312896729 6.98805952072144 7.28295993804932 7.34697723388672 7.96314716339111 6.5452299118042 6.14698123931885 5.51627159118652 5.09008836746216 5.39916229248047 5.07681226730347 5.10392665863037 4.79979753494263 4.77066946029663 4.37057113647461 2.15656638145447 4.00975131988525 2.21852326393127 3.05456614494324 27.3330974578857 18.1441421508789 3.40655565261841 24.3150749206543 3.8044605255127 1.64962196350098 8.30857563018799 6.70304012298584 5.89973497390747 15.0784111022949 18.5397071838379 10.1148080825806 4.17477512359619 3.76137948036194 2.25617861747742 2.39703512191772 5.15135383605957 2.88906335830688 2.43551921844482 3.78464889526367 3.42640066146851 3.12627744674683 2.86432290077209 3.73170161247253 3.76953840255737 2.73436045646667 1.58571934700012 1.80033111572266 0.40641263127327 -0.758619964122772 -1.16453015804291 0.236480697989464 3.33316802978516 10.3248071670532 24.0615520477295 21.6863307952881 33.9686126708984 25.2218627929688 18.6336517333984 26.5364646911621 19.9756908416748 19.9777603149414 10.9449148178101 5.96276235580444 7.41181755065918 29.2126808166504 11.8011903762817 9.15788459777832 12.5137357711792 4.7575364112854 4.48802900314331 3.27556705474854 9.04900550842285 20.7945232391357 11.3827924728394 12.5882320404053 31.6164627075195 22.4047870635986 12.1828289031982 10.3811197280884 8.11832618713379 8.90665531158447 7.31440877914429 4.57305288314819 4.78520441055298 4.54747295379639 17.9993934631348 20.3491954803467 5.43489980697632 4.64725017547607 4.59875965118408 3.4070360660553 2.47165441513062 2.45110988616943 1.7115615606308 3.07941937446594 2.17261385917664 23.8552436828613 13.6618824005127 3.4536828994751 2.41919207572937 2.28046441078186 1.55683839321136 -1.62786877155304 -0.803803622722626 28.7139282226562 22.1549072265625 16.3424472808838 5.84936428070068 5.61378812789917 2.79910635948181 2.89803624153137 2.70656943321228 2.51878619194031 2.08689069747925 1.73855745792389 1.47418868541718 1.00540268421173 1.10771250724792 1.13600993156433 1.10028958320618 0.899777352809906 0.859406471252441 0.870264649391174 0.844761490821838 1.03453242778778 2.60453748703003 15.8913917541504 24.4433269500732 24.9881534576416 26.6097278594971 14.9989137649536 6.68654012680054 6.21646213531494 9.84148979187012 32.7433128356934 23.6034145355225 18.3101062774658 20.7144947052002
5.65655040740967 6.32297086715698 6.09400081634521 5.10211086273193 5.55923795700073 5.25936126708984 4.3502950668335 4.11155843734741 3.86156845092773 3.55106616020203 3.55900716781616 3.34980535507202 3.21572160720825 3.20193481445312 2.97299432754517 2.51833248138428 2.48016858100891 2.34763288497925 1.70413684844971 1.45606875419617 1.35278606414795 0.712732017040253 0.794140815734863 1.37360489368439 1.77159678936005 2.28505825996399 2.71255683898926 2.95218825340271 3.36233973503113 3.66789937019348 5.9486083984375 5.20825147628784 9.52410507202148 8.4186840057373 8.37611675262451 8.09099102020264 8.62934398651123 8.37208461761475 9.0935754776001 8.4983024597168 6.99424600601196 6.34427070617676 5.82507610321045 6.149329662323 5.75834846496582 5.79286956787109 5.4550518989563 5.53514623641968 5.19735193252563 4.66254329681396 4.41330146789551 4.23036241531372 4.17076969146729 4.03077459335327 2.16897630691528 3.5267071723938 14.7333726882935 1.87306928634644 16.5009422302246 3.19853067398071 3.24953556060791 4.31727933883667 7.16804647445679 0.750285089015961 2.2389657497406 12.9640779495239 6.34958505630493 5.08092451095581 4.45004987716675 2.48581171035767 2.39897274971008 3.63335394859314 6.16293621063232 5.4947943687439 3.42523884773254 3.55605006217957 12.2029705047607 6.36298322677612 2.76658868789673 3.93450021743774 2.88223338127136 1.31247580051422 1.02624225616455 0.57751327753067 -0.38140743970871 -0.754315495491028 -0.935328781604767 -1.14725530147552 3.46654486656189 8.1242847442627 0.377869665622711 15.2342042922974 36.3716621398926 29.6221408843994 36.7049407958984 27.0385932922363 19.2485485076904 13.1017866134644 11.6791858673096 5.65723896026611 8.02166843414307 6.43932199478149 16.1209239959717 8.80235004425049 5.72726345062256 2.16104173660278 9.03991031646729 9.65958976745605 35.211742401123 19.4776573181152 7.20903635025024 24.2977180480957 26.8506488800049 18.6927852630615 11.904351234436 9.97955799102783 8.35315418243408 7.82661294937134 7.01339387893677 4.30521631240845 3.30515623092651 5.86701965332031 4.80242586135864 4.5856032371521 5.10505771636963 4.78488445281982 4.75880146026611 4.36235284805298 5.31440544128418 5.02250862121582 2.80790877342224 0.960595190525055 1.7809351682663 10.3839569091797 6.09217834472656 2.32871747016907 1.80759191513062 -0.189189091324806 29.5919361114502 5.82753801345825 0.0369880348443985 7.58160209655762 7.36225175857544 3.67060589790344 3.71990847587585 3.21016144752502 2.75485777854919 2.9357762336731 2.75731229782104 2.19584345817566 1.59799015522003 1.30247271060944 1.21031486988068 1.21634113788605 0.985376477241516 0.934518218040466 0.954449415206909 0.918914675712585 1.11835610866547 1.04749441146851 33.9815902709961 46.3825187683105 46.112979888916 47.5459289550781 35.2623901367188 25.6382846832275 15.9309511184692 10.0972003936768 10.5928945541382 19.8083591461182 20.424617767334 42.5968322753906 30.638744354248 25.635160446167
6.9148850440979 5.77607727050781 6.30697202682495 6.01373815536499 5.1872444152832 4.6444845199585 4.39471483230591 3.98838329315186 4.06298542022705 3.85484290122986 3.7086968421936 3.6508355140686 3.45133280754089 2.94294571876526 2.63781332969666 2.7504346370697 1.98963606357574 1.66379225254059 1.50889503955841 0.792411088943481 0.824551403522491 0.979274332523346 0.956217885017395 1.00986695289612 1.41362881660461 2.03728222846985 2.5309944152832 2.53784871101379 2.27317690849304 1.93017280101776 13.3061962127686 11.8313798904419 8.06897640228271 9.7069787979126 9.16023921966553 9.96457386016846 10.8425817489624 9.97840690612793 8.0673885345459 7.35457134246826 6.71118831634521 6.42886781692505 6.53317070007324 6.52381229400635 6.10466861724854 6.1898078918457 5.86772441864014 5.29077625274658 4.90807008743286 4.65462875366211 4.55455160140991 4.38804960250854 4.16470384597778 4.47656393051147 4.33360481262207 2.60288333892822 10.1064367294312 1.95625603199005 7.0917444229126 12.5240898132324 4.72303056716919 0.849466145038605 3.02072143554688 6.42607736587524 2.81380748748779 15.3375730514526 7.90579748153687 2.72668552398682 5.63609647750854 5.71330261230469 4.54766225814819 6.90236520767212 8.49731922149658 10.5278625488281 3.32915425300598 4.30971717834473 4.63356351852417 3.59140348434448 2.11456394195557 1.32248818874359 8.98313045501709 7.57698488235474 0.77743262052536 3.37671303749084 0.51984578371048 -0.213846445083618 -0.686020791530609 -1.09449195861816 -1.22608709335327 15.0078563690186 20.7345504760742 7.65397834777832 7.13305234909058 16.0080280303955 23.8277263641357 23.7010040283203 22.0161647796631 16.4996585845947 10.7827987670898 6.7681679725647 6.005286693573 6.8833270072937 7.60783338546753 6.74966430664062 4.6455397605896 1.46546947956085 -0.843154430389404 6.16794729232788 17.1003494262695 10.6365222930908 12.1105461120605 10.3766317367554 17.3471355438232 15.0951366424561 12.6940422058105 10.0446729660034 8.86983299255371 9.45051860809326 8.91594219207764 7.30564117431641 6.39752101898193 5.18533611297607 5.5478630065918 5.46409034729004 5.00621366500854 4.84471082687378 6.20482444763184 6.04283237457275 4.64585447311401 4.41570949554443 4.01488447189331 2.6290500164032 2.63289070129395 3.64164662361145 2.9230489730835 6.26192331314087 0.550875186920166 -0.899055480957031 0.941723346710205 10.2380056381226 9.31226825714111 3.10437035560608 4.58717918395996 4.51450109481812 3.64896368980408 3.76305890083313 3.29438447952271 2.69166803359985 2.69440484046936 2.09528732299805 1.58162343502045 1.40158343315125 1.31454610824585 1.06215035915375 0.979592144489288 0.997828781604767 1.23009395599365 1.18920791149139 1.33845210075378 -0.166630953550339 -0.906066238880157 1.7975070476532 6.6800389289856 47.0204315185547 34.3799514770508 26.604190826416 21.9371776580811 13.6997003555298 2.26107668876648 19.0844917297363 5.39758253097534 49.577938079834 41.2452278137207 29.2777729034424
7.17232370376587 6.88527345657349 5.8864107131958 5.28396415710449 4.91973114013672 4.76449060440063 4.36355924606323 4.36078929901123 4.15245342254639 4.13812828063965 3.93359112739563 3.42354536056519 3.01480507850647 3.13521027565002 2.96968388557434 2.21431279182434 1.89498150348663 1.01498532295227 0.985288560390472 1.09147703647614 1.02019166946411 0.502905905246735 0.0506149604916573 0.299050629138947 0.524236738681793 1.2431173324585 2.19823789596558 2.05210018157959 29.0834693908691 19.7643566131592 10.9790496826172 14.0945148468018 11.4791326522827 12.8249063491821 11.3904466629028 12.4398498535156 10.0242176055908 8.68443584442139 7.8010458946228 7.09333896636963 7.39704036712646 6.90011692047119 6.88652801513672 6.9423999786377 6.52491855621338 5.90230846405029 5.47876119613647 5.19687080383301 4.8566746711731 4.71153688430786 3.98431992530823 4.41107368469238 4.74188089370728 3.68984770774841 3.56255054473877 2.27719330787659 7.77476978302002 14.273663520813 1.22295320034027 3.73229694366455 4.83045387268066 3.03598070144653 3.2790892124176 3.08445334434509 2.51480007171631 9.38576221466064 9.12806034088135 7.44571542739868 6.38246870040894 9.76805400848389 9.48525333404541 5.85431385040283 6.47007513046265 7.87535047531128 5.93375682830811 4.20467090606689 3.46587657928467 2.9869601726532 1.62238144874573 1.18489933013916 2.30819201469421 12.6135139465332 4.18500423431396 3.50234651565552 0.388058364391327 -0.0474386923015118 -0.964605569839478 -1.04310488700867 -1.7693612575531 -1.71131980419159 6.85459041595459 8.30642986297607 9.83264350891113 27.1066417694092 31.1462936401367 22.4710693359375 19.4517784118652 17.850658416748 12.6767978668213 8.83360958099365 8.07052516937256 7.84677934646606 6.44280672073364 6.43533515930176 4.27894926071167 -0.666200935840607 -1.10854053497314 -0.538191318511963 15.8674688339233 35.4083557128906 24.7089462280273 24.0993690490723 22.4699192047119 16.9664649963379 13.3821859359741 12.0535717010498 11.2347860336304 9.83345699310303 8.73015785217285 7.1433162689209 7.69419193267822 7.06436777114868 5.73859596252441 5.1398606300354 4.81153106689453 6.64456939697266 5.4229154586792 5.25770139694214 4.76964712142944 4.53477811813354 5.28553056716919 4.86020803451538 3.93689107894897 3.06562352180481 1.96783769130707 2.63477325439453 1.68497753143311 1.73903405666351 0.879619181156158 0.918986201286316 1.09209847450256 1.25187063217163 3.55649781227112 4.64657545089722 4.67928600311279 3.82982754707336 3.65601921081543 3.02580428123474 2.26404118537903 2.00509214401245 1.48955178260803 1.25315678119659 1.18888545036316 1.08620262145996 1.19551050662994 1.57447302341461 1.23512578010559 1.42536354064941 1.32956171035767 0.143008813261986 -0.882667660713196 -1.05370616912842 0.0207888446748257 48.7551765441895 46.5095596313477 33.909294128418 11.1149702072144 12.4374351501465 5.57505893707275 0.374720752239227 0.195308357477188 9.13405990600586 45.1401901245117 32.7967872619629
6.63339567184448 6.00962781906128 5.5485405921936 5.27390480041504 4.92700147628784 4.9801287651062 4.69544553756714 4.63648223876953 4.49256563186646 3.93835926055908 3.43307876586914 3.60124325752258 3.39059805870056 2.55369663238525 2.20902681350708 1.97989869117737 1.18647885322571 1.14222812652588 1.23372983932495 0.631348311901093 -0.207553118467331 -0.173665851354599 0.0762604922056198 0.155978739261627 0.42327082157135 0.447923719882965 1.65447580814362 4.1461763381958 23.348030090332 29.4747409820557 20.4145736694336 19.4434585571289 15.9990949630737 16.2288780212402 14.2823505401611 11.5625286102295 9.70326709747314 8.81819438934326 8.89009857177734 8.10560607910156 7.91537952423096 7.3549952507019 7.39172220230103 6.68157005310059 6.1255955696106 5.75482940673828 5.25169086456299 5.21799898147583 4.97631025314331 4.71504735946655 5.08966732025146 5.03055191040039 3.86819887161255 3.91079664230347 29.7318248748779 6.09515857696533 5.2419638633728 13.7125511169434 7.78422975540161 3.12546420097351 5.74430370330811 6.21507883071899 3.02084589004517 12.6955671310425 15.3490877151489 19.885555267334 13.296046257019 11.8771533966064 11.0540161132812 9.90499877929688 9.50598049163818 18.472677230835 12.0357522964478 5.86709594726562 5.54228401184082 3.62435936927795 2.19866418838501 2.31095790863037 2.39692282676697 0.788616955280304 0.977775454521179 18.1625499725342 3.79604887962341 3.66371464729309 1.13754713535309 -0.0893631726503372 -0.3056560754776 -0.91758394241333 -1.63163495063782 -1.79512631893158 14.2102537155151 11.9428758621216 8.27461528778076 27.8483619689941 28.4994869232178 25.0148754119873 21.4504661560059 12.742301940918 14.6133756637573 10.1628942489624 6.88823461532593 7.68877410888672 6.92697858810425 4.54516553878784 0.453974783420563 3.06529402732849 -1.00772833824158 -1.05695986747742 17.0318489074707 14.670693397522 33.9937438964844 12.9335384368896 23.2735862731934 16.7422275543213 17.5758094787598 15.2041988372803 11.3383903503418 9.67936611175537 9.20749473571777 10.0244102478027 7.55000877380371 7.05960273742676 6.31655025482178 7.80554723739624 7.37053728103638 5.81304311752319 5.4113073348999 5.30916261672974 6.29094076156616 5.95745420455933 5.07835578918457 3.88266348838806 3.67529487609863 3.4039785861969 3.16344046592712 2.14169549942017 3.08982229232788 0.746855676174164 1.2597883939743 1.52889847755432 1.16296589374542 0.930018544197083 0.945470154285431 3.01753973960876 4.58377361297607 4.81800699234009 3.34874439239502 2.93839406967163 1.86420786380768 1.66892623901367 1.52443587779999 1.38354682922363 1.23480486869812 1.34928464889526 1.31719660758972 1.49987971782684 1.48772299289703 1.36889886856079 1.30764865875244 0.35486701130867 -0.635697841644287 -0.644997835159302 -0.991059422492981 -0.674222826957703 22.6514911651611 34.3549766540527 23.5567207336426 2.10771632194519 1.30357503890991 0.602268218994141 0.449950903654099 5.48662281036377 43.5949440002441 33.0638275146484
6.46540832519531 6.19168901443481 5.57680320739746 5.65554475784302 5.3619122505188 5.06373023986816 5.05152368545532 4.82405662536621 4.30844163894653 4.14307594299316 3.9034469127655 2.95168471336365 2.58850193023682 2.29421877861023 1.43651747703552 1.35615515708923 1.4816380739212 1.38452994823456 -0.0851506814360619 -0.104466743767262 -0.150924891233444 -0.0641318187117577 0.455043882131577 0.434779047966003 0.398024946451187 32.9245643615723 24.116870880127 20.0164585113525 11.1568384170532 39.5848426818848 28.1653518676758 24.5496253967285 20.302490234375 16.0856418609619 12.4534521102905 11.4062204360962 10.0911684036255 10.0847244262695 9.60906410217285 8.76625442504883 8.62250137329102 7.99411058425903 7.21103477478027 6.54518175125122 5.7922306060791 5.89211940765381 5.47011518478394 5.17077159881592 5.6466269493103 5.40401697158813 4.06578588485718 3.91754984855652 4.15048599243164 0.961767792701721 26.1303195953369 8.29262256622314 1.41346716880798 4.70376777648926 4.84488582611084 3.70261788368225 3.26165819168091 4.34674787521362 2.68357920646667 1.37346935272217 5.52700424194336 20.0055503845215 13.9962158203125 12.0723752975464 11.3628425598145 10.0559930801392 6.60677051544189 7.04156303405762 6.75022792816162 6.6539192199707 13.5753908157349 7.76629304885864 3.80812668800354 3.6289656162262 1.62271332740784 2.33869123458862 1.43191075325012 7.89581775665283 1.4701920747757 1.4912281036377 1.25638818740845 0.467069566249847 -0.255458235740662 -0.993385791778564 -1.60191476345062 -1.64104461669922 1.97490930557251 0.13895907998085 9.47521305084229 40.1508102416992 30.7838973999023 29.9274501800537 18.9790706634521 17.0120010375977 11.8256692886353 9.08150959014893 8.78163146972656 5.80629396438599 7.37156915664673 18.0722198486328 0.383340746164322 -0.578234612941742 -0.2359968572855 -0.793724238872528 6.65192413330078 10.4742317199707 10.7398223876953 33.3066062927246 34.212646484375 24.4607906341553 14.9416151046753 12.8887453079224 12.0605573654175 13.7515077590942 12.6632957458496 9.28725433349609 8.8269681930542 10.356499671936 9.60208320617676 7.41970300674438 6.60350275039673 5.97736930847168 5.13680934906006 7.00807952880859 6.11923456192017 4.74207782745361 4.82940340042114 4.41324853897095 3.83196520805359 3.26524662971497 3.80096340179443 3.6316249370575 2.28521966934204 2.40638780593872 2.06452488899231 1.29665625095367 1.10605442523956 1.37921071052551 1.40614056587219 1.45013880729675 3.98934173583984 5.02010822296143 3.47797989845276 2.33482933044434 1.89273309707642 1.68140125274658 1.72678732872009 1.68735158443451 1.61314141750336 1.73490941524506 1.57025825977325 1.46819317340851 1.43706107139587 1.46195018291473 1.5947927236557 1.33343183994293 2.30857014656067 0.629420518875122 0.223124653100967 0.353111237287521 -0.0462688319385052 3.99874639511108 2.81470775604248 2.93112540245056 2.82756209373474 0.968952476978302 0.323286086320877 0.97184556722641 9.50474834442139 33.2686538696289
6.65475082397461 6.64700174331665 6.04655027389526 5.88471651077271 5.78122043609619 5.4575572013855 4.88736629486084 4.22633266448975 4.45421934127808 3.50314974784851 3.0809485912323 2.69754648208618 1.82304966449738 1.61710596084595 1.74152433872223 1.60279548168182 -0.0203197300434113 -0.0717940628528595 -0.0500110909342766 0.0209777299314737 0.565571546554565 0.494551956653595 0.432349920272827 0.0936720669269562 -1.16436374187469 8.01475429534912 10.834451675415 11.402738571167 11.3092422485352 47.5492324829102 40.8288459777832 29.1077117919922 19.1035060882568 17.1834564208984 13.8867359161377 12.9722299575806 11.5028848648071 10.8489360809326 10.4550981521606 9.57521057128906 8.6492748260498 7.70312643051147 7.11273288726807 7.20460891723633 6.5679612159729 5.72972536087036 6.17001390457153 5.91441535949707 4.41203880310059 4.28698778152466 4.39963626861572 4.29189920425415 2.1267352104187 1.0900741815567 11.0830726623535 6.79807186126709 4.97360706329346 5.79182624816895 6.56232833862305 17.1543884277344 9.65604686737061 7.30401039123535 17.084228515625 8.80002117156982 13.7656335830688 16.3400917053223 13.8987522125244 12.1056604385376 12.0654745101929 8.36891078948975 8.60344791412354 8.66779708862305 8.31244945526123 3.41562962532043 4.44156074523926 4.91764783859253 3.3515408039093 3.94993305206299 3.54461646080017 2.49742078781128 1.75012743473053 1.50055110454559 7.49411487579346 1.91822779178619 1.78026747703552 1.00220906734467 -0.0667595416307449 -0.662844896316528 -1.1851692199707 -1.47517693042755 0.502477884292603 8.12566661834717 1.01426482200623 23.3210926055908 21.1043376922607 31.1853904724121 21.6922264099121 16.2149658203125 13.0510301589966 10.16832447052 17.3803520202637 23.251916885376 4.80612850189209 5.68141794204712 0.293880701065063 -0.11918243765831 -0.479381233453751 12.1741743087769 14.0895261764526 10.6348695755005 13.8372259140015 11.6890935897827 14.5163726806641 20.2135314941406 15.8772106170654 18.2514419555664 15.9729070663452 11.3812808990479 11.7254419326782 10.9813556671143 12.6384305953979 10.0795631408691 8.6488151550293 7.81752967834473 7.01003503799438 8.36182498931885 7.85952377319336 6.88995933532715 5.24492883682251 5.41703939437866 4.93544054031372 4.42313098907471 4.66825675964355 4.32370233535767 2.88132882118225 3.0839216709137 2.9026882648468 2.59684872627258 1.60774600505829 1.4723869562149 1.66685807704926 1.48614180088043 1.66547310352325 1.75842976570129 1.8350305557251 3.53849530220032 3.19083762168884 2.23652648925781 2.24925136566162 2.15658640861511 2.23533749580383 2.56770706176758 2.63281273841858 2.34016489982605 1.85463833808899 1.5801944732666 1.80358624458313 1.99654197692871 2.09773230552673 1.176842212677 25.131893157959 5.81782674789429 1.37326860427856 2.09986066818237 2.47318649291992 3.89877867698669 4.28847360610962 2.39442038536072 2.23317575454712 2.47137475013733 1.4417929649353 6.52543020248413 8.02074146270752 25.446949005127
7.46796083450317 6.85649681091309 6.75540351867676 6.36695146560669 5.68761968612671 4.77820777893066 5.02434253692627 4.77764463424683 3.78402853012085 3.38081026077271 2.43868732452393 2.13369607925415 2.10772395133972 1.93806290626526 1.25106954574585 -0.00237867399118841 0.00850446429103613 -0.0339143835008144 0.75404554605484 0.674149096012115 0.575673818588257 0.127578422427177 0.0717033073306084 0.151519924402237 -0.940382659435272 -1.63076734542847 2.77695989608765 0.751695871353149 2.23421740531921 6.24656200408936 39.5251045227051 37.0864486694336 25.7196846008301 19.8889961242676 16.1595325469971 13.991982460022 12.339599609375 11.7440853118896 10.711145401001 9.31435394287109 8.52268886566162 7.38300752639771 8.27275085449219 5.51137399673462 6.30344009399414 6.79765462875366 4.78386783599854 4.61474895477295 4.81206321716309 4.69915390014648 3.32057976722717 3.25990080833435 2.19748473167419 4.98617792129517 5.60964488983154 14.4940004348755 25.2171745300293 6.61621522903442 10.2471218109131 16.6654682159424 39.3051910400391 26.458122253418 28.9478416442871 23.8908004760742 19.0394706726074 16.7047882080078 14.3275136947632 31.2003536224365 11.9355411529541 14.1257638931274 7.3279242515564 7.88302707672119 12.7784357070923 7.22990417480469 4.53373575210571 6.17032623291016 5.37895154953003 3.98972177505493 4.09893989562988 3.31155681610107 2.63689494132996 2.17612981796265 2.13645887374878 6.09838581085205 1.86232793331146 1.58793985843658 0.335300266742706 -0.39890131354332 -0.441044449806213 -0.917992353439331 -0.657883584499359 -0.619308829307556 2.45036768913269 3.20278239250183 15.6975374221802 23.4329242706299 21.372049331665 11.140154838562 9.33984756469727 19.684061050415 10.2279424667358 11.0864152908325 19.3459987640381 4.04655790328979 0.0717890411615372 -0.0174212474375963 -0.318526357412338 20.491325378418 21.3900680541992 19.2282447814941 10.2716112136841 12.5855417251587 32.5336799621582 35.9195861816406 26.2999744415283 14.9853649139404 15.0491914749146 13.6481580734253 16.003604888916 14.9057769775391 12.1091194152832 10.1384019851685 8.82201766967773 10.697211265564 9.85751438140869 8.60040092468262 6.22404861450195 6.6638503074646 6.18033266067505 4.81814098358154 5.69804573059082 5.42418622970581 3.71874284744263 3.7924108505249 3.56136083602905 3.25888681411743 2.03928685188293 1.76115465164185 2.01630067825317 1.92146015167236 2.02325081825256 1.97384083271027 2.07578825950623 1.85750091075897 2.08386754989624 2.27232623100281 2.56462931632996 2.71141839027405 2.86110997200012 2.91319274902344 3.19581294059753 3.61511850357056 3.85245490074158 3.49518179893494 2.65953373908997 2.03199863433838 2.36587333679199 2.2794234752655 8.49057388305664 1.05721926689148 8.69034481048584 9.06075572967529 8.44103908538818 5.67492628097534 7.92342758178711 6.27746248245239 3.52371406555176 2.9639356136322 2.95891857147217 3.2742178440094 1.97285234928131 2.59597897529602 4.02600765228271 30.5602359771729
7.84857273101807 7.60634565353394 6.73328924179077 5.51870489120483 5.79912853240967 5.4656081199646 4.32759141921997 3.899897813797 3.43658423423767 2.80680584907532 2.60914158821106 2.34821724891663 1.69645202159882 0.183541774749756 0.13453520834446 0.0565614812076092 0.118767000734806 0.820131719112396 0.71948516368866 0.35541108250618 0.611558258533478 0.442398935556412 0.324131816625595 0.400622755289078 11.586615562439 3.78271245956421 5.84295701980591 3.64804887771606 2.02206778526306 2.85818862915039 3.30844521522522 41.267822265625 35.3872718811035 24.2542858123779 17.7419662475586 15.4665565490723 13.8904247283936 12.2088928222656 10.4346971511841 9.63180446624756 10.9740867614746 9.63651847839355 7.35092115402222 7.99351406097412 7.49522256851196 5.21365880966187 5.35648393630981 5.14878273010254 3.57842326164246 3.52918481826782 2.99470400810242 6.70337581634521 6.40051603317261 6.52232074737549 5.04653406143188 3.67998170852661 5.29220867156982 1.94653749465942 7.80072641372681 2.05099844932556 54.2528457641602 41.2334175109863 28.7261600494385 24.4259719848633 19.7412376403809 28.3629207611084 18.8646850585938 11.9698638916016 14.0218191146851 6.8260326385498 7.09808969497681 4.25988721847534 7.49251794815063 8.50692272186279 7.52799701690674 4.22183799743652 4.12835884094238 4.62177038192749 4.64388084411621 4.30296611785889 3.11608123779297 2.63774871826172 1.96807944774628 5.30401515960693 1.78345096111298 1.82547867298126 1.13217771053314 0.570532381534576 -0.0521683096885681 -0.384732931852341 -0.262309581041336 0.0711923986673355 -0.010281222872436 0.192844569683075 3.48173308372498 16.4128894805908 20.9257564544678 15.5316505432129 0.191120594739914 3.45912432670593 3.94324016571045 3.02527737617493 1.11577081680298 0.482317417860031 0.208703771233559 -0.209666147828102 -0.368094384670258 -0.306589007377625 16.3351154327393 9.91510963439941 6.99153566360474 5.60556030273438 0.995105445384979 29.158390045166 29.4328651428223 21.7062759399414 21.9858875274658 19.2988681793213 15.8407583236694 12.9182348251343 11.9733285903931 8.83413887023926 12.5544853210449 11.0699882507324 7.69742870330811 8.39776039123535 7.68712472915649 6.56376361846924 6.01402378082275 6.32213401794434 4.47225379943848 4.62007808685303 4.35211944580078 4.01132965087891 2.563321352005 2.20729827880859 2.29811501502991 2.21747636795044 2.12822246551514 2.33228206634521 2.39942789077759 2.48376893997192 2.45704770088196 2.24359059333801 2.35551261901855 2.73271656036377 2.93463134765625 3.08903884887695 3.49616599082947 3.80310988426208 4.04450750350952 3.98260807991028 4.15082454681396 4.13068580627441 3.60123610496521 3.76437544822693 23.788064956665 29.3020324707031 22.679256439209 26.4365844726562 17.2924633026123 16.77272605896 16.4047756195068 12.7567653656006 7.02151203155518 5.31595802307129 3.7693874835968 3.78186750411987 3.62133836746216 4.82561635971069 5.45739459991455 4.90912961959839 4.07211637496948 6.97369480133057
8.48046970367432 7.4942421913147 6.73684406280518 6.357985496521 5.0943078994751 4.5787296295166 3.97033143043518 3.52354836463928 3.18500781059265 2.98784708976746 2.62045574188232 0.524364411830902 0.349999040365219 0.218879923224449 0.262479782104492 1.10314702987671 0.926574230194092 0.75659716129303 0.191799446940422 0.750816643238068 1.74281966686249 1.75358951091766 23.7056350708008 21.5193138122559 21.9234580993652 9.47281837463379 12.436731338501 10.8816738128662 4.84907484054565 9.47883415222168 5.05846548080444 16.6054229736328 37.2605934143066 25.9924049377441 21.5620918273926 17.7169895172119 13.7809610366821 14.3268489837646 16.4284553527832 13.4750308990479 8.72992038726807 9.54176998138428 8.797119140625 5.90448522567749 5.58934307098389 5.81261968612671 3.93019890785217 3.82189702987671 3.18854165077209 2.71681213378906 7.27910709381104 7.38144111633301 7.02738475799561 6.26442909240723 5.93514490127563 5.2212085723877 18.1766262054443 11.2340154647827 0.338130235671997 -0.711720287799835 51.5067977905273 44.3576240539551 33.672233581543 24.2587757110596 14.1582136154175 6.18521404266357 6.31291437149048 8.74838066101074 5.24528312683105 5.01203107833862 4.66250133514404 23.1233882904053 13.2108039855957 4.7833104133606 4.44347095489502 4.82734107971191 4.7548565864563 5.02527904510498 6.58474540710449 5.51259517669678 3.01385617256165 3.17464089393616 2.28198981285095 2.23848843574524 1.70824635028839 7.4885630607605 7.22898864746094 0.859040558338165 0.502520024776459 0.949954450130463 1.06460845470428 0.67987859249115 -0.03001743927598 0.0822508856654167 2.83149361610413 0.552566289901733 0.696265876293182 14.2411918640137 6.96764755249023 7.34154510498047 5.29382228851318 2.0915470123291 0.798850953578949 0.918152928352356 0.475462555885315 -0.0398685596883297 -0.218103095889091 -0.108833655714989 6.50968599319458 8.18444061279297 1.59456074237823 8.95288562774658 8.68724060058594 6.66720104217529 42.1736030578613 34.7698631286621 25.7270660400391 17.3364810943604 15.3884305953979 12.4061870574951 16.7060451507568 15.033130645752 13.2840061187744 9.03871631622314 9.88391399383545 8.0773754119873 7.5143928527832 7.59661960601807 7.07237768173218 5.00255632400513 5.09455251693726 4.75655126571655 3.05045771598816 2.68474912643433 2.23245668411255 2.45823121070862 2.61056017875671 2.7230589389801 2.61804819107056 2.74574184417725 2.72955298423767 2.83258032798767 2.84921383857727 2.78670787811279 2.82970666885376 3.11951160430908 3.55451917648315 3.79579281806946 3.95990133285522 4.18949890136719 4.35654449462891 4.36606550216675 4.61901712417603 4.61970615386963 10.3506383895874 3.55914950370789 1.94698333740234 20.5884017944336 14.1249933242798 38.9373779296875 38.7811698913574 26.7000598907471 13.9355869293213 10.9072103500366 9.01740837097168 6.2496223449707 4.26839733123779 7.67061948776245 7.99118375778198 7.00644111633301 5.84622859954834 7.00243616104126 7.15126800537109 8.42286014556885
7.15816688537598 7.44382047653198 6.59664249420166 5.49519872665405 4.9585599899292 4.64378690719604 4.10860681533813 3.73767971992493 3.3936939239502 0.732721745967865 0.717178344726562 0.487218648195267 0.449717134237289 1.54430389404297 1.3337219953537 1.11599910259247 0.291772484779358 0.168797016143799 0.215364247560501 0.882678508758545 47.7939643859863 45.1546745300293 45.751106262207 32.7786064147949 21.8926963806152 4.78682661056519 3.40397334098816 27.0503273010254 16.9172840118408 0.802019059658051 0.519873082637787 18.7008457183838 43.3978309631348 33.3175010681152 23.0556793212891 32.9756355285645 36.1454086303711 24.4315013885498 8.9130744934082 9.74339962005615 10.7542715072632 6.94575452804565 6.43003082275391 6.56880521774292 6.24068641662598 4.15516662597656 3.43978047370911 2.57232713699341 8.43473815917969 7.9537615776062 8.00920295715332 7.04757452011108 6.71509838104248 5.90770578384399 4.44897794723511 2.63672065734863 1.93535923957825 1.7373880147934 -0.335277616977692 -0.969888150691986 16.825174331665 37.1564712524414 41.0615768432617 19.1881885528564 8.40604972839355 15.4161767959595 7.59939861297607 6.51969814300537 5.59459638595581 7.78808355331421 4.09456205368042 6.41365671157837 6.25199031829834 5.44711828231812 5.32865715026855 5.14444828033447 11.61403465271 8.36717796325684 6.78258275985718 8.73817157745361 3.32244539260864 3.06494832038879 2.39864921569824 1.88034284114838 7.71487522125244 2.13516998291016 15.4549722671509 2.1421103477478 1.65007221698761 1.66181647777557 1.32830417156219 0.927915751934052 0.391964852809906 0.742752075195312 0.762105941772461 0.576183438301086 0.340357333421707 4.08641338348389 7.34609651565552 9.91075706481934 6.40419912338257 7.98999500274658 7.91687870025635 1.24374616146088 0.907511353492737 0.156152859330177 0.135263785719872 0.416032195091248 2.85728979110718 0.841197192668915 0.569731295108795 0.509599804878235 9.98415184020996 -0.391626209020615 4.32058715820312 34.3894920349121 25.6152687072754 18.2314434051514 23.4071006774902 21.7016296386719 18.9261493682861 12.36168384552 13.5804271697998 11.8777046203613 8.13787078857422 9.45850658416748 8.65775203704834 6.13586330413818 6.10293912887573 5.68345499038696 5.30117464065552 3.16256403923035 2.44558024406433 2.81139063835144 3.03277397155762 3.20142245292664 3.14704442024231 3.10197782516479 2.90761399269104 3.06643295288086 3.10177993774414 3.0851309299469 3.53142881393433 3.32165002822876 3.31487798690796 3.72816276550293 4.01655387878418 4.30341005325317 4.3835916519165 4.56427240371704 4.83899116516113 4.78967571258545 15.3303556442261 4.3607029914856 3.81167221069336 3.41293811798096 2.5983784198761 1.69885671138763 1.21788358688354 1.06632077693939 33.4371109008789 26.4749794006348 25.8027667999268 16.7020378112793 6.56539678573608 14.8871288299561 15.1609125137329 11.7245464324951 7.40965175628662 8.57822322845459 8.25526332855225 9.17501544952393 10.1647367477417 9.9168529510498
9.22517585754395 8.12532234191895 6.50754022598267 4.8034200668335 5.6002025604248 4.94862794876099 4.36315965652466 3.16734385490417 1.08549380302429 0.880267798900604 0.46913605928421 2.06896257400513 1.88696753978729 1.62656331062317 0.489592880010605 0.349677950143814 0.390417635440826 0.278397232294083 -0.0747494623064995 -2.42150950431824 -2.27215909957886 14.5416774749756 44.7432556152344 32.2069664001465 31.8672904968262 40.491756439209 0.222559750080109 12.444263458252 10.1068058013916 5.74835824966431 1.2442147731781 3.3127224445343 17.81764793396 34.9125900268555 6.72595500946045 5.14164447784424 13.5993795394897 13.0733966827393 14.2890863418579 12.4501476287842 7.78756093978882 7.76233673095703 7.21168088912964 4.56956815719604 4.39362716674805 2.61472463607788 10.0306129455566 9.42148971557617 9.31723117828369 8.74038887023926 7.6288423538208 6.62853622436523 4.9880428314209 4.7206711769104 2.22417402267456 2.0505428314209 1.85883450508118 -0.121077485382557 -0.866099119186401 15.8564949035645 25.4270572662354 15.4422073364258 5.16801881790161 8.46733283996582 8.91142845153809 8.92189979553223 7.47738170623779 4.30049133300781 7.78182983398438 6.72419738769531 15.3746290206909 10.7983560562134 6.35303354263306 5.84115791320801 5.26909446716309 9.02951240539551 9.01373958587646 20.8630619049072 13.1673259735107 8.144118309021 5.90091466903687 2.95039415359497 3.08470511436462 2.88177132606506 2.55042338371277 2.7492094039917 7.13860893249512 2.62670016288757 2.11924409866333 1.78636705875397 8.94895648956299 4.07625484466553 1.00711858272552 0.982672095298767 1.00254344940186 0.404045730829239 0.313778400421143 0.826563656330109 11.7332324981689 1.68576884269714 1.82377254962921 1.81484162807465 1.96321761608124 1.80643713474274 1.00873851776123 1.29801523685455 1.12300109863281 1.1515771150589 1.35968482494354 1.58097171783447 1.23691117763519 0.865393400192261 0.741455137729645 0.127516716718674 5.02768135070801 13.9043712615967 45.0862045288086 42.1357536315918 31.593957901001 17.7531642913818 20.6209926605225 17.4306392669678 12.3639640808105 12.2013025283813 11.0671682357788 7.90458869934082 7.58659648895264 7.07978010177612 6.48008298873901 3.98926115036011 3.5262496471405 3.2660276889801 3.52085709571838 3.70348167419434 3.64952826499939 3.55513787269592 3.35677742958069 3.10721707344055 3.20730590820312 3.30119252204895 3.78450655937195 3.69797825813293 4.05797815322876 4.03378772735596 4.38415861129761 4.61719083786011 4.48048973083496 4.61976718902588 4.75816297531128 4.93816137313843 4.9802303314209 4.44954013824463 4.70061588287354 5.53566551208496 3.96499347686768 3.61988806724548 3.43868803977966 3.11082983016968 13.5166797637939 2.07216382026672 6.72592258453369 4.57612276077271 18.4575862884521 36.7380104064941 38.1744232177734 25.9043140411377 12.7793827056885 9.86623191833496 10.5659627914429 11.2276840209961 12.0914812088013 11.3271989822388 12.2715425491333 11.7930564880371
8.88549041748047 8.03093147277832 8.05409145355225 6.89170742034912 5.95793676376343 4.1514630317688 1.66453433036804 1.34816884994507 1.03302907943726 0.680148005485535 2.36733531951904 2.18034291267395 0.708236813545227 0.584399044513702 0.612662374973297 0.498361378908157 0.171765103936195 0.045155618339777 -0.0601590238511562 -2.18498373031616 -2.92255735397339 5.37356567382812 45.5553321838379 15.941312789917 4.13749885559082 0.657053291797638 2.44266748428345 12.1792659759521 8.0863208770752 4.35757780075073 -0.138209879398346 -0.0265947580337524 8.61483287811279 35.1694068908691 31.5590000152588 20.8691501617432 21.9217281341553 18.0656509399414 10.4362907409668 9.12607288360596 8.80795764923096 5.29252862930298 4.96936655044556 3.82643818855286 3.22380304336548 11.1562099456787 11.0027313232422 10.3724842071533 8.91205787658691 8.35762023925781 5.57542562484741 5.33056974411011 2.5165901184082 2.34531450271606 2.12388467788696 1.99798011779785 1.50601327419281 -0.106301583349705 -1.36593902111053 -0.840268194675446 12.1642379760742 16.3845691680908 11.8617668151855 9.12415313720703 7.92236280441284 8.21405029296875 4.28836441040039 8.30945587158203 7.2182879447937 4.88711738586426 13.8727369308472 6.93179750442505 6.37508869171143 5.69702339172363 4.12898397445679 4.75081348419189 3.98196506500244 14.0835037231445 12.8349409103394 8.45329666137695 4.15127420425415 3.94375491142273 3.53248810768127 3.45946502685547 3.02828550338745 3.23203372955322 2.71094870567322 3.52353858947754 1.93199419975281 1.12103509902954 1.52565598487854 1.47214353084564 1.12235975265503 1.09462928771973 1.72977495193481 1.12256801128387 1.28509914875031 1.58014965057373 1.9994341135025 5.76634502410889 2.82873868942261 2.48256683349609 2.00014734268188 1.89813935756683 2.04019403457642 2.02055907249451 2.35141968727112 1.84621715545654 1.68055665493011 14.9023218154907 6.23196506500244 1.28029930591583 3.44259190559387 0.509412229061127 8.37731838226318 -1.24649322032928 1.36304557323456 35.9189720153809 40.9223556518555 30.159725189209 17.6516895294189 19.1777725219727 15.7785129547119 13.2481803894043 9.51203536987305 8.92703151702881 8.31196403503418 4.91015815734863 4.34181642532349 3.33522534370422 3.60786485671997 3.88936257362366 4.10345268249512 4.10447883605957 3.85983037948608 3.46584868431091 3.40749168395996 3.45334887504578 3.43135523796082 3.93284773826599 4.3062686920166 4.3252010345459 4.5245304107666 4.61907052993774 4.86927700042725 5.00146436691284 4.93807744979858 5.18247413635254 5.17314147949219 6.52545642852783 5.88751983642578 7.08309698104858 6.43990850448608 8.92452239990234 8.17116069793701 3.95244741439819 8.79374122619629 3.17047929763794 5.04858064651489 3.35522103309631 12.862024307251 10.1636648178101 3.67452526092529 3.50187706947327 32.1105155944824 21.4414882659912 15.6612739562988 14.6182308197021 13.7114410400391 14.3495502471924 14.7245845794678 13.6737966537476 12.7466230392456 12.2765369415283
12.4005880355835 10.4599752426147 8.68472385406494 7.31697797775269 2.15604114532471 2.15869402885437 1.52407693862915 1.474644780159 3.02724957466125 2.8138747215271 2.56613492965698 0.804195702075958 0.690152108669281 0.744484186172485 0.43989485502243 0.304662376642227 0.15796685218811 -0.0189733412116766 -0.149626523256302 -2.10732197761536 -2.64786601066589 1.81349861621857 17.1611785888672 33.3733215332031 22.3556880950928 6.27423667907715 -1.08836054801941 -0.268225640058517 0.511889755725861 0.502862930297852 11.5599889755249 12.58385181427 12.2311029434204 18.5233402252197 45.3471183776855 32.9574699401855 16.3453235626221 13.3551063537598 11.6712512969971 10.1460065841675 5.99207496643066 4.30328989028931 2.82424426078796 14.5138740539551 12.9270057678223 12.3133335113525 10.438533782959 9.87698841094971 8.25743389129639 6.04045534133911 3.19643902778625 2.65349578857422 2.44862413406372 2.57046580314636 2.22330975532532 2.05511355400085 0.901040494441986 0.236031875014305 -0.461978048086166 0.230740293860435 16.5119781494141 26.3330059051514 19.4983043670654 14.4892387390137 11.4974069595337 9.40115165710449 8.93555545806885 7.41656446456909 5.64013624191284 14.6638402938843 9.824294090271 7.03025102615356 6.68583679199219 4.39664697647095 5.05083703994751 6.63244819641113 4.11450815200806 3.87543821334839 4.78080415725708 4.39898824691772 4.52844524383545 4.56587839126587 4.54958391189575 3.87088704109192 3.52900314331055 8.40525913238525 2.52745652198792 2.66376924514771 2.82299971580505 2.45758008956909 1.77974212169647 1.65021634101868 1.41030836105347 1.67096412181854 1.87892270088196 1.86974954605103 3.0003125667572 6.88786935806274 5.44851016998291 3.03359460830688 15.3577928543091 2.17129039764404 2.21396803855896 2.4957423210144 5.22316074371338 2.45345783233643 2.09738516807556 5.57266902923584 1.58037352561951 1.76162552833557 1.58928680419922 1.29997396469116 2.54151201248169 12.6961231231689 12.3418111801147 8.81034183502197 6.93736696243286 2.19416761398315 34.6541137695312 39.5014419555664 28.7326145172119 19.4031181335449 14.1130046844482 12.2572259902954 11.5071830749512 10.0378217697144 5.61023235321045 4.33707761764526 4.33577871322632 4.6742696762085 4.91775321960449 4.83985090255737 4.51355504989624 3.93277025222778 3.8157639503479 3.6647469997406 3.63603162765503 4.16534900665283 4.07104969024658 4.46368646621704 4.53641700744629 4.93490171432495 5.21851301193237 5.14316606521606 5.2576789855957 5.51947069168091 5.48857831954956 10.3433475494385 8.12164497375488 9.52935028076172 11.3669853210449 8.12748336791992 16.8974590301514 17.0099849700928 11.6664237976074 3.87824130058289 7.35357809066772 4.75629901885986 5.94470596313477 4.78620290756226 5.487624168396 5.27351522445679 5.25883293151855 9.25172996520996 17.5262241363525 23.3905868530273 22.9659023284912 24.6325798034668 18.6275596618652 17.4061698913574 15.8814420700073 14.5375070571899 14.7480487823486 14.9790935516357
12.8909254074097 10.8798818588257 7.02069902420044 3.49273633956909 2.85793566703796 1.63873267173767 4.18845415115356 3.86151313781738 3.31060528755188 0.972763895988464 0.908411264419556 0.957039058208466 0.862954199314117 0.536574244499207 0.410039037466049 0.237134695053101 0.101876333355904 -0.0568241626024246 -0.176554962992668 -2.16687440872192 -2.76345610618591 -0.23887811601162 14.7214508056641 29.3992671966553 4.67071104049683 4.53545379638672 2.5649402141571 12.2549238204956 0.791729390621185 -0.786971986293793 -0.673617541790009 6.7429027557373 -0.649353325366974 -0.844046592712402 35.7923583984375 24.5961475372314 18.5343818664551 14.8536100387573 7.75242280960083 6.9935622215271 3.65842247009277 21.7786064147949 18.0255546569824 16.0153961181641 14.3137302398682 11.7138566970825 9.4986743927002 6.86053657531738 6.47473192214966 2.95741939544678 2.76511836051941 2.55432105064392 2.78412628173828 2.67392110824585 2.28361558914185 1.7597451210022 1.88654363155365 2.56308007240295 2.17153024673462 1.62387645244598 8.55108833312988 21.9510669708252 13.1669044494629 18.1341533660889 17.2126274108887 6.27238655090332 14.1444892883301 16.8338050842285 7.15898656845093 13.4930267333984 7.89395523071289 9.17865943908691 7.12149095535278 5.68085765838623 4.65226173400879 4.64698934555054 6.60534191131592 5.4332709312439 5.15906810760498 4.86771154403687 5.05701303482056 5.08768749237061 4.76678085327148 3.83363246917725 3.69923782348633 2.89703011512756 3.32524037361145 3.65838623046875 2.80628633499146 2.44730758666992 2.59257245063782 2.07104086875916 2.61195659637451 2.44204616546631 2.18364715576172 2.02507925033569 6.42778253555298 7.50319957733154 3.11464071273804 2.58783912658691 2.53373456001282 2.57712721824646 3.96331644058228 2.54686427116394 2.76741600036621 2.4288182258606 2.16372776031494 2.309485912323 2.18469977378845 10.2127132415771 1.49945998191833 1.15883648395538 0.560573399066925 0.656912744045258 -0.131444603204727 2.47102379798889 -1.10384511947632 8.86655807495117 12.4751405715942 36.5195579528809 26.2342224121094 19.3111133575439 18.2579727172852 14.9058141708374 7.78827619552612 6.80458498001099 5.41896104812622 5.82701587677002 6.10664749145508 6.02197980880737 5.50522232055664 4.98842906951904 4.54918813705444 4.22535562515259 3.98578429222107 4.40297746658325 4.30132961273193 4.70664310455322 4.81227874755859 5.29330396652222 5.60204362869263 5.44142580032349 5.56593608856201 5.59008502960205 5.7419228553772 26.0947742462158 16.8582611083984 15.7013311386108 18.143087387085 14.6948270797729 16.9525356292725 5.0524730682373 13.6286792755127 19.8453750610352 10.4421119689941 12.4432668685913 5.87730646133423 5.67757415771484 10.3326873779297 21.984130859375 14.2077608108521 20.8526916503906 20.8820304870605 37.8265914916992 38.4263648986816 23.3303871154785 20.2736015319824 23.8371772766113 28.3348941802979 19.0748310089111 17.8667430877686 17.8461399078369 16.5939159393311 13.3928823471069
9.27206134796143 5.02310514450073 4.51862668991089 3.26032137870789 1.9224841594696 5.16851186752319 4.80622529983521 1.33120787143707 1.05859053134918 1.14267182350159 1.07966327667236 0.763908505439758 0.644970417022705 0.426575541496277 0.339990198612213 0.217229932546616 0.100841082632542 -0.082189604640007 4.02110624313354 -0.708978831768036 -1.71681797504425 -1.80757677555084 3.24726867675781 4.31934595108032 4.84599304199219 4.38024616241455 1.26805734634399 14.0612316131592 1.51841509342194 -0.696273565292358 -0.497733622789383 0.915720760822296 7.29312324523926 5.40352058410645 39.2970199584961 26.8693313598633 11.7164258956909 9.88106060028076 7.58912420272827 45.1768074035645 32.4911155700684 24.0412845611572 19.8877735137939 15.1244268417358 13.5388441085815 7.82537364959717 7.40772581100464 3.26814723014832 3.08158612251282 2.79354166984558 3.37681841850281 2.94963359832764 2.81067299842834 2.31249690055847 2.63101649284363 5.96574258804321 5.40896415710449 4.72669887542725 3.20234656333923 0.978410959243774 1.64560902118683 34.6406097412109 25.4392833709717 9.1415958404541 11.3271989822388 7.07289171218872 10.8662691116333 8.76978206634521 7.90944385528564 24.1236019134521 14.7097501754761 7.77958822250366 8.0595064163208 5.14004230499268 4.57327699661255 8.88642978668213 11.3014497756958 6.98223924636841 5.42771244049072 5.44170618057251 5.29394865036011 4.95606517791748 4.69014930725098 4.47423553466797 4.27157497406006 4.38491773605347 4.47784852981567 3.38059568405151 3.61740684509277 13.0392532348633 12.617377281189 3.43319511413574 3.11761808395386 3.03681302070618 3.00389647483826 3.57234168052673 3.39946269989014 3.33774065971375 2.87101602554321 2.96217036247253 18.720085144043 12.2206525802612 6.94462251663208 10.4535894393921 9.1532564163208 9.9309663772583 4.67651844024658 2.34843063354492 2.01892185211182 2.06144618988037 1.91282081604004 1.35055005550385 6.3821587562561 3.30592775344849 0.166106462478638 6.89388704299927 -0.962997674942017 -1.00752568244934 -0.0202659163624048 40.2657737731934 39.5700912475586 27.9639873504639 12.5301160812378 10.1758317947388 7.96737766265869 6.72974729537964 6.86416864395142 7.21559858322144 7.08383893966675 6.12226963043213 5.63445138931274 5.15130758285522 4.74814319610596 4.48642301559448 4.73461103439331 4.96844005584717 5.12825155258179 5.67175912857056 6.00036430358887 5.80958795547485 5.92718982696533 5.86700582504272 6.10928058624268 6.0951042175293 4.85260915756226 35.7980918884277 40.1454048156738 30.0072441101074 37.9606094360352 39.8954734802246 27.8375682830811 4.123291015625 3.96486687660217 5.93898153305054 7.27999353408813 7.64383125305176 27.1198902130127 19.3150463104248 13.6663608551025 6.2614369392395 5.17315578460693 5.1125283241272 18.6520004272461 27.4425582885742 42.9104843139648 30.7142429351807 25.9484024047852 19.242977142334 28.1905136108398 20.6255207061768 26.3833255767822 17.5039615631104 15.16943359375 14.1497621536255
6.76319313049316 3.75988006591797 2.55483841896057 7.66119289398193 7.45623540878296 6.07792997360229 1.37187647819519 1.39065170288086 1.26791405677795 0.93061637878418 0.862219154834747 0.726584076881409 0.511237680912018 0.4139623939991 0.30283984541893 0.182483106851578 6.03071165084839 5.12646245956421 3.03121137619019 5.35382652282715 5.37283992767334 4.96987295150757 5.2515115737915 5.08762264251709 4.66642475128174 1.44041585922241 18.8202362060547 12.4433889389038 2.08676886558533 0.251489013433456 -0.134679868817329 -0.375833809375763 1.11570274829865 -0.183083713054657 27.9580898284912 16.6657619476318 5.91034173965454 8.17164134979248 -0.4793820977211 47.9769287109375 36.107349395752 24.7918109893799 18.7507019042969 13.0463733673096 8.69507312774658 4.17938470840454 4.58566570281982 3.82013535499573 4.34228897094727 3.50956249237061 3.33368945121765 2.95276546478271 2.54924368858337 9.30184268951416 7.02704811096191 5.87826156616211 4.50754356384277 4.11254262924194 3.0504629611969 3.83094429969788 2.56569004058838 10.89368724823 14.2063789367676 15.1159267425537 16.2647438049316 9.73149681091309 10.1866598129272 10.4743146896362 6.83752202987671 19.0826015472412 20.1929130554199 13.0905818939209 7.07800817489624 6.13444566726685 4.80092573165894 5.07878255844116 6.31979703903198 5.87413740158081 6.45256662368774 6.05107259750366 5.55597352981567 4.92510938644409 4.80929374694824 4.94935369491577 4.93507623672485 4.6310248374939 4.58097791671753 4.64495229721069 3.43636298179626 3.78121876716614 4.43950700759888 10.6162586212158 6.81058120727539 3.8063542842865 3.7841203212738 4.52383995056152 3.61189365386963 3.42437076568604 3.07828068733215 2.66555309295654 2.95601105690002 2.59151220321655 2.36957144737244 2.48336672782898 2.40380239486694 5.00815773010254 2.58216166496277 2.17310261726379 2.42901134490967 2.12381887435913 1.61017787456512 1.03523850440979 0.818400621414185 0.681821942329407 0.224418476223946 0.294585168361664 1.2383861541748 5.35058164596558 0.472792387008667 0.53309291601181 28.5320701599121 23.6545314788818 15.6672925949097 10.8951683044434 9.54165458679199 9.96676921844482 9.79943656921387 8.51559257507324 6.90103006362915 6.6147255897522 5.88753700256348 5.53299808502197 5.64755535125732 5.21863603591919 6.11331653594971 5.74928140640259 5.91476249694824 6.25058889389038 6.34505701065063 6.24900341033936 6.45654249191284 6.43158149719238 6.26644420623779 6.28809356689453 4.81766605377197 4.45051765441895 14.2193994522095 3.99346709251404 4.11579132080078 35.768123626709 27.7426586151123 16.9304141998291 15.9746179580688 9.26004886627197 8.14663982391357 6.78459548950195 10.4350538253784 7.51465225219727 11.4947214126587 5.83236837387085 5.3089919090271 3.86085247993469 4.90343809127808 22.1691513061523 35.0775413513184 37.5732727050781 35.766975402832 21.3322582244873 23.1665687561035 19.1175270080566 19.2364768981934 23.9915523529053 32.0065727233887 22.0807361602783
3.71532773971558 11.0025949478149 11.2629823684692 9.70926570892334 1.76567816734314 1.54595589637756 1.57789885997772 1.14124798774719 1.08224403858185 1.14381921291351 0.83299195766449 0.614170253276825 0.46227702498436 0.636119544506073 0.259895890951157 7.39285802841187 4.21661901473999 9.12016677856445 8.30908489227295 7.84578418731689 7.63479614257812 6.53632402420044 5.45127439498901 5.02021932601929 4.35946321487427 2.21099734306335 3.88565969467163 3.5949375629425 3.42717432975769 1.65764844417572 -0.168090283870697 -0.171868458390236 1.49516403675079 0.768563807010651 16.5796508789062 6.195481300354 1.78471446037292 1.72317492961884 -0.889506638050079 18.1323871612549 33.0256156921387 18.1066780090332 11.0171451568604 9.87928009033203 3.49934411048889 3.56217479705811 7.34526205062866 5.58919286727905 4.12206792831421 3.45131993293762 2.94008803367615 22.3600997924805 13.0765266418457 6.71332168579102 5.41059255599976 5.02231502532959 3.74955868721008 4.02631187438965 19.0851936340332 14.8268547058105 23.52805519104 24.4605808258057 22.3959121704102 19.9815101623535 16.8524131774902 14.4377059936523 12.0310983657837 11.5956697463989 8.36145877838135 7.36250019073486 10.3608083724976 7.73060178756714 7.51851940155029 8.87465953826904 8.78827095031738 7.31206941604614 6.21150588989258 7.47114706039429 7.00748586654663 5.91359376907349 5.51247072219849 5.64951419830322 5.54019212722778 5.30841779708862 5.1033239364624 4.9601674079895 4.937828540802 5.17684888839722 4.64491891860962 4.02958106994629 3.53168082237244 4.28181552886963 18.4242973327637 14.4835329055786 10.9501104354858 9.7273006439209 6.94936561584473 3.93348217010498 3.49401068687439 3.51622414588928 3.30513882637024 3.09855937957764 2.93316459655762 2.56864047050476 2.68472957611084 2.67114305496216 2.75987195968628 2.49782776832581 2.10386848449707 2.19857835769653 2.04284334182739 1.37968897819519 2.18512296676636 1.37312817573547 2.46495008468628 2.91290783882141 1.49084556102753 3.1430332660675 1.81801283359528 2.14477753639221 2.46788692474365 25.2188568115234 20.3748626708984 16.0012645721436 15.7004899978638 12.7415390014648 10.214467048645 9.26189041137695 8.08784675598145 6.93555164337158 6.95750951766968 6.34033060073853 7.52754735946655 6.87782955169678 6.38393926620483 6.75811433792114 6.51888847351074 6.60775995254517 6.91547536849976 6.85924863815308 6.61289739608765 6.58397150039673 6.60683441162109 6.51109600067139 5.15538215637207 4.28610467910767 4.13515281677246 4.77796459197998 4.68348026275635 26.3912906646729 29.3809757232666 13.7802324295044 13.4041938781738 9.57786750793457 7.22567701339722 10.7635898590088 10.9399576187134 7.13604784011841 6.86668586730957 6.71345710754395 5.23232078552246 4.26300382614136 4.36091279983521 10.1271572113037 33.0744667053223 25.3965358734131 34.3777008056641 24.3794975280762 20.2120914459229 19.369441986084 15.670524597168 8.91740894317627 20.011547088623 31.8075656890869
26.1758995056152 17.2451362609863 1.86688578128815 1.97541534900665 1.91530644893646 1.76004767417908 1.30828881263733 1.28598856925964 1.23427176475525 1.14246368408203 0.846707701683044 0.920654892921448 0.702824831008911 10.7421836853027 9.12182998657227 16.0163135528564 15.5102691650391 12.0551404953003 9.94238376617432 10.0338172912598 7.81429815292358 6.54489898681641 8.56673908233643 8.96961498260498 5.92692089080811 4.04585695266724 3.92145419120789 3.76699948310852 3.91081690788269 1.89041602611542 3.46649408340454 1.75555717945099 1.22887468338013 2.56449341773987 2.82793569564819 2.46285319328308 1.87165927886963 31.2465915679932 0.00712087005376816 29.7094955444336 16.0580520629883 13.4712343215942 4.51526641845703 3.92206621170044 2.81880235671997 1.50736248493195 4.54400014877319 4.74385643005371 3.5563690662384 9.46188259124756 5.12076282501221 7.82263898849487 7.07273006439209 5.62029457092285 4.41399335861206 4.79948854446411 42.3648796081543 35.9428596496582 32.843921661377 20.4743728637695 26.9185352325439 34.6840171813965 26.557487487793 24.7090797424316 21.5466499328613 15.7504911422729 11.7987995147705 11.1388969421387 12.9009408950806 7.94887351989746 11.9522438049316 19.7648391723633 14.3071117401123 11.689567565918 6.8601861000061 10.1713552474976 9.62545204162598 8.34219455718994 8.0486888885498 7.21593284606934 6.20028591156006 6.5761833190918 5.98582315444946 6.03950691223145 5.56081104278564 5.55196905136108 5.5787034034729 5.30793905258179 5.10050678253174 4.94027328491211 4.89037036895752 3.82839250564575 3.55077004432678 3.68735146522522 3.93122887611389 4.13588333129883 15.2816467285156 4.56194639205933 5.08206176757812 3.7303478717804 3.69930911064148 3.44326734542847 3.46574544906616 2.86245918273926 3.12812256813049 2.97097277641296 3.19267463684082 2.57962536811829 2.15994644165039 2.08728671073914 6.75072717666626 6.91295719146729 6.85192966461182 5.59419298171997 5.94176340103149 5.51550006866455 5.44266843795776 4.83790588378906 4.0224871635437 9.84711933135986 11.3933391571045 19.6204643249512 35.0169372558594 29.8302268981934 19.9267082214355 14.9383201599121 13.085036277771 10.5291404724121 9.07866668701172 8.16061019897461 6.53814935684204 8.64091014862061 7.09010457992554 7.29198026657104 7.04425144195557 7.11924695968628 7.01952314376831 7.18439626693726 7.10421991348267 7.03490686416626 6.97148704528809 6.79247188568115 6.59067583084106 6.22857189178467 6.00330352783203 5.59170341491699 5.22120189666748 19.986686706543 6.95581912994385 9.8588981628418 16.402322769165 19.5685520172119 14.4158382415771 10.525429725647 8.38290882110596 11.7795782089233 19.1683883666992 18.0494384765625 12.7198266983032 7.86247539520264 5.26321029663086 7.77839469909668 12.8045530319214 22.4335651397705 33.6834259033203 35.7356834411621 37.283519744873 25.7086353302002 25.6056995391846 16.871753692627 11.6780548095703 10.5931491851807 9.02327346801758 17.0321178436279
2.17716979980469 2.0197389125824 2.24601006507874 2.11639881134033 1.54116868972778 1.40647518634796 1.34051263332367 1.29813694953918 1.23062014579773 1.1528879404068 1.00922775268555 18.3297500610352 14.5125780105591 37.9268989562988 37.1056671142578 24.9034252166748 15.8993101119995 15.3382816314697 12.9632682800293 10.1470470428467 7.74449062347412 4.8465576171875 4.05346488952637 4.99070310592651 4.53559017181396 4.28551816940308 3.96673774719238 4.3026967048645 4.10136985778809 3.91894912719727 2.20825290679932 1.89353287220001 3.29837584495544 3.16270351409912 3.00541925430298 2.64996910095215 -0.257058590650558 -0.781984388828278 27.5405883789062 19.1443748474121 3.58522868156433 6.00203847885132 4.76430654525757 2.63757491111755 1.60647940635681 1.51327097415924 2.30125999450684 4.60860347747803 8.08270072937012 9.61922359466553 8.62249755859375 6.53786897659302 6.08622455596924 4.68493986129761 7.44963693618774 3.08268857002258 12.0274610519409 9.98641872406006 1.25253570079803 5.58404922485352 16.7835254669189 44.5319900512695 34.4300346374512 26.5529804229736 14.9095335006714 23.2043132781982 11.8748941421509 9.20270252227783 30.3092975616455 34.0576095581055 16.4940986633301 22.3484001159668 15.1036434173584 16.4477882385254 15.6690349578857 14.5070743560791 13.255518913269 17.291955947876 11.43896484375 7.51824951171875 7.66300439834595 7.01270437240601 7.10609817504883 6.23149013519287 5.94129133224487 5.57110977172852 5.88531064987183 5.69999885559082 5.53687143325806 5.23973560333252 4.97544097900391 5.14914703369141 5.0922703742981 4.98175001144409 4.81948280334473 3.90788793563843 4.07810926437378 4.55492162704468 21.9265995025635 20.9213218688965 8.35030841827393 3.72189879417419 3.735675573349 3.53613615036011 3.27233505249023 2.78029751777649 2.61717462539673 2.37951111793518 10.3763313293457 11.4966993331909 10.5109643936157 8.2842903137207 7.84736108779907 7.08170366287231 6.32601499557495 5.76714515686035 4.79969596862793 8.06095409393311 2.47652578353882 2.74503588676453 2.63491439819336 4.54435157775879 7.97233867645264 33.6204605102539 30.8414402008057 20.3886165618896 14.5267753601074 11.6800355911255 9.76742935180664 12.0417051315308 10.2542667388916 8.07901573181152 7.8088641166687 7.64166688919067 7.56124114990234 7.73415279388428 7.66878747940063 7.37345838546753 7.46311807632446 7.27720975875854 7.0138087272644 6.53463077545166 6.19734287261963 21.8613815307617 5.99258184432983 5.81287097930908 3.98505043983459 5.24468469619751 7.92099285125732 15.1001091003418 20.8621788024902 26.3469772338867 16.9522266387939 16.8995227813721 12.8525400161743 11.969970703125 13.9271383285522 16.9482917785645 18.1712913513184 8.64607048034668 13.8581924438477 8.95932102203369 5.56978750228882 1.04708504676819 7.58902454376221 24.2424640655518 28.8783512115479 31.6896724700928 24.34423828125 13.3039321899414 17.098970413208 14.0268678665161 14.1298332214355 10.2549314498901
2.70559787750244 2.53794836997986 1.92359447479248 1.6767965555191 1.45976567268372 1.40572917461395 1.33682489395142 1.28225350379944 1.21390950679779 42.104907989502 29.0871925354004 13.2746686935425 1.35848605632782 10.7169332504272 33.4771041870117 24.9468040466309 20.6759929656982 16.6892871856689 13.0578966140747 10.210599899292 8.48627853393555 6.97558975219727 5.90500831604004 5.32898712158203 4.93145561218262 5.08890438079834 4.71165657043457 4.42858457565308 4.39248085021973 4.19819974899292 3.57977271080017 3.65629959106445 3.48426485061646 3.31257772445679 3.07888674736023 2.99201393127441 2.21374082565308 0.11018481105566 2.08241248130798 2.02591109275818 2.06157851219177 2.17441391944885 2.15626120567322 2.11972260475159 1.68134164810181 1.62699866294861 1.42142367362976 9.87032604217529 10.9339218139648 8.19973659515381 7.27537393569946 5.44138526916504 5.95412063598633 10.2313451766968 0.660177111625671 0.95439612865448 11.0537796020508 5.27835178375244 0.587007641792297 8.08374691009521 6.28005456924438 47.3784370422363 46.3429908752441 44.6436195373535 12.1827707290649 18.2922992706299 8.12874889373779 6.84476327896118 5.46913242340088 5.70163726806641 10.7200870513916 25.9630336761475 26.5525493621826 17.4953498840332 8.63464736938477 5.93227052688599 6.36048173904419 14.8778858184814 11.1496982574463 9.15903186798096 9.72814750671387 8.43766212463379 7.18344640731812 6.75350952148438 5.89512777328491 6.03686475753784 5.92498970031738 5.82268381118774 5.78223466873169 5.79268980026245 5.46967601776123 5.21397829055786 5.09756135940552 5.05569934844971 5.07660913467407 4.8899621963501 4.5091872215271 3.99716544151306 3.98449683189392 4.12488412857056 3.87487387657166 3.81065511703491 4.04322147369385 13.5203685760498 2.77115988731384 2.59153056144714 28.6610374450684 26.1833248138428 25.1688480377197 18.019250869751 11.8383646011353 10.060583114624 9.31265258789062 8.39633274078369 7.19783353805542 5.66312789916992 3.55322194099426 2.73597478866577 3.35058069229126 2.53496265411377 2.91121292114258 3.25438618659973 3.49500846862793 6.44551181793213 31.9340667724609 21.6201229095459 14.5939722061157 19.0781478881836 15.3051567077637 11.2574167251587 10.7665710449219 9.1463451385498 8.66843605041504 8.97515106201172 8.25208854675293 7.94827079772949 7.84570407867432 7.71098566055298 7.51676607131958 7.02987909317017 6.44043302536011 6.75846862792969 6.04605579376221 10.0839004516602 9.36075401306152 4.22893571853638 11.2516288757324 10.9053754806519 17.1704406738281 12.7328338623047 14.5054969787598 21.3632659912109 18.0916023254395 15.4974584579468 15.8247213363647 13.8343629837036 11.5212306976318 13.7090044021606 15.2115526199341 17.5682983398438 7.40027141571045 8.63727569580078 10.0279817581177 13.548095703125 11.1946954727173 32.7751655578613 11.8398771286011 24.4419860839844 30.6379089355469 22.4433841705322 16.672607421875 15.1553926467896 14.9828653335571 11.6559801101685
2.34319186210632 2.1911780834198 1.72836291790009 1.49725985527039 1.44962823390961 1.39099848270416 1.33225321769714 1.2772045135498 -0.382912427186966 33.0378761291504 38.9512100219727 43.5261154174805 10.472469329834 28.6572589874268 45.4200668334961 39.3369216918945 26.6425952911377 16.3764266967773 13.004693031311 11.3260793685913 9.43140316009521 7.1436824798584 6.37755870819092 6.68435335159302 6.05371618270874 5.39248180389404 4.8984055519104 4.70058870315552 4.3658275604248 4.18496179580688 3.99074006080627 3.78797316551208 3.53460121154785 3.56324481964111 3.38443040847778 2.97232055664062 2.98400092124939 2.68671250343323 2.44306802749634 2.27427816390991 1.66803419589996 1.76940894126892 1.75901174545288 1.83105063438416 1.76134943962097 13.2675485610962 13.9412498474121 12.216516494751 9.37534427642822 7.22827959060669 7.52342081069946 16.5524921417236 18.1845359802246 1.88408732414246 0.483971744775772 0.162382498383522 0.0608940981328487 0.971270799636841 -0.10994254052639 6.38606452941895 7.5467963218689 13.6702404022217 14.1345481872559 10.9918355941772 9.43953227996826 17.4026489257812 7.67513227462769 5.63751602172852 6.87765216827393 9.22611808776855 5.02187204360962 4.76923084259033 13.2471446990967 10.5185918807983 13.8060750961304 7.61706829071045 12.5845441818237 19.1082420349121 15.4723682403564 12.59153175354 8.29014492034912 7.85086917877197 8.14090156555176 7.64437770843506 7.12807607650757 6.24134635925293 6.09731006622314 6.05809164047241 6.16383266448975 5.94464540481567 5.80606698989868 5.5145263671875 5.61263751983643 5.40920209884644 5.18482160568237 5.26912546157837 5.14501190185547 4.32066202163696 4.00735521316528 4.1259593963623 4.24690628051758 4.04491233825684 2.84759092330933 9.59982299804688 11.3170623779297 1.19978618621826 1.89279222488403 2.95929408073425 17.7741069793701 30.082649230957 24.0975952148438 14.9077262878418 10.1119995117188 7.03409337997437 6.98072719573975 21.0438613891602 9.51448917388916 4.86026191711426 4.1330943107605 4.43453359603882 4.50350046157837 3.86015105247498 3.76510429382324 9.61498832702637 32.6741676330566 40.9837188720703 28.4260520935059 17.6139373779297 16.9695224761963 13.5272245407104 11.8609972000122 11.0911540985107 10.271427154541 9.05554866790771 8.84464073181152 8.62886619567871 8.74600410461426 7.79123830795288 7.25894021987915 6.92439651489258 7.00797462463379 7.19598913192749 12.2262182235718 8.77116203308105 5.78268575668335 3.97887444496155 4.20711994171143 5.91340351104736 18.2215023040771 17.4506607055664 8.31234645843506 8.59431076049805 6.07892799377441 6.97211313247681 4.54135084152222 15.6797122955322 10.7696933746338 36.3554267883301 10.9126319885254 11.3033847808838 11.7080898284912 7.80679368972778 8.29570770263672 6.5545916557312 11.6649188995361 13.3972673416138 17.4680366516113 7.02837944030762 17.2698574066162 20.3537483215332 15.8554601669312 20.8328762054443 20.4331569671631 10.9174861907959
2.27754783630371 1.93795871734619 1.7082427740097 1.49011218547821 1.43842029571533 1.39832234382629 40.3679428100586 5.60533428192139 18.9151649475098 5.86216926574707 0.48785212635994 -1.3350248336792 -1.60055112838745 10.3838338851929 12.6167984008789 35.1029205322266 23.19189453125 19.077751159668 15.1579809188843 10.8738374710083 9.05873680114746 7.55801963806152 8.21306037902832 7.05611658096313 6.3485803604126 5.85909986495972 5.35988235473633 4.73296785354614 4.49653768539429 4.32257843017578 4.03159618377686 4.07115030288696 3.86420845985413 3.46893334388733 3.60760450363159 3.40961599349976 3.18438768386841 2.86790490150452 1.91048634052277 1.87672865390778 1.85346782207489 1.91860377788544 1.85117924213409 20.5715637207031 22.1614971160889 18.2064552307129 12.2839879989624 10.6961030960083 8.24130439758301 33.648494720459 25.7895526885986 6.4985203742981 3.53503704071045 1.37307369709015 -0.0503630675375462 2.68877863883972 4.82703351974487 4.31978750228882 1.28439521789551 0.545006930828094 0.544180035591125 3.26168775558472 21.0812549591064 11.1474828720093 5.85334014892578 7.18619918823242 6.89165782928467 6.96567058563232 6.3965950012207 5.63719797134399 5.07657146453857 4.48546409606934 6.05793952941895 7.02562952041626 20.3905906677246 9.38186073303223 19.7113151550293 24.5062732696533 12.9401416778564 10.9095811843872 11.2140865325928 9.72242641448975 8.71849632263184 7.38644170761108 7.18487548828125 6.80262517929077 6.61864233016968 6.39370965957642 6.37609672546387 6.16606998443604 6.24346256256104 6.02257823944092 5.66545438766479 5.77575969696045 5.60016441345215 5.37126350402832 4.88714933395386 4.75193119049072 4.4354395866394 4.22653436660767 3.56891679763794 3.38433361053467 2.73066830635071 6.12166833877563 1.16101312637329 0.794877648353577 0.666315853595734 7.37358379364014 6.65912771224976 23.1768417358398 26.9692916870117 16.9789028167725 12.2890882492065 8.22341823577881 5.0224986076355 6.32692193984985 5.86168909072876 5.76671504974365 5.41228628158569 5.35216331481934 6.65687227249146 5.87085103988647 4.45193576812744 5.69740009307861 5.12291717529297 38.2019157409668 37.4426040649414 25.084831237793 18.208137512207 17.1446228027344 13.787371635437 11.8801498413086 12.0816822052002 10.3488645553589 9.83572959899902 9.92574119567871 7.91959810256958 7.80398416519165 7.54468870162964 7.7535285949707 7.45521879196167 4.92809629440308 5.52109241485596 21.6720905303955 10.9122714996338 4.50229406356812 3.39537668228149 2.91319108009338 3.9835512638092 19.9297008514404 11.3903131484985 11.432806968689 7.93753528594971 13.7734680175781 17.6103343963623 23.6810054779053 0.595119714736938 10.6476917266846 29.8502178192139 13.4922876358032 15.7235927581787 13.6398220062256 9.0294246673584 8.48982620239258 25.2233486175537 8.29115676879883 26.5354232788086 23.4572925567627 21.1869411468506 18.1189460754395 12.6638450622559 11.621789932251 21.0283222198486 18.3209590911865
