NCOLS 173
NROWS 31
XLLCORNER 353776
YLLCORNER 6701088
CELLSIZE 16 
NODATA_value -3.4e+38 
0.0321391075849533 1.49945855140686 2.90145134925842 4.99720573425293 6.85900115966797 8.72818851470947 17.4265480041504 33.9158096313477 18.5440521240234 7.0375657081604 3.88053226470947 3.5141966342926 2.69172072410583 4.35602807998657 3.14657163619995 2.31612944602966 3.78627920150757 2.56122183799744 0.961202204227448 -2.97682118415833 -3.714195728302 -2.3666033744812 -3.26194834709167 -4.02982139587402 -1.12181854248047 -1.65071249008179 -0.183411031961441 -1.87380218505859 -1.84534871578217 0.031303059309721 1.65966820716858 1.00628447532654 -1.2599937915802 -1.82054090499878 -1.068852186203 3.8131058216095 6.83863115310669 3.08749651908875 3.50713324546814 1.66823840141296 -3.5374608039856 -3.47123742103577 -1.90674614906311 -2.63666486740112 -3.73636102676392 -3.50801658630371 -3.35995411872864 -3.19826436042786 -3.08752679824829 -2.92331576347351 -1.75009751319885 0.92084413766861 5.68009519577026 7.07772302627563 9.73329067230225 7.78873729705811 4.54997062683105 0.574499309062958 -1.36057221889496 -1.99635815620422 -2.78926157951355 -2.80873203277588 -2.60605931282043 -2.19618391990662 -1.59268176555634 -1.04651081562042 -0.492630660533905 0.179306223988533 0.70923912525177 1.03838992118835 1.03518831729889 0.923161923885345 0.74161022901535 0.645363867282867 0.630042135715485 0.629307270050049 0.604442596435547 0.648099899291992 0.711664438247681 0.74002331495285 0.779423594474792 0.86082649230957 0.978887796401978 1.0642683506012 1.13952624797821 1.13336789608002 1.08131575584412 1.04963505268097 1.01448357105255 1.00068759918213 1.00054633617401 1.01834547519684 1.05402553081512 1.08955788612366 1.13989925384521 1.2018917798996 1.27646160125732 1.35732686519623 1.45403361320496 1.57187759876251 1.61962068080902 1.64556562900543 1.64812469482422 1.68649637699127 1.80724108219147 1.88629853725433 1.99213349819183 2.13929629325867 2.17452478408813 2.02795743942261 1.90870809555054 1.83762395381927 1.82707989215851 1.83320736885071 1.88089907169342 1.92297887802124 1.95491993427277 1.98737597465515 2.01920938491821 2.08574032783508 2.26835489273071 2.45449900627136 2.60744643211365 2.80909848213196 3.1662974357605 3.4905526638031 3.83853387832642 4.26457977294922 4.63628911972046 4.86290550231934 4.89265203475952 4.80070972442627 4.63379907608032 4.5643630027771 4.49350214004517 4.32112884521484 3.84056854248047 2.96095514297485 2.37944269180298 2.06579375267029 1.7790333032608 1.87624096870422 2.08451795578003 2.46572780609131 2.77682399749756 2.89975142478943 2.91561722755432 2.65868711471558 2.26503586769104 1.843914270401 1.48586142063141 1.23612725734711 0.313695639371872 0.161258727312088 0.130782261490822 0.101759508252144 0.0928891524672508 0.0965266227722168 0.116794772446156 0.107550173997879 0.135176762938499 0.134461060166359 0.140439689159393 0.13955882191658 0.147108763456345 0.18763080239296 0.194759219884872 0.236002877354622 0.242727622389793 0.312904357910156 0.346886157989502 0.399553000926971 0.420473843812943
0.216256260871887 0.885085940361023 2.0590968132019 4.02429628372192 6.46950912475586 8.28131294250488 15.2975511550903 29.7559299468994 16.5342330932617 6.85919857025146 2.84481024742126 2.65410494804382 2.91804480552673 3.79743027687073 2.62407636642456 0.975859880447388 -0.211569622159004 -0.377231895923615 -0.182967126369476 1.53940653800964 -3.30206537246704 -3.50526523590088 -3.78315329551697 -3.91354155540466 -0.270594924688339 -1.49040997028351 -1.36373865604401 -1.89393270015717 -0.86008083820343 -0.751280188560486 1.2075183391571 2.34191703796387 -0.6095010638237 -2.73100328445435 -2.72891807556152 2.43334794044495 3.31181931495667 0.529046654701233 -0.517050743103027 -1.10724818706512 -4.29156160354614 -4.18162298202515 -4.06938362121582 -3.98004984855652 -3.83621501922607 -3.58041906356812 -3.3835608959198 -3.2214527130127 -3.10768628120422 -2.90876293182373 -2.56873035430908 2.39779806137085 6.27462720870972 11.6064586639404 12.2853097915649 5.91529560089111 2.55297422409058 -1.45077478885651 -2.58454418182373 -2.63423109054565 -2.66742658615112 -2.67261362075806 -2.58567261695862 -2.15495443344116 -1.46113038063049 -0.897546947002411 -0.469127148389816 0.233994007110596 0.984045267105103 1.31082201004028 1.28795540332794 1.20141971111298 1.02279686927795 0.799627721309662 0.69552356004715 0.663048267364502 0.661074280738831 0.680957496166229 0.737693190574646 0.789049506187439 0.851716160774231 0.940253078937531 1.06839430332184 1.21761620044708 1.3371844291687 1.40289437770844 1.40053594112396 1.34525561332703 1.26111602783203 1.17056477069855 1.09248232841492 1.06039535999298 1.09038650989532 1.13389313220978 1.17750751972198 1.23024082183838 1.29271376132965 1.3752955198288 1.4575606584549 1.58187437057495 1.63980948925018 1.68958008289337 1.70142316818237 1.65008008480072 1.77262473106384 1.86288321018219 1.97788596153259 2.09574389457703 2.21832633018494 2.13891744613647 2.08576631546021 1.99406778812408 1.8785982131958 1.88458287715912 1.90914177894592 1.94875919818878 1.9837201833725 2.01510572433472 2.0536949634552 2.14798355102539 2.31647348403931 2.4554762840271 2.53121519088745 2.78013682365417 3.03246545791626 3.32999396324158 3.70626306533813 4.18065023422241 4.61115312576294 4.97007036209106 4.99759674072266 4.96873331069946 4.88037824630737 4.7732138633728 4.59666776657104 4.47116661071777 4.35173511505127 3.83646464347839 3.06560635566711 2.48482704162598 1.98250246047974 1.97512340545654 2.15855121612549 2.48950886726379 2.63721537590027 2.85246872901917 2.97624182701111 2.84009265899658 2.47952008247375 2.10763907432556 1.77345752716064 1.35978782176971 0.636736810207367 0.253607302904129 0.150619238615036 0.124373383820057 0.103476732969284 0.106576777994633 0.131527975201607 0.116560377180576 0.117109678685665 0.153599485754967 0.155772790312767 0.148399755358696 0.16615141928196 0.18410786986351 0.214007019996643 0.222836211323738 0.283058732748032 0.27773380279541 0.392647534608841 0.351383179426193 0.521068692207336
0.68127053976059 0.307350397109985 1.47512185573578 3.3686318397522 6.07605218887329 8.37621784210205 12.9967775344849 28.1872043609619 17.8781814575195 5.16585826873779 3.17542481422424 2.4675133228302 3.18530321121216 5.809157371521 3.96432900428772 2.46884870529175 -1.79655134677887 -2.87076926231384 -2.48849391937256 -1.31133627891541 -2.07619786262512 -2.68716526031494 -1.51017868518829 -0.200160160660744 -1.32064306735992 -3.14395236968994 -2.62423634529114 -2.23737692832947 -1.10269069671631 -1.47639393806458 -0.827304124832153 0.83725118637085 -0.181208729743958 -3.58123707771301 -3.06345582008362 -0.327081233263016 1.25176799297333 -1.20876502990723 -4.08405923843384 -4.11315155029297 -4.16544198989868 -4.12029218673706 -4.00965881347656 -3.80453658103943 -3.64280295372009 -3.4417040348053 -3.32186460494995 -3.10785555839539 -2.89972829818726 -2.6512770652771 -2.17568731307983 3.10695695877075 10.5759706497192 14.154200553894 6.80690050125122 0.560919642448425 -0.51334673166275 -2.020103931427 -2.50209450721741 -2.50209641456604 -2.52875781059265 -2.51633334159851 -2.34592533111572 -1.8275933265686 -1.30660164356232 -0.833728134632111 -0.358435571193695 0.162124767899513 0.888264000415802 1.36744403839111 1.47000360488892 1.39620971679688 1.28604698181152 1.04502642154694 0.846508681774139 0.750039219856262 0.74878054857254 0.742590308189392 0.771062076091766 0.822168052196503 0.906571447849274 1.02180254459381 1.17235827445984 1.35214006900787 1.52281856536865 1.69293665885925 1.78045070171356 1.58700585365295 1.46000027656555 1.36443209648132 1.28942489624023 1.2272230386734 1.16501033306122 1.17163193225861 1.22638976573944 1.29661881923676 1.3757838010788 1.45446109771729 1.53961372375488 1.60489904880524 1.68248903751373 1.74527025222778 1.74968278408051 1.72899949550629 1.76592683792114 1.89961159229279 1.98294568061829 2.10298466682434 2.25634264945984 2.29964399337769 2.23011589050293 2.05547523498535 1.94485056400299 1.92717170715332 1.95210635662079 1.97869777679443 2.04082798957825 2.10117435455322 2.15690732002258 2.2703812122345 2.37808680534363 2.446133852005 2.56633877754211 2.69447088241577 2.88876175880432 3.27401804924011 3.58954119682312 4.05622959136963 4.51018333435059 4.90080118179321 5.14302062988281 5.17309713363647 5.08410120010376 4.8924560546875 4.84005117416382 4.75862789154053 4.6610860824585 4.51785755157471 3.83994317054749 2.96188378334045 2.19748830795288 2.05440497398376 2.1776123046875 2.38601660728455 2.57535648345947 2.89909482002258 3.02607989311218 3.05049586296082 2.81027841567993 2.55285286903381 2.16664052009583 1.78073072433472 1.39971518516541 0.668149948120117 0.168317750096321 0.144281342625618 0.125560075044632 0.103166796267033 0.116082727909088 0.14241187274456 0.127836227416992 0.156578794121742 0.154513955116272 0.167343109846115 0.171978116035461 0.175719976425171 0.215836897492409 0.240937680006027 0.318812549114227 0.383811116218567 0.513197004795074 0.654170095920563 0.478213459253311
0.778611302375793 0.251603543758392 0.855119287967682 2.68090558052063 4.81224679946899 9.20121097564697 12.4989385604858 22.818151473999 16.789888381958 4.1814136505127 4.23957586288452 4.21690368652344 6.60659265518188 5.55789518356323 3.42215275764465 2.52004265785217 -3.26582050323486 -3.44759678840637 -3.39736366271973 -3.2829921245575 -3.17202520370483 -2.711012840271 -1.03154528141022 -0.98975270986557 -3.49851083755493 -1.07702541351318 -2.41861486434937 -2.7117280960083 -2.49811935424805 -1.36342978477478 -1.25263690948486 -1.85076296329498 -2.94331550598145 -3.77500629425049 -3.02913308143616 -1.99068534374237 -1.38260221481323 -3.96292638778687 -3.98772406578064 -3.89584136009216 -3.85100221633911 -3.83822417259216 -3.69097232818604 -3.53781175613403 -3.35891485214233 -3.16678619384766 -2.98423719406128 -2.79481387138367 -2.58148336410522 -2.33935117721558 -2.15464067459106 3.4031720161438 11.6963329315186 7.45121574401855 -0.897492349147797 -2.7373251914978 -2.6609890460968 -2.56338715553284 -2.45234894752502 -2.42713069915771 -2.39605522155762 -2.25124835968018 -1.92888963222504 -1.63651967048645 -1.19923913478851 -0.710480511188507 -0.265430063009262 0.125092551112175 0.748256385326385 1.32724261283875 1.5351744890213 1.52087020874023 1.45989155769348 1.2563408613205 1.02729165554047 0.880504846572876 0.825777053833008 0.819433510303497 0.838888943195343 0.893268287181854 0.987438976764679 1.16380321979523 1.32784879207611 1.50764882564545 1.80284643173218 2.03719234466553 2.1114068031311 2.0329167842865 1.77201867103577 1.58079767227173 1.47990119457245 1.42889022827148 1.33364188671112 1.25491535663605 1.2976690530777 1.39159846305847 1.46872758865356 1.55480206012726 1.5988712310791 1.67039549350739 1.73538589477539 1.81122326850891 1.82908189296722 1.80609154701233 1.75935459136963 1.88257682323456 1.98036766052246 2.07518768310547 2.21137547492981 2.35740685462952 2.40540957450867 2.25153756141663 2.15145182609558 2.03557419776917 2.01849603652954 2.00705814361572 2.05022239685059 2.11789584159851 2.24227786064148 2.34686493873596 2.42406368255615 2.46831083297729 2.53895831108093 2.62039065361023 2.78742837905884 3.16398763656616 3.44205617904663 3.91300177574158 4.41529989242554 4.74196338653564 5.06414222717285 5.33025026321411 5.3703179359436 5.26124906539917 5.07675361633301 5.01854610443115 4.95101881027222 4.7538948059082 4.2324366569519 3.26535201072693 2.63308072090149 2.09777975082397 2.15803170204163 2.25912570953369 2.60380077362061 2.75504803657532 2.98315358161926 3.1175365447998 3.14308524131775 2.86506414413452 2.42068791389465 1.94848036766052 1.57832705974579 1.02385258674622 0.268644750118256 0.172072812914848 0.129507854580879 0.105493076145649 0.119041129946709 0.140543773770332 0.133877858519554 0.144083112478256 0.188388586044312 0.20034047961235 0.201252028346062 0.20154345035553 0.22011411190033 0.289058327674866 0.284581452608109 0.411798864603043 0.40998038649559 0.709731936454773 0.35303607583046
0.516236662864685 0.333215743303299 0.275344699621201 2.27471017837524 5.0766077041626 8.62340450286865 10.2919588088989 15.3365564346313 20.698169708252 6.27210092544556 4.94047164916992 9.48005676269531 5.55343627929688 1.58162522315979 1.46845924854279 1.17719268798828 -3.40389680862427 -3.38485980033875 -3.34987735748291 -3.2943160533905 -2.85299563407898 -2.70009779930115 -1.155149102211 1.58064067363739 -0.723871529102325 -0.466748595237732 -3.64982438087463 -3.68048024177551 -3.6341826915741 -1.71824944019318 -3.62977433204651 -3.73057126998901 -3.70829319953918 -3.09548044204712 -1.98991346359253 -1.2397381067276 -3.44756412506104 -3.82996463775635 -3.76443123817444 -3.63190031051636 -3.55548357963562 -3.53326845169067 -3.42499399185181 -3.24195098876953 -3.04043078422546 -2.81886124610901 -2.60559678077698 -2.43793272972107 -2.27277231216431 -2.11474633216858 -1.35435509681702 2.22763586044312 6.58078002929688 0.82583624124527 -2.6943633556366 -2.6954939365387 -2.65640068054199 -2.59495854377747 -2.4717972278595 -2.39503765106201 -2.24817728996277 -1.8618106842041 -1.67860949039459 -1.4357031583786 -1.03617060184479 -0.625290811061859 -0.193910181522369 0.130742087960243 0.532422006130219 1.15521490573883 1.55684745311737 1.65231335163116 1.58345377445221 1.4764130115509 1.25780081748962 0.994455575942993 0.933359324932098 0.904907941818237 0.902158200740814 0.946209847927094 1.06100153923035 1.22657406330109 1.40754508972168 1.5960738658905 2.00997424125671 2.28306746482849 2.37973546981812 2.29839944839478 2.1462779045105 1.86111521720886 1.66577458381653 1.58814239501953 1.52627861499786 1.44639801979065 1.39582633972168 1.47667574882507 1.54347717761993 1.61954140663147 1.65897977352142 1.72655832767487 1.79961812496185 1.87520337104797 1.92027616500854 1.87825536727905 1.84954285621643 1.83393025398254 1.96338999271393 2.07119941711426 2.21742177009583 2.30629634857178 2.47721791267395 2.40522241592407 2.22548532485962 2.13979172706604 2.10767197608948 2.07695817947388 2.0942108631134 2.2671799659729 2.38376307487488 2.43477988243103 2.46291184425354 2.50420665740967 2.56337571144104 2.639164686203 2.73398065567017 3.01673817634583 3.29691076278687 3.79203248023987 4.24150323867798 4.57966709136963 5.07827854156494 5.45817279815674 5.49357652664185 5.44658422470093 5.3507285118103 5.2298002243042 5.05953693389893 4.95920944213867 4.8059401512146 4.08146715164185 3.13362693786621 2.32860326766968 2.1408257484436 2.26627683639526 2.48749423027039 2.67354774475098 2.83261632919312 3.07325434684753 3.20924139022827 3.05576705932617 2.64285039901733 2.25956606864929 1.90199744701385 1.47332227230072 0.703770458698273 0.20900060236454 0.158943891525269 0.132610768079758 0.125486969947815 0.141209483146667 0.17951700091362 0.138334348797798 0.179833188652992 0.229259297251701 0.238430961966515 0.249769255518913 0.247550636529922 0.306773602962494 0.373887300491333 0.474017083644867 0.650921761989594 1.09271621704102 0.356697857379913
0.729645431041718 0.436375200748444 0.317488104104996 2.13676691055298 4.60513877868652 7.39771318435669 8.39755535125732 11.70237159729 20.9279689788818 5.98092365264893 6.02821445465088 6.75169515609741 -0.117071114480495 0.102871924638748 0.397031396627426 -0.99044793844223 -3.45322203636169 -3.33967137336731 -3.23833847045898 -3.24796605110168 -2.34628200531006 -1.09098553657532 1.75090670585632 2.14028787612915 -1.44017553329468 -3.30287718772888 -3.46046614646912 -3.53426456451416 -3.5066933631897 -3.52109885215759 -3.59814929962158 -3.60939717292786 -2.95903778076172 -2.65945076942444 -1.51351857185364 -1.38391506671906 -2.64489030838013 -3.61295056343079 -3.59980297088623 -3.57478070259094 -3.34386396408081 -3.22377562522888 -2.80940937995911 -2.7693727016449 -2.15789723396301 -1.76203083992004 -1.955610871315 -2.10678148269653 -2.02453064918518 -1.94900786876678 -1.96352803707123 -2.04431128501892 -1.93916499614716 -2.4230968952179 -2.54827809333801 -2.50440645217896 -2.47510194778442 -2.50366830825806 -2.46422815322876 -2.33655071258545 -1.96067297458649 -1.62894630432129 -1.42869079113007 -1.21901154518127 -0.85934716463089 -0.467284142971039 -0.0979164689779282 0.184492230415344 0.426321804523468 0.860812604427338 1.31187784671783 1.69295454025269 1.77518546581268 1.66486430168152 1.54050552845001 1.27323055267334 1.04601681232452 0.94944566488266 0.948807299137115 0.989044666290283 1.08870720863342 1.24078714847565 1.428675532341 1.67218613624573 2.07666540145874 2.41639232635498 2.53052353858948 2.49950003623962 2.40627408027649 2.24500060081482 1.91480326652527 1.73009741306305 1.69063830375671 1.57870173454285 1.48946809768677 1.56403243541718 1.62771356105804 1.67773401737213 1.71674501895905 1.78139638900757 1.84207761287689 1.90216064453125 1.95121586322784 1.95673751831055 1.92471015453339 1.88821291923523 1.96469974517822 2.11406302452087 2.21036195755005 2.32568788528442 2.52613496780396 2.59636163711548 2.46502423286438 2.3554413318634 2.19871664047241 2.1665632724762 2.24875116348267 2.39665675163269 2.51857995986938 2.55262589454651 2.56497573852539 2.59601044654846 2.68690347671509 2.72258687019348 2.76393580436707 2.95612096786499 3.18473124504089 3.63628363609314 4.00577211380005 4.45944023132324 4.95568704605103 5.38151407241821 5.67052888870239 5.70866060256958 5.60850811004639 5.40842819213867 5.33484649658203 5.25266551971436 5.05174493789673 4.49347448348999 3.4677209854126 2.78423619270325 2.20624852180481 2.24823474884033 2.35295510292053 2.56091594696045 2.77822661399841 3.13574814796448 3.26594305038452 3.28318285942078 2.98453307151794 2.54617214202881 2.05973839759827 1.65545213222504 1.0797666311264 0.286612808704376 0.20215867459774 0.162734180688858 0.142985388636589 0.187535539269447 0.169765472412109 0.208173006772995 0.207884073257446 0.266772389411926 0.275904178619385 0.282702624797821 0.257996708154678 0.328519731760025 0.448077499866486 0.493738025426865 0.881345808506012 0.442254036664963 0.253713965415955
0.932897090911865 0.564552187919617 0.38739287853241 0.906763017177582 3.72774004936218 6.22486305236816 7.79069995880127 10.5487508773804 16.3177375793457 5.44145917892456 4.32702398300171 2.78824687004089 0.539188086986542 0.691749453544617 0.52792626619339 -1.46950173377991 -3.38863897323608 -3.34928250312805 -3.16417264938354 -3.12132787704468 -2.57214045524597 0.0604525916278362 3.2457537651062 0.201106756925583 -2.9995551109314 -3.10309886932373 -3.21021461486816 -3.29395031929016 -3.25836634635925 -3.24103474617004 -2.66596078872681 -3.47082877159119 -2.82577013969421 -3.4520468711853 -2.21463441848755 -3.0469856262207 -2.78207945823669 -3.55200886726379 -3.49666380882263 -3.46159744262695 -3.19354009628296 -1.86043643951416 -1.1573338508606 -0.265784978866577 1.00642478466034 0.620665073394775 0.388117849826813 -0.163059771060944 -1.10965728759766 -1.45650660991669 -1.82708549499512 -1.87436139583588 -1.97468829154968 -2.13305521011353 -2.19971585273743 -2.12072324752808 -2.09461116790771 -2.07816433906555 -2.01355314254761 -1.85068809986115 -1.66859924793243 -1.4459480047226 -1.22459673881531 -1.00350725650787 -0.65472024679184 -0.274493962526321 0.0392522476613522 0.227424427866936 0.434154480695724 0.679047048091888 1.10587632656097 1.64170658588409 1.8230254650116 1.80106782913208 1.72847247123718 1.47707664966583 1.20760118961334 1.03694713115692 0.987879753112793 1.03727662563324 1.13117659091949 1.28088843822479 1.46255481243134 1.69024527072906 2.09615087509155 2.44200396537781 2.58771514892578 2.65520882606506 2.55253553390503 2.379887342453 2.09014797210693 1.87856900691986 1.8066737651825 1.73801326751709 1.62575602531433 1.64336538314819 1.68846881389618 1.73262655735016 1.77215838432312 1.82776308059692 1.87156784534454 1.92107164859772 1.99250066280365 2.04170560836792 2.0034773349762 2.0070424079895 1.98842072486877 2.0810170173645 2.21170401573181 2.32415223121643 2.46381449699402 2.66805171966553 2.61494326591492 2.41837692260742 2.32619023323059 2.25349736213684 2.36538171768188 2.44464564323425 2.59722685813904 2.71819758415222 2.71240329742432 2.74213242530823 2.78801941871643 2.87769341468811 2.88786029815674 2.89825344085693 3.1843798160553 3.48347210884094 3.81960439682007 4.30371046066284 4.85386896133423 5.411452293396 5.8088173866272 5.85346651077271 5.79841279983521 5.69826030731201 5.56891298294067 5.387864112854 5.28083753585815 5.11174011230469 4.3707594871521 3.36617302894592 2.5258321762085 2.22973084449768 2.31442403793335 2.4305112361908 2.81267237663269 2.97360515594482 3.22570490837097 3.34189796447754 3.20273852348328 2.80682706832886 2.38580441474915 2.00527477264404 1.55780434608459 0.743713021278381 0.268128633499146 0.185655102133751 0.189701706171036 0.167722001671791 0.143583625555038 0.240154758095741 0.210650071501732 0.253743141889572 0.331949889659882 0.359788060188293 0.364018470048904 0.400308310985565 0.439473837614059 0.531712412834167 0.662002801895142 0.182352676987648 0.272058576345444
1.29685175418854 0.796750903129578 0.50076949596405 0.380010217428207 2.79622578620911 4.43451976776123 6.46337890625 9.88371562957764 14.0688362121582 10.6596736907959 7.14103937149048 3.20331001281738 -0.00222164951264858 -1.79948353767395 -1.4052882194519 -3.17625141143799 -3.40826010704041 -3.27461886405945 -3.03302836418152 -2.85775637626648 -1.52076327800751 1.48347771167755 4.81281566619873 -0.413026481866837 -2.90527081489563 -2.89233922958374 -2.90721678733826 -2.87572741508484 -2.3172881603241 0.290295839309692 0.041539378464222 -1.44877135753632 -1.02217876911163 -2.73098397254944 -2.47069978713989 -3.49637770652771 -3.49096608161926 -3.50909876823425 -3.41584253311157 -3.16674447059631 -2.72848773002625 -0.472123295068741 1.67071676254272 3.40975022315979 4.41031551361084 2.72457337379456 1.17177605628967 0.613768577575684 0.721141993999481 -0.306564271450043 -1.75646710395813 -1.73701369762421 -1.70890760421753 -1.82765746116638 -1.87757170200348 -1.88626730442047 -1.84851229190826 -1.81705319881439 -1.73686814308167 -1.58486044406891 -1.43453848361969 -1.23260188102722 -1.00412845611572 -0.806486785411835 -0.521576106548309 -0.181744530797005 0.109287738800049 0.295684784650803 0.451703399419785 0.640061318874359 0.904024064540863 1.43086385726929 1.83702802658081 1.92912769317627 1.82026875019073 1.68669366836548 1.38109993934631 1.1527134180069 1.07427442073822 1.08387684822083 1.18946707248688 1.32931613922119 1.4854896068573 1.68552196025848 2.13865637779236 2.4410719871521 2.60214996337891 2.70913863182068 2.65747022628784 2.54966044425964 2.38353824615479 2.09912753105164 1.92269468307495 1.86168396472931 1.78947412967682 1.68235564231873 1.71191048622131 1.75928461551666 1.77632141113281 1.8694064617157 1.93738448619843 1.98271405696869 2.03291058540344 2.09241771697998 2.1042799949646 2.10727071762085 2.06598591804504 2.04977822303772 2.22212862968445 2.34204888343811 2.46833848953247 2.71704387664795 2.8148500919342 2.66772222518921 2.54378223419189 2.44125699996948 2.38904404640198 2.48793482780457 2.62476778030396 2.77212452888489 2.83294224739075 2.88226914405823 2.95486187934875 3.1231677532196 3.20449042320251 3.11320781707764 3.14661431312561 3.31337761878967 3.75509738922119 4.1671199798584 4.75237655639648 5.28863191604614 5.7427864074707 6.07640743255615 6.1121187210083 6.00026512145996 5.78419733047485 5.70269012451172 5.61236476898193 5.38834047317505 4.78661727905273 3.6932384967804 2.96242141723633 2.61229181289673 2.30646300315857 2.45197248458862 2.69252014160156 2.91005373001099 3.28817868232727 3.41202282905579 3.46068215370178 3.19735813140869 2.90892791748047 2.47056031227112 2.07673692703247 1.61271929740906 0.766996741294861 0.342564076185226 0.236763194203377 0.253237426280975 0.273404896259308 0.225629538297653 0.283225059509277 0.252208828926086 0.326677739620209 0.433101624250412 0.388359278440475 0.324313670396805 0.424398005008698 0.659366130828857 0.334257870912552 0.197409778833389 0.501877129077911
1.47018432617188 1.01529371738434 0.714361429214478 0.525097608566284 2.30027651786804 3.96166634559631 5.31854295730591 8.78450393676758 13.408597946167 12.4032983779907 6.7060432434082 4.35919713973999 1.78715264797211 0.0799600183963776 1.15347921848297 -2.32542705535889 -3.35850048065186 -3.10660672187805 -2.89018392562866 -2.63211464881897 -1.70514965057373 5.99768161773682 4.75250005722046 -2.77504777908325 -2.80923080444336 -2.77436494827271 -2.70219016075134 -2.63175487518311 -0.28567373752594 0.933280646800995 3.28056883811951 6.98325157165527 0.665595591068268 -1.95840346813202 -3.23485422134399 -3.32823204994202 -3.32899737358093 -3.31067776679993 -3.14472818374634 -2.81552529335022 -2.35391497612 0.778162062168121 3.43025851249695 6.32856464385986 6.59875440597534 4.60722780227661 3.31828284263611 3.12282419204712 1.75331604480743 -0.296834975481033 -0.368044197559357 -1.6824164390564 -1.34919989109039 -1.74878883361816 -1.78255844116211 -1.68987810611725 -1.58737146854401 -1.47392725944519 -1.38230872154236 -1.2554532289505 -1.10687720775604 -0.957828223705292 -0.779442846775055 -0.631584465503693 -0.418752163648605 -0.165516763925552 0.11823333054781 0.354764699935913 0.489895790815353 0.64694619178772 0.80761331319809 1.21090793609619 1.79048669338226 2.00151515007019 1.94789052009583 1.86183452606201 1.59928226470947 1.30883049964905 1.15971696376801 1.13738071918488 1.22195661067963 1.35822129249573 1.50630557537079 1.75479233264923 2.12424635887146 2.42483568191528 2.62720441818237 2.76265168190002 2.81856393814087 2.766676902771 2.66325211524963 2.50132083892822 2.15916919708252 1.96220278739929 1.89600539207458 1.74496304988861 1.69305551052094 1.7441713809967 1.79108965396881 1.8931827545166 2.00622320175171 2.06267094612122 2.0932309627533 2.1495635509491 2.18236064910889 2.18775677680969 2.14053177833557 2.11038088798523 2.19405078887939 2.33644556999207 2.48172545433044 2.61026239395142 2.87287378311157 2.82507967948914 2.81484889984131 2.66126012802124 2.40867400169373 2.5170373916626 2.66046476364136 2.87878441810608 3.01663684844971 3.09993696212769 3.19467759132385 3.28587698936462 3.8900580406189 3.78995299339294 3.31033444404602 3.28422856330872 3.6271755695343 3.99780321121216 4.58655405044556 5.16840600967407 5.798912525177 6.24211502075195 6.28945827484131 6.19595241546631 6.10277462005615 5.95338201522827 5.76695871353149 5.68416738510132 5.52603530883789 4.87298202514648 3.87835264205933 3.14996695518494 2.47734594345093 2.43769240379333 2.54967188835144 2.9756772518158 3.13118124008179 3.43298721313477 3.55088758468628 3.58045411109924 3.26448702812195 2.77718138694763 2.25436449050903 1.81252014636993 1.17349910736084 0.407820373773575 0.184427872300148 0.209834665060043 0.187133491039276 0.293515592813492 0.356099814176559 0.3523810505867 0.344549477100372 0.489877343177795 0.492485731840134 0.471673488616943 0.527327477931976 0.497115433216095 0.140205517411232 0.216044366359711 0.615508496761322
1.73004937171936 1.4805736541748 1.06082034111023 0.695434808731079 1.72403979301453 2.21027493476868 3.9607048034668 8.68292808532715 14.9735403060913 11.7160978317261 4.30804538726807 4.80272531509399 4.17132472991943 1.53952240943909 2.27248239517212 -1.90495157241821 -3.28706645965576 -3.06798887252808 -2.75509428977966 -2.42354035377502 -2.2964985370636 5.76295757293701 2.27531790733337 -2.73361349105835 -2.70376253128052 -2.67283010482788 -2.53130292892456 -2.43532848358154 -0.186559945344925 4.68073654174805 8.3439474105835 4.4960994720459 -3.24396300315857 -3.02325177192688 -3.22686314582825 -3.14436602592468 -3.13185811042786 -3.14556980133057 -3.01341462135315 -2.67905020713806 -1.45899796485901 1.63652646541595 5.51132917404175 7.29358386993408 10.5353488922119 9.47603511810303 6.81260013580322 3.71212530136108 2.82557606697083 2.14038014411926 0.949952363967896 -1.74166119098663 -1.67659258842468 -1.68086719512939 -1.68871295452118 -1.49356579780579 -1.30130803585052 -1.12257874011993 -1.00676774978638 -0.910662055015564 -0.795265555381775 -0.680098176002502 -0.550331294536591 -0.428505510091782 -0.245384961366653 -0.0467319972813129 0.190693810582161 0.432233273983002 1.3522697687149 0.949764788150787 0.789627313613892 0.921375334262848 1.57849442958832 2.01035332679749 2.10385990142822 1.97010397911072 1.82847857475281 1.60764467716217 1.30830943584442 1.238077044487 1.22589206695557 1.33576858043671 1.5158486366272 1.73699295520782 2.12728404998779 2.38690066337585 2.61539244651794 2.73770093917847 2.87097334861755 2.93500542640686 2.80973219871521 2.60303235054016 2.28979778289795 2.06882476806641 1.96966600418091 1.8500235080719 1.70525634288788 1.75365877151489 1.79506230354309 1.93241846561432 2.09697318077087 2.13182663917542 2.20586395263672 2.2366738319397 2.28795194625854 2.33467102050781 2.29325270652771 2.2936749458313 2.18351817131042 2.35521841049194 2.49544906616211 2.66072249412537 2.87798571586609 3.03251147270203 2.96605038642883 2.71584367752075 2.63385581970215 2.55143022537231 2.71059799194336 2.98041224479675 3.16485929489136 3.31746077537537 3.52915143966675 3.55219435691833 3.5119833946228 3.48160672187805 3.41647529602051 3.35193347930908 3.46296000480652 3.84886813163757 4.44062423706055 5.0797119140625 5.66294002532959 6.15139770507812 6.52704620361328 6.57282161712646 6.50075006484985 6.24086046218872 6.13080787658691 6.03685188293457 5.95446825027466 5.75653982162476 4.89042186737061 3.7683048248291 2.80053639411926 2.42658996582031 2.60368847846985 2.82581067085266 3.04655861854553 3.23343825340271 3.54745483398438 3.69449067115784 3.51270031929016 3.08249568939209 2.61624622344971 2.19372797012329 1.70334911346436 0.79628199338913 0.25207445025444 0.219692334532738 0.212833046913147 0.181831941008568 0.352252781391144 0.47568690776825 0.440360933542252 0.691720485687256 0.601214289665222 0.521812438964844 0.333272665739059 0.140277981758118 0.157916083931923 0.250617504119873 0.341081500053406
1.75764334201813 1.80978333950043 1.49703168869019 0.975238025188446 0.632097542285919 0.409162938594818 3.4943151473999 8.17878723144531 11.2063331604004 8.66592693328857 4.06266021728516 6.52266311645508 4.78356075286865 0.641933262348175 2.35331535339355 -0.297737002372742 -3.2230589389801 -3.0649573802948 -2.68167471885681 -2.31065273284912 -2.14924430847168 2.94264125823975 -0.793657720088959 -2.7467885017395 -2.65323781967163 -2.41892051696777 -2.22040009498596 -2.22587752342224 3.53219151496887 5.16616487503052 2.86598873138428 -2.78057599067688 -1.97038626670837 -3.12074995040894 -3.0727264881134 -3.00286936759949 -2.91801166534424 -2.84663987159729 -2.6359748840332 -2.36756753921509 -1.67707705497742 2.33337116241455 5.41806268692017 11.1238107681274 14.0515661239624 10.2203140258789 7.02832317352295 6.73456382751465 6.48866510391235 3.62729144096375 0.289893835783005 -1.83794939517975 -1.71589803695679 -1.59379601478577 -1.53773176670074 -1.31988382339478 -1.06204473972321 -0.878364145755768 -0.775570929050446 -0.650822639465332 -0.533493757247925 -0.42191469669342 -0.278940409421921 -0.166588261723518 -0.102757893502712 0.0459737591445446 0.358386397361755 0.836377263069153 1.04067039489746 0.861481070518494 0.897523939609528 0.937333583831787 1.19441938400269 1.67730844020844 2.10367822647095 2.20140695571899 2.07905602455139 1.94837832450867 1.64159870147705 1.3944798707962 1.38831126689911 1.33797764778137 1.47436952590942 1.70182847976685 2.01235890388489 2.29422402381897 2.576495885849 2.71527719497681 2.89116215705872 2.98591256141663 2.90239691734314 2.76685929298401 2.57753801345825 2.20439481735229 2.00737857818604 1.94429004192352 1.82427251338959 1.86482810974121 1.89387357234955 2.10408782958984 2.22011971473694 2.2382607460022 2.24596786499023 2.26686763763428 2.33051443099976 2.39456367492676 2.42862582206726 2.42689108848572 2.4092652797699 2.38527393341064 2.47774434089661 2.6265549659729 2.80141973495483 3.0667245388031 3.17929935455322 3.03584289550781 2.86549735069275 2.64076447486877 2.84197187423706 3.09731554985046 3.35284328460693 3.55907559394836 3.77162289619446 3.7947404384613 3.72653555870056 3.56169700622559 3.49723386764526 3.45534205436707 3.36800789833069 3.67267823219299 4.24761009216309 4.90053510665894 5.52207040786743 5.96485090255737 6.49156475067139 6.82997989654541 6.87086009979248 6.75368595123291 6.51024580001831 6.42502069473267 6.31924152374268 6.06885290145874 5.42022943496704 4.22293567657471 3.41815900802612 2.71422934532166 2.56569528579712 2.67906618118286 2.93326616287231 3.19728469848633 3.59968018531799 3.762690782547 3.82955455780029 3.51173901557922 2.97985744476318 2.41158890724182 1.90908741950989 1.22749161720276 0.388639688491821 0.297794699668884 0.256394326686859 0.246090278029442 0.223351210355759 0.471819430589676 0.224380239844322 0.148849755525589 0.13678090274334 0.133588135242462 0.141728028655052 0.153007537126541 0.18761171400547 0.280572980642319 0.33360344171524
1.78558528423309 1.90435826778412 1.70770442485809 1.22682631015778 0.814390540122986 0.580803751945496 2.85712432861328 7.1660590171814 8.82483005523682 7.36663913726807 3.92272114753723 3.74251389503479 4.99676561355591 -0.46916326880455 -2.64796161651611 -3.07788372039795 -3.17089819908142 -3.06545662879944 -2.71905708312988 -2.25710916519165 0.23367203772068 -0.0136389965191483 -0.699572384357452 -2.64814424514771 -2.52893257141113 -2.13426113128662 -2.06204652786255 -1.42381370067596 1.44235718250275 0.0927876010537148 -1.62094664573669 -2.86018705368042 -2.94554924964905 -3.03705286979675 -2.89575290679932 -2.83431077003479 -2.64538717269897 -2.46515130996704 -2.22406268119812 -1.92103064060211 -0.481018126010895 2.91190791130066 9.26700115203857 13.0674457550049 6.55105590820312 1.23755609989166 -0.517158508300781 0.329765945672989 4.46368837356567 1.03927028179169 -2.00670313835144 -1.86862766742706 -1.66589558124542 -1.54015004634857 -1.42865252494812 -1.21451187133789 -0.857399225234985 -0.688511967658997 -0.566501498222351 -0.454799890518188 -0.328557670116425 -0.157875701785088 -0.0989323928952217 0.00462400307878852 0.0718883275985718 0.134291455149651 0.664396345615387 1.32332682609558 1.34821701049805 1.2083785533905 1.17173850536346 1.13158357143402 1.09107708930969 1.40463149547577 2.05480790138245 2.28260636329651 2.2305703163147 2.14893221855164 1.8765150308609 1.59013855457306 1.47440087795258 1.45407211780548 1.43763875961304 1.61421394348145 1.84432446956635 2.24410820007324 2.51834058761597 2.67033457756042 2.89634394645691 3.02084922790527 3.06337404251099 2.90670275688171 2.68726491928101 2.34862089157104 2.11297225952148 2.01105260848999 1.8915376663208 1.97923350334167 2.14556694030762 2.29713916778564 2.48585867881775 2.69605445861816 2.53872394561768 2.31096887588501 2.44013404846191 2.74844193458557 2.54640221595764 2.54696297645569 2.59039902687073 2.5409107208252 2.46958899497986 2.63184523582458 2.80495476722717 2.9586021900177 3.24755573272705 3.19864845275879 2.91339492797852 2.82771253585815 2.95707082748413 3.20295000076294 3.45048570632935 3.70883369445801 3.91008496284485 3.98393869400024 3.8978066444397 3.76804780960083 3.61238789558411 3.43672466278076 3.38360857963562 3.54242396354675 4.0511622428894 4.74205875396729 5.30118417739868 5.76329040527344 6.53506898880005 7.02809715270996 7.12571668624878 7.04219388961792 6.86546039581299 6.71873664855957 6.53389406204224 6.46520137786865 6.27437591552734 5.31429100036621 4.06809854507446 3.07128667831421 2.55880951881409 2.67085313796997 2.82045459747314 3.256019115448 3.43048667907715 3.74973011016846 3.92148685455322 3.72388911247253 3.29024362564087 2.78620457649231 2.36921501159668 1.81062865257263 0.840076625347137 0.399457216262817 0.327111601829529 0.283602118492126 0.258669018745422 0.224939167499542 0.191294759511948 0.62189257144928 0.403435230255127 0.158615380525589 0.163569927215576 0.173546016216278 0.240414649248123 0.29602175951004 0.399830460548401
1.72578072547913 1.94479775428772 2.03415179252625 1.6954448223114 1.11386382579803 0.761586666107178 2.22018027305603 4.25557041168213 5.44545078277588 5.72710752487183 5.10976600646973 1.20930576324463 1.20005619525909 -2.63923931121826 -2.76150870323181 -2.84455680847168 -2.90572643280029 -2.84105587005615 -2.55511665344238 -2.34723210334778 1.53371155261993 -1.43381345272064 -2.29088521003723 -2.45192933082581 -2.35421633720398 -2.05376577377319 -1.98990392684937 -1.04551410675049 1.3326141834259 1.07212018966675 -2.06990838050842 -2.65999937057495 -2.72114133834839 -2.82495403289795 -2.80679726600647 -2.58368325233459 -2.28668355941772 -2.02685928344727 -1.75867855548859 -1.58206021785736 -1.55641627311707 5.50059223175049 6.51987886428833 4.07938241958618 -0.418212801218033 -0.277937740087509 -1.10576987266541 -2.59673643112183 -2.41990232467651 -2.28788900375366 -2.09424543380737 -1.86443829536438 -1.66692233085632 -1.54610121250153 -1.41354787349701 -1.18781554698944 -0.745674431324005 -0.408082634210587 -0.332886010408401 -0.209164619445801 -0.150449067354202 -0.0415222384035587 0.223029538989067 0.336062014102936 0.263897478580475 0.260804712772369 0.908576488494873 1.4751683473587 1.60603785514832 1.54305350780487 1.45547246932983 1.39967334270477 1.32708430290222 1.32998287677765 1.78636717796326 2.2646210193634 2.39262223243713 2.2843325138092 2.13873624801636 1.81458842754364 1.58290421962738 1.62589061260223 1.51726424694061 1.57162439823151 1.79581344127655 2.11531138420105 2.41221189498901 2.60581588745117 2.85832786560059 3.03588557243347 3.11028170585632 3.02978849411011 2.86784172058105 2.65828680992126 2.32657599449158 2.08630156517029 2.01961231231689 2.16552114486694 2.3926260471344 2.59058022499084 2.67884039878845 2.9124174118042 2.98399662971497 2.5672595500946 2.5374801158905 2.7087619304657 2.46604013442993 2.62999320030212 2.71878266334534 2.78847002983093 2.80957531929016 2.71552467346191 2.76221990585327 2.97189283370972 3.23720598220825 3.40140748023987 3.24471759796143 3.05839705467224 3.06777119636536 3.3211510181427 3.51569175720215 3.75379228591919 3.92289161682129 3.99188446998596 4.05109739303589 3.95861482620239 3.71483206748962 3.59123277664185 3.50953984260559 3.48078083992004 3.79990482330322 4.48372173309326 5.0111608505249 5.73537969589233 6.37945556640625 7.02230167388916 7.37814855575562 7.43089056015015 7.31319808959961 7.07267093658447 6.9921612739563 6.87254095077515 6.60585165023804 5.87713861465454 4.65407800674438 3.74072432518005 2.96389389038086 2.690833568573 2.85574913024902 3.13635516166687 3.4241635799408 3.86131978034973 4.03234720230103 4.09725952148438 3.72928953170776 3.15476560592651 2.53755068778992 2.07700800895691 1.32298398017883 0.541977524757385 0.391842693090439 0.333034873008728 0.289715945720673 0.270127505064011 0.26418736577034 0.231989905238152 0.229354932904243 0.208560407161713 0.247011542320251 0.267427563667297 0.304383188486099 0.357781141996384 0.467620253562927
1.7932642698288 1.96306192874908 2.12027215957642 1.90252208709717 1.37645387649536 0.933342814445496 0.702301323413849 1.68253171443939 3.52754378318787 4.34872913360596 4.27158355712891 1.78354358673096 1.19024658203125 -2.01630926132202 -2.52334189414978 -2.62508463859558 -2.6693274974823 -2.57224917411804 -2.27321600914001 -2.14012408256531 -0.296539276838303 -2.26188492774963 -2.14896392822266 -2.22744345664978 -2.14938354492188 -2.1371910572052 -1.98179447650909 -1.46612322330475 1.96488702297211 1.97301054000854 -1.6838538646698 -2.38695597648621 -2.45339870452881 -2.50846195220947 -2.49974536895752 -2.25358557701111 -1.87533128261566 -1.62989699840546 -1.42920911312103 -1.32278418540955 -1.34180819988251 5.55732107162476 4.35036182403564 3.00458359718323 1.97972548007965 3.31557393074036 0.502833306789398 -2.58675622940063 -2.46443676948547 -2.22474670410156 -2.00033736228943 -1.80139148235321 -1.65283584594727 -1.55304133892059 -1.40461432933807 -1.19440686702728 -0.827926933765411 -0.324875682592392 -0.181940719485283 -0.110399283468723 0.164176389575005 0.641468107700348 0.696063876152039 0.618333697319031 0.374594926834106 0.3234543800354 0.967240035533905 1.56913542747498 1.70423328876495 1.7432279586792 1.70991837978363 1.6191668510437 1.55824136734009 1.5365983247757 1.55090939998627 2.21804594993591 2.46141529083252 2.41165328025818 2.33852934837341 2.04887747764587 1.74196684360504 1.73874223232269 1.68332362174988 1.63721299171448 1.69146931171417 1.98462009429932 2.29766607284546 2.50950527191162 2.79066514968872 3.02805233001709 3.15639758110046 3.19935536384583 3.11137056350708 2.95004320144653 2.73941159248352 2.33902359008789 2.17016744613647 2.43900418281555 2.72154760360718 2.97034668922424 2.87452864646912 3.01019215583801 3.14697170257568 3.03102135658264 2.48129057884216 2.50691246986389 2.46683883666992 2.59976935386658 2.74970054626465 2.8720977306366 3.1828351020813 2.96140098571777 2.74144148826599 2.94245171546936 3.12836980819702 3.37214541435242 3.37840151786804 3.07182741165161 3.18040013313293 3.39268946647644 3.60776877403259 3.7492401599884 3.83306527137756 4.03854942321777 4.12278318405151 4.04798889160156 3.94433951377869 3.78757548332214 3.71309852600098 3.64894461631775 3.69954180717468 4.19263315200806 4.72503089904785 5.52837657928467 6.24237728118896 7.1007227897644 7.64373159408569 7.77512168884277 7.67749738693237 7.47281169891357 7.29753160476685 7.11388492584229 7.07448244094849 6.85909080505371 5.83627128601074 4.48564481735229 3.43658542633057 2.92856526374817 2.85823440551758 3.02277708053589 3.489905834198 3.69604086875916 4.03512334823608 4.21979951858521 4.00982093811035 3.55532288551331 3.01753282546997 2.50372910499573 1.97795128822327 0.907029628753662 0.481712281703949 0.374338537454605 0.326512962579727 0.540163636207581 0.270760476589203 0.268222749233246 0.264894843101501 0.262193381786346 0.2352175116539 0.292390257120132 0.394154995679855 0.500630855560303 0.59537261724472
1.81660461425781 1.89939367771149 2.1605076789856 2.24959349632263 1.87601029872894 1.25487208366394 0.881713330745697 0.855957210063934 3.44325017929077 4.4803261756897 3.58392000198364 1.54031383991241 -0.492788374423981 -2.02477955818176 -2.28125882148743 -2.32474088668823 -2.35741782188416 -2.28837537765503 -2.08567762374878 -1.99895560741425 -2.06278276443481 -2.23731994628906 -2.1126766204834 -1.97180390357971 -1.94654166698456 -1.9895886182785 -1.92404520511627 -0.193514600396156 1.63733494281769 -0.409220904111862 -2.15224146842957 -2.19043517112732 -2.22644710540771 -2.2394711971283 -2.16712474822998 -1.95026040077209 -1.53873980045319 -1.32201683521271 -1.17615735530853 -1.08417809009552 -1.08396327495575 2.53014588356018 -0.636891722679138 -0.765496253967285 0.788442671298981 0.550140798091888 -2.55208468437195 -2.56375050544739 -2.40111207962036 -2.08201503753662 -1.850337266922 -1.6555027961731 -1.44008362293243 -1.29566824436188 -1.19770085811615 -1.01296949386597 -0.716562330722809 -0.266491115093231 -0.135828286409378 0.321123868227005 0.858347773551941 1.03329527378082 0.997949957847595 0.835345923900604 0.67905855178833 0.430738896131516 0.841190457344055 1.60002171993256 1.94097888469696 1.84654831886292 1.87640297412872 1.83593320846558 1.78192114830017 1.7637585401535 1.82427072525024 2.05350804328918 2.44294452667236 2.59019064903259 2.4772834777832 2.33010745048523 1.97952735424042 1.92566859722137 1.93856501579285 1.75133001804352 1.70762145519257 1.87541723251343 2.17414093017578 2.42300701141357 2.69993424415588 2.9694812297821 3.10954332351685 3.24048948287964 3.28688097000122 3.10234665870667 2.86182379722595 2.49720120429993 2.31739807128906 2.80730533599854 2.96703362464905 3.11511588096619 3.13252854347229 3.15544676780701 3.26464819908142 3.21771383285522 2.9371702671051 2.49909734725952 2.52022290229797 2.61637401580811 2.70927596092224 2.80790233612061 3.06626033782959 3.17691516876221 3.26979684829712 3.0463342666626 3.0807056427002 3.38533043861389 3.53305196762085 3.45934748649597 3.24909114837646 3.43818950653076 3.63240766525269 3.7024507522583 3.86164426803589 4.04949426651001 4.13648843765259 4.2211446762085 4.15695476531982 4.06117963790894 3.91642713546753 3.72847437858582 3.77045249938965 4.09512615203857 4.57146787643433 5.31230306625366 6.22944402694702 6.94222593307495 7.7053427696228 8.06410980224609 8.1158504486084 8.01630115509033 7.73129224777222 7.63521480560303 7.51657724380493 7.25289440155029 6.43118619918823 5.13466882705688 4.20618486404419 3.66854286193848 2.9409441947937 3.05964159965515 3.35054993629456 3.68523168563843 4.15031576156616 4.33244228363037 4.40942144393921 4.09495735168457 3.71615719795227 3.14157128334045 2.61983752250671 2.07574272155762 0.945463418960571 0.419505894184113 0.377901434898376 0.524951457977295 0.281879514455795 0.290166318416595 0.285368084907532 0.27836412191391 0.253666877746582 0.286569178104401 0.369230479001999 0.495670288801193 0.615257143974304
1.88109064102173 1.99325656890869 2.18368577957153 2.36120772361755 2.12778210639954 1.57394194602966 1.21826243400574 0.936883747577667 1.77157747745514 2.81741571426392 4.82736539840698 3.07478308677673 -0.371744394302368 -1.63970923423767 -2.0185911655426 -2.1130530834198 -2.14309334754944 -2.07610583305359 -1.87726294994354 -1.74554860591888 -1.69205164909363 -1.68829131126404 -1.79979228973389 -1.71851933002472 -1.6746666431427 -1.63531529903412 -1.58971059322357 0.696510791778564 -0.162237942218781 -1.95743417739868 -2.02496767044067 -2.01287817955017 -2.00864839553833 -2.02999424934387 -2.01812958717346 -1.71188509464264 -1.25914239883423 -1.014967918396 -0.847359418869019 -0.81492555141449 -0.776379525661469 -1.04620015621185 -1.42944371700287 -1.74589705467224 -2.08674812316895 -2.289222240448 -2.43551158905029 -2.25574135780334 -2.02050590515137 -1.8507491350174 -1.65782821178436 -1.43016028404236 -1.21010529994965 -1.02700304985046 -0.865824222564697 -0.695036709308624 -0.432409733533859 -0.189915105700493 0.384202867746353 0.870257794857025 1.27865827083588 1.36175668239594 1.25376129150391 1.24298989772797 0.952254891395569 0.688744187355042 0.579110503196716 1.3349586725235 2.40758419036865 1.85342562198639 1.94425892829895 2.00461888313293 2.01136994361877 2.06261157989502 2.13161611557007 2.24405312538147 2.39602947235107 2.66953301429749 2.61009097099304 2.53212451934814 2.22364807128906 2.06814551353455 2.15360689163208 1.97338616847992 1.8763085603714 1.81453227996826 2.06961750984192 2.31653547286987 2.55637216567993 2.87869572639465 3.03827857971191 3.24589228630066 3.32574224472046 3.24509119987488 3.07015204429626 2.83633303642273 2.48755931854248 2.9522705078125 3.14971733093262 3.2601101398468 3.30729579925537 3.29037165641785 3.31904339790344 3.3274621963501 3.27955675125122 2.62295365333557 2.8179886341095 2.69920706748962 2.83691740036011 2.81068158149719 2.80609846115112 2.55939269065857 2.53457975387573 2.74338817596436 3.01407885551453 3.28279328346252 3.63776683807373 3.71534180641174 3.64056968688965 3.50776529312134 3.62197852134705 3.71416401863098 3.86262369155884 3.94915175437927 4.14964199066162 4.23602533340454 4.33070087432861 4.26746129989624 4.02906036376953 3.95500159263611 3.88680577278137 4.07636737823486 4.41723918914795 5.08064413070679 5.98524284362793 6.78700637817383 7.78327608108521 8.37167835235596 8.56674861907959 8.4818115234375 8.33033657073975 7.95734310150146 7.79704570770264 7.78995847702026 7.72312498092651 6.83431100845337 5.46789264678955 4.40484476089478 3.50559663772583 3.04771518707275 3.23282527923584 3.72958540916443 3.95081186294556 4.33339738845825 4.51542377471924 4.60301828384399 4.2009129524231 3.55520987510681 2.8588502407074 2.30301380157471 1.51204252243042 0.590141892433167 0.432242721319199 0.370339781045914 0.313993811607361 0.303673595190048 0.303804874420166 0.293545484542847 0.389455676078796 0.304188817739487 0.377265155315399 0.472697257995605 0.55744343996048
1.75586330890656 2.01269006729126 2.13579511642456 2.33601236343384 2.52921509742737 2.25506997108459 1.67697954177856 1.18911576271057 0.869681537151337 0.706149399280548 3.03292274475098 1.43288731575012 -1.12172210216522 -1.49156975746155 -1.73268151283264 -1.90447902679443 -1.94978821277618 -1.81037735939026 -1.55054342746735 -1.38371312618256 -1.31455492973328 -1.15648090839386 -1.10578060150146 -1.12249600887299 -1.01241302490234 -1.16562855243683 -1.25609910488129 -1.29279828071594 -1.59762966632843 -1.82468152046204 -1.87510585784912 -1.84217298030853 -1.80360853672028 -1.774169921875 -1.69836640357971 -1.38282310962677 -0.928758323192596 -0.703800857067108 -0.57771235704422 -0.516826391220093 -0.516144931316376 -0.686753511428833 -0.93275111913681 -1.28833317756653 -1.65005326271057 -1.77630579471588 -1.77715396881104 -1.72275006771088 -1.65913033485413 -1.56217086315155 -1.3797162771225 -1.18968510627747 -0.991928696632385 -0.819688498973846 -0.606944620609283 -0.408806413412094 -0.254975855350494 0.421956539154053 1.41062569618225 1.5775750875473 2.05362510681152 2.13306546211243 1.92343807220459 1.39749872684479 1.13216948509216 0.768665850162506 0.570727467536926 0.91043496131897 2.54924368858337 1.8076651096344 1.91437339782715 2.02709555625916 2.17006897926331 2.2781982421875 2.32960438728333 2.38579678535461 2.33734250068665 2.64149713516235 2.80564522743225 2.6955258846283 2.56196689605713 2.27985119819641 2.3055739402771 2.36634922027588 2.06038761138916 1.93959617614746 1.95347273349762 2.20938348770142 2.49580979347229 2.77537441253662 2.94460988044739 3.20612812042236 3.34939646720886 3.41886806488037 3.22982287406921 2.95886373519897 2.59017443656921 2.88121581077576 3.16646552085876 3.3212890625 3.38429808616638 3.38644742965698 3.34537363052368 3.37962794303894 3.27945780754089 3.13268733024597 2.67401075363159 2.61583256721497 2.73580074310303 2.71680164337158 2.69382786750793 2.6504955291748 2.38733291625977 2.55135560035706 2.84053874015808 3.18164539337158 3.63198661804199 3.81850457191467 3.79104566574097 3.59681034088135 3.68789911270142 3.73238015174866 3.80866479873657 3.96481561660767 4.0531849861145 4.29789352416992 4.39843273162842 4.33630514144897 4.2606258392334 4.12770652770996 3.95003938674927 3.94662427902222 4.46993684768677 4.90894985198975 5.77218294143677 6.79899787902832 7.59674215316772 8.25859260559082 8.88257694244385 9.1601676940918 9.05203437805176 8.6951847076416 8.40219211578369 8.30775833129883 8.29745864868164 8.03929901123047 6.84110927581787 5.26528263092041 4.10452175140381 3.2850227355957 3.2711443901062 3.58747625350952 3.90707468986511 4.13390398025513 4.52935934066772 4.75637865066528 4.50493144989014 4.03271389007568 3.40419125556946 2.84732127189636 2.24067306518555 1.02509486675262 0.572596609592438 0.412521630525589 0.372165381908417 0.334337592124939 0.31796008348465 0.31075444817543 0.297591209411621 0.333663433790207 0.367901533842087 0.433382779359818 0.526327729225159
1.6435329914093 2.05304837226868 2.1984076499939 2.30912637710571 2.61189699172974 2.68113732337952 2.25148987770081 1.56445157527924 1.16340720653534 0.86241227388382 0.830133736133575 0.706535696983337 -0.563430845737457 -1.16880059242249 -1.35754191875458 -1.57732546329498 -1.60915696620941 -1.51500475406647 -1.21856439113617 -0.941657721996307 -0.870492517948151 -0.830668210983276 -0.641296744346619 -0.499356955289841 -0.471472233533859 -0.583026170730591 -0.824725210666656 -1.0244232416153 -1.20792043209076 -1.50897347927094 -1.70207297801971 -1.7095764875412 -1.58476305007935 -1.37277746200562 -1.19621431827545 -0.947304785251617 -0.691333293914795 -0.446203976869583 -0.305432289838791 -0.263203799724579 -0.289650231599808 -0.384202808141708 -0.587630569934845 -0.844113349914551 -1.10036909580231 -1.21594512462616 -1.26966416835785 -1.28793013095856 -1.10352325439453 -1.12789011001587 -1.08957552909851 -0.931982457637787 -0.776945471763611 -0.580586910247803 -0.403339982032776 -0.220882266759872 0.547646403312683 1.58363914489746 2.31258583068848 2.38175201416016 2.96220731735229 2.38776898384094 1.29699838161469 1.23345196247101 1.04549419879913 0.941175997257233 0.638515770435333 0.583426833152771 1.58127772808075 1.76550936698914 1.91127133369446 2.03730463981628 2.15014123916626 2.23180389404297 2.34734034538269 2.40299940109253 2.46888971328735 2.41246509552002 2.77048897743225 2.96730613708496 2.84008812904358 2.652184009552 2.44244575500488 2.53321409225464 2.36997056007385 2.11366128921509 2.08796215057373 2.04110884666443 2.32507109642029 2.63388657569885 2.83470058441162 3.12497782707214 3.35463833808899 3.44865345954895 3.37889766693115 3.1897554397583 2.92370367050171 2.97092604637146 3.19785332679749 3.28868055343628 3.38508057594299 3.49200415611267 3.44444179534912 3.40358519554138 3.40753197669983 3.3425669670105 3.00864696502686 2.56573343276978 2.73097324371338 2.63380742073059 2.69473600387573 2.64681053161621 2.54504036903381 2.58783984184265 2.85611987113953 3.04434585571289 3.38322687149048 3.80046439170837 4.01496028900146 4.10099649429321 3.84169101715088 3.76077651977539 3.81367945671082 3.90062427520752 4.09093809127808 4.30317974090576 4.40347385406494 4.50625705718994 4.44218397140503 4.2070574760437 4.15899753570557 4.12071323394775 4.58834886550903 4.97632884979248 5.56838178634644 6.536376953125 7.38529777526855 8.06026935577393 9.1022424697876 9.55370998382568 9.56019973754883 9.3935022354126 9.06204032897949 8.95304870605469 8.80978202819824 8.64753818511963 7.65967655181885 6.13609027862549 4.93964719772339 3.9107882976532 3.22130584716797 3.40399074554443 3.74564480781555 4.15162038803101 4.67398071289062 4.88291788101196 5.00451374053955 4.54974794387817 3.85364937782288 3.11921405792236 2.4951868057251 1.64130985736847 0.648859798908234 0.458915770053864 0.407481789588928 0.353610157966614 0.318742781877518 0.313170939683914 0.295066028833389 0.310482561588287 0.364947766065598 0.421801060438156 0.497458159923553
1.50867319107056 1.91130542755127 2.27101922035217 2.40351223945618 2.61127972602844 2.80556583404541 2.53800201416016 1.94479990005493 1.43427097797394 1.12789726257324 0.833056271076202 0.918882429599762 -0.160614833235741 -0.738256394863129 -0.962582588195801 -1.23418581485748 -1.21218836307526 -1.13535594940186 -0.916921019554138 -0.588180065155029 -0.515452086925507 -0.608571708202362 -0.338424772024155 -0.0840854719281197 -0.0133280735462904 -0.0739178508520126 -0.322256565093994 -0.548608958721161 -0.847969174385071 -1.03593254089355 -1.280806183815 -1.29392397403717 -1.25431346893311 -1.1494950056076 -0.971909761428833 -0.724591910839081 -0.505815625190735 -0.202157527208328 -0.104734249413013 -0.0712324529886246 -0.0580465607345104 -0.135364085435867 -0.229080930352211 -0.379343003034592 -0.582564055919647 -0.725829601287842 -0.803261816501617 -0.784682333469391 -0.699661791324615 -0.695370614528656 -0.797249674797058 -0.650141775608063 -0.491700828075409 -0.374825865030289 -0.129321500658989 0.979516506195068 2.06485724449158 2.37877249717712 2.58789968490601 2.22068190574646 1.57722389698029 0.964935421943665 0.675959646701813 0.695805311203003 0.655674040317535 0.725057303905487 0.85191935300827 0.589813411235809 0.950049221515656 1.59386765956879 1.87928867340088 2.00894546508789 2.1637716293335 2.349116563797 2.42610263824463 2.47737979888916 2.53638958930969 2.46582269668579 2.74077177047729 3.05406451225281 2.95859456062317 2.82624769210815 2.49864983558655 2.59566235542297 2.70689868927002 2.30580973625183 2.02609276771545 1.95836043357849 2.12845659255981 2.48291802406311 2.70208239555359 3.02850270271301 3.31584477424622 3.46763157844543 3.55361318588257 3.36206960678101 3.07292652130127 3.05094289779663 3.15901350975037 3.2669358253479 3.396320104599 3.44778084754944 3.5578019618988 3.41925311088562 3.45635008811951 3.46725511550903 3.3785445690155 2.60097861289978 2.69739985466003 2.64999270439148 2.77395534515381 2.68436121940613 2.75711512565613 2.64946961402893 2.87726545333862 3.05250024795532 3.32838821411133 3.66448044776917 4.14032697677612 4.2087345123291 4.1223611831665 4.027099609375 3.85700035095215 3.91933727264404 4.07338714599609 4.17428636550903 4.44717741012573 4.55560064315796 4.51675939559937 4.4428448677063 4.32009363174438 4.34062910079956 4.4236798286438 5.05245542526245 5.39592933654785 6.27495002746582 7.06911516189575 7.87821245193481 9.18238735198975 9.90217590332031 10.2497444152832 10.1245412826538 9.73431015014648 9.3840389251709 9.29543113708496 9.29111194610596 9.00160598754883 7.6646933555603 5.89866065979004 4.62691879272461 3.63690781593323 3.37568807601929 3.64595818519592 4.19816446304321 4.45458078384399 4.91645765304565 5.17019081115723 4.87774515151978 4.40521240234375 3.73376870155334 3.12514066696167 2.40592861175537 1.12064218521118 0.561725854873657 0.427659034729004 0.382553339004517 0.350421756505966 0.326607316732407 0.314823061227798 0.307408571243286 0.351137816905975 0.409457087516785 0.474596619606018
1.54876852035522 1.79043972492218 2.33509993553162 2.48527669906616 2.59617114067078 2.92142367362976 2.99603986740112 2.55166506767273 1.81787061691284 1.39899957180023 1.12393641471863 0.949977278709412 1.39576983451843 -0.198329135775566 -0.485986530780792 -0.675065040588379 -0.576986908912659 -0.552421689033508 -0.560876131057739 -0.341033846139908 -0.21352119743824 -0.256235003471375 -0.276019781827927 -0.0147156957536936 0.245994046330452 0.256520658731461 0.126799792051315 -0.0614832676947117 -0.434874922037125 -0.657004714012146 -0.834244430065155 -0.932672083377838 -0.928670644760132 -0.818518161773682 -0.682608008384705 -0.445238769054413 -0.293457001447678 -0.0735890790820122 0.0380166210234165 0.0782124623656273 0.134957164525986 0.116063669323921 0.0254333410412073 -0.0715883523225784 -0.174996331334114 -0.338576436042786 -0.426401883363724 -0.510596394538879 -0.494454681873322 -0.494054436683655 -0.485622107982635 -0.41696435213089 -0.281435787677765 -0.0250780116766691 1.03455317020416 2.34742331504822 2.86227917671204 2.1301691532135 1.4965877532959 0.972679972648621 0.781875550746918 0.616377711296082 0.350417405366898 0.316388666629791 0.330236345529556 0.341623306274414 0.304468899965286 0.699433565139771 0.973978817462921 1.17484152317047 1.69310009479523 1.97072899341583 2.1980152130127 2.32571339607239 2.43394112586975 2.50547289848328 2.5624725818634 2.61216139793396 2.5490095615387 3.01495862007141 3.18502283096313 2.9744713306427 2.72944450378418 2.60445094108582 2.68941450119019 2.83017110824585 2.21447014808655 1.98020923137665 1.95312941074371 2.30641984939575 2.60458636283875 2.9149854183197 3.22693872451782 3.47571420669556 3.58918261528015 3.53041005134583 3.33780527114868 3.07528305053711 3.1115894317627 3.27815294265747 3.36380076408386 3.45948266983032 3.58250737190247 3.53643345832825 3.48722863197327 3.51212692260742 3.37392711639404 3.03540825843811 2.27773451805115 2.3625545501709 2.49673771858215 2.56592869758606 2.6828920841217 2.62055611610413 2.85195136070251 3.24835610389709 3.2036235332489 3.61808657646179 4.14697647094727 4.82585906982422 4.54222679138184 4.7746000289917 4.52336740493774 3.93128156661987 4.24127864837646 4.19346714019775 4.42035531997681 4.54498863220215 4.67983388900757 4.6322865486145 4.59065055847168 4.4998893737793 4.39878129959106 5.11401414871216 5.51407957077026 5.92458295822144 6.6552734375 8.01107692718506 8.95494174957275 10.268045425415 10.7448406219482 10.6958847045898 10.5805101394653 10.1396989822388 10.011833190918 9.86001491546631 9.81906318664551 8.69695281982422 6.95868921279907 5.5752215385437 4.41321039199829 3.61716675758362 3.66762018203735 4.02918004989624 4.50467443466187 5.08150482177734 5.30001068115234 5.46447420120239 4.97158908843994 4.22418308258057 3.4226233959198 2.73589539527893 1.76409435272217 0.674541115760803 0.498731166124344 0.444907665252686 0.397346794605255 0.340200185775757 0.322414606809616 0.311223536729813 0.352488338947296 0.403044432401657 0.454147607088089
1.66505229473114 1.71654403209686 2.17139172554016 2.56242704391479 2.70108151435852 2.92222571372986 3.13403534889221 2.86732339859009 2.22551560401917 1.65194439888 1.37082350254059 1.1417715549469 0.80031681060791 0.331554591655731 -0.0672704502940178 -0.151316359639168 0.0332236923277378 0.0307902172207832 -0.0728572681546211 0.0323366113007069 0.994878053665161 0.0368381254374981 0.0193595308810472 0.0251189973205328 0.350601553916931 0.539510548114777 0.513071119785309 0.275041878223419 0.12079069018364 -0.252185106277466 -0.424410939216614 -0.489824920892715 -0.489344030618668 -0.453731000423431 -0.396768033504486 -0.248123154044151 -0.149044126272202 0.0154709462076426 0.143720373511314 0.242988660931587 0.312292098999023 0.307390838861465 0.215081393718719 0.149498924612999 0.0440862588584423 -0.0615998394787312 -0.190591230988503 -0.355713397264481 -0.397776663303375 -0.348001450300217 -0.282916367053986 -0.163579702377319 0.505680441856384 1.21648859977722 1.59677863121033 2.93700528144836 1.57631659507751 1.02816569805145 0.704150199890137 0.50942051410675 0.28068870306015 0.0951831117272377 0.0343382507562637 0.0526434220373631 0.0589118897914886 0.0942360088229179 0.125709220767021 0.192069336771965 0.429746240377426 0.826147496700287 1.50203835964203 1.97335171699524 2.16343998908997 2.30228400230408 2.41408848762512 2.49794673919678 2.58763456344604 2.64936232566833 2.70805525779724 3.00990605354309 3.29189491271973 3.11324620246887 2.91058135032654 2.51640868186951 2.76136636734009 2.79793095588684 2.42407989501953 2.15132665634155 1.93298196792603 2.13559246063232 2.43825435638428 2.74485850334167 3.11717081069946 3.43718552589417 3.61372876167297 3.718745470047 3.66524624824524 3.45661544799805 3.14891839027405 3.23851346969604 3.33478379249573 3.43608045578003 3.54431462287903 3.66223287582397 3.60716247558594 3.54110527038574 3.5155086517334 3.43319439888 2.6618127822876 2.10215306282043 2.18103957176208 2.18617606163025 2.2963924407959 2.49929428100586 2.6620180606842 2.88161826133728 3.05587339401245 3.49513149261475 4.18460464477539 4.72759819030762 5.1494197845459 5.37905645370483 5.58911180496216 4.80609655380249 4.56721878051758 4.17376708984375 4.27510118484497 4.5236759185791 4.66353797912598 4.7995171546936 4.78208303451538 4.56798267364502 4.56128931045532 4.87164878845215 5.57596731185913 5.91952323913574 6.46074485778809 7.65456247329712 8.73941993713379 10.3243093490601 11.1303539276123 11.6074314117432 11.489860534668 11.0507574081421 10.6494455337524 10.5551433563232 10.5382175445557 10.2103071212769 8.68146133422852 7.14745807647705 5.50649547576904 4.74437046051025 4.03273153305054 3.95115900039673 4.5679030418396 4.83933544158936 5.36273860931396 5.66563940048218 5.35570526123047 4.86244630813599 4.22206735610962 3.45736360549927 2.6777069568634 1.25909209251404 0.698375880718231 0.518157720565796 0.448080331087112 0.389898180961609 0.359784066677094 0.335888236761093 0.364619135856628 0.407419681549072 0.452336519956589
1.77032029628754 1.79680144786835 2.06904530525208 2.6477370262146 2.80501127243042 2.92493176460266 3.27063727378845 3.34328937530518 2.86276578903198 2.05436158180237 1.64294767379761 1.47059142589569 1.21102833747864 0.858726799488068 0.485131144523621 0.470211505889893 0.5201416015625 0.41719976067543 0.402034044265747 3.96889543533325 4.92658805847168 1.71225762367249 0.222155854105949 0.0775302946567535 0.339765310287476 0.67572957277298 0.679680943489075 0.554462432861328 0.434399157762527 0.346053898334503 -0.0761842429637909 -0.245800092816353 -0.218778550624847 -0.196955546736717 -0.174162298440933 -0.160397991538048 -0.0961371287703514 0.0353305228054523 0.176235124468803 0.377692431211472 0.49291718006134 0.489734798669815 0.458572834730148 0.325746297836304 0.323122203350067 0.352396816015244 0.277749270200729 0.123912408947945 -0.0198168773204088 0.160746857523918 0.522192001342773 1.43815803527832 1.62385177612305 1.24645781517029 1.26872158050537 2.01653099060059 0.951744437217712 0.479952037334442 0.133211806416512 0.00257525104098022 0.0171046275645494 0.0324945822358131 0.0395235568284988 0.0444388538599014 0.0437526851892471 0.0776772573590279 0.0990718454122543 0.164454892277718 0.216502875089645 0.588787198066711 1.25152635574341 1.83686053752899 2.15821981430054 2.30501675605774 2.41480779647827 2.60366129875183 2.69882607460022 2.74291110038757 2.80158877372742 2.71381044387817 3.27375507354736 3.42354917526245 3.13161635398865 2.79782152175903 2.87133002281189 2.81121182441711 2.98959159851074 2.25858187675476 2.00228428840637 1.95515036582947 2.29579782485962 2.66946363449097 3.00251507759094 3.35768151283264 3.5644268989563 3.75594115257263 3.86861443519592 3.65284752845764 3.32572793960571 3.2098240852356 3.31220102310181 3.41842031478882 3.5782265663147 3.63644099235535 3.74032258987427 3.58256363868713 3.58708882331848 3.447340965271 3.25952363014221 2.42547965049744 2.01192784309387 2.11590838432312 2.27577257156372 2.31626725196838 2.6358916759491 2.79778981208801 2.90907621383667 3.27951192855835 4.02902889251709 4.91057395935059 5.05400276184082 5.02637434005737 4.88785934448242 5.30673408508301 4.61218070983887 3.98127102851868 4.21683835983276 4.37039661407471 4.69432020187378 4.84927701950073 4.82670450210571 4.82229423522949 4.70842552185059 4.81709098815918 5.61611795425415 6.1069278717041 6.54756021499634 7.31343078613281 8.93416309356689 10.0506134033203 11.7034120559692 12.2183275222778 12.101128578186 12.2025423049927 11.5910348892212 11.3481464385986 11.1508874893188 11.3115882873535 10.0261363983154 8.02775573730469 6.81840085983276 5.9431357383728 4.75840044021606 3.99158096313477 4.37998723983765 4.93437004089355 5.56348371505737 5.80239915847778 6.01788902282715 5.71362543106079 5.19098615646362 4.39983654022217 3.68908214569092 2.85492730140686 1.35236728191376 0.646486043930054 0.504435956478119 0.453802317380905 0.39552316069603 0.369099974632263 0.351773232221603 0.39721742272377 0.444427669048309
1.87190067768097 1.91812765598297 1.95131206512451 2.44923806190491 2.87063336372375 3.01161313056946 3.2488214969635 3.49918866157532 3.21771287918091 2.5300612449646 2.11376047134399 1.75373601913452 1.50293397903442 1.25595259666443 0.99992424249649 0.83776843547821 0.799633026123047 0.745990216732025 1.0530012845993 4.33440971374512 1.65209186077118 -0.165995672345161 0.134309038519859 0.293047040700912 0.31356617808342 0.706534385681152 0.949805438518524 0.886826872825623 0.684335708618164 0.47505858540535 0.252374172210693 -0.0215798951685429 0.101147852838039 0.144374877214432 0.122970350086689 0.0954127907752991 0.0475838705897331 0.0777819007635117 0.224939122796059 0.434497505426407 0.567561268806458 0.636246860027313 0.621370136737823 0.539097607135773 0.594317972660065 0.676836371421814 0.702420473098755 0.719405233860016 0.784111142158508 2.59827184677124 1.22888600826263 0.587509155273438 0.115110270678997 0.0379171706736088 0.930625140666962 1.56991720199585 0.489494770765305 -0.0137735120952129 -0.00877050496637821 -0.0018341161776334 0.0168710891157389 0.050965178757906 0.0667175576090813 0.0904683023691177 0.0950646102428436 0.104904368519783 0.115445159375668 0.174908086657524 0.263233751058578 0.600576519966125 0.865973293781281 1.57890141010284 2.12923073768616 2.3333945274353 2.460125207901 2.56551265716553 2.68737363815308 2.77618098258972 2.84597992897034 2.89737415313721 3.30758786201477 3.58343958854675 3.32951283454895 3.05296492576599 3.35469651222229 3.08566784858704 3.11344289779663 2.58511924743652 2.23350596427917 2.0479781627655 2.09096598625183 2.45234704017639 2.83001399040222 3.24967741966248 3.47951817512512 3.81330943107605 3.9431095123291 3.88230538368225 3.65784049034119 3.3293993473053 3.29178953170776 3.42704844474792 3.56407117843628 3.67217421531677 3.78351831436157 3.72409653663635 3.64491057395935 3.62393927574158 3.52377438545227 3.1479856967926 1.94003593921661 2.05809116363525 2.2219386100769 2.3828387260437 2.74664998054504 2.78737592697144 2.84837913513184 2.96925401687622 3.79166531562805 4.5678391456604 4.65460920333862 5.64768743515015 5.66962671279907 4.76918458938599 5.18367052078247 3.98531198501587 4.07450771331787 4.32898664474487 4.60252618789673 4.7717490196228 4.94957637786865 4.94355726242065 4.70985174179077 5.16479253768921 5.77704048156738 6.20610427856445 6.86597537994385 7.33687353134155 8.54657936096191 9.94000911712646 11.7114486694336 12.7524385452271 13.3542623519897 13.2232608795166 13.4265251159668 12.6711072921753 11.9840230941772 12.011360168457 12.3755521774292 10.9908771514893 8.83876895904541 7.13859081268311 5.77150678634644 4.91252660751343 4.3289680480957 4.99943399429321 5.29829883575439 5.90372800827026 6.15537977218628 6.39907646179199 5.83595609664917 4.9669189453125 4.02255868911743 3.22933387756348 2.09844994544983 0.772781789302826 0.574561595916748 0.516688168048859 0.444679498672485 0.382061123847961 0.362818777561188 0.385575801134109 0.437979698181152
1.91082417964935 2.01498746871948 2.0160014629364 2.16427612304688 2.66891241073608 3.06532096862793 3.22642683982849 3.4746401309967 3.75326776504517 3.45001745223999 2.68391442298889 2.00238847732544 1.68429613113403 1.50085496902466 1.31523883342743 1.16259062290192 1.05521130561829 0.974005579948425 1.1143741607666 0.756925046443939 0.265252768993378 -0.0836522579193115 -0.0372242480516434 0.242913991212845 0.300007671117783 0.516763925552368 0.933407068252563 1.05487513542175 1.01028871536255 0.927334249019623 0.900158882141113 0.509232997894287 0.182153701782227 0.228904560208321 0.240663170814514 0.229361951351166 0.243353292346001 0.308208137750626 0.444628775119781 0.587827980518341 0.63581109046936 0.73224002122879 0.724045395851135 0.752951681613922 1.06394052505493 1.31857371330261 1.23312222957611 1.16037309169769 1.14490509033203 1.96834099292755 0.480232119560242 -0.0122833605855703 -0.0112277697771788 0.00921215862035751 0.980067253112793 0.206419333815575 -0.0140817752107978 -0.00761660747230053 0.00122630794066936 0.0293244738131762 0.0767770260572433 0.111882172524929 0.153697296977043 0.198852941393852 0.238397777080536 0.337928652763367 0.4577756524086 0.486664175987244 0.551720857620239 0.996145248413086 0.449564814567566 1.02009403705597 1.86747336387634 2.28679490089417 2.4347939491272 2.5749237537384 2.77170014381409 2.89604687690735 2.91622376441956 2.99018406867981 2.90334486961365 3.54651188850403 3.7000515460968 3.39354848861694 3.66013598442078 2.62101650238037 2.84314560890198 3.83738732337952 2.44067478179932 2.23540902137756 2.00154900550842 2.20190596580505 2.75794053077698 3.12968897819519 3.36592197418213 3.76889085769653 3.97293472290039 4.10934448242188 3.87227344512939 3.53237390518188 3.34695911407471 3.4547975063324 3.56953239440918 3.71720457077026 3.77800011634827 3.87662172317505 3.71046543121338 3.72005271911621 3.71603536605835 3.61395812034607 2.45626783370972 1.99571621417999 2.23946237564087 2.79720044136047 3.20992994308472 2.81888461112976 2.6963152885437 2.94169211387634 4.23635768890381 5.00345468521118 4.5213098526001 5.62872743606567 5.78092479705811 6.13502979278564 5.28759956359863 4.02668142318726 4.03186845779419 4.24462366104126 4.40780210494995 4.76015901565552 4.93489265441895 4.90237379074097 4.8921480178833 6.0644268989563 5.94589614868164 6.36632108688354 6.87214422225952 7.41393518447876 8.11244773864746 9.99375438690186 11.21422290802 12.6666145324707 13.9516754150391 14.6373100280762 14.399097442627 13.7368907928467 13.0956354141235 12.9590139389038 12.9932794570923 12.7137756347656 10.9425344467163 8.49255847930908 7.19662809371948 5.77443695068359 4.88142490386963 4.79270839691162 5.30388307571411 5.61394739151001 6.32145595550537 6.67541933059692 6.39266490936279 5.80261611938477 4.92447423934937 4.13909530639648 3.24419283866882 1.54980540275574 0.696693360805511 0.54472804069519 0.485253214836121 0.426360875368118 0.396735519170761 0.381478548049927 0.432720899581909
2.04353022575378 2.11385416984558 2.16322183609009 2.21317625045776 2.52013611793518 3.19763565063477 3.38188672065735 3.51570987701416 3.93079614639282 3.98972916603088 3.40840148925781 2.44164252281189 1.96087062358856 1.69971442222595 1.5096720457077 1.38815999031067 1.26608431339264 1.19998145103455 1.12572848796844 0.947565734386444 0.819883286952972 0.561415255069733 0.279256552457809 0.314028054475784 0.500369489192963 0.44852751493454 0.773492336273193 1.25790345668793 1.41861522197723 1.31347239017487 1.13946056365967 0.77422571182251 0.209469676017761 0.255481243133545 0.30154624581337 0.323922216892242 0.415633082389832 0.542457342147827 0.755563378334045 0.884111046791077 1.1332014799118 1.18168807029724 1.16237914562225 1.4740993976593 1.60050177574158 1.71748983860016 1.54681849479675 1.08797454833984 0.780393183231354 0.854180335998535 0.135389775037766 0.0208198353648186 0.00413932511582971 0.0126992389559746 0.0986649841070175 0.0100207384675741 0.0397189222276211 0.0582119897007942 0.112769693136215 0.1562729626894 0.244420796632767 0.321549028158188 0.343582451343536 0.3751160800457 0.441413730382919 0.482685804367065 0.589943051338196 0.390245974063873 0.477000266313553 0.964452564716339 0.337306350469589 0.529265761375427 1.27103900909424 1.97531092166901 2.40103435516357 2.60678648948669 2.71674585342407 2.85704159736633 2.98495364189148 2.99742913246155 3.05368304252625 2.97846579551697 3.65141153335571 3.81059432029724 3.39560317993164 2.87236762046814 2.68298959732056 3.4576096534729 2.81343626976013 2.46137738227844 2.18311977386475 2.04519891738892 2.50993967056274 2.92735171318054 3.2376811504364 3.66974568367004 4.03179311752319 4.17580938339233 4.13779926300049 3.90027785301208 3.57193970680237 3.43893456459045 3.61355185508728 3.6952657699585 3.81274342536926 3.91074085235596 3.85033392906189 3.79113960266113 3.80469012260437 3.65354943275452 3.23770427703857 2.11457419395447 2.31775188446045 2.50270104408264 2.66561675071716 2.36266231536865 2.67794919013977 2.8797972202301 4.58063650131226 4.88969135284424 4.69951725006104 5.23239517211914 6.44426012039185 6.76028347015381 5.52209997177124 3.84858226776123 3.98064279556274 4.10082197189331 4.39004564285278 4.68501234054565 4.8548755645752 4.99934816360474 5.67091798782349 6.21116876602173 5.4021692276001 6.60068845748901 6.98110723495483 7.5057201385498 8.16177558898926 9.2839937210083 10.665060043335 12.0413475036621 14.5724592208862 15.3067855834961 15.1980304718018 15.3269510269165 14.3746585845947 13.6119842529297 13.7155609130859 14.459264755249 13.0772638320923 10.8035163879395 8.60850620269775 7.30794286727905 6.21035003662109 5.75899505615234 5.06516361236572 5.80217838287354 6.55216407775879 6.85362005233765 7.16778802871704 6.54803085327148 5.55192756652832 4.51551294326782 3.66171407699585 2.37789297103882 0.930507838726044 0.61435729265213 0.551040709018707 0.476179003715515 0.411100149154663 0.384187042713165 0.42537584900856
2.15105152130127 2.14608073234558 2.25267195701599 2.31188869476318 2.40044593811035 2.95256066322327 3.45240664482117 3.65352702140808 3.89279985427856 4.22964000701904 3.87569618225098 3.00114917755127 2.23328733444214 1.88714337348938 1.69255065917969 1.59758639335632 1.52025198936462 1.41733527183533 1.30476641654968 1.20060789585114 1.21068835258484 1.05334937572479 0.853360712528229 0.582025051116943 0.616545855998993 0.581222772598267 0.659765779972076 1.29075014591217 1.76023936271667 1.70060729980469 1.32306814193726 1.20337963104248 0.707379400730133 0.2744300365448 0.350580543279648 0.350516647100449 0.504700839519501 0.663478851318359 0.952550530433655 1.22107839584351 1.59690916538239 1.62072515487671 1.9185962677002 2.25309228897095 2.62558960914612 2.71351027488708 2.4895122051239 2.11218881607056 1.45671415328979 1.00950968265533 0.858332872390747 0.185836851596832 0.181666821241379 0.208756849169731 0.449768543243408 0.336315244436264 0.253079354763031 0.362162709236145 0.477373152971268 0.214440152049065 0.212327927350998 0.300740480422974 0.375204205513 0.381709694862366 0.449065089225769 0.484945565462112 0.606014430522919 0.367931455373764 0.600539863109589 0.359438866376877 0.316532075405121 0.445113033056259 0.798950910568237 1.65790700912476 2.30528593063354 2.58290028572083 2.71793127059937 2.82222104072571 2.94157981872559 3.06152105331421 3.07981896400452 3.10906219482422 3.73079228401184 3.99676966667175 3.82768678665161 3.20245933532715 3.78237962722778 2.64382648468018 1.78858649730682 2.31988048553467 2.10209202766418 2.18653321266174 2.22532415390015 2.71811866760254 3.04189229011536 3.54314208030701 3.99208521842957 4.22321653366089 4.36953973770142 4.11677169799805 3.75962948799133 3.47854900360107 3.58776307106018 3.68307209014893 3.77307271957397 3.87939620018005 3.9843418598175 3.92437124252319 3.85387873649597 3.86297154426575 3.75676822662354 2.51146674156189 2.04164266586304 2.29041504859924 2.61576247215271 2.30777430534363 2.56218409538269 2.75609683990479 5.1249828338623 4.4866623878479 4.17218017578125 4.40600204467773 6.30935859680176 5.05438280105591 3.62984752655029 3.72062230110168 3.92914414405823 4.07124090194702 4.31618928909302 4.51790714263916 4.82497406005859 4.98367691040039 6.4960789680481 4.90018892288208 4.81109809875488 6.67243099212646 7.54877519607544 7.35513687133789 7.94829988479614 8.46716499328613 9.80934906005859 11.8605337142944 14.1444320678711 15.7932729721069 16.419900894165 16.0569496154785 15.2993907928467 14.8606729507446 14.9633140563965 15.3956956863403 15.0990476608276 13.024151802063 12.8009824752808 10.0448408126831 8.68874359130859 7.41350841522217 5.7862982749939 5.86679267883301 6.22191858291626 7.11366701126099 7.52392482757568 7.27702140808105 6.61208915710449 5.61052560806274 4.74699068069458 3.68483901023865 1.766761302948 0.742933690547943 0.582805514335632 0.52029275894165 0.451886981725693 0.41588681936264 0.428531110286713
2.21729779243469 2.32876133918762 2.35852599143982 2.48825478553772 2.58617234230042 2.88530111312866 3.63111352920532 3.83022475242615 3.9738757610321 4.43191814422607 4.46466064453125 3.81011366844177 2.72822594642639 2.19908165931702 1.9138662815094 1.76361107826233 1.68722403049469 1.59457528591156 1.57026755809784 1.52343380451202 1.42799663543701 1.36754667758942 1.75583803653717 0.920462846755981 0.838853478431702 0.937471807003021 0.651928126811981 1.09984636306763 1.79655158519745 1.8030446767807 1.65838181972504 1.4278552532196 0.977554202079773 0.339099615812302 0.370495766401291 0.406966596841812 0.518648505210876 0.827630877494812 1.05541181564331 1.70579326152802 2.27821016311646 2.9148256778717 3.09059572219849 3.66696619987488 4.20573043823242 4.04733991622925 3.45390439033508 2.85896468162537 1.82788419723511 1.08704006671906 0.618657052516937 0.132231384515762 0.532167315483093 0.620270013809204 0.653696835041046 0.246051013469696 0.273370862007141 0.318138360977173 0.279467403888702 0.224393293261528 0.27197539806366 0.30603563785553 0.308780819177628 0.49565663933754 0.559393167495728 0.663924753665924 0.52622526884079 0.563827931880951 1.06788122653961 0.243555575609207 0.276618212461472 0.595689713954926 0.489213973283768 1.08650076389313 2.06797981262207 2.53636598587036 2.74832153320312 2.8384268283844 3.03401041030884 3.17688226699829 3.19664883613586 3.21333527565002 3.25681376457214 3.96990609169006 6.94856071472168 3.52020239830017 3.0630989074707 2.10108590126038 1.55097162723541 2.74289560317993 2.10059714317322 2.10436534881592 2.21508169174194 2.47972011566162 2.94309043884277 3.38319706916809 3.88577651977539 4.28022003173828 4.427414894104 4.39747428894043 4.15697574615479 3.85762095451355 3.54411435127258 3.63850712776184 3.74405074119568 3.89326620101929 3.9491229057312 4.05712652206421 3.91800546646118 3.95005702972412 3.77919673919678 3.33079648017883 2.12132167816162 2.1820764541626 2.37999057769775 2.17609190940857 2.36890029907227 2.74467515945435 4.5344877243042 3.91701030731201 3.61196613311768 3.639000415802 4.66254377365112 4.18484354019165 3.44050097465515 3.65407729148865 3.90152478218079 4.02676725387573 4.15549087524414 4.42702531814575 4.69903802871704 4.90618801116943 5.2987265586853 4.97273588180542 5.00208425521851 6.07023191452026 7.86714029312134 7.48130750656128 7.71325922012329 8.52279853820801 9.08005332946777 11.5611801147461 13.2034616470337 16.3573799133301 17.041654586792 17.2535610198975 17.6178588867188 16.9103450775146 15.7243175506592 16.6747951507568 17.707914352417 15.8885440826416 13.9470415115356 12.0434236526489 10.7074413299561 8.74365615844727 8.56047916412354 6.70512342453003 6.5224814414978 7.35563802719116 7.68984460830688 8.13358783721924 7.44307279586792 6.32923316955566 5.14919710159302 4.16903781890869 2.88887882232666 1.77637434005737 0.809146285057068 0.622243046760559 0.500204265117645 0.431783318519592 0.445236474275589
2.21197891235352 2.25525140762329 2.38507151603699 2.4957332611084 2.60444235801697 2.82525420188904 3.39320349693298 3.94853758811951 4.16100692749023 4.37864303588867 4.78647613525391 4.38191318511963 3.39907574653625 2.52801012992859 2.19813323020935 2.01079034805298 1.94087266921997 1.88362514972687 1.77460861206055 1.76177668571472 1.85059440135956 1.55546796321869 2.41003346443176 1.22634601593018 1.0394321680069 0.837315857410431 0.847470641136169 0.779310584068298 1.60400795936584 2.13251566886902 2.02528190612793 1.59643006324768 1.49037623405457 0.924999177455902 0.364372968673706 0.469725519418716 0.53935706615448 1.00989317893982 2.15019392967224 1.99801695346832 4.22522354125977 3.92200016975403 2.86376309394836 2.30323696136475 1.43191242218018 0.806608378887177 0.67570161819458 0.652347981929779 0.539626717567444 0.499375551939011 0.786699652671814 0.312874794006348 0.50443422794342 0.520414412021637 0.355005413293839 0.209588348865509 0.280135065317154 0.325087666511536 0.320544958114624 0.283455401659012 0.321449995040894 0.384122669696808 0.354633629322052 0.377931654453278 0.648809850215912 0.766935229301453 0.449339061975479 0.867623090744019 0.65010404586792 0.138361141085625 0.67939692735672 0.360211580991745 0.346722483634949 0.738667070865631 1.73993158340454 2.42925071716309 2.74959135055542 2.92127370834351 3.02587890625 3.13222861289978 3.26709961891174 3.27053356170654 3.27845525741577 4.10631275177002 7.4416332244873 3.58835315704346 3.33892107009888 2.62220406532288 4.05433702468872 2.7295286655426 2.19894957542419 2.23948383331299 2.20080757141113 2.24142360687256 2.66413187980652 3.15585041046143 3.71829128265381 4.20639324188232 4.44550180435181 4.59594249725342 4.57122182846069 4.30124187469482 3.89266991615295 3.58740448951721 3.76494956016541 3.84148454666138 3.97481083869934 4.09574747085571 4.04678249359131 3.95677876472473 3.96876883506775 3.85302710533142 2.91028785705566 2.00658464431763 2.03968453407288 2.14117383956909 2.32518100738525 2.63760137557983 3.96736693382263 3.71469712257385 3.6259069442749 3.57130599021912 3.92366337776184 4.99728345870972 3.40344953536987 3.68207097053528 3.83542418479919 3.97292709350586 4.11346197128296 4.3366117477417 4.47465419769287 4.79069375991821 5.02992057800293 5.16034555435181 5.14606237411499 5.45050191879272 6.3833703994751 7.09220409393311 7.09731721878052 8.36794471740723 9.24185085296631 10.2567386627197 12.9424934387207 15.6943435668945 17.9527378082275 18.7845802307129 19.7222671508789 20.4638767242432 19.5202789306641 18.1183433532715 19.2719745635986 20.4025440216064 18.2070484161377 17.1623554229736 13.7044229507446 12.08669090271 10.5986299514771 8.47776699066162 8.21138095855713 7.03150367736816 8.0851354598999 8.55984497070312 8.36019229888916 7.59846830368042 6.9034857749939 5.42369222640991 5.01786518096924 3.46687579154968 1.35786330699921 0.670076906681061 0.55951327085495 0.486788213253021 0.46975564956665
2.39275693893433 2.31823992729187 2.4813859462738 2.55672740936279 2.72503209114075 2.89129590988159 3.31675815582275 4.21356248855591 4.4447546005249 4.59609985351562 5.09229516983032 5.06773471832275 4.30807733535767 3.09947395324707 2.68374562263489 2.44908595085144 2.25618171691895 2.17194652557373 2.10037541389465 1.96962940692902 1.90008163452148 3.33546304702759 2.71972727775574 1.30935525894165 1.36731290817261 1.1581609249115 1.02417707443237 0.923525333404541 1.40720772743225 2.10366702079773 2.16532301902771 2.02778697013855 1.7990208864212 1.72787749767303 1.09614586830139 0.50750994682312 0.603540241718292 1.60727977752686 1.28310394287109 1.1346982717514 2.93226552009583 1.15821993350983 0.381132870912552 0.601496279239655 0.739512860774994 0.732703566551208 0.726277053356171 0.692373752593994 0.623694241046906 0.508371472358704 0.356153309345245 0.20396588742733 0.46195787191391 0.481966614723206 0.33920419216156 0.260242104530334 0.384175419807434 0.32249242067337 0.331702947616577 0.341495037078857 0.254674762487411 0.239917442202568 0.42053896188736 0.464495778083801 0.624345779418945 0.510264754295349 0.589000999927521 1.15093016624451 0.194632723927498 0.192271202802658 0.781595468521118 0.248829364776611 0.337561249732971 0.461679846048355 1.12006449699402 2.18100333213806 2.68426775932312 2.94974851608276 3.06165504455566 3.25912809371948 3.38193607330322 3.41612410545349 3.40320539474487 3.58756422996521 6.96456003189087 4.11749744415283 3.76201891899109 3.29383540153503 3.81073045730591 1.59238708019257 1.593585729599 2.02537941932678 2.1082124710083 2.22098565101624 2.44825768470764 3.03214359283447 3.51852655410767 4.05956125259399 4.35510873794556 4.62153816223145 4.76398086547852 4.46333932876587 4.01705646514893 3.58462190628052 3.69710373878479 3.8318133354187 4.01081228256226 4.04443216323853 4.15989255905151 4.00428915023804 4.04498100280762 3.90181231498718 3.69498491287231 2.57351016998291 1.87700521945953 2.03903818130493 2.20132374763489 2.42845010757446 2.76533603668213 2.84338402748108 2.97919106483459 3.06547951698303 3.2850649356842 5.01120185852051 3.22169017791748 3.52146911621094 3.82161259651184 3.95240378379822 4.05623722076416 4.16300058364868 4.3865966796875 4.56581878662109 4.98898458480835 5.14600038528442 5.11082792282104 5.05586433410645 5.78268337249756 4.62371253967285 5.99389505386353 8.09233093261719 8.91861820220947 9.39103984832764 12.3973665237427 14.3513689041138 17.2627277374268 20.3201942443848 21.5508689880371 22.1080093383789 20.939453125 20.1843891143799 20.4285526275635 21.558650970459 20.1346340179443 18.1476058959961 15.5752325057983 13.0233325958252 13.1855821609497 13.7403030395508 10.7464904785156 7.17600917816162 8.32284355163574 8.84534740447998 9.3200626373291 9.17366313934326 8.36123085021973 7.09643411636353 6.00034046173096 4.6619873046875 2.47150564193726 0.954120695590973 0.600932419300079 0.550453007221222 0.496584713459015
2.78028798103333 2.67342948913574 2.45316743850708 2.64098429679871 2.79570031166077 2.95444679260254 3.16955375671387 3.8200798034668 4.57676458358765 4.85834455490112 5.05181312561035 5.58681917190552 5.10971736907959 4.14913702011108 3.46858882904053 2.88785099983215 2.56686496734619 2.35958743095398 2.27750468254089 2.35061311721802 4.04595613479614 4.73580741882324 1.58294546604156 1.61477696895599 1.71490979194641 1.63701069355011 1.32162129878998 1.58719754219055 4.68037176132202 3.89578008651733 3.77309846878052 2.58528733253479 2.29244613647461 1.97339165210724 1.3942734003067 0.556463003158569 0.640340209007263 1.22293865680695 1.14646136760712 2.19937610626221 3.32468104362488 0.566772639751434 0.263127505779266 0.496215850114822 0.669379651546478 0.760554134845734 0.761122524738312 0.72312194108963 0.737374067306519 0.668440580368042 0.50340074300766 0.323100388050079 0.210949510335922 0.393187165260315 0.243191659450531 0.341645061969757 0.417189657688141 0.348715096712112 0.327241450548172 0.420328557491302 0.359943836927414 0.282079637050629 0.318697184324265 0.577841103076935 0.674683809280396 0.367870837450027 0.805826127529144 0.78546816110611 0.129641771316528 0.69498485326767 0.245036795735359 0.223040074110031 0.481371849775314 0.347365319728851 0.68807452917099 1.84281253814697 2.55667424201965 2.9102258682251 3.14356803894043 3.27548837661743 3.37927746772766 3.5158748626709 3.53006958961487 3.48223042488098 5.30709886550903 4.48317384719849 4.14335203170776 3.64508295059204 2.84586977958679 1.91047286987305 1.31915903091431 1.63500010967255 2.04896068572998 2.14435935020447 2.26541256904602 2.72617888450623 3.27721333503723 3.87126684188843 4.20103979110718 4.70065259933472 4.82779121398926 4.77805662155151 4.44107055664062 3.98959445953369 3.64060521125793 3.85771656036377 3.93040108680725 4.06846284866333 4.18843936920166 4.13913059234619 4.07831764221191 4.10986614227295 4.0236873626709 3.51963424682617 1.82484555244446 1.92228925228119 2.21404147148132 2.37108278274536 2.76670265197754 2.89671111106873 2.94497275352478 2.95991039276123 3.07338571548462 3.1519615650177 3.22869491577148 3.48451685905457 3.83751773834229 3.95258665084839 4.06341934204102 4.17281866073608 4.26084423065186 4.55440425872803 4.90607643127441 5.09122037887573 5.27446413040161 5.19844245910645 4.76829433441162 4.59073066711426 4.87460041046143 6.94656848907471 8.81092071533203 9.83306980133057 10.6126728057861 13.4735612869263 15.758641242981 21.9262409210205 23.3133983612061 25.915563583374 26.5857315063477 25.0654945373535 22.3317317962646 23.4511909484863 24.8719940185547 21.8829040527344 22.6928062438965 16.0450420379639 14.8636569976807 12.7071371078491 8.7550220489502 6.35564756393433 7.519118309021 9.054123878479 9.75406742095947 10.2493314743042 9.28232765197754 8.15291500091553 6.6348671913147 7.15099334716797 4.80634498596191 1.67110598087311 0.783692538738251 0.624514102935791 0.540340602397919
3.08450746536255 2.98077583312988 2.82672595977783 2.72903990745544 2.87840247154236 3.0941469669342 3.22909712791443 3.59603309631348 4.37071132659912 5.07197952270508 5.3524603843689 5.51762866973877 6.12925243377686 5.58519554138184 4.31230401992798 3.20075964927673 2.93571972846985 2.74757957458496 2.74819827079773 3.73528099060059 3.74994874000549 1.90132284164429 1.71107602119446 1.99673819541931 2.75342774391174 6.49650812149048 8.94355010986328 8.56646919250488 3.78560137748718 1.36521315574646 1.98887872695923 2.66691780090332 2.7843644618988 2.23319411277771 2.1252429485321 1.33289635181427 0.572798490524292 0.776952803134918 1.19160389900208 4.14079856872559 2.14356732368469 0.259419292211533 0.142482355237007 0.340323805809021 0.626693785190582 0.784598827362061 0.794970750808716 0.807936608791351 0.768159508705139 0.748223543167114 0.625665307044983 0.450752556324005 0.259101152420044 0.192297399044037 0.300913542509079 0.39477950334549 0.418674528598785 0.386530488729477 0.357138633728027 0.330854773521423 0.32883208990097 0.371606349945068 0.344467461109161 0.468738287687302 0.440583080053329 0.423897087574005 1.17256784439087 0.254929065704346 0.261083096265793 0.944144606590271 0.0853608176112175 0.196015581488609 0.776332080364227 0.763919711112976 1.28642392158508 1.40408611297607 2.21890068054199 2.75896239280701 3.02908611297607 3.27839851379395 3.52745008468628 3.67086863517761 3.68640446662903 3.63762283325195 6.14372110366821 5.38519668579102 4.60025978088379 4.14918375015259 3.53437042236328 2.75564885139465 1.86933207511902 1.48317182064056 1.87800049781799 2.14150977134705 2.27243256568909 2.37516212463379 3.15365815162659 3.67397475242615 4.01513814926147 4.60412645339966 4.89093112945557 5.02122116088867 4.66615056991577 4.17987537384033 3.62820196151733 3.76803731918335 3.92234778404236 4.11687135696411 4.18223142623901 4.30302000045776 4.15812873840332 4.201331615448 4.25919818878174 4.12476348876953 2.66400933265686 1.92255187034607 2.13229513168335 2.28371953964233 2.44827628135681 2.77350807189941 2.90609455108643 3.03189086914062 3.1359920501709 3.24356818199158 3.25136590003967 3.42591643333435 3.80034852027893 3.97545385360718 4.08983755111694 4.15169334411621 4.29430198669434 4.53589105606079 4.75225353240967 5.13525915145874 5.28854894638062 5.19655561447144 5.0610499382019 4.76438283920288 4.4740571975708 6.18934869766235 8.64678955078125 9.90251541137695 11.2608995437622 12.7209024429321 16.5366897583008 20.7941646575928 25.9818458557129 28.4167995452881 28.7499504089355 26.1808891296387 24.5201797485352 24.3838424682617 25.8085784912109 25.2478199005127 21.0752868652344 13.8410911560059 12.745023727417 8.459059715271 4.09285116195679 5.31036281585693 6.94383907318115 8.46457862854004 10.3743438720703 10.8537216186523 10.766282081604 9.86232948303223 8.37456321716309 8.25687789916992 6.67307567596436 4.22915744781494 1.6926097869873 0.712560057640076 0.583946645259857
