NCOLS 174
NROWS 32
XLLCORNER 353936
YLLCORNER 6700096
CELLSIZE 16 
NODATA_value -3.4e+38 
1.97120642662048 3.03960871696472 2.88906002044678 8.95710277557373 2.89358377456665 2.8258843421936 3.15660119056702 4.39507436752319 1.59355247020721 1.4602552652359 1.22152137756348 1.24840903282166 1.88983249664307 2.22428297996521 2.49180507659912 1.03661847114563 2.74938464164734 2.62783026695251 2.20365810394287 2.45393919944763 1.34884667396545 30.0360050201416 31.6842002868652 22.1713581085205 14.9012155532837 2.70658659934998 3.79119849205017 3.11515545845032 2.98891448974609 2.85274958610535 2.49450278282166 2.22496199607849 2.07598495483398 1.94530022144318 1.79781198501587 1.69080543518066 1.61049401760101 1.56428730487823 1.47389936447144 1.36036550998688 1.29812395572662 1.23234832286835 1.16911387443542 1.13081204891205 1.07710707187653 1.00944101810455 0.951501429080963 0.913871467113495 0.839112877845764 2.58264136314392 2.06330156326294 2.86505579948425 2.70945405960083 3.02304077148438 2.38303971290588 2.24596786499023 2.31272578239441 5.49226188659668 2.23780560493469 14.3761014938354 5.84163188934326 4.45389556884766 3.8590030670166 4.49667167663574 2.11621594429016 2.75971484184265 1.74573028087616 1.72138822078705 9.22915840148926 14.1815185546875 2.13843774795532 22.4813213348389 22.9874897003174 5.59247398376465 0.611909031867981 -0.453481167554855 -0.345554709434509 3.7303409576416 2.86790990829468 0.913378000259399 1.68525969982147 29.1567115783691 18.0798645019531 2.67733311653137 0.76589834690094 -0.773197114467621 -1.01507997512817 -0.213882133364677 1.24605631828308 1.42388677597046 1.2798467874527 1.26740312576294 0.794513583183289 0.413141816854477 1.36136043071747 2.40841341018677 0.928825080394745 -0.839475870132446 3.50763368606567 10.0162048339844 0.83402156829834 0.393507242202759 0.849577009677887 5.89976167678833 2.88253593444824 11.3525323867798 5.31986522674561 1.87160360813141 2.1212899684906 3.77829217910767 -1.49811291694641 -1.56177365779877 -1.80662226676941 -1.75619399547577 -1.81711721420288 1.50483524799347 2.51663732528687 1.54276061058044 8.50245475769043 7.74925804138184 8.96859455108643 16.7314319610596 5.70478820800781 0.678401470184326 15.6634616851807 -2.29566240310669 -2.3568696975708 -2.5910530090332 9.86108684539795 9.54469776153564 5.03304862976074 4.68313121795654 -1.60093939304352 -1.78796827793121 -2.27417278289795 0.868304848670959 1.71177184581757 3.23525619506836 12.5909671783447 8.69570541381836 11.8781661987305 18.2874011993408 10.5171175003052 8.7708797454834 13.2363424301147 32.9537620544434 9.86906623840332 19.1183280944824 19.3825244903564 2.35887742042542 3.72557020187378 4.09879970550537 4.41542482376099 2.65262222290039 0.980136692523956 5.04674100875854 3.78739762306213 2.85943007469177 1.64425253868103 0.977563858032227 0.0222308989614248 -0.0430601127445698 1.61262691020966 3.82069253921509 5.47157526016235 5.85519790649414 5.62451505661011 5.85488319396973 5.7738676071167 4.72894668579102 3.9493293762207 3.35724544525146 2.94479489326477 2.6242995262146
3.6659369468689 21.2689552307129 14.190465927124 3.06978678703308 2.848961353302 3.23686528205872 2.51756930351257 3.80241179466248 2.23412823677063 1.34236443042755 2.17876625061035 2.0654022693634 2.40405821800232 2.7264928817749 2.70153212547302 2.95539164543152 2.40032386779785 2.61151790618896 2.51378488540649 2.022376537323 0.824991047382355 8.77094841003418 31.7437171936035 22.3312168121338 2.80444383621216 2.80378246307373 3.27978992462158 3.23549485206604 2.93982195854187 3.31824636459351 2.64277267456055 2.39511871337891 2.22396397590637 2.0416898727417 1.92241871356964 1.81468236446381 1.74669134616852 1.66010820865631 1.58487343788147 1.47095990180969 1.35140311717987 1.29973661899567 1.25114774703979 1.21461224555969 1.14822375774384 1.06375014781952 1.01134204864502 3.00171256065369 2.87597346305847 3.3524227142334 3.36177015304565 2.99827647209167 3.2266058921814 3.46331739425659 2.94694185256958 2.88029193878174 2.2854335308075 2.29323244094849 2.816575050354 2.92308878898621 4.6354546546936 5.07310962677002 5.05465030670166 4.82963466644287 3.91262316703796 2.68471240997314 2.22693204879761 1.63318359851837 1.52597069740295 1.05704689025879 0.719568848609924 0.659481048583984 2.52276515960693 5.20737218856812 -0.1618412733078 1.30830383300781 0.942327201366425 1.09908199310303 2.47438287734985 8.12194442749023 1.05702435970306 18.3467788696289 12.2645320892334 10.2209453582764 8.99903964996338 3.86258435249329 19.026538848877 7.12936019897461 1.77842211723328 2.60072994232178 2.33387279510498 12.2949628829956 12.5338134765625 9.7423677444458 3.92077922821045 -0.139442980289459 0.268308162689209 8.47651958465576 12.2629117965698 9.15281295776367 1.88889157772064 2.19912528991699 7.99826622009277 3.18721961975098 16.2022933959961 9.11017608642578 15.1171731948853 10.1242055892944 1.34673631191254 4.44883012771606 0.89982944726944 -0.638121902942657 -1.82819378376007 -1.89445006847382 -1.50247514247894 -1.44908058643341 0.853244781494141 1.87819743156433 5.26308298110962 5.33327150344849 6.63492679595947 13.6722545623779 6.06002378463745 -1.63865852355957 1.88166058063507 -1.33135080337524 -1.71785664558411 -2.18297982215881 -2.1762056350708 -1.34903728961945 -1.35230267047882 -1.29984259605408 -1.60546410083771 2.28147077560425 -2.5045166015625 -2.8105685710907 -3.13034200668335 -3.20585989952087 3.38110661506653 5.08418273925781 6.69463634490967 14.9445838928223 14.1690540313721 6.82243156433105 5.73353290557861 1.81515681743622 40.2080726623535 29.3469429016113 2.6122031211853 5.1237359046936 5.43906307220459 5.32509088516235 3.0451443195343 5.9259991645813 5.76186275482178 4.43386936187744 2.96768689155579 2.06469702720642 1.36517214775085 0.178031086921692 0.2277961820364 0.299466878175735 0.346391379833221 2.53554725646973 4.28274917602539 5.06329345703125 4.85725212097168 4.9179482460022 5.21683740615845 5.04648447036743 3.99173188209534 3.22197151184082 2.90338444709778 2.57071995735168
1.4917471408844 2.91666340827942 3.23025131225586 3.60530185699463 3.48385643959045 1.65243351459503 1.59787249565125 1.47840917110443 3.23483490943909 2.36473345756531 2.72260355949402 3.09590077400208 2.95145535469055 2.91943836212158 3.19913387298584 2.57676219940186 2.78648257255554 2.444904088974 2.07931852340698 1.99403202533722 0.461041331291199 0.786843955516815 2.89298605918884 3.30073833465576 3.54470086097717 3.28165245056152 3.65531420707703 5.01193046569824 3.85270690917969 3.02558159828186 2.88466119766235 2.55076241493225 2.39682602882385 2.22706842422485 2.07142782211304 1.97281527519226 1.84738576412201 1.70879518985748 1.59568321704865 1.49251294136047 1.46415829658508 1.3990592956543 1.33688938617706 1.28446400165558 1.25648510456085 1.16233062744141 3.22945308685303 2.90727210044861 3.90039038658142 3.74664878845215 3.92450428009033 4.11415386199951 3.84740948677063 3.19053196907043 2.86303758621216 3.29948854446411 2.96405601501465 2.94986748695374 2.98242926597595 3.09188413619995 5.21097803115845 5.07858419418335 5.20443105697632 4.41268539428711 3.64200139045715 2.84866786003113 2.85686588287354 2.53835940361023 1.49120736122131 0.982060611248016 5.95131826400757 1.91509020328522 2.20067477226257 0.438529878854752 1.89481854438782 2.01062917709351 1.62146103382111 1.17403995990753 0.650178372859955 3.4906542301178 4.40643262863159 18.6841621398926 29.9894428253174 14.712366104126 11.0663366317749 1.62331140041351 6.29244422912598 5.5098123550415 2.61835074424744 2.47095966339111 1.12055993080139 0.61184823513031 0.05917052552104 0.770155072212219 -0.0792316347360611 3.22445917129517 -0.00619279127568007 10.6165199279785 12.5824756622314 4.44804668426514 10.8677988052368 4.17833137512207 38.2839736938477 19.1927623748779 22.0547943115234 20.9371776580811 23.9339351654053 22.6983108520508 15.9163436889648 11.0854816436768 2.04676151275635 -0.499544709920883 -0.805415332317352 -1.18563055992126 -1.26766610145569 -1.24874448776245 0.11478378623724 1.85228753089905 6.52974796295166 10.7551565170288 22.5513591766357 17.5784912109375 6.82508087158203 11.2446517944336 -0.893504977226257 -1.42842769622803 -1.06860148906708 -1.50740838050842 -1.31292903423309 -1.13769769668579 0.355354875326157 -1.60087418556213 -2.08674597740173 -2.30942130088806 -2.3438196182251 -2.72884821891785 -3.22980427742004 -3.44674038887024 -3.28502726554871 1.97150158882141 7.57970476150513 16.9813003540039 21.9332981109619 16.2300682067871 6.6936297416687 -1.02231287956238 5.95454406738281 9.81017303466797 8.13144779205322 7.18230390548706 3.43741512298584 1.61143231391907 6.58156871795654 5.17307710647583 3.84230375289917 3.45839667320251 2.47947812080383 0.670811176300049 0.444454282522202 0.373890340328217 0.454215437173843 0.481488823890686 0.375678926706314 1.45727586746216 3.468022108078 4.36534881591797 4.36548852920532 3.98672842979431 4.0874547958374 3.98347592353821 3.86336779594421 3.5116012096405 2.92197918891907 2.51962089538574
3.42429375648499 3.38280868530273 3.82553100585938 2.84981083869934 1.70649147033691 1.49792575836182 1.48716068267822 2.54685020446777 2.64142489433289 2.9575502872467 3.32534289360046 3.31022000312805 3.64174509048462 3.46925663948059 2.8570384979248 3.04426050186157 2.37846493721008 2.20373702049255 2.08229851722717 1.95096409320831 2.02323865890503 2.221355676651 2.22180008888245 3.08929753303528 4.01380491256714 4.02605056762695 2.61151146888733 3.35799837112427 3.71845459938049 3.05462598800659 3.11598491668701 2.76383972167969 2.57285618782043 2.42265343666077 2.22823333740234 2.03667259216309 1.87250351905823 1.75762021541595 1.65760767459869 1.59885811805725 1.52696979045868 1.52971720695496 1.46699500083923 1.41369783878326 1.31657409667969 3.50383543968201 3.01964378356934 4.17827081680298 3.94663572311401 4.27057504653931 4.5766749382019 3.81559562683105 3.61989450454712 3.20912909507751 3.55229067802429 3.28506898880005 3.33241009712219 3.19802498817444 3.31687235832214 6.12388944625854 5.57777547836304 5.32991790771484 4.58403062820435 4.80541563034058 4.5900993347168 4.78126096725464 3.8407084941864 2.32281112670898 1.30574321746826 0.203937783837318 0.498271048069 7.34793901443481 1.93730854988098 5.3231315612793 2.14348173141479 3.43975710868835 1.7961333990097 0.959210991859436 -0.32696944475174 2.14002346992493 0.21608430147171 -0.703259527683258 28.1938743591309 1.25052988529205 19.730899810791 6.45160627365112 12.6365623474121 2.71301174163818 10.827844619751 5.73127317428589 1.03457832336426 0.361622244119644 -0.0219581555575132 1.38902127742767 6.11078548431396 11.6088132858276 0.996152102947235 4.04613494873047 5.32688140869141 4.25101661682129 2.98927068710327 -0.0164979435503483 20.1752796173096 1.14598345756531 12.2145214080811 32.3306732177734 23.872802734375 30.7177295684814 20.0646800994873 7.57325124740601 6.25228214263916 0.92098206281662 0.0350809022784233 -0.809499621391296 -1.35045051574707 -1.38996040821075 -1.32368886470795 -1.6426295042038 2.56341433525085 20.6576709747314 21.6159420013428 20.0761260986328 18.890775680542 9.93063354492188 1.32222032546997 -0.658448219299316 -1.12818610668182 -1.06195819377899 -1.12124168872833 1.34558534622192 1.58683300018311 -1.02456712722778 -1.6560732126236 -2.1017632484436 -2.14224553108215 -3.15744018554688 -2.89238834381104 -3.15560293197632 -3.53610277175903 -1.87963759899139 4.2513689994812 31.2114944458008 24.8885307312012 8.0361213684082 4.24787282943726 3.54116106033325 2.78392863273621 14.5375957489014 11.2488241195679 3.98229742050171 7.59558773040771 7.34976530075073 5.77483940124512 4.19625997543335 2.9204089641571 1.98169267177582 0.936259090900421 0.673650860786438 0.503824234008789 0.619812548160553 0.615420043468475 0.41351044178009 0.433138221502304 0.537700772285461 2.22175145149231 3.52724862098694 3.88196420669556 3.87921547889709 3.52498459815979 3.10966157913208 2.93963098526001 3.20985078811646 3.23715138435364 2.73296403884888
3.34526681900024 4.09250068664551 3.03391194343567 1.78890323638916 1.56256246566772 1.42229151725769 2.70728921890259 3.19040131568909 3.77954888343811 3.64976406097412 3.54481935501099 3.89653444290161 3.25835990905762 3.51522350311279 3.3285756111145 2.62717199325562 2.41681909561157 2.18817329406738 2.18296694755554 2.09762811660767 2.27106189727783 2.12870049476624 1.87034010887146 2.02447819709778 2.89217662811279 3.91279935836792 3.01020836830139 4.41209936141968 3.77528214454651 3.3130042552948 3.10588765144348 2.89475131034851 2.70341968536377 2.48607230186462 2.25305867195129 2.05865240097046 1.92835092544556 1.83893668651581 1.79585349559784 1.76446759700775 1.70648884773254 1.59546339511871 1.53596782684326 3.96549081802368 3.82151103019714 4.29345464706421 4.49117565155029 4.3216700553894 4.60031175613403 4.93268060684204 4.13802909851074 3.73471331596375 4.03217077255249 3.87338209152222 3.55713176727295 3.58426451683044 4.40941667556763 4.83031892776489 9.45396995544434 7.02892255783081 5.17174959182739 4.63294458389282 5.01023244857788 3.5461208820343 5.32595443725586 3.70194983482361 4.29592943191528 3.74751138687134 0.692571640014648 0.401725590229034 1.46484959125519 1.97027730941772 4.75872135162354 12.2978658676147 4.12039279937744 2.29681611061096 1.02289843559265 0.321305125951767 1.59486377239227 7.223952293396 0.582589566707611 0.482870489358902 8.29671859741211 6.09025287628174 9.21517086029053 21.0500297546387 16.211784362793 1.80734956264496 1.56554698944092 6.82879638671875 18.6510543823242 0.258563339710236 4.98131895065308 0.198217406868935 0.132396548986435 4.32411432266235 5.00536823272705 6.697434425354 6.63331651687622 6.17729949951172 6.31017208099365 1.42688977718353 1.74155795574188 0.0169632751494646 1.13279318809509 6.78304052352905 23.8716945648193 31.0338134765625 24.1975841522217 11.1465539932251 2.92260408401489 5.21086931228638 0.523255944252014 -0.244513288140297 -0.121317684650421 -0.939874351024628 -1.63873219490051 -1.48817014694214 -0.50679337978363 17.7112808227539 40.0391807556152 28.9857959747314 13.0934686660767 9.69765186309814 13.5075120925903 2.07918119430542 -0.190550357103348 -0.852059066295624 -0.925554931163788 -0.224260866641998 1.43878555297852 -0.341734290122986 -1.32588326931 -1.88095331192017 -2.52715158462524 -2.32469606399536 -3.08053302764893 -2.9741358757019 -2.77980852127075 0.86952942609787 11.56529712677 10.2271375656128 12.5532541275024 3.13473296165466 1.36911487579346 6.31053924560547 6.20407152175903 14.500072479248 4.58993101119995 8.57718181610107 6.69057559967041 4.62016582489014 4.29326486587524 3.16824531555176 2.19593000411987 2.07908511161804 1.3350578546524 0.746227025985718 0.731560409069061 0.773082673549652 0.584692120552063 0.539491534233093 0.559519648551941 0.825799226760864 0.717721402645111 2.36100554466248 3.31396007537842 3.87087821960449 3.59156084060669 2.87721633911133 2.55447125434875 2.62496781349182 2.849360704422 6.56066274642944
4.33092260360718 1.97374188899994 1.92786228656769 1.65140569210052 1.47520804405212 2.84432506561279 3.37062907218933 3.93260741233826 3.99561595916748 4.48296928405762 4.19428300857544 3.48483514785767 3.76945948600769 3.32156014442444 2.87280058860779 2.65321230888367 2.41192960739136 2.37301206588745 2.29654002189636 2.36635136604309 2.19509601593018 1.91485345363617 2.02559661865234 1.54080355167389 2.18751239776611 3.14111137390137 3.25421690940857 4.66309070587158 4.02339792251587 4.95393228530884 3.59321594238281 3.16824078559875 2.87444996833801 2.54447221755981 2.32157683372498 2.19231629371643 2.11023020744324 2.05259537696838 1.93230891227722 1.85604918003082 1.76787304878235 1.6583753824234 4.29110431671143 4.06109285354614 5.07214975357056 4.86904144287109 5.23113822937012 5.60505676269531 5.31951808929443 4.44279718399048 4.01510143280029 4.30443382263184 4.06751441955566 4.06871461868286 3.86531281471252 10.6377029418945 26.0514106750488 16.7246379852295 10.8818140029907 7.48152303695679 5.28343820571899 5.34989595413208 3.31469011306763 5.96188592910767 3.19726347923279 4.83296966552734 4.13606405258179 2.32095336914062 3.85453462600708 2.99645400047302 1.98758268356323 2.42303466796875 1.90620696544647 2.24087810516357 3.26058125495911 1.7241792678833 -0.100500032305717 5.80541706085205 0.221050828695297 2.68233418464661 0.539008021354675 2.35314154624939 2.33888626098633 1.80549216270447 5.30729627609253 2.93765950202942 21.3047218322754 2.10374641418457 2.24255013465881 0.504691481590271 2.99156928062439 14.9854564666748 4.70708703994751 8.15450096130371 8.41204738616943 9.55759239196777 8.75996971130371 9.60385322570801 9.70334053039551 7.86425638198853 2.56490278244019 1.78367066383362 2.37552499771118 -0.0744208842515945 -0.46332260966301 -0.593981087207794 9.72753429412842 3.22453093528748 18.6397018432617 6.39608287811279 6.58656311035156 1.06875169277191 8.08460903167725 0.503952741622925 -0.423326164484024 -0.524075925350189 -1.75701653957367 -2.04484176635742 -1.87281405925751 -0.981469690799713 27.2140731811523 17.4102325439453 47.5173377990723 35.2502365112305 20.5977363586426 0.48568120598793 -0.0501862540841103 3.58886933326721 -0.0471341833472252 4.03186559677124 3.77193427085876 -1.02954661846161 -1.3704389333725 -1.60399913787842 -1.78547656536102 -2.47267174720764 -2.20580649375916 -2.10359001159668 -2.62206435203552 2.6187207698822 8.36230659484863 6.85310935974121 4.96007204055786 13.297926902771 10.5693092346191 -0.185107722878456 5.52410840988159 2.42039251327515 9.83932971954346 7.67001962661743 5.04906606674194 3.45327615737915 2.15769362449646 1.74503982067108 2.23636674880981 2.38274097442627 1.67057490348816 0.849091410636902 0.859792590141296 0.695219576358795 0.673048913478851 0.701755106449127 0.909852862358093 0.665638566017151 1.12315499782562 1.24900674819946 2.62313890457153 3.46690821647644 3.52594017982483 2.88398051261902 2.66816401481628 7.27490949630737 10.4025049209595 10.549633026123
1.97451257705688 1.87035071849823 2.38504028320312 3.0989944934845 3.01873469352722 3.54335880279541 4.13115787506104 4.17766714096069 4.69712066650391 4.05635261535645 4.27703046798706 4.04377746582031 3.24399399757385 3.03998064994812 2.88814496994019 2.63847708702087 2.6138744354248 2.65866875648499 2.51854085922241 2.05607914924622 1.92774164676666 2.0944836139679 1.54281222820282 1.38196337223053 1.77754127979279 2.82769727706909 3.36442875862122 3.60294604301453 2.83948016166687 5.09044647216797 3.86590957641602 2.92560601234436 2.86246585845947 2.77725076675415 2.44531106948853 2.29416751861572 2.25293040275574 2.14148139953613 2.00681972503662 1.91258299350739 1.80263912677765 4.73845291137695 4.77028846740723 5.45566082000732 5.19102907180786 5.6210994720459 6.04510641098022 5.05972242355347 4.89351654052734 4.73766422271729 4.52150726318359 4.27929353713989 4.33935070037842 18.4121494293213 8.51818752288818 2.36216139793396 28.3497543334961 22.4574279785156 16.6576232910156 9.53872108459473 6.26231718063354 6.96813678741455 6.60256671905518 3.74558210372925 5.81143140792847 2.72463917732239 2.67725491523743 5.09818124771118 6.12799215316772 4.90324306488037 2.98105216026306 2.68813419342041 2.57191729545593 1.43322086334229 13.7031860351562 -0.0854947492480278 -0.513922393321991 2.27666044235229 1.42176032066345 1.19578182697296 3.06104683876038 6.97912502288818 2.56593775749207 3.35737752914429 2.55653500556946 1.77387738227844 8.21835136413574 4.20860528945923 3.46517109870911 32.0052833557129 19.7039432525635 9.71389389038086 18.2159099578857 18.717414855957 24.3739929199219 15.7256669998169 15.6752042770386 12.7857503890991 11.7661056518555 8.15095329284668 7.31361532211304 7.32847785949707 3.33869409561157 2.37050986289978 0.176144376397133 2.17000508308411 1.9206976890564 16.8352527618408 22.4647827148438 24.0410022735596 1.13331711292267 1.02941751480103 1.07695996761322 15.1501922607422 1.1463338136673 4.87911748886108 -0.798594534397125 0.12812265753746 0.0761345401406288 38.010383605957 26.1277904510498 -0.960060596466064 20.043758392334 42.3922500610352 30.4637508392334 2.04298758506775 0.38431915640831 0.258119851350784 -0.29412505030632 -0.478148698806763 -1.25283885002136 -1.35666024684906 -1.16998374462128 -1.14684975147247 -1.8305344581604 0.750526905059814 6.59790754318237 3.78991413116455 -1.18841314315796 10.2938289642334 10.8591651916504 3.87168741226196 -0.0567802786827087 0.481735050678253 0.564496397972107 7.5244460105896 12.3971633911133 11.70774269104 9.26333141326904 5.74685764312744 3.96742153167725 2.32567954063416 0.598459303379059 0.726516664028168 1.42018032073975 1.9188187122345 1.54864180088043 0.735722482204437 0.740719497203827 0.790771842002869 0.780462443828583 1.02177298069 0.780171275138855 1.17875790596008 1.11491632461548 1.15062403678894 2.11173129081726 2.90207839012146 2.84209132194519 3.02269124984741 8.01285457611084 11.5269050598145 11.7083578109741 12.261342048645
1.7599595785141 1.55827009677887 3.33296489715576 3.92760896682739 4.55773973464966 4.39903545379639 4.39664602279663 4.93752861022949 4.2095775604248 4.69433259963989 4.04849481582642 3.51074457168579 3.25695204734802 3.00145626068115 3.01435041427612 2.8557596206665 2.90288615226746 2.63249540328979 2.22162747383118 2.25781106948853 2.1794958114624 1.59427726268768 1.39348673820496 0.78587806224823 1.28259515762329 2.0023877620697 3.2055344581604 3.61574721336365 2.72487711906433 3.42138290405273 3.82656168937683 3.11009287834167 2.86985611915588 2.79380178451538 2.83257293701172 2.43947005271912 2.28980875015259 2.19459342956543 2.11378860473633 5.62320518493652 5.24944114685059 5.74413442611694 5.90175628662109 5.90476226806641 6.08414363861084 6.5513596534729 5.48945188522339 5.03117370605469 5.11419153213501 4.86187028884888 4.53739881515503 4.55825090408325 3.62343120574951 3.09507727622986 9.5800313949585 2.37851810455322 3.80364871025085 5.66969728469849 9.9677677154541 3.63299870491028 12.3246631622314 7.83006620407104 6.34664869308472 6.9477105140686 4.90496635437012 6.5570387840271 6.60090065002441 8.1971549987793 3.92327213287354 3.1859986782074 2.84427547454834 2.45557117462158 4.3283576965332 -0.061409629881382 18.2613639831543 2.18911981582642 -0.64519476890564 5.21085691452026 5.63950538635254 8.55709743499756 2.92448115348816 3.89013576507568 5.70421838760376 8.04636287689209 4.33610868453979 0.552794873714447 2.47814679145813 13.9698352813721 0.420257359743118 13.6755466461182 23.2205696105957 15.5770301818848 21.0095500946045 15.6358909606934 37.8164939880371 25.3263149261475 29.7850017547607 18.2202739715576 16.8409442901611 14.1969223022461 10.9600553512573 8.31381988525391 7.90415811538696 6.4987325668335 2.54190015792847 2.80642533302307 2.13092541694641 1.15688705444336 3.59121370315552 2.37348771095276 7.88855791091919 0.925362825393677 6.87766981124878 11.5928516387939 7.28691387176514 8.23159790039062 4.88460206985474 0.284740060567856 0.277361989021301 36.2247047424316 -0.130910515785217 0.445116966962814 1.35923385620117 30.588529586792 30.7173042297363 21.274938583374 1.92766499519348 0.0233358778059483 -0.547370612621307 -1.44512367248535 -1.10370409488678 -1.03261077404022 -1.81261050701141 -1.49725770950317 -1.8695250749588 -1.69507586956024 0.324245929718018 0.0316849574446678 -0.276361078023911 12.4556427001953 8.24320507049561 0.804938316345215 0.657998919487 16.087869644165 12.3576126098633 15.8326215744019 12.4080896377563 7.34909343719482 7.08738565444946 5.19865036010742 1.16241824626923 0.729234933853149 0.51988023519516 0.73449832201004 0.85779595375061 0.927745640277863 0.787827491760254 0.788663804531097 0.839352786540985 1.07986664772034 1.06356263160706 1.25657558441162 1.24601268768311 1.16426813602448 1.21789383888245 1.3927229642868 2.44178462028503 3.13471961021423 3.43206167221069 9.01486682891846 12.9949865341187 13.1801414489746 13.8982706069946 12.8230562210083
1.84005558490753 3.46495509147644 4.15109586715698 4.87291526794434 4.87841320037842 5.45535039901733 5.25649642944336 4.43960809707642 4.88821125030518 4.06502103805542 3.79332733154297 3.55306220054626 3.24991893768311 3.24912595748901 3.13817524909973 3.14106917381287 2.90800261497498 2.46484279632568 2.43794655799866 1.74212980270386 1.4936957359314 1.38804805278778 0.791124045848846 0.817729890346527 1.04110491275787 1.64710211753845 2.75525045394897 3.23861908912659 2.9342143535614 3.31640148162842 3.72060322761536 4.41796636581421 3.20095944404602 2.80048394203186 2.71007394790649 3.12603974342346 2.82550024986267 2.60181546211243 6.34446859359741 4.97027063369751 6.78402996063232 6.47794628143311 7.00795459747314 7.53399515151978 7.13319873809814 5.95192050933838 5.44689083099365 5.42796564102173 5.19589328765869 5.23379850387573 4.98228883743286 5.02000331878662 4.46477937698364 3.56956934928894 2.87015342712402 2.59384250640869 2.78179502487183 13.4942054748535 4.21341276168823 7.42444562911987 7.09537553787231 14.7976570129395 8.54485607147217 2.87245798110962 7.62115049362183 8.7728099822998 11.4722146987915 4.06564617156982 3.52869749069214 2.99343132972717 3.28034210205078 5.22527933120728 3.5340371131897 0.517272889614105 9.88806343078613 1.51023042201996 0.878290772438049 4.05373954772949 3.33633923530579 14.5278911590576 3.71301817893982 2.60499382019043 3.02176260948181 13.4695434570312 4.03981447219849 0.74981027841568 4.15570688247681 1.16673588752747 0.416280388832092 12.1603698730469 15.4950180053711 29.5396385192871 18.6099109649658 11.4244737625122 22.8836345672607 13.1681623458862 21.8816757202148 21.1301326751709 15.2341270446777 20.5097179412842 13.9765348434448 9.58313083648682 7.60992193222046 10.7433099746704 11.5522108078003 5.81383371353149 4.16737270355225 4.62135457992554 15.5245037078857 9.05662727355957 16.2735729217529 1.95574748516083 15.4827575683594 20.6466541290283 13.8561611175537 9.94016456604004 8.69499397277832 3.24296689033508 1.20001494884491 2.74067997932434 0.630152463912964 1.01531994342804 2.25137209892273 7.25434875488281 29.9438781738281 25.9429721832275 14.9459438323975 2.78431463241577 0.665109634399414 -0.377441167831421 -0.466916292905807 -0.945292174816132 -0.530894577503204 0.0607619397342205 -1.30176687240601 24.2314739227295 16.8842220306396 2.293781042099 0.238724946975708 0.99605005979538 0.750840783119202 0.837917506694794 -0.29265683889389 3.90649604797363 21.8330841064453 17.4830207824707 9.7002010345459 7.09196138381958 3.67315316200256 1.9701976776123 1.44031965732574 0.949541807174683 0.84760981798172 0.950776278972626 0.794639408588409 0.826237797737122 1.09630453586578 1.16161584854126 1.13860154151917 1.10729563236237 1.29618573188782 1.25598883628845 1.19830775260925 1.25629580020905 1.63178932666779 2.40710210800171 3.90092539787292 11.1731786727905 16.5612812042236 16.8365135192871 30.0715389251709 20.7841968536377 14.4943923950195 23.6168212890625
3.78415465354919 4.50928640365601 5.22628450393677 5.19646644592285 5.78873586654663 4.88921689987183 5.38247776031494 5.19661092758179 4.25146818161011 4.05126810073853 3.79701924324036 3.75917840003967 3.5606644153595 3.55744194984436 3.37981843948364 2.88019037246704 2.58386445045471 2.68984007835388 1.93405699729919 1.59996116161346 0.870912075042725 0.859874784946442 1.00253665447235 0.982496678829193 0.680208384990692 1.23539340496063 2.0788893699646 2.65333032608032 3.43059372901917 3.69167876243591 2.64270257949829 3.31241631507874 3.1801233291626 2.92572045326233 2.74249219894409 2.69087100028992 6.54928207397461 7.01940727233887 7.29720211029053 7.31334400177002 7.66461229324341 7.67600297927856 8.29470443725586 6.85453987121582 6.47131490707397 6.05881595611572 5.76575040817261 5.58585023880005 5.61958169937134 5.73544645309448 5.4573826789856 4.73143339157104 4.25221729278564 3.37068152427673 3.52639198303223 21.7461071014404 20.9119071960449 23.373851776123 13.142466545105 6.70176935195923 5.02456188201904 5.7821307182312 3.1758861541748 15.6046571731567 24.2364101409912 17.1749248504639 6.42165327072144 4.55846977233887 3.57106018066406 4.1498236656189 6.59355640411377 3.66242122650146 -0.362252950668335 0.963914096355438 3.14257884025574 3.27228569984436 4.27974414825439 3.87337446212769 2.98509740829468 3.80128979682922 7.64420366287231 3.10136532783508 1.65961098670959 1.33213913440704 0.821652948856354 5.32901525497437 3.5841076374054 0.568144917488098 -0.0421533361077309 2.75597906112671 5.77060317993164 19.7056655883789 30.1789302825928 21.6148853302002 15.4489784240723 26.1975746154785 30.1749534606934 15.7020587921143 14.2043409347534 18.4593334197998 10.8635005950928 8.50501251220703 20.1037750244141 16.628475189209 10.3326435089111 7.93786430358887 4.4006142616272 2.62407398223877 3.88344764709473 2.27878189086914 18.0263023376465 3.12751245498657 2.08883881568909 12.6065998077393 14.1147203445435 11.3706569671631 13.080415725708 9.01836967468262 4.23896074295044 5.07851696014404 3.47815847396851 3.2331554889679 2.14948439598083 2.85612201690674 2.65337181091309 3.51660370826721 13.092414855957 3.9284975528717 1.87839043140411 1.58614194393158 0.383770018815994 0.444559872150421 0.385451525449753 0.366429090499878 -0.208402574062347 11.4533863067627 6.16846370697021 5.80323839187622 1.2974625825882 1.09062552452087 1.02208399772644 0.661703586578369 41.9553070068359 37.2210998535156 27.259708404541 13.6852836608887 10.3028287887573 4.61480951309204 1.84366643428802 2.15767502784729 1.89771139621735 1.6337605714798 1.2706812620163 1.04247903823853 0.936289310455322 1.17468845844269 1.25077414512634 1.21074759960175 1.3982892036438 1.36558616161346 1.25285077095032 1.23186028003693 1.43574035167694 1.64861333370209 1.83590292930603 3.6074538230896 13.1072816848755 19.9130458831787 20.4102592468262 13.7240438461304 30.5836067199707 46.8883934020996 46.4999885559082 38.6178245544434
6.08039855957031 5.79027843475342 5.63619661331177 6.30693054199219 5.1699538230896 5.80214357376099 5.05835866928101 4.49509429931641 4.26858186721802 4.01621294021606 4.12463092803955 3.91170024871826 3.85673451423645 3.63832712173462 3.15231847763062 3.07773995399475 2.91957020759583 2.17212700843811 1.81958210468292 0.993567407131195 0.927502036094666 1.0642147064209 0.704862058162689 0.5190269947052 0.367349565029144 0.878554940223694 1.65269994735718 2.13737463951111 2.66727733612061 3.21300649642944 3.19445109367371 3.59814071655273 4.00450038909912 4.2992377281189 3.2247359752655 8.91365146636963 8.01313781738281 8.40169620513916 7.98031806945801 8.71646976470947 9.46515846252441 8.91896343231201 7.38336801528931 6.67681884765625 6.39396190643311 6.4358024597168 6.01730537414551 6.08367013931274 6.15679502487183 5.57773685455322 5.16546201705933 4.87670850753784 4.49134540557861 4.11600875854492 2.06691765785217 4.4220552444458 1.74695944786072 2.48287749290466 27.3330974578857 18.1441421508789 2.0239040851593 24.3150749206543 3.8044605255127 2.36290788650513 8.30857563018799 6.70304012298584 5.89973497390747 15.0784111022949 18.5397071838379 10.1148080825806 4.17477512359619 4.26781034469604 0.462628930807114 3.87323093414307 6.82817649841309 5.91588115692139 5.09594964981079 4.29257869720459 3.96734189987183 2.85575485229492 1.89223647117615 1.41790282726288 3.76953840255737 2.41320991516113 1.25605916976929 1.43127262592316 1.05192625522614 0.189291089773178 -0.243044078350067 0.236480697989464 3.33316802978516 10.3248071670532 24.0615520477295 21.6863307952881 33.9686126708984 25.2218627929688 18.6336517333984 26.5364646911621 19.9756908416748 17.7478332519531 12.1603975296021 6.15735960006714 5.88131093978882 29.2126808166504 11.8011903762817 9.15788459777832 12.5137357711792 3.99129176139832 2.99646306037903 3.26100087165833 9.04900550842285 20.7945232391357 11.3827924728394 12.5882320404053 31.6164627075195 22.4047870635986 11.4318284988403 10.4058332443237 6.86706781387329 7.38695096969604 6.59990882873535 4.96515130996704 4.68695259094238 4.54747295379639 17.9993934631348 20.3491954803467 4.46230792999268 4.18761157989502 3.85500597953796 2.34213161468506 2.8976309299469 1.84017241001129 1.34578931331635 1.98211467266083 1.7452300786972 23.8552436828613 13.6618824005127 3.4536828994751 1.50920689105988 1.10104060173035 1.43218052387238 -1.44133651256561 -0.820367872714996 28.7139282226562 22.1549072265625 16.3424472808838 3.66107225418091 2.57881474494934 2.2320442199707 2.05210089683533 2.3598268032074 2.14033007621765 1.70689189434052 1.24013674259186 1.42792725563049 1.39724373817444 1.27406191825867 1.48084771633148 1.40188455581665 1.32170701026917 1.34134769439697 1.47115790843964 1.80818736553192 1.74450087547302 2.60453748703003 15.8913917541504 24.4433269500732 24.9881534576416 26.6097278594971 14.8180599212646 8.47259521484375 7.90236139297485 9.82320308685303 32.7433128356934
6.66070652008057 7.26354265213013 6.83572816848755 5.72704172134399 6.29856157302856 5.12466049194336 4.77907848358154 4.58910512924194 4.19506883621216 4.36418056488037 4.37743330001831 4.15868330001831 3.6628851890564 3.23232483863831 3.35218381881714 2.53326988220215 2.19259452819824 1.96319758892059 1.14239525794983 1.05518770217896 1.15462946891785 0.787002146244049 -0.0330650433897972 0.0459670387208462 0.157775357365608 0.529326796531677 1.37360489368439 1.77159678936005 2.28505825996399 2.71255683898926 2.95218825340271 3.36233973503113 3.66789937019348 5.9486083984375 11.1074571609497 7.55411624908447 9.36669445037842 8.93861198425293 9.72313117980957 10.5196256637573 8.56878089904785 7.78801155090332 7.10329055786133 6.72178649902344 6.93355798721313 6.89815950393677 6.52477693557739 6.56256532669067 5.97396183013916 5.52565097808838 5.04909038543701 4.87709474563599 4.45341062545776 4.36948680877686 4.70248079299927 3.64849376678467 3.65636467933655 1.92224109172821 2.00497770309448 14.7333726882935 0.338386058807373 16.5009422302246 3.19853067398071 3.46512222290039 4.31727933883667 7.16804647445679 1.97381985187531 0.271828442811966 12.9640779495239 6.34958505630493 5.08092451095581 5.26319122314453 4.57934236526489 6.99410772323608 6.58121299743652 5.88091039657593 5.81750822067261 3.10115742683411 3.44890165328979 12.2029705047607 6.36298322677612 1.30142760276794 3.93450021743774 2.88223338127136 1.56682395935059 1.59493362903595 1.19253146648407 0.49265119433403 -0.552027106285095 -0.792789280414581 -0.806619644165039 3.46654486656189 8.1242847442627 0.377869665622711 15.2342042922974 36.3716621398926 29.6221408843994 36.7049407958984 27.0385932922363 20.1382751464844 12.2278757095337 9.62240505218506 6.13160037994385 8.02166843414307 5.24253177642822 16.1209239959717 8.80235004425049 4.02002573013306 0.169309943914413 9.03991031646729 9.65958976745605 35.211742401123 19.4776573181152 7.20903635025024 24.2977180480957 26.8506488800049 18.6927852630615 10.9094257354736 8.33680820465088 8.886887550354 8.3552942276001 6.74032545089722 2.47608494758606 1.7520055770874 4.87168788909912 4.7797703742981 4.4202561378479 4.24146032333374 5.64914226531982 5.59066486358643 4.29653358459473 3.95578837394714 3.38891005516052 3.38080787658691 0.758770763874054 1.51487910747528 10.3839569091797 6.09217834472656 1.55459976196289 1.96147644519806 -0.514633655548096 29.5919361114502 5.82753801345825 0.35881844162941 7.58160209655762 5.39493942260742 3.67060589790344 3.18368530273438 2.64375495910645 2.23825311660767 2.09619903564453 2.26836919784546 1.79001915454865 1.52614891529083 1.49707889556885 1.36325824260712 1.5806542634964 1.43129360675812 1.39033246040344 1.59083092212677 1.79304575920105 1.86783254146576 1.855464220047 33.9815902709961 46.3825187683105 46.112979888916 47.5459289550781 35.2623901367188 25.6382846832275 17.1896152496338 10.0744047164917 3.23899865150452 19.8083591461182 20.424617767334
8.21070194244385 6.61379384994507 7.18575000762939 6.90995931625366 5.56946134567261 5.17279720306396 4.76474142074585 4.86166954040527 4.6628155708313 4.66157579421997 4.44762849807739 3.9751250743866 3.83700585365295 3.64765954017639 2.79024362564087 2.41936922073364 1.61379516124725 1.38392746448517 1.48373031616211 1.33982145786285 0.714830040931702 0.00192295911256224 0.0678257867693901 0.12070844322443 0.466957807540894 0.455906331539154 1.00986695289612 1.41362881660461 2.03728222846985 2.5309944152832 2.53784871101379 2.27317690849304 9.55742359161377 13.3061962127686 11.6730117797852 10.9634637832642 12.2184295654297 10.9462013244629 11.8175048828125 9.60013294219971 8.30806255340576 7.60925102233887 7.85343551635742 7.39305067062378 7.35061693191528 7.38520288467407 6.9771032333374 6.31670379638672 5.82169961929321 5.45010757446289 5.18292760848999 4.84654378890991 5.16032457351685 5.00691366195679 3.76449584960938 3.87031126022339 2.7559552192688 2.68509006500244 1.08171081542969 10.1064367294312 2.83245205879211 7.0917444229126 12.5240898132324 4.72303056716919 2.91890716552734 2.63101649284363 6.42607736587524 0.387745827436447 15.3375730514526 7.90579748153687 6.18298387527466 9.49172115325928 9.31420421600342 7.72500228881836 6.17952966690063 8.49731922149658 10.5278625488281 2.33628511428833 1.81085908412933 1.6671587228775 1.74806916713715 1.5297030210495 1.60301303863525 8.98313045501709 7.57698488235474 1.39435827732086 3.37671303749084 0.788328170776367 -0.112919129431248 -0.656479120254517 -0.987859725952148 -0.663582265377045 15.0078563690186 20.7345504760742 7.65397834777832 7.13305234909058 16.0080280303955 23.8277263641357 23.7010040283203 18.2032890319824 16.4835186004639 12.1689682006836 4.45062732696533 5.41690444946289 5.14255905151367 5.92255830764771 4.85830736160278 2.30586266517639 0.170806899666786 -0.226086229085922 6.16794729232788 17.1003494262695 10.6365222930908 12.1105461120605 10.4444017410278 17.3471355438232 12.3434009552002 10.6649379730225 10.7255067825317 8.80420684814453 8.12437725067139 6.30381727218628 5.793532371521 6.33757734298706 5.09689617156982 4.47405767440796 4.07072782516479 6.00994348526001 4.84126329421997 4.90261363983154 4.53971385955811 4.07454442977905 5.14503812789917 4.39734935760498 2.33931016921997 1.55630600452423 2.60556530952454 2.0612268447876 6.26192331314087 0.0982442200183868 -0.450891882181168 0.947387933731079 10.2380056381226 9.31226825714111 3.10437035560608 4.58717918395996 4.51450109481812 3.64896368980408 3.31735515594482 2.51923155784607 2.16581535339355 2.51289105415344 2.59823966026306 2.33385062217712 1.88893306255341 1.70130908489227 1.51054191589355 1.50488483905792 1.65991961956024 2.02391672134399 1.96657478809357 1.96818459033966 0.458795636892319 -0.3372962474823 1.7975070476532 6.6800389289856 47.0204315185547 34.3799514770508 26.604190826416 21.9371776580811 3.5108528137207 5.74240827560425 19.0844917297363 5.042320728302
7.46797466278076 7.99748992919922 6.67177200317383 6.02370023727417 5.63525104522705 5.17802381515503 5.28958702087402 5.0782995223999 5.14186382293701 4.87858295440674 4.28849220275879 4.07682657241821 3.21602582931519 2.85982632637024 2.53545689582825 1.8441116809845 1.53696918487549 1.65339839458466 1.29762935638428 0.154261097311974 0.186130121350288 0.125607430934906 0.157656461000443 0.490277320146561 0.446494430303574 0.177341982722282 0.299050629138947 0.524236738681793 1.2431173324585 2.19823789596558 2.05210018157959 29.0834693908691 19.7643566131592 13.6545972824097 14.0945148468018 14.8850259780884 15.308030128479 13.7657604217529 11.1903991699219 9.41157054901123 8.55725860595703 8.64254283905029 8.37507820129395 7.82644701004028 7.82636785507202 7.13907337188721 6.52488660812378 6.14118051528931 5.68658542633057 5.53374481201172 5.13575983047485 5.48675870895386 4.0999493598938 3.9503231048584 4.10080003738403 2.90725088119507 2.49387550354004 1.93571877479553 1.0810661315918 7.77476978302002 14.273663520813 3.04914832115173 3.66792559623718 4.83045387268066 2.23932290077209 1.63475513458252 0.539939284324646 1.10844349861145 9.38576221466064 9.12806034088135 10.7771902084351 9.52391815185547 9.2503547668457 9.22995090484619 6.45216274261475 6.24374055862427 7.87535047531128 2.77241158485413 2.10421895980835 2.3040599822998 2.21005702018738 2.05989193916321 1.64430546760559 2.30819201469421 12.6135139465332 4.18500423431396 3.50234651565552 0.673174738883972 0.388864576816559 -0.212668538093567 -0.551003098487854 -0.615235805511475 -0.701968491077423 6.85459041595459 8.30642986297607 9.83264350891113 27.1066417694092 31.1462936401367 22.3172035217285 20.3736724853516 14.7512722015381 11.1534185409546 10.1712684631348 6.00111484527588 6.24224185943604 4.82292318344116 4.3584098815918 1.90154039859772 0.192551836371422 -0.444417506456375 -0.392069190740585 15.8674688339233 35.4083557128906 24.7089462280273 24.0993690490723 22.4699192047119 16.9664649963379 12.9787158966064 12.2896337509155 9.60398578643799 7.91846799850464 7.66463136672974 8.35652732849121 6.45964241027832 5.64899492263794 7.07735109329224 6.75157165527344 5.15592622756958 4.86777257919312 5.01707124710083 6.14640760421753 5.88118696212769 5.04088687896729 3.5975067615509 3.80152821540833 2.8940634727478 3.3697509765625 2.29153823852539 1.77026903629303 1.51613974571228 1.06884932518005 0.791435301303864 1.57887589931488 1.34219241142273 1.4477630853653 3.55649781227112 4.64657545089722 4.67928600311279 3.82982754707336 3.20629024505615 3.13698530197144 3.5733597278595 3.81327557563782 3.44822859764099 2.61627745628357 1.95740568637848 1.83545053005219 1.96595466136932 2.10161280632019 2.12745141983032 2.0862181186676 2.07077288627625 0.979346990585327 -0.228924512863159 -0.271812260150909 0.0207888446748257 48.7551765441895 46.5095596313477 33.909294128418 11.1149702072144 12.4374351501465 0.56362783908844 1.37361478805542 1.17679989337921
9.07406520843506 7.10778903961182 6.34892749786377 6.08498764038086 5.58712339401245 5.71157169342041 5.51676321029663 5.5304651260376 4.93116617202759 4.2196307182312 4.43676900863647 3.5143985748291 3.10196995735168 2.27699613571167 1.88244152069092 1.97945713996887 1.82752323150635 1.47769999504089 0.219331160187721 0.277708292007446 0.302193969488144 0.69883793592453 0.593390345573425 0.496951162815094 0.0259195640683174 0.0762604922056198 0.155978739261627 0.174939870834351 0.447923719882965 1.65447580814362 4.1461763381958 23.348030090332 29.4747409820557 20.4145736694336 19.4434585571289 18.8552780151367 15.059739112854 11.9619464874268 11.0379772186279 9.86822414398193 9.78993320465088 9.31068706512451 9.06705665588379 8.43816471099854 7.66624164581299 6.95520210266113 6.1095552444458 6.39605283737183 5.91640949249268 5.38445281982422 5.83585977554321 4.32855129241943 4.36053133010864 4.19817543029785 3.06778192520142 2.05859136581421 1.98960077762604 29.7318248748779 6.09515857696533 5.2419638633728 13.7125511169434 7.78422975540161 2.2515070438385 5.74430370330811 6.21507883071899 2.81100821495056 12.6955671310425 15.3490877151489 19.885555267334 13.296046257019 11.1142196655273 9.72319984436035 10.0070657730103 8.60777187347412 18.472677230835 12.0357522964478 3.84814405441284 3.41888427734375 2.55586266517639 2.50357460975647 2.60661387443542 2.92268538475037 1.76817119121552 1.71933472156525 18.1625499725342 3.79604887962341 3.66371464729309 1.53211772441864 0.445754081010818 -0.0422181896865368 -0.229750394821167 -0.630238234996796 -0.414836704730988 14.2102537155151 11.9428758621216 8.27461528778076 27.8483619689941 28.4994869232178 25.0148754119873 16.3822040557861 14.0320291519165 12.5058736801147 7.61137676239014 6.44054985046387 4.50374507904053 5.43970155715942 7.6295223236084 1.504065990448 3.06529402732849 -0.171415343880653 -0.263591021299362 17.0318489074707 14.670693397522 33.9937438964844 12.9335384368896 23.2735862731934 16.7422275543213 17.5758094787598 12.1397123336792 10.8376436233521 11.8981456756592 10.8965368270874 7.88241624832153 7.3414478302002 8.92932891845703 6.68632984161377 6.05744218826294 5.40755176544189 4.71696901321411 6.7486777305603 6.03149080276489 4.71228981018066 4.82010889053345 4.50432777404785 3.44708275794983 3.93239784240723 2.42418766021729 2.63516068458557 1.98885214328766 2.15156173706055 1.28363847732544 1.86477410793304 2.03165864944458 1.68181943893433 1.7792741060257 2.14145159721375 3.01753973960876 4.58377361297607 4.81800699234009 3.60280656814575 3.72088289260864 3.9354841709137 4.09105730056763 4.059485912323 3.52398538589478 2.49371099472046 2.04901242256165 2.12142467498779 2.18467783927917 2.17387056350708 2.18707513809204 2.22752666473389 1.01924729347229 0.204116150736809 -0.223081797361374 -0.578155755996704 -0.575124561786652 22.6514911651611 34.3549766540527 23.5567207336426 2.70930123329163 2.37368321418762 1.66709887981415 1.99234175682068
7.92940950393677 7.21173620223999 6.46477842330933 6.65913486480713 6.39004421234131 6.0229229927063 5.95399856567383 5.34349966049194 4.96213388442993 4.74816083908081 3.7844705581665 3.4187912940979 2.64921569824219 2.1242527961731 2.16504454612732 1.88175010681152 1.38891553878784 0.275231122970581 0.327089488506317 0.358834534883499 0.852128386497498 0.733964681625366 0.270839244127274 0.05508753657341 0.0210665483027697 -0.0425570830702782 0.0974433869123459 0.040086280554533 32.9245643615723 24.116870880127 20.0164585113525 11.1568384170532 39.5848426818848 28.1653518676758 24.5496253967285 19.8637771606445 14.4709644317627 13.1002559661865 12.4184770584106 11.1969995498657 10.5216913223267 10.1294574737549 9.16487598419189 8.11308288574219 7.54437637329102 6.73214387893677 7.03402662277222 6.02502393722534 6.4405574798584 6.09966039657593 4.43380641937256 4.61141061782837 3.18812346458435 3.08343768119812 2.01391863822937 2.24985265731812 3.08817887306213 26.1303195953369 8.29262256622314 4.02466487884521 3.55983972549438 4.07092046737671 2.50580883026123 0.593451261520386 6.04757881164551 0.235680043697357 5.28852558135986 12.6085519790649 20.0055503845215 13.9962158203125 11.7972164154053 11.2709493637085 9.6104097366333 4.27992630004883 7.80949449539185 4.77949476242065 5.97374820709229 13.5753908157349 7.76629304885864 3.71286797523499 4.03139591217041 3.12583327293396 2.86595249176025 1.90911483764648 7.89581775665283 1.89926159381866 1.91082787513733 1.43010604381561 1.18708372116089 0.525543749332428 -0.352532774209976 -0.357300847768784 -0.816880464553833 1.97490930557251 0.13895907998085 9.47521305084229 40.1508102416992 30.7838973999023 29.9274501800537 18.9790706634521 12.7976026535034 10.4988594055176 7.46487665176392 5.68274974822998 6.95924758911133 11.0052623748779 18.0722198486328 0.571942150592804 0.00581448152661324 0.208382979035378 -0.39599996805191 6.65192413330078 10.4742317199707 9.33172416687012 33.3066062927246 34.212646484375 24.4607906341553 14.9416151046753 12.9200286865234 14.8652906417847 10.552619934082 10.4189281463623 9.62338638305664 11.2354621887207 8.68419933319092 7.2741060256958 6.58915281295776 7.89962863922119 7.49288654327393 6.67452239990234 5.21529769897461 5.46814584732056 4.88768434524536 4.31503629684448 4.65040397644043 2.8980860710144 3.05415201187134 2.79158997535706 1.97491681575775 2.2007691860199 2.43339037895203 2.55979418754578 2.52227115631104 2.39431595802307 2.20040440559387 2.41434168815613 2.83984279632568 3.98934173583984 5.02010822296143 4.12812185287476 4.17608070373535 4.29865741729736 4.54526519775391 4.54165983200073 4.25464105606079 3.67819309234619 2.8029248714447 2.28045296669006 2.22155523300171 2.28259086608887 2.36624956130981 2.46226668357849 1.78448081016541 2.30857014656067 0.717913687229156 0.315213143825531 0.463881611824036 0.114149898290634 3.99874639511108 3.14514565467834 2.93431711196899 2.57468962669373 2.90888571739197 2.70552778244019
7.97318840026855 7.34330987930298 7.31607294082642 7.13644075393677 6.99650382995605 6.38738250732422 5.88954162597656 5.39304351806641 4.28139972686768 3.87982964515686 3.45827794075012 2.95713019371033 2.63899683952332 2.4485068321228 2.17437648773193 0.413828253746033 0.457071483135223 0.387651830911636 0.40579292178154 0.946792304515839 0.844017624855042 0.166511297225952 0.115263782441616 -0.000515891355462372 -0.0434393174946308 -0.0845237821340561 -0.0846675783395767 -1.30829048156738 8.01475429534912 10.834451675415 11.402738571167 11.3092422485352 47.5492324829102 40.8288459777832 29.1077117919922 19.1035060882568 17.1834564208984 14.9946022033691 13.2440271377563 11.9711875915527 11.3997774124146 10.3892459869385 9.05551433563232 7.45672512054443 7.29839754104614 7.96388626098633 6.52113485336304 7.02121877670288 4.90395021438599 4.59239530563354 4.78830814361572 3.32955932617188 2.80520439147949 2.08018803596497 2.27179074287415 4.74237871170044 3.98134732246399 11.0830726623535 6.79807186126709 3.73524475097656 5.79182624816895 6.56232833862305 17.1543884277344 9.65604686737061 3.3146538734436 17.084228515625 17.3317394256592 12.4091281890869 15.1102504730225 13.2716722488403 11.4324569702148 9.71133232116699 8.1206111907959 6.45834589004517 4.32666254043579 8.31244945526123 3.39812231063843 4.53302621841431 5.65389204025269 4.98567485809326 4.31395626068115 4.04837846755981 3.08974051475525 1.89864563941956 1.95253205299377 7.49411487579346 1.92880237102509 2.273521900177 1.88071465492249 0.815775752067566 0.266300469636917 -0.322367370128632 -0.835636615753174 0.502477884292603 8.12566661834717 1.01426482200623 23.3210926055908 21.1043376922607 31.1853904724121 21.6922264099121 16.2149658203125 7.59446716308594 8.77172374725342 17.3803520202637 23.251916885376 2.17853784561157 5.6166672706604 0.773919284343719 0.405177235603333 -0.0426106229424477 12.1741743087769 14.0895261764526 10.6348695755005 13.8372259140015 8.2685079574585 14.5163726806641 20.2135314941406 15.8772106170654 18.2514419555664 11.8150062561035 12.1671123504639 14.5932474136353 13.7048807144165 10.9691171646118 9.1005859375 6.95114755630493 9.68740081787109 8.41539764404297 6.08335208892822 6.5636191368103 6.20305252075195 4.80936288833618 5.6062479019165 5.39507484436035 3.742107629776 3.69153523445129 3.27545094490051 2.25812578201294 2.57853245735168 2.66622138023376 2.81563091278076 2.87584829330444 3.29667353630066 3.04618000984192 2.80567908287048 2.90943145751953 3.41296744346619 3.94890952110291 4.21502304077148 4.39576482772827 4.56996631622314 4.69968271255493 4.69806909561157 4.76216793060303 4.66525840759277 4.3615288734436 3.95399928092957 2.93449711799622 2.60301566123962 2.54541039466858 2.6396062374115 2.89970135688782 1.51613092422485 25.131893157959 5.81782674789429 3.38293552398682 2.6804027557373 3.66814613342285 4.42725133895874 3.36170291900635 3.79755806922913 3.77908205986023 4.49333000183105 3.54199552536011
8.61699295043945 8.14581394195557 7.75535202026367 7.88229751586914 6.95927286148071 5.62010526657104 5.92070245742798 4.7194299697876 4.25398778915405 3.53633832931519 2.80347514152527 2.98509764671326 2.8018364906311 2.52684187889099 0.510032057762146 0.559099972248077 0.567430853843689 1.2197482585907 1.07094848155975 0.937660574913025 0.190489232540131 0.14409114420414 0.0464925542473793 -0.000435378169640899 -0.0608764961361885 -0.0879427120089531 0.395447909832001 7.09344577789307 2.41555118560791 2.55852627754211 3.39600348472595 0.77903151512146 6.24656200408936 39.5251045227051 37.0864486694336 25.7196846008301 19.8889961242676 16.2743968963623 14.385835647583 13.1266994476318 11.8450651168823 10.1862640380859 9.33932590484619 10.4657688140869 9.284348487854 8.29339218139648 7.73883390426636 5.34446859359741 5.43351030349731 5.12360572814941 3.4663941860199 2.23222017288208 2.11328649520874 6.67828750610352 6.44041299819946 6.61151504516602 5.02082014083862 5.24793481826782 14.4940004348755 25.2171745300293 6.61621522903442 10.2471218109131 16.6654682159424 39.3051910400391 26.458122253418 28.9478416442871 21.4180431365967 17.1875534057617 15.4455099105835 13.1303796768188 31.2003536224365 11.9355411529541 14.1257638931274 4.36690282821655 7.88302707672119 12.7784357070923 7.22990417480469 6.73927545547485 4.98764657974243 4.85238122940063 4.75572538375854 4.14987850189209 3.69133877754211 2.88806676864624 2.39605975151062 2.27700805664062 6.09838581085205 2.51790571212769 2.4480504989624 1.22373187541962 -0.0853823572397232 -0.347331613302231 -0.960532426834106 -0.851128339767456 -0.96353143453598 2.45036768913269 3.20278239250183 15.6975374221802 23.4329242706299 21.372049331665 6.15184831619263 9.33984756469727 19.684061050415 10.2279424667358 11.0864152908325 19.3459987640381 4.04655790328979 0.659598469734192 0.331147015094757 0.15870700776577 20.491325378418 21.3900680541992 19.2282447814941 10.2716112136841 12.5855417251587 32.5336799621582 35.9195861816406 26.2999744415283 14.9853649139404 15.0491914749146 17.1476497650146 14.1683034896851 11.6510143280029 10.8648386001587 8.04336547851562 11.6077480316162 10.2250175476074 7.13841438293457 7.79978466033936 6.61731147766113 6.03116464614868 6.34263277053833 4.40241193771362 4.59161520004272 4.38583374023438 3.99463105201721 2.69440031051636 2.93866300582886 2.92874383926392 3.02458643913269 3.11083936691284 3.5558397769928 3.89090013504028 3.63199472427368 3.66232013702393 3.81975317001343 4.02723073959351 4.24210453033447 4.51337051391602 4.69476222991943 4.85184192657471 4.85722970962524 5.10700607299805 5.03056859970093 4.76639699935913 4.44132423400879 4.47925615310669 4.2345290184021 2.8995988368988 3.65327167510986 4.27457237243652 8.49057388305664 1.15661180019379 11.611385345459 9.98867893218994 10.411642074585 6.71041822433472 5.34647941589355 4.1689338684082 4.36409044265747 5.12558794021606 5.24135780334473 5.05041551589966 4.16340065002441
9.17554950714111 9.00341033935547 8.65954971313477 8.00673675537109 6.99405145645142 6.49805021286011 5.22503089904785 4.72767210006714 4.0444483757019 3.69626998901367 3.38252758979797 3.15695571899414 2.39459753036499 0.69676148891449 0.662359833717346 0.66839337348938 1.47134220600128 1.27556538581848 0.486615717411041 0.222656965255737 0.0949608609080315 0.153138905763626 0.35541108250618 0.611558258533478 0.442398935556412 0.483404725790024 17.5838375091553 11.8895177841187 6.28684186935425 7.61073637008667 1.87717604637146 2.11036014556885 1.97248220443726 6.99956655502319 41.267822265625 35.3872718811035 24.2542858123779 17.9549503326416 16.169153213501 12.8671712875366 11.5382146835327 11.2053632736206 12.6665182113647 8.49097728729248 9.25086688995361 6.19451475143433 5.81512260437012 5.95724296569824 3.93462347984314 3.75548195838928 2.30078101158142 2.5952000617981 7.30742979049683 7.44244384765625 7.13759851455688 6.35727548599243 4.46831226348877 3.2567093372345 0.931486904621124 1.97732555866241 0.686687290668488 7.80072641372681 2.05099844932556 54.2528457641602 41.2334175109863 28.7261600494385 23.4689025878906 18.6529960632324 28.3629207611084 18.8646850585938 11.9698638916016 14.0218191146851 5.202721118927 7.09808969497681 4.55648183822632 7.49251794815063 8.50692272186279 5.2686243057251 5.01907444000244 4.95994329452515 4.70983695983887 4.8911190032959 5.08736610412598 2.79905581474304 3.00039196014404 2.63977384567261 5.30401515960693 2.63935947418213 2.48438549041748 1.69493556022644 0.878553867340088 -0.275676608085632 -0.750055313110352 -0.745733797550201 -0.757963001728058 -0.737775266170502 -0.424560487270355 3.48173308372498 16.4128894805908 20.9257564544678 15.5316505432129 0.469101846218109 3.45912432670593 3.91639995574951 1.32440686225891 1.30568790435791 1.16460800170898 0.815008521080017 0.247830137610435 0.019590999931097 0.169584929943085 16.3351154327393 9.91510963439941 6.99153566360474 4.22860145568848 0.995105445384979 29.158390045166 29.4328651428223 21.7062759399414 21.9858875274658 17.7749443054199 13.6445484161377 11.4597120285034 15.0035934448242 13.755256652832 12.2447490692139 8.40563678741455 9.20448875427246 6.64236974716187 7.71536445617676 7.20244121551514 5.0656099319458 5.12874317169189 4.80238962173462 3.09235453605652 3.06233310699463 3.14152956008911 3.3022768497467 3.33664703369141 3.3097140789032 3.78768825531006 4.14465427398682 3.88469481468201 4.01692390441895 4.33960342407227 4.58207607269287 4.55424022674561 4.68180990219116 4.98446416854858 5.03800964355469 5.00643730163574 5.27484893798828 5.19772100448608 4.92150926589966 4.59277772903442 4.93327045440674 5.12189865112305 4.41770076751709 5.15245485305786 23.788064956665 29.3020324707031 22.679256439209 26.4365844726562 17.2924633026123 16.77272605896 16.4047756195068 9.09244155883789 5.93423557281494 4.9296555519104 5.64083480834961 6.30141830444336 6.76603651046753 5.94044923782349 6.55506992340088
10.0906105041504 9.23771476745605 7.18045043945312 7.75886821746826 6.13820648193359 6.15305471420288 5.16125202178955 3.87350583076477 4.35370445251465 3.95246434211731 3.58963704109192 0.869068324565887 0.892752885818481 0.775814652442932 0.77603280544281 1.73199915885925 1.52637922763824 0.373151421546936 0.290215194225311 0.128667056560516 0.045772235840559 -0.0157228466123343 0.750816643238068 1.74281966686249 1.75358951091766 23.7056350708008 21.5193138122559 21.9234580993652 6.93103361129761 12.436731338501 10.8816738128662 4.84907484054565 9.47883415222168 5.05846548080444 16.6054229736328 37.2605934143066 25.9924049377441 21.5620918273926 16.1655178070068 12.1595458984375 14.3268489837646 16.4284553527832 9.46295356750488 10.3829908370972 6.79364252090454 6.82236051559448 6.40985822677612 4.19699573516846 3.38978719711304 2.4640064239502 8.42711067199707 8.01601982116699 8.10209465026855 7.15335083007812 6.85072708129883 4.76522541046143 2.61177825927734 2.2150993347168 1.98720908164978 18.1766262054443 11.2340154647827 -0.163786008954048 -2.34655451774597 51.5067977905273 44.3576240539551 33.672233581543 21.9413375854492 10.5523777008057 3.72532057762146 4.20273017883301 5.69170188903809 3.00610518455505 5.37072515487671 5.01450347900391 23.1233882904053 13.2108039855957 5.78155612945557 5.3905348777771 5.08413362503052 4.90540456771851 5.18451023101807 7.30479335784912 4.57201099395752 3.39384961128235 3.37847304344177 3.08543252944946 3.06124997138977 2.58884835243225 7.4885630607605 7.22898864746094 0.59687751531601 0.131845414638519 0.0668786391615868 0.195179790258408 0.0817474871873856 -0.406513959169388 -0.147389754652977 2.83149361610413 0.758847177028656 0.995995402336121 14.2411918640137 6.96764755249023 7.34154510498047 3.22784018516541 1.75336921215057 1.48904979228973 1.51231694221497 0.973878085613251 0.559630036354065 0.407054215669632 0.449331521987915 6.50968599319458 8.18444061279297 1.59456074237823 8.95288562774658 8.68724060058594 6.66720104217529 42.1736030578613 34.7698631286621 25.7270660400391 17.3364810943604 12.5362367630005 18.208833694458 16.9053592681885 11.130576133728 12.3027181625366 10.9976739883423 7.63114261627197 8.87773036956787 6.26505994796753 6.19159364700317 5.78263902664185 5.39563846588135 3.19862341880798 3.35783076286316 3.36182856559753 3.46180462837219 3.56048607826233 4.08473634719849 3.99137711524963 4.3682541847229 4.3879189491272 4.56383752822876 4.69572353363037 4.91723299026489 5.02894687652588 5.07303428649902 5.16709995269775 5.1417293548584 5.23235368728638 5.38001537322998 5.36547613143921 5.09251356124878 4.75455141067505 5.10040235519409 5.29656744003296 5.37241506576538 10.3506383895874 3.55914950370789 2.26166152954102 20.5884017944336 14.1249933242798 38.9373779296875 38.7811698913574 26.7000598907471 13.9355869293213 10.1022577285767 9.01740837097168 6.34414768218994 9.34825229644775 9.70411109924316 6.64155197143555 7.769127368927 8.84561634063721
10.4761085510254 8.87332057952881 8.41269111633301 8.52832317352295 7.42220115661621 6.0691933631897 4.51257276535034 5.23198747634888 4.65343475341797 3.37400937080383 1.24943113327026 1.0788197517395 0.962821662425995 2.27398943901062 2.06442070007324 1.81491363048553 0.473457902669907 0.358107775449753 0.200903713703156 0.101210229098797 -0.0101995887234807 -0.119238950312138 0.882678508758545 47.7939643859863 45.1546745300293 45.751106262207 32.7786064147949 21.6614837646484 5.39500379562378 3.10844326019287 27.0503273010254 16.9172840118408 0.265841037034988 3.27984142303467 18.7008457183838 43.3978309631348 33.3175010681152 23.0556793212891 32.9756355285645 36.1454086303711 24.4315013885498 13.2001132965088 11.8415117263794 7.52813005447388 7.4887638092041 4.67405080795288 4.44803524017334 2.5663104057312 2.98832893371582 9.45606136322021 9.41496658325195 8.91695404052734 7.78143978118896 6.77013731002808 5.07499074935913 2.76298904418945 2.36456155776978 2.18924331665039 0.93845534324646 1.75694596767426 1.31806230545044 -0.837726771831512 -0.5056312084198 16.825174331665 37.1564712524414 41.0615768432617 19.1881885528564 8.40604972839355 15.4161767959595 7.42609882354736 5.28894519805908 6.03754949569702 7.78808355331421 4.35772180557251 6.42331743240356 6.25199031829834 5.69111061096191 5.3103723526001 5.42884111404419 11.61403465271 8.36717796325684 5.70110321044922 8.73817157745361 3.50493240356445 3.73563694953918 3.2904417514801 2.4653377532959 7.71487522125244 1.81067931652069 15.4549722671509 1.70752835273743 0.77813309431076 0.962172210216522 0.873991966247559 0.739981114864349 0.488961160182953 0.87113744020462 1.09029233455658 0.943700194358826 0.866514921188354 4.08641338348389 7.34609651565552 9.91075706481934 6.40419912338257 7.98999500274658 7.91687870025635 1.81675744056702 1.48584270477295 0.77895200252533 0.667530536651611 0.738097548484802 2.85728979110718 0.283298850059509 -0.0606985576450825 -0.424683451652527 9.98415184020996 -1.7604478597641 4.32058715820312 34.3894920349121 25.6152687072754 18.2314434051514 23.4071006774902 21.7016296386719 13.790228843689 15.6082563400269 11.4665508270264 11.072548866272 10.3365659713745 7.36710071563721 7.1210036277771 6.63331604003906 4.06544733047485 3.59603643417358 3.49395418167114 3.67592120170593 3.76209187507629 3.69959139823914 4.24497652053833 4.65001583099365 4.56239461898804 4.64370059967041 4.96145915985107 5.24108409881592 5.26212024688721 5.37972593307495 5.64014291763306 5.59209632873535 5.4318904876709 5.62669563293457 5.52659559249878 5.44723463058472 5.20924091339111 5.04218053817749 5.26766681671143 5.40916347503662 15.3303556442261 4.97519540786743 3.49102067947388 3.04504799842834 1.59173631668091 1.71891796588898 1.52147233486176 1.90980815887451 33.4371109008789 26.4749794006348 25.8027667999268 16.7020378112793 7.6457633972168 14.8871288299561 15.1609125137329 8.42391872406006 9.37967014312744 10.2555522918701 11.1247386932373
9.86539173126221 8.07872867584229 10.4010696411133 8.2580451965332 7.42714595794678 7.24595212936401 6.37441444396973 5.56533622741699 1.59385466575623 1.56022226810455 1.17460107803345 1.04991400241852 2.58579230308533 2.39765882492065 0.893592298030853 0.582246005535126 0.393068045377731 0.286028534173965 0.151522681117058 0.0740676298737526 -0.0694521516561508 -0.262547343969345 -2.73216390609741 -2.48438429832458 14.5416774749756 44.7432556152344 32.2069664001465 31.8672904968262 40.491756439209 -0.807745456695557 12.444263458252 10.1068058013916 5.74835824966431 -0.569007635116577 3.3127224445343 17.81764793396 34.9125900268555 7.50648546218872 2.96041178703308 15.0675201416016 16.5054988861084 9.66631984710693 8.56891250610352 8.38419914245605 5.10082387924194 3.86692190170288 2.64427161216736 3.14049482345581 10.6312704086304 10.506443977356 9.05174827575684 8.55122566223145 5.67026281356812 5.42500734329224 2.61344456672668 2.52399659156799 2.31452655792236 2.36340355873108 2.10403490066528 1.7843701839447 -0.0862530991435051 -0.41784805059433 15.8564949035645 25.4270572662354 15.4422073364258 5.16801881790161 3.0097119808197 8.52559185028076 8.92189979553223 6.29704427719116 7.42487573623657 6.92169761657715 6.38522291183472 15.3746290206909 10.7983560562134 6.08887958526611 5.8397741317749 5.58228540420532 9.02951240539551 9.01373958587646 20.8630619049072 13.1673259735107 8.144118309021 4.80633115768433 3.84569954872131 3.42642402648926 2.92914843559265 2.15536165237427 2.31022763252258 7.13860893249512 1.78730201721191 1.36410164833069 1.27342426776886 8.94895648956299 4.07625484466553 1.34903466701508 1.4586888551712 1.48394346237183 0.990511834621429 0.794290661811829 1.45089709758759 11.7332324981689 2.26766538619995 2.42891669273376 2.42429542541504 2.27243041992188 2.36539173126221 1.68192934989929 1.65113151073456 1.10410761833191 1.09222018718719 0.895564794540405 0.587959349155426 0.0180865004658699 0.167382344603539 -1.21987915039062 -1.37446415424347 5.02768135070801 13.9043712615967 45.0862045288086 42.1357536315918 31.593957901001 17.7531642913818 20.6209926605225 12.6100749969482 14.1271333694458 12.3109254837036 8.80898094177246 8.33592891693115 7.75558996200562 4.44976425170898 3.56313872337341 3.66784143447876 3.95512843132019 4.17965412139893 4.5046558380127 4.40841007232666 4.82452964782715 4.58653020858765 4.82951831817627 5.31498718261719 5.62695646286011 5.5854024887085 5.75871610641479 5.92736959457397 5.89863586425781 5.90335845947266 5.93746137619019 5.80869960784912 5.46163463592529 5.05852890014648 5.43112182617188 6.00680446624756 5.62643384933472 4.71566390991211 5.84114456176758 5.16421175003052 3.75531268119812 3.65373468399048 3.11986017227173 2.86060929298401 13.5166797637939 3.73668241500854 6.72592258453369 5.04775238037109 18.4575862884521 36.7380104064941 38.1744232177734 25.9043140411377 13.9259204864502 12.815110206604 12.3918504714966 13.0443019866943 13.6543817520142
9.04487133026123 13.5554475784302 10.0057516098022 7.06186628341675 9.54708290100098 7.76181983947754 6.78900146484375 2.01597905158997 2.00868654251099 1.26423931121826 3.33315062522888 3.08628964424133 2.74152159690857 0.738851368427277 0.660555839538574 0.489370286464691 0.402682572603226 0.268713414669037 0.126776993274689 -0.00831628683954477 -0.150075122714043 -0.325787395238876 -2.4235246181488 -2.84231543540955 5.37356567382812 45.5553321838379 15.941312789917 1.68200504779816 1.37279427051544 0.710051774978638 12.1792659759521 8.0863208770752 4.35757780075073 -0.747332692146301 -0.636530756950378 8.61483287811279 35.1694068908691 31.5590000152588 20.8691501617432 21.9217281341553 12.0163793563843 10.9534749984741 9.77905750274658 5.68197965621948 2.9200975894928 2.7621066570282 13.4757013320923 12.1873464584351 11.6642456054688 9.96168899536133 8.41970157623291 6.16644287109375 3.30717921257019 2.77930569648743 2.64202213287354 2.31116771697998 2.58561611175537 2.48375821113586 2.18223690986633 4.99109363555908 1.61282217502594 -0.974580764770508 -0.586341083049774 12.1642379760742 16.3845691680908 11.8617668151855 8.69169425964355 5.61949253082275 9.02919387817383 8.0338077545166 7.42429447174072 8.07761096954346 5.8219165802002 13.8727369308472 6.94406795501709 6.61390495300293 5.95547246932983 4.40642642974854 4.75081348419189 3.92677044868469 14.0835037231445 12.8349409103394 8.45329666137695 4.87302446365356 4.09532880783081 3.56469893455505 2.80191564559937 2.32748794555664 2.37663555145264 1.94479465484619 3.52353858947754 1.8224858045578 1.17834651470184 1.83510446548462 1.9364173412323 1.66214990615845 1.88482451438904 1.95164597034454 1.76068103313446 2.10770320892334 2.30128717422485 2.58132028579712 4.64037036895752 3.28742647171021 3.0387077331543 2.71485733985901 2.38222479820251 2.20217156410217 2.03687238693237 2.15152764320374 1.10847425460815 0.830016672611237 14.9023218154907 6.23196506500244 0.0358110554516315 3.44259190559387 -0.29274708032608 8.37731838226318 -0.986848592758179 -0.551103591918945 35.9189720153809 40.9223556518555 30.159725189209 16.723783493042 19.1777725219727 12.594141960144 11.140567779541 10.4428644180298 9.3047513961792 5.21000528335571 4.42622518539429 4.76274061203003 5.00439596176147 4.92537021636963 4.68137550354004 5.10852098464966 5.00812435150146 5.16232013702393 5.41482162475586 5.56924915313721 5.89415454864502 6.017249584198 6.00976276397705 6.19352340698242 6.16402769088745 6.35583114624023 6.24416971206665 6.09680080413818 5.75536060333252 5.48874855041504 5.65616893768311 7.4770975112915 9.02822494506836 10.8324127197266 9.3308277130127 7.44008350372314 8.92452239990234 8.17116069793701 4.85630702972412 8.79374122619629 4.17964792251587 5.14825534820557 5.01980543136597 12.862024307251 10.1636648178101 5.55493688583374 5.8492431640625 32.1105155944824 21.4414882659912 17.5168056488037 18.3069286346436 16.6868343353271 16.0251941680908 14.6724615097046
20.3155136108398 12.95751953125 8.45369625091553 12.4005880355835 9.90736198425293 6.51168251037598 3.11259007453918 2.61184978485107 1.41134583950043 3.96524024009705 3.66166138648987 1.1632764339447 0.807396531105042 0.781511723995209 0.575695157051086 0.497722178697586 0.382146745920181 0.268747806549072 0.0963935926556587 -0.119319088757038 -0.219307035207748 1.39956283569336 -1.23168456554413 -2.12711262702942 1.81349861621857 17.1611785888672 33.3733215332031 22.3556880950928 1.65259337425232 -0.833625614643097 -0.526417374610901 -0.177873566746712 -0.181585431098938 11.5599889755249 12.58385181427 12.2311029434204 18.5233402252197 45.3471183776855 32.9574699401855 16.3453235626221 13.7874746322632 7.21957159042358 6.38634824752808 3.42160534858704 3.97557210922241 16.5753059387207 14.8301525115967 13.4576969146729 11.0630664825439 6.89538383483887 6.69762372970581 3.15904784202576 3.00272107124329 2.80998516082764 2.50648188591003 2.8772611618042 2.75854563713074 2.3169207572937 5.4724006652832 4.09640550613403 1.70266246795654 0.492583483457565 0.00294133252464235 16.5119781494141 26.3330059051514 19.4983043670654 10.8347063064575 15.9014768600464 5.97762537002563 7.76143217086792 8.60249423980713 5.90249061584473 14.6638402938843 9.824294090271 7.33955001831055 7.12549781799316 4.74296808242798 4.66594171524048 6.63244819641113 4.3845043182373 4.91044998168945 5.26960754394531 4.81311655044556 4.75224351882935 4.57196426391602 3.94247317314148 3.22228097915649 2.8959367275238 8.40525913238525 2.07185363769531 3.21554923057556 3.30455541610718 2.89329290390015 2.49707174301147 2.28349685668945 1.96527862548828 2.05892372131348 2.39607381820679 2.6217041015625 3.0003125667572 6.88786935806274 4.46603488922119 3.37024354934692 15.3577928543091 2.86338019371033 2.66757273674011 2.53083109855652 5.22316074371338 2.20990920066833 1.34040498733521 5.57266902923584 0.248717620968819 0.321961969137192 -0.0395223312079906 -0.845225870609283 2.54151201248169 12.6961231231689 12.3418111801147 8.81034183502197 6.93736696243286 2.19416761398315 34.6541137695312 39.5014419555664 28.7326145172119 17.1941547393799 14.2029275894165 13.2990045547485 7.06512689590454 6.28275012969971 5.08106374740601 5.47247314453125 5.75089502334595 5.64831256866455 5.14705038070679 5.31029748916626 5.04353141784668 5.38917922973633 5.77472877502441 6.11750650405884 6.17787551879883 6.31044101715088 6.63453531265259 6.62217092514038 6.45721340179443 6.61545562744141 6.501060962677 6.13837480545044 5.69293165206909 6.02334547042847 6.2117772102356 10.3433475494385 11.1844263076782 13.0821361541748 10.2830438613892 10.0281085968018 16.8974590301514 17.0099849700928 11.6664237976074 3.66239333152771 5.91458129882812 5.44002962112427 6.9986686706543 7.49613428115845 7.65591716766357 7.00214719772339 6.5637845993042 9.25172996520996 17.5262241363525 23.3905868530273 23.3099365234375 24.6325798034668 19.8752460479736 17.6944408416748 16.7908191680908
19.9998226165771 26.7160739898682 18.2333679199219 12.8909254074097 3.67309045791626 4.35220766067505 2.84525847434998 1.69346618652344 4.83696174621582 4.48805904388428 1.02421760559082 1.02202677726746 0.824793756008148 0.767842411994934 0.560039699077606 0.481188833713531 0.359707623720169 0.215491816401482 0.0234579797834158 -0.187590405344963 4.48246955871582 3.84744334220886 -0.602665185928345 -1.68160569667816 -0.23887811601162 14.7214508056641 29.3992671966553 4.67071104049683 4.30094194412231 2.10812497138977 12.2549238204956 0.0529626160860062 -1.11748027801514 -0.900311589241028 6.7429027557373 -0.386142313480377 -0.589418828487396 35.7923583984375 24.5961475372314 18.5343818664551 9.00881385803223 5.61902141571045 4.3709888458252 4.79232835769653 21.7786064147949 18.1717109680176 13.9944868087769 12.7653818130493 7.47710466384888 3.90394067764282 3.28130674362183 3.1203556060791 2.99661636352539 3.54207539558411 3.15314507484436 2.99701189994812 2.57623338699341 5.88748264312744 6.00903987884521 4.79919099807739 1.72494292259216 1.41139090061188 1.65127241611481 8.55108833312988 21.9510669708252 13.1669044494629 18.1341533660889 10.3172483444214 8.44584560394287 14.1444892883301 16.8338050842285 7.18556547164917 13.4930267333984 8.04523658752441 9.17865943908691 6.46859931945801 4.99298810958862 4.46994304656982 5.49309158325195 6.60534191131592 5.4332709312439 5.13552236557007 5.29542589187622 5.09451818466187 4.77182626724243 4.57795810699463 3.76024317741394 3.53144097328186 3.56150388717651 3.80583143234253 4.37652540206909 3.73641872406006 3.31349039077759 3.4671516418457 2.59635663032532 2.89562273025513 2.88486003875732 2.79307246208191 2.6616690158844 6.42778253555298 7.50319957733154 3.69143080711365 3.33071851730347 3.09829807281494 2.78487396240234 3.96331644058228 2.47442841529846 2.76741600036621 1.68242943286896 1.11292409896851 1.21466541290283 0.705866992473602 10.2127132415771 -0.167509332299232 -0.841516077518463 -0.902756631374359 -0.180983051657677 -0.515543639659882 2.47102379798889 -0.372338652610779 8.86655807495117 12.4751405715942 36.5195579528809 26.2342224121094 19.3111133575439 18.2579727172852 9.05609798431396 7.05969381332397 6.0950870513916 6.40733194351196 6.72656726837158 6.58472347259521 5.55457973480225 5.52395343780518 5.23451805114746 5.63622570037842 6.27496719360352 6.64334106445312 6.46343040466309 6.67074060440063 6.91865921020508 6.90782499313354 6.88936281204224 6.88778209686279 6.76924228668213 6.39515018463135 5.93504762649536 6.2741003036499 26.0947742462158 16.8582611083984 15.7013311386108 18.143087387085 13.086217880249 16.9525356292725 5.0524730682373 13.6286792755127 19.8453750610352 10.4421119689941 12.4432668685913 8.04872894287109 7.68853902816772 10.3326873779297 21.984130859375 14.2077608108521 20.8526916503906 20.8820304870605 37.8265914916992 38.4263648986816 23.3303871154785 20.8877296447754 24.9405918121338 28.3348941802979 19.4824733734131 19.4146785736084
2.66227769851685 28.4173755645752 19.0011291503906 4.11011219024658 5.02310514450073 2.65364027023315 7.1336784362793 6.70652723312378 5.65144634246826 1.25468838214874 1.10496997833252 1.01516091823578 0.808986485004425 0.659902632236481 0.733656406402588 0.656772613525391 0.298650830984116 0.119398593902588 -0.0534847229719162 5.61938714981079 3.35555148124695 3.9945216178894 -0.185859456658363 -0.325533837080002 -0.178471401333809 4.80812168121338 4.754554271698 4.15162134170532 3.98661017417908 0.568431258201599 14.0612316131592 1.07850527763367 -0.565443813800812 -0.261885553598404 0.915720760822296 7.29312324523926 5.40352058410645 39.2970199584961 26.8693313598633 11.7164258956909 9.30394554138184 7.58912420272827 45.1768074035645 32.4911155700684 24.0412845611572 17.1182098388672 12.3294258117676 8.30767917633057 4.12691497802734 3.3849675655365 3.27076482772827 3.22971868515015 3.89756655693054 3.59565186500549 3.20628643035889 6.68976354598999 6.96966028213501 7.46929740905762 5.18217372894287 3.94652676582336 3.88369679450989 3.94514870643616 0.980659544467926 6.9105052947998 34.6406097412109 25.4392833709717 13.2998933792114 14.6012287139893 7.67924499511719 10.8662691116333 9.30950355529785 8.07656288146973 24.1236019134521 14.7097501754761 7.30597162246704 8.0595064163208 5.32237672805786 5.57131767272949 8.88642978668213 11.3014497756958 6.98223924636841 6.02306461334229 5.67318916320801 4.90745067596436 4.88705635070801 5.03287649154663 4.81526374816895 4.8943305015564 4.85663986206055 5.08432054519653 4.22157907485962 4.27809476852417 13.0392532348633 12.617377281189 3.82788181304932 3.70273685455322 3.61837458610535 3.55070686340332 4.10780906677246 3.92816567420959 3.94925999641418 3.4872739315033 3.20355153083801 18.720085144043 12.2206525802612 6.94462251663208 10.4535894393921 9.1532564163208 9.9309663772583 4.67651844024658 0.890278995037079 0.432179838418961 0.349293857812881 -0.159400075674057 -0.163722440600395 6.3821587562561 3.30592775344849 -0.188308268785477 6.89388704299927 0.245388895273209 0.240895450115204 0.75685441493988 40.2657737731934 39.5700912475586 27.9639873504639 12.5301160812378 9.82493019104004 8.63613033294678 9.09337425231934 8.92911815643311 7.92959547042847 6.49396324157715 6.23432779312134 6.07330560684204 6.36153364181519 6.5849666595459 6.97876644134521 7.07307767868042 7.00376653671265 7.21795082092285 7.20356845855713 7.33763265609741 7.2030086517334 7.01226377487183 6.63171672821045 6.36149597167969 6.51990222930908 5.62754917144775 35.7980918884277 40.1454048156738 30.0072441101074 37.9606094360352 39.8954734802246 27.8375682830811 4.680100440979 3.90433073043823 6.78785943984985 7.41908025741577 9.68380451202393 27.1198902130127 19.3150463104248 13.6663608551025 7.92667961120605 6.18383979797363 5.98731756210327 18.6520004272461 27.4425582885742 42.9104843139648 30.7142429351807 25.9484024047852 19.6375751495361 28.1905136108398 22.7596187591553 26.3833255767822
0.505440950393677 17.922212600708 10.3380899429321 6.76319313049316 2.69484329223633 8.45200729370117 8.74012279510498 1.88842833042145 1.35309135913849 1.25808775424957 1.0994907617569 0.956968009471893 0.729337751865387 0.781945943832397 0.813254415988922 0.562731862068176 0.789106488227844 4.77412462234497 6.94232749938965 5.64338064193726 8.13577842712402 7.3511004447937 7.33122539520264 7.13835477828979 5.49118614196777 4.91728496551514 4.31603145599365 3.92793846130371 0.819810807704926 18.8202362060547 12.4433889389038 2.05902600288391 0.414195448160172 -0.00223993859253824 0.0896880701184273 1.11570274829865 -0.128154829144478 27.9580898284912 16.6657619476318 2.84200406074524 8.17164134979248 -0.429243266582489 47.9769287109375 36.107349395752 24.7918109893799 10.2594127655029 9.40988159179688 3.60325932502747 3.48164629936218 4.58566570281982 3.82013535499573 4.34228897094727 3.80553030967712 3.27503681182861 7.16398286819458 7.46507740020752 9.30184268951416 5.42748117446899 4.27829742431641 4.35569190979004 5.48699045181274 4.74368190765381 11.9905815124512 2.79596662521362 10.7438917160034 16.0749053955078 17.1924457550049 14.9856176376343 9.90439891815186 11.0136404037476 10.5292692184448 7.23467969894409 19.0826015472412 20.1929130554199 13.0905818939209 6.95043516159058 7.45741748809814 5.28975534439087 5.12698078155518 5.78173351287842 6.92607021331787 6.61510038375854 5.60719633102417 5.75094985961914 5.64961099624634 5.40889692306519 5.2211537361145 5.54427766799927 5.26610612869263 5.09109830856323 5.17365741729736 3.87289905548096 4.05631923675537 4.43950700759888 10.6162586212158 6.81058120727539 4.27933979034424 4.34633779525757 4.52383995056152 4.22165203094482 3.97404503822327 3.33885288238525 2.68213701248169 2.82729506492615 2.32236266136169 1.69072115421295 1.38108742237091 1.10317122936249 5.00815773010254 1.07616674900055 0.539567768573761 0.743671178817749 0.0711490511894226 0.356103599071503 -0.0633336454629898 -0.0575033314526081 0.421047896146774 0.0560722090303898 1.25803196430206 2.16419792175293 5.35058164596558 1.18221461772919 1.62238872051239 28.5320701599121 23.6545314788818 15.6672925949097 11.078236579895 11.6614999771118 11.4019889831543 9.1613883972168 8.45848369598389 7.47601413726807 6.51577281951904 7.16887760162354 7.58423280715942 7.34923648834229 7.4197244644165 7.7723650932312 7.7555685043335 7.52750778198242 7.63293838500977 7.48743009567261 7.05083036422729 6.52477169036865 6.87892484664917 7.12066793441772 6.94661331176758 5.23242950439453 4.89247035980225 14.2193994522095 4.7129373550415 4.61230945587158 35.768123626709 27.7426586151123 16.9304141998291 15.9746179580688 10.239631652832 11.4807224273682 9.11656093597412 10.4350538253784 9.49947643280029 11.4947214126587 7.33627843856812 6.59537744522095 6.08805799484253 7.87290096282959 22.1691513061523 35.0775413513184 37.5732727050781 35.766975402832 24.3986911773682 20.1168003082275 15.9311246871948 19.170934677124
1.18506550788879 1.12351560592651 7.21100568771362 3.71532773971558 11.0025949478149 11.2629823684692 1.82047522068024 1.57410740852356 1.33391761779785 1.18378925323486 1.03881621360779 0.963593125343323 0.83159464597702 0.857945382595062 0.671690344810486 0.857528686523438 9.84081172943115 8.53193187713623 6.70766496658325 11.2492752075195 10.6637048721313 9.11802864074707 9.26747989654541 7.08487701416016 5.46401453018188 4.89593601226807 4.21979284286499 3.7433123588562 2.03381371498108 3.72592568397522 3.8578245639801 3.66692066192627 1.74807751178741 0.310064494609833 -0.113250724971294 1.5747162103653 0.945434629917145 16.5796508789062 6.195481300354 1.71062934398651 1.85124230384827 -0.653352439403534 18.1323871612549 33.0256156921387 12.4394788742065 5.68589115142822 3.96461963653564 3.54179787635803 3.56217479705811 7.34526205062866 5.58919286727905 4.12206792831421 8.15203762054443 8.67319583892822 22.3600997924805 13.0765266418457 4.8099513053894 5.2456579208374 6.68330335617065 6.32414436340332 5.41022396087646 19.0851936340332 14.522253036499 23.52805519104 24.4605808258057 22.3959121704102 18.5850009918213 18.9942493438721 14.1105279922485 12.0402164459229 11.7708463668823 7.29071044921875 6.03161668777466 10.3608083724976 8.85441017150879 10.4124183654785 10.3303833007812 6.43792009353638 8.98023796081543 8.6928129196167 7.80119323730469 6.42291212081909 6.33045101165771 6.24971914291382 6.17109727859497 5.81471395492554 5.87753820419312 5.48949956893921 5.36709833145142 5.53342533111572 5.37938833236694 5.12969303131104 4.42008829116821 4.14674139022827 4.71335315704346 18.4242973327637 14.4835329055786 10.9501104354858 9.7273006439209 6.94936561584473 4.26416540145874 3.56599235534668 3.24219512939453 2.54819226264954 2.10854196548462 1.67840540409088 0.971369862556458 1.09453141689301 1.11382234096527 1.04166460037231 0.892683506011963 0.436868667602539 0.985386610031128 4.85366010665894 3.24063491821289 3.07307434082031 1.0385410785675 3.62560367584229 3.03987717628479 1.2188515663147 3.03466629981995 2.16311573982239 2.61406660079956 3.84589791297913 25.2188568115234 20.3748626708984 16.0012645721436 15.7004899978638 12.6689233779907 10.8064212799072 9.52193641662598 8.32251644134521 7.70380544662476 8.02290916442871 8.28503322601318 7.99111461639404 8.15166759490967 8.12844848632812 8.05259704589844 7.95001840591431 7.78678178787231 7.32710981369019 6.77048301696777 7.08581161499023 7.29487943649292 6.46363496780396 6.72184467315674 5.50769567489624 4.88744974136353 5.00404453277588 5.25913190841675 5.23255920410156 26.3912906646729 29.3809757232666 13.7802324295044 14.6830377578735 12.6545791625977 9.98640918731689 10.7635898590088 10.9399576187134 9.87557983398438 9.41342544555664 9.84315299987793 8.04791355133057 8.28013610839844 6.28393363952637 10.1271572113037 33.0744667053223 25.3965358734131 34.3777008056641 20.7080268859863 19.9279537200928 17.9048252105713 11.0752487182617
1.15847849845886 1.52468824386597 27.4695148468018 26.1758995056152 17.2451362609863 1.64441990852356 1.6581826210022 1.41284763813019 1.28414785861969 1.1188907623291 1.0469856262207 0.919281423091888 0.917514860630035 0.720540225505829 4.2750129699707 12.9447088241577 6.69483184814453 8.67994785308838 16.0163135528564 15.5102691650391 13.9271621704102 11.8795652389526 9.27475070953369 6.99741172790527 5.6036958694458 8.56673908233643 8.96961498260498 5.92692089080811 3.86727285385132 4.25550365447998 4.02498149871826 3.87726545333862 2.08470869064331 3.43616008758545 1.87945806980133 1.24092960357666 2.56449341773987 2.95080304145813 2.33322548866272 2.01331973075867 31.2465915679932 0.00712087005376816 29.7094955444336 16.0580520629883 7.5165867805481 4.51526641845703 3.92206621170044 1.82608020305634 1.67553508281708 4.54400014877319 4.74385643005371 8.84470748901367 9.46924209594727 4.76798105239868 6.61537837982178 4.96490812301636 5.45354127883911 7.31566953659058 7.45446062088013 42.3648796081543 35.9428596496582 32.843921661377 20.4743728637695 26.9185352325439 34.6840171813965 26.557487487793 24.7090797424316 20.5480899810791 15.7504911422729 12.0512733459473 10.2301273345947 12.9009408950806 8.40304374694824 11.9522438049316 19.7648391723633 14.3071117401123 8.31532192230225 11.9387578964233 11.0541830062866 8.58174610137939 7.59140634536743 8.0486888885498 7.21593284606934 7.15928030014038 6.66452217102051 6.62057542800903 5.84043836593628 5.70077133178711 5.70609378814697 5.67676496505737 5.66037034988403 5.60885095596313 5.31949377059937 5.26740074157715 4.46213626861572 4.18859052658081 4.24172496795654 4.32663726806641 4.50013113021851 15.2816467285156 4.56194639205933 5.08206176757812 2.95565485954285 2.41399669647217 1.99081695079803 1.84164106845856 1.38275694847107 1.36920130252838 1.16129755973816 2.23606133460999 1.30896615982056 1.09036934375763 7.23190259933472 8.75175189971924 7.27280187606812 7.33001661300659 6.38798904418945 5.70812845230103 5.77738761901855 4.85872268676758 4.33117961883545 4.95244932174683 9.84711933135986 11.3933391571045 19.6204643249512 35.0169372558594 29.8302268981934 19.9267082214355 14.9383201599121 13.085036277771 10.6395101547241 9.22611808776855 11.173680305481 9.78713512420654 8.82171535491943 8.78869152069092 8.4959020614624 8.53554725646973 8.37911605834961 8.10834980010986 7.62679290771484 7.2792067527771 7.34060382843018 7.54223489761353 6.97410774230957 6.80469465255737 6.669358253479 6.6380181312561 6.06714200973511 5.45733261108398 19.986686706543 6.95581912994385 9.8588981628418 16.402322769165 19.5685520172119 14.9683971405029 13.0176153182983 10.5244073867798 11.7795782089233 19.1683883666992 18.0494384765625 12.7198266983032 10.4688882827759 8.91817951202393 11.2292394638062 12.8045530319214 22.4335651397705 33.6834259033203 35.7356834411621 37.283519744873 25.7086353302002 22.1437320709229 12.5212507247925 11.7785768508911
2.55411124229431 0.518967866897583 0.530061542987823 2.37913537025452 1.77270233631134 1.7137736082077 1.57706153392792 1.31430077552795 1.19421529769897 1.25458741188049 1.22494673728943 1.00556445121765 1.08590292930603 9.73291015625 18.3297500610352 11.3701419830322 37.9268989562988 37.1056671142578 24.9034252166748 18.1487884521484 14.7726488113403 11.9217262268066 9.23803043365479 7.61598587036133 4.02577114105225 3.64288640022278 4.85599374771118 4.97458553314209 4.71493005752563 4.42976140975952 4.34346055984497 4.19776248931885 3.86343193054199 2.1619119644165 1.84156107902527 3.42422580718994 3.2945282459259 2.90012145042419 2.86274409294128 -0.148026093840599 -0.798385143280029 27.5405883789062 19.1443748474121 3.58522868156433 6.00203847885132 4.76430654525757 2.63757491111755 1.78337967395782 1.5232914686203 2.30125999450684 9.79955005645752 9.45257568359375 8.03919315338135 6.03087711334229 6.34545803070068 7.57047271728516 9.75088119506836 8.59480762481689 3.08268857002258 12.0274610519409 9.98641872406006 1.25253570079803 5.58404922485352 16.7835254669189 44.5319900512695 34.4300346374512 26.5529804229736 14.9095335006714 23.2043132781982 11.2570648193359 9.20270252227783 30.3092975616455 34.0576095581055 16.4940986633301 22.3484001159668 15.1036434173584 16.4477882385254 15.6690349578857 14.5070743560791 13.255518913269 17.291955947876 11.43896484375 8.4973316192627 8.90848827362061 7.8835072517395 6.45606231689453 6.29476928710938 6.17208623886108 5.91362619400024 6.01293230056763 6.08687591552734 5.95506620407104 5.68849182128906 5.57322597503662 5.41942739486694 5.60327053070068 5.47752523422241 5.24137210845947 3.84733986854553 3.85760998725891 4.55492162704468 21.9265995025635 20.9213218688965 8.35030841827393 1.96700179576874 2.00279903411865 1.77748799324036 1.54012060165405 1.11628258228302 1.34893262386322 2.78998470306396 10.3763313293457 11.4966993331909 10.5109643936157 8.80145931243896 8.25715065002441 7.66407203674316 6.96492433547974 5.08486604690552 4.83023262023926 8.06095409393311 3.62104439735413 3.74307060241699 3.78994274139404 4.72506856918335 7.97233867645264 33.6204605102539 30.8414402008057 20.3886165618896 14.5267753601074 10.7896089553833 14.1811637878418 10.6474266052246 10.2374334335327 9.23230171203613 9.05270290374756 8.84588527679443 8.69666957855225 8.21669960021973 7.79248762130737 7.90678644180298 8.11792850494385 7.81881761550903 7.1784234046936 6.95762872695923 6.74966669082642 21.8613815307617 6.10004758834839 6.9797739982605 5.07800245285034 5.24468469619751 7.92099285125732 15.1001091003418 20.8621788024902 26.3469772338867 16.9522266387939 16.8995227813721 12.8525400161743 11.969970703125 13.9271383285522 16.9482917785645 18.1712913513184 10.328351020813 13.8581924438477 8.95932102203369 3.23415231704712 3.94477987289429 8.05174446105957 24.2424640655518 28.8783512115479 31.6896724700928 24.34423828125 14.0904684066772 17.098970413208
2.83885812759399 3.0055148601532 2.33682012557983 2.20412826538086 1.96833634376526 1.77784490585327 1.43388545513153 1.31708478927612 1.3135062456131 1.26064813137054 1.03393852710724 1.15348076820374 42.104907989502 29.0871925354004 14.9518671035767 0.967312157154083 10.7169332504272 33.4771041870117 24.9468040466309 20.6759929656982 16.6892871856689 11.8000755310059 10.0660638809204 8.37236595153809 6.41535902023315 5.49182033538818 6.01398468017578 5.38583898544312 4.99385929107666 4.73571252822876 4.32024145126343 4.2096471786499 4.02717971801758 3.50468015670776 3.79272937774658 3.39161276817322 3.52237391471863 3.33260154724121 3.07410478591919 2.47609925270081 -0.140078246593475 1.57102501392365 1.61618041992188 1.67014348506927 1.63892233371735 2.15626120567322 2.11972260475159 1.67489457130432 11.9935169219971 12.881028175354 11.7145357131958 9.05530166625977 6.90141487121582 7.10138368606567 10.7563495635986 11.9715976715088 7.95755958557129 0.0874204561114311 0.95439612865448 11.0537796020508 5.27835178375244 0.328339457511902 8.08374691009521 6.28005456924438 47.3784370422363 46.3429908752441 44.6436195373535 10.672173500061 18.2922992706299 7.53317928314209 7.16402196884155 6.26621437072754 5.66355466842651 10.7200870513916 25.9630336761475 26.5525493621826 17.4953498840332 8.63464736938477 6.60747623443604 7.03827142715454 14.8778858184814 11.1496982574463 11.3152770996094 7.83387088775635 6.88387441635132 7.82267427444458 7.12525033950806 6.36771965026855 6.40342330932617 6.34909963607788 6.27973127365112 6.37157535552979 6.16122102737427 5.79857158660889 5.76907873153687 5.55202865600586 5.3922324180603 5.00412034988403 4.70484304428101 3.37496137619019 2.73887324333191 2.55497717857361 2.38263368606567 2.25019431114197 1.89454996585846 2.37550926208496 13.5203685760498 2.30832028388977 1.82156658172607 28.6610374450684 26.1833248138428 25.1688480377197 18.019250869751 11.8383646011353 10.060583114624 9.87742710113525 7.22588491439819 6.53188943862915 6.40137243270874 4.73117733001709 4.04919338226318 4.13933753967285 3.85665488243103 4.7328929901123 5.69503021240234 5.58294486999512 6.44551181793213 31.9340667724609 21.6201229095459 14.5939722061157 19.0781478881836 13.3203535079956 12.8824872970581 11.3409471511841 10.6416454315186 10.0157890319824 9.05651664733887 8.71153831481934 8.57444000244141 8.68447780609131 8.43211364746094 7.32792472839355 7.4216103553772 7.18762683868408 7.06061887741089 6.15236377716064 10.0839004516602 9.36075401306152 4.90191030502319 11.2516288757324 10.9053754806519 17.1704406738281 12.7328338623047 14.5054969787598 21.3632659912109 18.0916023254395 15.4974584579468 15.8247213363647 13.8343629837036 11.5212306976318 13.7090044021606 15.2115526199341 17.5682983398438 3.83114862442017 10.2506198883057 10.0279817581177 13.548095703125 11.1946954727173 32.7751655578613 11.8398771286011 24.4419860839844 30.6379089355469 22.4433841705322 16.6324348449707
3.39657759666443 2.65669202804565 2.3765435218811 2.18044281005859 2.04096412658691 1.58296549320221 1.37929773330688 1.36525893211365 1.31111371517181 1.28376853466034 8.76842498779297 0.246121346950531 33.0378761291504 38.9512100219727 43.5261154174805 10.472469329834 28.6572589874268 45.4200668334961 39.3369216918945 26.6425952911377 15.4747629165649 13.5502767562866 10.0123100280762 8.2825870513916 6.73532676696777 7.39493608474731 6.4681339263916 5.93818616867065 5.46018600463867 4.75375652313232 4.45995473861694 4.34644889831543 4.07173442840576 4.1357421875 3.71445560455322 3.84167194366455 3.64222359657288 3.47240614891052 3.25412821769714 2.28731775283813 2.14860320091248 2.02237319946289 1.68879687786102 1.87727606296539 1.86263501644135 1.58993661403656 1.7215416431427 15.5229997634888 16.3554935455322 11.140643119812 9.95659065246582 7.99592971801758 8.41220283508301 13.8582801818848 16.5524921417236 18.1845359802246 1.86571657657623 1.1988468170166 0.881491899490356 0.453633785247803 1.36555790901184 0.735740900039673 6.38606452941895 7.5467963218689 13.6702404022217 14.1345481872559 10.9918355941772 9.43953227996826 17.4026489257812 7.67513227462769 6.20512342453003 6.23395538330078 9.22611808776855 3.71657085418701 4.29745483398438 13.2471446990967 10.5185918807983 13.8060750961304 8.60445117950439 12.5845441818237 19.1082420349121 15.4723682403564 9.2229642868042 9.42183971405029 8.73191928863525 7.46794033050537 7.22675132751465 7.17707681655884 6.66595983505249 6.47833347320557 6.6697244644165 6.4042329788208 6.56562948226929 6.32759141921997 5.97224140167236 5.54144239425659 5.31249618530273 4.84968328475952 3.98791027069092 3.61997413635254 2.66297650337219 2.33903765678406 2.44009113311768 2.43962860107422 2.20900368690491 1.74431121349335 9.59982299804688 11.3170623779297 0.209765329957008 1.89279222488403 2.95929408073425 17.7741069793701 30.082649230957 24.0975952148438 14.9077262878418 8.51684761047363 7.45489597320557 7.1751184463501 21.0438613891602 9.51448917388916 5.47835350036621 5.22720241546631 5.9665699005127 6.76351881027222 5.62306118011475 6.33397769927979 9.61498832702637 32.6741676330566 40.9837188720703 28.4260520935059 17.6139373779297 16.9695224761963 14.0508489608765 13.3093852996826 11.6403751373291 11.6166553497314 10.117057800293 9.64275646209717 9.76226139068604 8.79959869384766 7.85979986190796 7.64949989318848 7.41342973709106 7.31222772598267 7.23412466049194 12.2262182235718 8.77116203308105 5.55923557281494 3.78324770927429 4.03537130355835 5.91340351104736 18.2215023040771 17.4506607055664 8.31234645843506 8.59431076049805 6.03978443145752 6.97211313247681 5.12207365036011 15.6797122955322 10.7696933746338 36.3554267883301 10.9126319885254 11.3033847808838 11.7080898284912 8.63635349273682 5.54676485061646 3.50755667686462 11.6649188995361 13.3972673416138 17.4680366516113 5.7178840637207 17.2698574066162 20.0574932098389 12.1942043304443
