NCOLS 174
NROWS 32
XLLCORNER 353872
YLLCORNER 6700032
CELLSIZE 16 
NODATA_value -3.4e+38 
3.25033926963806 1.89360570907593 1.68395698070526 1.89648568630219 14.057074546814 2.12073135375977 2.20463562011719 2.29793787002563 2.41905641555786 2.52396035194397 2.74149680137634 2.14734172821045 3.45357823371887 4.76353740692139 5.39622402191162 4.60150909423828 4.65898752212524 5.33309316635132 5.78396320343018 6.1396312713623 11.6115550994873 3.88326048851013 6.71695184707642 5.59349393844604 24.7373142242432 20.7551097869873 12.940619468689 0.352909862995148 0.61145544052124 0.935567557811737 1.36264955997467 2.00842213630676 2.42310047149658 1.07822465896606 1.40593445301056 3.43716311454773 4.0083646774292 4.82622766494751 5.20407676696777 4.48839664459229 3.75238084793091 4.66391897201538 4.95559453964233 5.17550039291382 5.439049243927 5.51068544387817 6.4428448677063 5.96474981307983 5.79489803314209 6.4668550491333 5.78052568435669 5.91029787063599 4.93850564956665 3.93403458595276 7.08266544342041 7.45215749740601 7.94595003128052 9.84536457061768 8.50287246704102 8.16496181488037 8.48438835144043 9.72970390319824 8.16049003601074 7.05910921096802 4.98160123825073 6.07396268844604 4.60529708862305 5.12018632888794 7.09898090362549 9.85585880279541 9.53857326507568 9.44852256774902 1.37446749210358 23.001256942749 21.5918941497803 12.6203804016113 12.7402105331421 10.5799026489258 5.61103439331055 7.44585609436035 3.27909731864929 6.0733323097229 9.71440124511719 2.95730805397034 1.85889387130737 2.25800013542175 2.76110935211182 6.81042671203613 7.52080154418945 25.2312545776367 13.150824546814 13.2041130065918 15.3855762481689 12.843412399292 26.6583957672119 8.92667388916016 19.1159915924072 4.67214918136597 3.52912592887878 9.97776317596436 26.6124706268311 8.9997673034668 11.6697187423706 9.22143745422363 20.8913326263428 12.954701423645 2.87507200241089 0.849407017230988 1.41076326370239 0.0967804789543152 1.81599533557892 1.91815376281738 11.1281661987305 15.6551475524902 18.8717212677002 27.3264579772949 17.7836513519287 25.6589641571045 27.4817981719971 28.2556552886963 11.3053722381592 12.0332345962524 17.3139686584473 17.89794921875 28.7264575958252 25.7023277282715 20.1210250854492 18.2174758911133 23.7290325164795 25.1647148132324 20.4875011444092 4.94129371643066 7.31335115432739 10.9022617340088 14.5830059051514 26.8503170013428 25.8441753387451 28.9056129455566 17.3715362548828 23.1958427429199 14.2305688858032 13.739857673645 23.7446899414062 23.3329086303711 30.5931129455566 29.0484790802002 28.0369453430176 25.4604663848877 23.8212413787842 31.6403293609619 10.9266119003296 12.5460538864136 10.1958751678467 7.45361709594727 10.1278047561646 9.93104267120361 8.50375366210938 9.10376071929932 9.82337856292725 13.48459815979 13.6276893615723 15.574914932251 14.6296520233154 14.3247842788696 13.3241186141968 12.5461988449097 11.7311525344849 10.8980855941772 10.9082632064819 10.9189081192017 8.84314441680908 9.67739200592041 7.82232618331909 6.10693168640137
3.18158388137817 2.17659425735474 1.60468757152557 1.78400635719299 1.9115583896637 10.0881252288818 2.12724328041077 2.23639988899231 2.29327893257141 2.40574789047241 2.65957164764404 2.19785189628601 2.06858730316162 4.63731098175049 5.22260284423828 4.43354558944702 4.22760725021362 5.11568593978882 5.17739057540894 5.88920021057129 9.59375 4.84716844558716 5.85341119766235 4.72697734832764 0.980874955654144 16.3214511871338 13.4771137237549 0.255253106355667 0.529931902885437 0.514980792999268 1.2667680978775 1.86590075492859 2.29736423492432 1.04148304462433 1.17218804359436 3.27165675163269 3.27979016304016 4.60146045684814 4.97215795516968 4.33892726898193 3.58040404319763 4.3703179359436 4.64740991592407 4.84275007247925 4.99967241287231 5.07167959213257 6.0219931602478 5.57621717453003 5.38861131668091 6.05768442153931 5.07790899276733 5.6313943862915 5.24288702011108 3.75416088104248 6.29454183578491 6.77856636047363 7.34024953842163 7.73685216903687 8.25210571289062 6.81388473510742 7.17280197143555 7.76115226745605 6.63781404495239 5.52937078475952 6.14450645446777 4.68880319595337 5.78680658340454 4.02606582641602 5.80527830123901 8.21068000793457 7.8513388633728 7.81087017059326 36.479175567627 29.7377319335938 5.85829830169678 8.81840705871582 6.40636587142944 7.45784330368042 4.70831346511841 5.25379228591919 2.28124761581421 2.754150390625 1.45312404632568 1.26199173927307 0.392181068658829 -0.278687685728073 0.228352338075638 4.39565086364746 17.7774410247803 9.09042739868164 16.6056957244873 13.0505523681641 12.7898559570312 10.998085975647 13.5507431030273 34.9950180053711 9.42577362060547 34.4850578308105 34.3877143859863 9.90346908569336 18.8518123626709 15.5668611526489 17.8896255493164 8.04085826873779 2.03648710250854 5.65729379653931 2.21944856643677 0.400837242603302 0.825951933860779 -0.699057877063751 1.12619590759277 0.363822788000107 9.95018863677979 11.7406673431396 11.2351608276367 11.4847917556763 28.6211318969727 19.722354888916 19.9029541015625 22.6884613037109 23.3460083007812 14.5445594787598 12.6950407028198 9.89718818664551 24.456428527832 20.3396759033203 13.5866432189941 15.4122095108032 35.7458000183105 10.8439340591431 11.4912242889404 25.7627811431885 14.892840385437 15.4672193527222 12.7985677719116 14.6784105300903 21.0759620666504 21.6389656066895 19.3552589416504 16.5520458221436 16.9920063018799 22.2715721130371 20.2986946105957 38.8826065063477 32.38623046875 31.6298542022705 24.2157077789307 21.6754264831543 20.5576801300049 10.76442527771 24.1787185668945 10.9560785293579 9.65008640289307 7.69895887374878 9.55480098724365 9.34754657745361 8.03133773803711 8.36201190948486 9.04358673095703 12.4298887252808 12.4862518310547 14.2184734344482 13.4901542663574 13.3923788070679 12.4659986495972 11.9245834350586 11.2826719284058 10.3829326629639 10.3120222091675 10.069450378418 9.01898956298828 8.97977447509766 8.17598438262939 5.69547128677368
3.14153742790222 2.54980087280273 1.82900857925415 1.77306067943573 1.84921181201935 8.00165557861328 2.05969047546387 2.19255399703979 2.2328314781189 2.30867457389832 2.3362557888031 2.59827184677124 1.95746421813965 3.2510302066803 4.32271194458008 4.92988586425781 4.18787145614624 4.25381851196289 4.76417112350464 5.19827890396118 8.16726589202881 4.39976215362549 3.74922966957092 4.88975048065186 0.808096826076508 12.635290145874 10.3469352722168 0.174870327115059 0.462613224983215 0.436729937791824 0.830866992473602 1.25822067260742 1.68634152412415 2.22903370857239 1.00133860111237 3.05831170082092 2.7696385383606 4.42821502685547 4.76500415802002 4.47856760025024 4.1322865486145 3.51246309280396 4.30954360961914 4.05603790283203 4.63262605667114 4.73688316345215 5.66070127487183 5.23232078552246 5.07097816467285 5.70367765426636 4.84599161148071 5.31151342391968 5.09402418136597 3.60525870323181 5.65342664718628 5.98653364181519 5.77948141098022 7.05219650268555 5.64294910430908 3.22230386734009 6.22137594223022 6.43847751617432 5.65615653991699 5.00346517562866 5.60935211181641 4.29858255386353 5.07002258300781 3.5075376033783 4.9417142868042 6.90836381912231 6.60394906997681 6.33984231948853 19.8391132354736 15.6258268356323 23.5633735656738 14.0547428131104 25.8865795135498 4.2370548248291 4.24706935882568 1.40828323364258 -0.016927158460021 0.85663229227066 1.31355619430542 0.793628752231598 8.41526794433594 19.6571445465088 7.81677389144897 22.7187328338623 7.02536535263062 8.48819160461426 8.98865985870361 7.64245891571045 10.8263511657715 26.1793632507324 12.6849050521851 9.94448280334473 21.9442291259766 31.6914138793945 31.2040348052979 26.6212844848633 22.0799083709717 17.8442440032959 11.4247808456421 4.62415456771851 31.3019504547119 39.4858283996582 4.84023284912109 28.2861919403076 3.34057068824768 33.1846618652344 12.4567070007324 23.5107383728027 3.16423177719116 21.9814987182617 8.89197444915771 11.1181936264038 12.3567867279053 45.8079605102539 36.3435287475586 51.0372047424316 28.0289821624756 27.0249652862549 12.4623241424561 50.6552734375 19.2764358520508 1.57487654685974 4.53420400619507 13.2190847396851 20.8466911315918 29.7054042816162 5.60421562194824 10.0237426757812 10.4496831893921 10.3915357589722 9.12732696533203 11.3015995025635 13.4416494369507 16.3866138458252 17.0672168731689 14.692419052124 26.4196949005127 34.2480087280273 37.3501129150391 33.1930694580078 31.1450691223145 30.9877071380615 16.609899520874 18.7279014587402 17.0329666137695 28.9565563201904 19.7704620361328 10.7690000534058 10.0921382904053 7.47036552429199 9.08041381835938 8.85296154022217 7.63994789123535 7.7627158164978 8.38692665100098 11.5056533813477 11.4948930740356 13.0816173553467 12.3733053207397 12.4732828140259 12.3483648300171 11.4533987045288 10.7971897125244 9.92861270904541 9.78649997711182 9.39651203155518 9.46726417541504 8.36120700836182 7.56914663314819 5.34237337112427
3.06118726730347 2.98780512809753 3.78213739395142 1.76432812213898 1.62119841575623 6.18618535995483 1.99274456501007 2.16346263885498 2.18766474723816 2.23900580406189 2.24056839942932 2.50990605354309 1.90687572956085 3.14937710762024 4.20522594451904 4.78000688552856 4.04737949371338 4.10543346405029 4.56951522827148 5.01207876205444 7.12481927871704 4.03395652770996 2.53154635429382 4.4244589805603 3.48113775253296 10.2152891159058 8.34649181365967 0.173900231719017 0.246112078428268 0.457219123840332 0.76676869392395 1.14957523345947 1.56569945812225 2.05001473426819 0.878635585308075 1.01532649993896 2.92879676818848 3.74428248405457 4.43030118942261 4.53747940063477 3.92750358581543 3.30861401557922 3.87476420402527 4.02293062210083 4.33053588867188 4.41774225234985 4.36561679840088 5.26734066009521 4.88433265686035 4.73182392120361 5.35639333724976 4.98791885375977 4.97146558761597 3.46568298339844 5.03927993774414 5.28891324996948 2.93042922019958 3.72246813774109 11.778600692749 2.76247715950012 3.15250086784363 2.77154135704041 4.89059686660767 4.63302373886108 5.19039154052734 3.92928910255432 4.36362743377686 3.30871844291687 3.86406779289246 4.09751462936401 5.73870372772217 5.25403261184692 6.53845691680908 11.4600954055786 12.4942407608032 8.29544353485107 13.5372047424316 1.36793684959412 3.62834620475769 1.04826593399048 -0.0662235394120216 5.01812410354614 10.2241945266724 12.4361705780029 3.27648425102234 8.91926574707031 6.64947414398193 15.8535375595093 5.97769641876221 5.98648118972778 6.96829652786255 21.0410442352295 5.98384714126587 8.65845012664795 10.3701362609863 8.92620372772217 9.39733123779297 6.31252431869507 19.4645938873291 19.5809097290039 11.1245155334473 13.6693696975708 10.3032684326172 22.1335163116455 29.0201168060303 24.587043762207 41.6514434814453 41.2599792480469 38.718391418457 23.4835815429688 10.3275375366211 -0.147100701928139 5.97438287734985 8.94934844970703 36.3956260681152 14.5256719589233 38.7634086608887 32.7607612609863 33.9472122192383 32.475456237793 34.5942573547363 12.3371448516846 11.2355403900146 31.7744216918945 5.45709562301636 12.9977512359619 1.75025820732117 11.5034046173096 16.564868927002 38.7710304260254 32.812801361084 7.75456285476685 12.9174556732178 10.865629196167 9.12912464141846 9.1291971206665 10.1489391326904 14.8559045791626 12.5977821350098 16.2251815795898 20.80246925354 30.4838714599609 28.1951084136963 34.0095520019531 29.9761085510254 25.9237098693848 24.6086692810059 16.6136875152588 15.802622795105 17.571044921875 17.0337390899658 11.1764984130859 9.66310977935791 8.72987461090088 8.80954551696777 8.55308055877686 7.33356237411499 7.44154167175293 7.47226715087891 8.03275108337402 10.766321182251 12.1614503860474 11.4737586975098 11.6931610107422 11.5749616622925 10.7421884536743 10.2616558074951 9.40957641601562 9.29468631744385 8.87127685546875 8.88266372680664 7.90692806243896 7.10781955718994 5.05358028411865
2.96499228477478 2.55703711509705 1.81291246414185 1.47379493713379 1.71419727802277 5.47969198226929 1.9016969203949 1.9669234752655 2.13185572624207 2.19101810455322 2.17371773719788 2.43571496009827 1.83438920974731 3.0293869972229 4.10336256027222 4.64984703063965 3.93769836425781 3.98142623901367 4.39678573608398 4.83756971359253 5.10038757324219 5.86068201065063 2.59743499755859 4.00709581375122 3.10903358459473 8.54108428955078 6.95150995254517 0.154537230730057 0.189002871513367 0.399284183979034 0.699728906154633 1.02340126037598 1.46618556976318 1.94471991062164 0.790472745895386 0.887746334075928 2.77389883995056 3.29244327545166 4.19341850280762 4.38889026641846 3.81980347633362 3.12032985687256 3.6804256439209 3.80500268936157 4.09196710586548 4.18911933898926 4.16452932357788 5.01266050338745 4.63490009307861 4.52886056900024 5.09604644775391 4.70062303543091 4.58501625061035 3.24001359939575 3.59141302108765 4.37417984008789 21.9437599182129 10.2953157424927 3.13714218139648 4.18576002120972 14.2755613327026 23.0304393768311 3.25691056251526 2.13712239265442 4.84646320343018 3.6264636516571 3.67943501472473 2.70662236213684 3.41178631782532 3.47495031356812 4.96936273574829 4.54099225997925 5.36573314666748 8.31999397277832 9.9042329788208 7.11119222640991 7.98141431808472 0.649764537811279 2.07048487663269 15.1926136016846 0.862658739089966 4.98717451095581 1.29193222522736 8.22943115234375 1.92591774463654 1.68802356719971 4.18378019332886 7.43495416641235 7.91188192367554 5.06073713302612 7.79762697219849 6.93306922912598 5.40490388870239 5.89792108535767 5.59156513214111 7.74126195907593 5.80584239959717 4.67193651199341 11.0839357376099 3.5610077381134 7.71494960784912 10.4350652694702 5.87337064743042 9.83053112030029 15.7973184585571 14.1575679779053 20.9848480224609 30.7358684539795 43.9658203125 42.4052200317383 26.495246887207 43.6597671508789 14.321722984314 12.0501680374146 24.4691734313965 22.0527324676514 27.4705028533936 19.9817523956299 22.9205589294434 23.3711547851562 25.0232009887695 24.7644577026367 10.7080450057983 10.3987121582031 7.24621868133545 11.9131689071655 24.9501094818115 3.23985862731934 14.5058879852295 23.5923023223877 39.1427040100098 46.2831726074219 36.4758071899414 17.8341789245605 12.0415058135986 13.1078205108643 17.8420734405518 22.6596851348877 26.9751491546631 51.9826698303223 47.9645080566406 34.8451728820801 24.6097793579102 31.4001083374023 24.932107925415 22.26708984375 12.9318265914917 15.1408071517944 15.0818290710449 14.1365394592285 15.3215265274048 10.5396728515625 9.31782054901123 8.48963260650635 6.85877084732056 8.62375259399414 8.39560222625732 7.33212184906006 7.24256753921509 7.68882846832275 10.201530456543 9.95744800567627 11.2069072723389 11.0083389282227 10.8671751022339 10.05100440979 9.63796234130859 9.16506671905518 8.85583019256592 8.83151340484619 8.32204246520996 7.44958877563477 6.68513774871826 4.6976261138916
2.48478484153748 2.88349080085754 1.75191831588745 1.58332633972168 2.02174353599548 5.13170337677002 1.84536755084991 1.90001940727234 1.99558007717133 2.06531858444214 2.11090445518494 2.3707754611969 1.78624188899994 2.91642069816589 4.00482654571533 4.53291845321655 3.85105037689209 3.88801693916321 4.25376605987549 4.3048300743103 4.93049097061157 5.37192392349243 3.2594268321991 3.67468237876892 2.80157709121704 7.34235000610352 5.90464878082275 4.76898431777954 0.0993735119700432 0.349767923355103 0.464640438556671 0.917036175727844 1.38080525398254 1.83972430229187 0.611271321773529 0.752729475498199 2.61774444580078 3.13331508636475 3.76834416389465 4.1123685836792 3.57985162734985 2.85734081268311 3.41073393821716 3.52049994468689 3.78508853912354 3.79274368286133 3.95583844184875 4.77051210403442 4.43728733062744 4.28253746032715 4.75535774230957 4.36084985733032 4.28164577484131 3.7462911605835 2.98718619346619 3.78116369247437 8.51291847229004 3.31202864646912 14.323769569397 19.0840244293213 16.0560855865479 5.8364896774292 2.80559062957764 12.8449048995972 1.76437044143677 4.30903625488281 2.98116064071655 3.14159631729126 2.98228597640991 3.00723457336426 4.31039810180664 3.92044949531555 3.13724112510681 5.98076152801514 7.79871463775635 5.69208240509033 1.06278240680695 21.5772228240967 3.03531098365784 11.6437406539917 10.4786262512207 2.84216332435608 0.23007333278656 0.730578124523163 5.66063261032104 1.20986270904541 2.01178574562073 2.32007646560669 3.91219258308411 9.7322826385498 6.49587488174438 4.92890930175781 3.10386610031128 3.11735224723816 2.95142149925232 5.04308605194092 4.9881477355957 10.8030643463135 3.04854154586792 21.2349376678467 5.46154499053955 4.47232437133789 1.27928698062897 6.75779962539673 3.37162041664124 9.96725845336914 10.9659852981567 15.5412273406982 25.0429134368896 27.1311836242676 22.8170280456543 15.426139831543 10.379322052002 6.07588815689087 10.3804063796997 11.8815898895264 11.1867847442627 19.7941284179688 18.8850841522217 19.2731323242188 19.6297931671143 38.8394393920898 23.2167148590088 30.4540138244629 35.8816566467285 31.3043689727783 11.5918016433716 3.18234658241272 5.61835765838623 10.9346485137939 28.1327877044678 40.4765205383301 28.1978397369385 39.4479751586914 31.3917999267578 16.2883949279785 31.9299201965332 22.5822772979736 25.4583415985107 36.5555305480957 31.5075168609619 25.6279907226562 27.4884948730469 26.2385711669922 21.7488384246826 19.2423629760742 22.2782611846924 15.0924844741821 14.190390586853 13.5360870361328 13.9438219070435 10.1762094497681 9.05275440216064 8.27592372894287 6.84779500961304 8.54746437072754 8.35224723815918 7.30900049209595 7.12409114837646 7.4381947517395 9.69832229614258 9.35314083099365 10.5024147033691 10.3601808547974 10.2198247909546 9.4889965057373 9.06068229675293 8.99668884277344 8.33434581756592 8.27558040618896 7.9040846824646 6.524010181427 7.05856227874756 3.25612282752991
2.42481303215027 2.84208512306213 3.95416831970215 5.2547492980957 4.41348314285278 2.48413252830505 4.63668966293335 1.85857284069061 1.90947556495667 2.00863194465637 2.06553173065186 2.28702425956726 1.7899729013443 1.6956387758255 3.88423132896423 4.40444993972778 3.7510232925415 3.59718227386475 3.6942994594574 4.00006103515625 4.41578054428101 4.9403190612793 3.0938766002655 2.35393357276917 3.24799418449402 0.598431944847107 6.23411846160889 5.04098558425903 0.0751183852553368 0.311168074607849 0.268376052379608 0.828152000904083 1.25215768814087 1.71231043338776 0.575017750263214 0.656082689762115 2.47290515899658 2.51992440223694 3.60833287239075 3.91381597518921 3.4588029384613 2.70639324188232 3.03847122192383 3.20295548439026 3.45486187934875 3.42294502258301 3.6431667804718 4.42073822021484 4.10002183914185 3.9362645149231 4.37676572799683 3.77821230888367 4.05878496170044 3.889075756073 2.78189325332642 3.65344738960266 3.63172197341919 21.3455619812012 1.53692352771759 17.4243183135986 1.4600738286972 3.09693312644958 16.2558307647705 9.80497264862061 13.5798101425171 4.02367973327637 1.13871967792511 0.825385093688965 2.02195239067078 2.46239137649536 3.39277935028076 3.36576652526855 2.57261943817139 4.55027914047241 6.41771554946899 4.61277484893799 21.9309825897217 14.4258279800415 7.14740896224976 1.94137811660767 14.9152460098267 1.26210868358612 0.196688756346703 0.439891189336777 0.138048276305199 2.90266132354736 5.61311435699463 1.94636738300323 3.69066166877747 5.02215576171875 5.16512870788574 3.43222689628601 1.55118405818939 0.967637240886688 1.92680788040161 2.95787835121155 3.02252078056335 2.76044869422913 2.30642151832581 2.23346090316772 2.59982562065125 6.70071029663086 8.62722301483154 5.87409543991089 2.42752361297607 1.69828176498413 6.49468326568604 14.8188323974609 16.3613319396973 21.0096664428711 20.9556407928467 30.0962429046631 18.1064586639404 3.03806257247925 8.22768020629883 14.6082286834717 13.0688705444336 11.8777446746826 16.6706256866455 17.4092445373535 17.7332420349121 24.6269092559814 31.1547260284424 28.0948905944824 37.7269248962402 22.9124603271484 39.0726051330566 20.2792224884033 25.3282890319824 29.755313873291 18.4910373687744 24.7616329193115 35.9522819519043 30.9472312927246 27.0427360534668 37.1106262207031 26.4752807617188 31.9921970367432 28.9759273529053 32.2943496704102 26.9428462982178 23.29563331604 22.4604358673096 22.9193344116211 19.4021835327148 9.35690212249756 10.2929191589355 13.8551902770996 13.1321887969971 12.5439682006836 11.6894359588623 12.9291830062866 8.78673267364502 8.28858375549316 7.1133918762207 8.43891906738281 8.23515129089355 7.21724128723145 6.95860147476196 7.1673755645752 9.16777801513672 8.80453109741211 9.84551620483398 9.7761116027832 9.64738368988037 9.19128513336182 8.77418994903564 8.41044902801514 7.74300098419189 7.63185405731201 7.17174434661865 6.26100969314575 6.34217500686646 3.42576265335083
2.45628595352173 2.81074380874634 4.00410127639771 4.72532415390015 3.8600025177002 2.49255704879761 4.17819690704346 1.8278820514679 3.17087078094482 1.99958419799805 2.0295193195343 1.99236464500427 2.21468329429626 1.66577363014221 2.73298835754395 3.65364503860474 4.1928596496582 3.55963850021362 3.60421180725098 3.88429355621338 4.28661251068115 4.56528186798096 2.95382142066956 1.9772572517395 3.04928302764893 2.30501222610474 5.59719228744507 4.47360277175903 0.0583341382443905 0.282565653324127 0.230802312493324 0.58236962556839 0.803647518157959 1.19530737400055 1.63282263278961 0.50866836309433 2.25606775283813 2.04069185256958 3.44910430908203 3.74038815498352 3.55211687088013 3.25625514984131 2.56596088409424 2.96652913093567 2.78778433799744 3.18725848197937 3.28368067741394 4.07392501831055 3.77862477302551 3.64630532264709 4.11764860153198 3.51565074920654 3.78806042671204 3.63675737380981 2.58616662025452 3.25054907798767 3.45107340812683 10.9403476715088 40.2692527770996 9.4868221282959 39.1504287719727 1.84042036533356 2.64213705062866 3.07541608810425 1.03267633914948 2.92705082893372 1.07055175304413 18.7159652709961 1.66747748851776 2.10341954231262 1.63154137134552 1.40686917304993 2.45596289634705 3.64031648635864 2.87405347824097 5.54879570007324 16.2793235778809 3.33844995498657 8.55591011047363 1.82145416736603 7.5090970993042 -0.087236151099205 3.50886487960815 19.3561172485352 18.8698806762695 0.7567498087883 3.1351044178009 1.691157579422 9.58378314971924 4.48650979995728 4.98581409454346 8.1424388885498 0.91591078042984 0.238278761506081 1.02204549312592 1.77951657772064 0.671155333518982 0.452375441789627 1.41469442844391 1.93269264698029 0.570875644683838 3.81105327606201 16.8260059356689 5.37071561813354 2.27184820175171 33.5960121154785 3.47799134254456 5.95672082901001 11.7721509933472 20.4561882019043 18.4222412109375 17.9614658355713 9.72557353973389 5.74905061721802 4.9895167350769 10.5160980224609 10.2674245834351 8.47834873199463 14.3992195129395 15.4638643264771 15.8550024032593 17.2058506011963 26.27073097229 24.3484497070312 24.1234016418457 31.984977722168 13.5729684829712 10.7520151138306 23.2582187652588 17.6668930053711 16.1244029998779 21.3261680603027 26.2514247894287 25.7696170806885 35.9435424804688 36.5545310974121 38.7498970031738 24.7221794128418 14.5708990097046 22.9780464172363 23.0349254608154 20.5504245758057 20.5619258880615 20.4133243560791 14.3516464233398 52.6899528503418 19.2736797332764 9.95056819915771 12.1972951889038 12.2199602127075 11.8227367401123 11.993727684021 9.08505153656006 8.53796672821045 6.93362760543823 8.18654251098633 7.99015331268311 6.9913387298584 6.67929792404175 6.80631303787231 8.67428207397461 8.27771663665771 9.24948692321777 8.6557674407959 9.10935020446777 8.94113445281982 8.20343494415283 7.76044654846191 7.06424283981323 6.94261121749878 6.42229652404785 6.05179882049561 5.43997621536255 3.10190033912659
2.4084689617157 2.73573589324951 2.46509146690369 3.31961226463318 3.33738851547241 2.34801173210144 3.9748842716217 1.82542753219604 2.47606754302979 1.95158648490906 1.97932350635529 1.93500137329102 2.20070481300354 1.63643896579742 2.59798002243042 3.54975485801697 4.07721948623657 3.46924734115601 3.51818251609802 3.77103233337402 4.16183567047119 4.37749195098877 3.98496675491333 1.96533727645874 2.91658067703247 2.17418789863586 5.09082984924316 4.02670288085938 0.0502933003008366 0.117910802364349 0.280630677938461 0.534632682800293 0.715858578681946 1.09007108211517 1.52243030071259 0.382999897003174 0.439445316791534 2.09996175765991 2.85741591453552 3.52668523788452 3.56301283836365 3.06940960884094 2.38447880744934 2.69099926948547 2.69579434394836 2.92087006568909 2.90181183815002 3.04728245735168 3.71764278411865 3.42141652107239 3.28054785728455 3.69029021263123 3.48163819313049 3.36188817024231 2.40223622322083 2.92743301391602 3.1466326713562 3.83553528785706 22.8257694244385 7.26727676391602 22.1310329437256 36.4094200134277 2.1541166305542 1.5924654006958 1.02310085296631 5.95353221893311 13.7768430709839 8.13595104217529 1.22644662857056 1.77896726131439 11.5473251342773 6.60836124420166 2.2536940574646 2.20670771598816 2.9444477558136 4.89172220230103 9.58432388305664 11.0909452438354 5.64184379577637 1.33458828926086 17.1446361541748 0.492264211177826 1.23698174953461 6.50304126739502 8.56891632080078 0.709104299545288 1.45236790180206 9.04941844940186 9.48872661590576 3.30077958106995 15.7264852523804 6.67017412185669 19.1048545837402 0.333329349756241 0.132363736629486 1.05690574645996 1.76283025741577 11.5484838485718 -0.586337447166443 -1.47313106060028 -0.271356672048569 1.40971291065216 3.01478290557861 7.98494529724121 22.9890289306641 19.7811679840088 3.25702118873596 4.37817239761353 12.5885992050171 16.615592956543 15.3781080245972 11.2141904830933 7.40749788284302 0.716286599636078 3.08373284339905 4.94006109237671 5.75863981246948 13.7588148117065 10.2663869857788 14.5184860229492 14.9133453369141 15.29323387146 17.961841583252 20.7880172729492 18.2032794952393 23.4903411865234 43.0404472351074 44.5566940307617 20.7896366119385 17.8863277435303 14.6035108566284 18.6634426116943 22.4974899291992 22.4061946868896 23.8082160949707 24.402889251709 26.4987697601318 24.8619155883789 32.5321769714355 19.4784908294678 20.412036895752 18.8680114746094 18.531810760498 14.3988704681396 11.7433338165283 35.5233268737793 34.1089057922363 26.5702304840088 11.3090953826904 11.6504240036011 11.1756191253662 11.1388378143311 8.80422496795654 8.28146266937256 7.55583524703979 7.89448404312134 7.68055820465088 6.66311502456665 6.65483713150024 6.16659832000732 6.24838066101074 8.02824783325195 8.69951725006104 8.23561477661133 8.64006900787354 8.47359561920166 4.88043642044067 3.12553715705872 2.84028029441833 2.75307655334473 5.86740446090698 5.19325351715088 4.63686275482178 3.17097973823547
2.32293891906738 2.35085988044739 2.7152087688446 2.63979387283325 2.84193801879883 1.97822213172913 3.7194459438324 1.76354074478149 1.81910181045532 1.97262167930603 1.90887784957886 1.919682264328 2.31870269775391 1.59441518783569 2.53990054130554 3.41063547134399 3.95223021507263 3.37361407279968 3.425133228302 3.65459561347961 4.03441715240479 4.24008131027222 3.74759101867676 1.99081265926361 2.84193348884583 2.09539675712585 4.67358112335205 3.67240166664124 3.08665442466736 0.084198497235775 0.246419236063957 0.484219819307327 0.635118305683136 0.999240219593048 1.42753529548645 0.346719890832901 0.402530759572983 1.9953328371048 2.57695579528809 3.34003567695618 3.35402297973633 2.91370630264282 2.27920055389404 2.52069211006165 2.48283076286316 2.68893241882324 2.61454558372498 2.76308369636536 3.38327765464783 3.09306716918945 2.95948791503906 3.36862230300903 3.19910836219788 3.08559608459473 2.7488865852356 2.15400433540344 2.56919121742249 3.01409864425659 5.31523990631104 14.9073038101196 7.08192729949951 20.1141033172607 1.5179637670517 1.80696082115173 32.2783279418945 1.29908525943756 7.22946453094482 2.48963713645935 5.03723812103271 1.57542157173157 1.49987924098969 1.09450936317444 2.19194459915161 2.06094455718994 2.82588958740234 4.57068014144897 4.62906837463379 12.8887042999268 1.90542471408844 7.59659862518311 6.06870985031128 26.0470676422119 14.9029111862183 10.5369834899902 5.30983543395996 12.0511350631714 0.810067892074585 1.38976263999939 4.18687009811401 8.75638484954834 8.6519193649292 3.02478361129761 10.0976829528809 0.311332166194916 1.14984726905823 -0.261030703783035 0.262679189443588 -0.193950086832047 -0.34885036945343 3.77771425247192 2.64786076545715 5.25161457061768 3.50789856910706 5.24888563156128 11.5125999450684 2.32006120681763 30.2587337493896 18.1324901580811 11.9755344390869 14.5972089767456 14.0159873962402 12.6100769042969 4.47738742828369 -0.504361748695374 2.44419622421265 4.23122406005859 40.1349182128906 19.783784866333 33.5815200805664 13.538426399231 14.0384435653687 14.5314455032349 16.2534713745117 18.3708381652832 16.4202117919922 20.9181308746338 28.8442420959473 29.8675785064697 18.3904895782471 15.9245567321777 12.7693777084351 16.7947807312012 19.617166519165 19.64821434021 20.4303894042969 20.9339237213135 21.8411731719971 21.1769638061523 28.4619731903076 30.4050769805908 18.4331169128418 15.2514019012451 16.9257583618164 30.1558132171631 44.6210060119629 12.6918973922729 26.3936290740967 20.8708000183105 11.1835012435913 10.8993968963623 10.5282754898071 10.3713436126709 8.80101203918457 8.06028842926025 7.30528211593628 6.32465791702271 7.55172777175903 7.30658674240112 6.41081523895264 5.84618663787842 5.8353796005249 7.54566955566406 7.30400371551514 8.09647750854492 8.2192325592041 8.06229591369629 15.2450342178345 3.09297680854797 2.41059255599976 2.33649682998657 5.50069236755371 4.46607255935669 4.01772212982178 3.07100033760071
2.23012852668762 2.28022933006287 2.63366866111755 2.22517895698547 2.36590123176575 2.14547920227051 1.70566928386688 3.48131585121155 1.75553607940674 1.84520363807678 1.82101154327393 1.89325511455536 2.11216878890991 1.54056358337402 2.47287178039551 3.36045479774475 3.84078121185303 3.25417876243591 3.33221793174744 3.5413179397583 3.58060193061829 4.10779333114624 3.49761557579041 2.43779969215393 2.74003052711487 2.02084159851074 0.69685310125351 4.14798021316528 3.28240013122559 0.035631712526083 0.227787554264069 0.157651364803314 0.573197722434998 0.927576422691345 0.319235950708389 0.273780167102814 0.375656068325043 1.93401038646698 2.41608595848083 2.91048336029053 3.1631977558136 2.73461151123047 2.12573647499084 2.20381951332092 2.29924583435059 2.48637223243713 2.40549755096436 2.53052401542664 3.10228228569031 2.81839227676392 2.68420171737671 3.08758091926575 2.64961361885071 2.91094207763672 2.8433940410614 2.02315497398376 2.37076473236084 2.67934632301331 4.20670223236084 11.5028896331787 5.87835550308228 11.1034965515137 2.85217761993408 1.95783674716949 17.5265102386475 28.2006244659424 1.52901840209961 4.65176582336426 5.76872634887695 1.20949387550354 11.0509672164917 8.4598388671875 7.39134502410889 2.89090800285339 4.61073970794678 4.57219886779785 3.59846186637878 9.53073215484619 16.3519458770752 2.47440958023071 2.88123488426208 19.5359878540039 9.55895900726318 5.70591592788696 9.05685234069824 14.1526203155518 0.456537693738937 0.327432334423065 9.2179479598999 4.3911280632019 3.93699097633362 21.6532649993896 2.16691470146179 9.68556499481201 0.796804964542389 0.857430696487427 0.123777344822884 4.52120447158813 2.14491176605225 -1.57121241092682 10.6115474700928 6.64059352874756 2.28504633903503 3.13265061378479 2.40076851844788 14.4592580795288 13.8243789672852 11.2308168411255 10.3514089584351 12.5089464187622 13.5534782409668 8.75894832611084 15.5374460220337 2.11197018623352 1.54568731784821 3.72627878189087 4.98921823501587 22.5416030883789 10.2597713470459 12.4449481964111 13.1493759155273 13.7124490737915 15.0366764068604 16.8227920532227 15.1555233001709 19.0313377380371 17.9675483703613 21.9756813049316 22.6290683746338 14.7585821151733 12.0446224212646 13.053596496582 17.5437602996826 17.4600811004639 17.8224449157715 18.2402000427246 18.5404510498047 18.3745193481445 17.0630683898926 19.0229988098145 16.5159778594971 22.1072635650635 15.0602111816406 23.2678852081299 27.1209259033203 24.7004833221436 23.0189399719238 17.4304828643799 12.09752368927 10.1617250442505 9.92397117614746 9.160813331604 9.96321964263916 7.76814651489258 6.99031066894531 6.38985109329224 7.25882244110107 7.03252410888672 6.18759250640869 5.60260581970215 5.5331015586853 7.08532905578613 6.92408275604248 7.67428636550903 7.83637571334839 7.68372297286987 7.34733772277832 9.3976583480835 2.40936756134033 1.61252462863922 1.7272812128067 4.48227167129517 3.32511639595032 3.59582424163818
2.14366722106934 2.19218015670776 2.55611252784729 1.90914607048035 2.01245522499084 1.88276898860931 2.08668327331543 3.41757607460022 2.79910469055176 1.83473348617554 1.79156863689423 1.7965841293335 2.00744843482971 1.46588003635406 1.37558591365814 3.27177548408508 3.76321244239807 3.19270610809326 3.06471371650696 3.15435814857483 3.33420562744141 3.70467805862427 3.8862099647522 2.29106044769287 1.8026829957962 2.45687174797058 0.670762240886688 3.86894226074219 3.03976893424988 0.027310298755765 0.211983144283295 0.145816534757614 0.536721706390381 0.858638525009155 7.35890245437622 0.302028089761734 0.275783896446228 1.78254663944244 1.82868838310242 2.74125957489014 2.98244047164917 2.6235339641571 1.95092642307281 1.91723990440369 2.11392569541931 2.03766989707947 2.26465320587158 2.27110600471497 2.87771654129028 2.59086942672729 2.45965337753296 2.84104990959167 2.42927670478821 2.68550825119019 2.64417743682861 1.9013911485672 2.21467018127441 2.51397967338562 3.264652967453 9.38859462738037 1.39308738708496 8.92123126983643 10.8865528106689 1.91239476203918 5.7704439163208 15.8382911682129 3.35469913482666 1.03314876556396 5.05548572540283 0.930793464183807 0.558749616146088 0.790667295455933 5.67624521255493 2.16689562797546 3.82911252975464 4.46354722976685 4.66097116470337 0.625625014305115 9.39123916625977 2.36464357376099 18.0906600952148 13.398247718811 26.9043445587158 27.02197265625 23.2379913330078 6.58263826370239 21.0582370758057 0.848195612430573 1.41794800758362 2.82701396942139 3.60264039039612 10.1043424606323 12.9207315444946 9.16260433197021 -0.373317539691925 -0.419441670179367 -0.188490390777588 -0.270157277584076 -1.16404294967651 9.31882095336914 15.4464244842529 9.71023941040039 4.22515439987183 1.40586256980896 6.76844215393066 2.14346718788147 8.05819892883301 12.9084005355835 15.2548770904541 11.1752519607544 12.0474710464478 7.13211679458618 1.8254052400589 9.23338890075684 -0.652430474758148 2.88940167427063 6.3974666595459 6.74377202987671 29.8483867645264 16.3150959014893 12.1653213500977 12.0812635421753 12.9094438552856 14.7311010360718 13.943187713623 17.4096183776855 16.5408039093018 19.000789642334 19.6356792449951 13.8755941390991 11.5245084762573 12.5522975921631 14.5905685424805 16.1010341644287 15.7318305969238 16.1054630279541 16.0579032897949 16.2762832641602 15.8499965667725 15.6485090255737 16.6755332946777 14.8881578445435 15.0678262710571 15.3694667816162 26.3519134521484 24.9833183288574 20.5450687408447 15.7345571517944 10.4153461456299 9.65985870361328 9.36794090270996 9.22008419036865 9.38256549835205 7.46616411209106 7.04442119598389 6.18380498886108 6.99764728546143 6.77930545806885 5.98881864547729 5.44633102416992 5.45041465759277 6.82402372360229 6.42446136474609 7.30056524276733 7.50806474685669 7.3757905960083 20.9947128295898 43.8124771118164 40.5267639160156 39.7747764587402 38.0751724243164 2.04258513450623 3.44897961616516 3.48588895797729
2.07830786705017 2.16861319541931 2.46603655815125 2.20138883590698 1.78462624549866 1.78265953063965 1.66332101821899 3.40540742874146 1.74126088619232 1.70328104496002 1.75657761096954 1.71033716201782 1.63830494880676 1.93372678756714 1.36440324783325 2.31276822090149 3.13318157196045 3.5825183391571 3.0193133354187 3.0630407333374 3.21766924858093 3.58598780632019 3.75454926490784 2.1457154750824 1.61267077922821 2.32609081268311 1.70413625240326 3.63588619232178 2.8503110408783 0.0182942878454924 0.0764917135238647 -1.0801647901535 -0.5696040391922 -1.09683978557587 -0.425583958625793 -0.283465385437012 0.173653960227966 1.65568029880524 1.35591328144073 2.57861566543579 2.82919955253601 2.64889812469482 2.38383722305298 1.8187016248703 1.93670558929443 1.89708518981934 2.10161709785461 2.03190469741821 2.14582419395447 2.63594961166382 2.36119198799133 2.24635362625122 2.6041579246521 2.51513290405273 2.47398614883423 1.79409778118134 2.08504438400269 2.40726542472839 2.72896862030029 4.31137895584106 6.00479745864868 7.50301790237427 19.7015247344971 18.6614627838135 6.59337759017944 5.64571332931519 19.6339836120605 17.1750659942627 4.64835977554321 20.8734092712402 12.9254913330078 0.756172060966492 7.14478063583374 2.04955196380615 3.09352469444275 4.43440532684326 1.64017248153687 21.9499320983887 2.74986290931702 16.6402606964111 1.36844849586487 5.81270170211792 17.0684146881104 17.0124225616455 12.3019723892212 18.1976280212402 11.6046981811523 3.41614985466003 0.0843386724591255 20.1326808929443 5.90769910812378 11.2691631317139 23.3822975158691 2.17743992805481 11.830638885498 11.3061237335205 11.0457143783569 -0.140427485108376 14.2872457504272 -1.01876366138458 9.19120025634766 0.0179399270564318 3.15289855003357 11.2416667938232 5.6466908454895 6.28171157836914 14.4832258224487 12.6894693374634 12.121865272522 7.22987413406372 10.5251302719116 6.80792140960693 7.06947088241577 0.0436157919466496 18.5747528076172 15.7709112167358 4.26628017425537 6.23406410217285 6.72931957244873 9.32957458496094 11.2982025146484 11.217306137085 11.5788516998291 11.9342994689941 13.2380342483521 12.5688762664795 15.8520746231079 16.5860233306885 17.3217620849609 12.9821166992188 10.9510517120361 12.1075611114502 13.8194541931152 14.888277053833 14.3525495529175 14.3029613494873 14.006724357605 14.1283779144287 14.7966642379761 14.1546401977539 15.4447088241577 14.1661977767944 14.2537832260132 13.9193153381348 16.4778251647949 20.8523921966553 18.4836559295654 14.5927143096924 9.9046573638916 9.41022109985352 9.3497200012207 9.12002849578857 8.76311683654785 7.65389442443848 7.14297246932983 6.00949001312256 6.76416397094727 6.552490234375 5.69365835189819 5.74535703659058 5.37915325164795 6.75933027267456 6.33488321304321 7.10303163528442 6.68276166915894 7.18339061737061 5.81637239456177 36.5040893554688 34.010196685791 37.8113288879395 32.4423599243164 42.8836708068848 5.33459663391113 7.51335191726685
1.73173892498016 2.107008934021 2.36211228370667 2.15052247047424 1.57214164733887 1.56800699234009 1.67825078964233 3.24231171607971 1.67226767539978 2.18233704566956 1.69238758087158 1.67550587654114 1.60317921638489 1.889164686203 1.32124447822571 2.25168204307556 3.0450267791748 3.48788046836853 2.93428921699524 2.99174332618713 3.13518810272217 3.46929621696472 3.63121032714844 2.68367791175842 1.51663160324097 2.17758393287659 1.61354601383209 3.42771124839783 2.69010400772095 0.271866798400879 0.0425117313861847 5.55632209777832 -1.45878720283508 -1.346599817276 -0.973844587802887 -0.844180524349213 -1.55026113986969 0.152898669242859 1.5566371679306 2.06638407707214 2.69633078575134 2.64646697044373 2.24067234992981 1.67881011962891 1.75985395908356 1.75366258621216 1.9370903968811 1.87482488155365 1.99575972557068 2.47859859466553 2.2294225692749 2.14024186134338 2.50599193572998 2.42588400840759 2.38138341903687 1.74986243247986 2.04018640518188 2.29209232330322 2.40459704399109 20.8552093505859 22.6574249267578 6.46309566497803 10.374363899231 10.5443248748779 1.49457001686096 1.48119032382965 9.47921371459961 9.02069473266602 4.03136873245239 11.2952098846436 22.8093414306641 31.1052875518799 6.39989137649536 2.91022896766663 2.98994898796082 0.950798332691193 17.9187030792236 12.6051359176636 14.5629138946533 8.22348403930664 17.2492771148682 6.03495311737061 11.252067565918 10.9493913650513 11.0512409210205 11.7618932723999 9.65907669067383 15.9516630172729 11.3973903656006 3.94085955619812 7.51185369491577 8.7386646270752 14.7512941360474 22.4041481018066 9.26519966125488 11.8007411956787 3.76127576828003 3.21497392654419 2.04558634757996 16.0274505615234 2.41047859191895 0.198719456791878 0.945539832115173 1.42452836036682 1.18602359294891 2.55910015106201 4.90517711639404 4.29858589172363 6.28443574905396 26.397123336792 7.28131771087646 4.6959285736084 4.18130016326904 0.823570966720581 16.3325099945068 7.41702890396118 5.54831075668335 4.82443523406982 9.28443336486816 23.8664569854736 10.6198415756226 10.550726890564 10.8482093811035 11.1941547393799 11.9292335510254 11.3096189498901 14.4085941314697 14.3868284225464 15.2119779586792 13.0195302963257 11.7466163635254 10.4316005706787 13.0037889480591 13.7800788879395 13.2154264450073 13.1385107040405 12.7799520492554 12.914137840271 13.6299667358398 13.5618629455566 14.499095916748 13.6013278961182 13.6510915756226 13.3302421569824 13.534348487854 17.9480419158936 16.6950702667236 13.4444808959961 9.75139999389648 9.20554065704346 9.04752635955811 8.70941829681396 8.20326137542725 7.35097551345825 6.88352823257446 6.14359521865845 5.60152101516724 6.48788642883301 6.29408264160156 5.5924129486084 5.21395635604858 5.18380355834961 6.55136775970459 6.94422054290771 6.63671350479126 7.0443286895752 5.02476978302002 17.198112487793 25.0937442779541 31.1292362213135 28.2759590148926 33.6193618774414 10.1821908950806 6.73195934295654
1.80535566806793 2.03840017318726 1.99920225143433 2.31665468215942 1.60698020458221 1.53808403015137 1.78057599067688 3.08118319511414 1.65412998199463 1.57353806495667 1.65243947505951 1.60951805114746 1.59466254711151 1.84389734268188 1.28199112415314 2.18665313720703 2.96064233779907 3.39705562591553 2.86315846443176 2.9225389957428 3.04831576347351 3.38067293167114 3.52243566513062 2.50602674484253 1.42490482330322 2.02931427955627 1.50656366348267 3.22982549667358 2.52996683120728 2.09961676597595 -0.0286751314997673 21.7369499206543 7.93195962905884 17.2539463043213 0.203533321619034 11.1503458023071 -0.0448716022074223 -1.35117149353027 1.42327988147736 1.88770771026611 2.29463028907776 2.56618165969849 2.15389657020569 1.56104207038879 1.58948123455048 1.60376560688019 1.75038886070251 1.71219897270203 1.85287892818451 2.33421874046326 2.11109328269958 2.04013872146606 2.41718149185181 2.37353610992432 2.33773255348206 2.15944743156433 1.76314067840576 2.08936357498169 2.32742142677307 10.799693107605 19.4260597229004 7.77305364608765 1.5013439655304 7.69397783279419 0.806362569332123 21.4974727630615 -0.361537247896194 4.07610321044922 4.54847431182861 3.56139659881592 13.7758598327637 18.3064079284668 12.1254854202271 0.608549237251282 0.549950122833252 8.39640712738037 8.13231372833252 9.10036945343018 7.98110485076904 6.10652780532837 9.0064058303833 4.63773632049561 8.95258522033691 8.55631637573242 8.47851753234863 7.92455673217773 18.3683280944824 11.9886922836304 9.63225841522217 1.1449146270752 4.26238250732422 2.93499302864075 7.41891670227051 24.3711853027344 32.1708488464355 8.04373264312744 15.453727722168 13.7747011184692 13.9088649749756 4.78238248825073 13.435474395752 -0.235113352537155 0.93991094827652 3.70929288864136 6.72322511672974 0.749000072479248 1.46101498603821 3.66649794578552 3.57668828964233 2.55054426193237 4.76037073135376 4.22822570800781 2.80550241470337 1.52452087402344 -0.866813957691193 10.281231880188 4.34440088272095 4.71664953231812 5.74535799026489 5.90368127822876 9.86678409576416 10.2424640655518 10.2438859939575 10.6005458831787 10.9390554428101 10.3228712081909 13.1671209335327 12.754448890686 13.3960189819336 11.854024887085 10.6900491714478 9.89271354675293 10.670147895813 12.7452945709229 12.212739944458 12.1644020080566 11.8069562911987 11.9256916046143 12.57337474823 12.8989877700806 13.5445070266724 12.858772277832 12.8447313308716 12.8808755874634 12.8985767364502 15.7931518554688 12.3053131103516 14.7139282226562 12.0177440643311 9.35734844207764 8.87996768951416 8.39610481262207 7.78145313262939 7.10273122787476 6.61477565765381 5.92042779922485 5.45423269271851 6.28505182266235 6.11346578598022 5.453773021698 4.93644094467163 5.08210945129395 6.42187356948853 6.2540602684021 6.69169425964355 6.87938976287842 40.117301940918 13.0232648849487 21.6134853363037 24.7925605773926 27.2683429718018 24.6626720428467 23.1902599334717 5.97797966003418
1.66833126544952 1.99878001213074 1.96420836448669 2.2564594745636 1.62263071537018 1.47484028339386 1.55350852012634 1.63606548309326 2.64765977859497 1.52721214294434 1.61558902263641 1.57416450977325 1.5537725687027 1.80366909503937 1.25537800788879 1.20332670211792 2.88270044326782 3.3090443611145 2.79666090011597 2.72278237342834 2.95889902114868 2.97794318199158 3.41769123077393 2.34582185745239 1.64553880691528 1.87118124961853 1.35038220882416 0.5271115899086 2.81179118156433 2.18237900733948 -0.0554157830774784 20.7885284423828 14.9759902954102 10.7386283874512 19.4351367950439 12.3819704055786 6.40581226348877 -1.64595830440521 -0.0627792924642563 1.34628534317017 2.16687178611755 2.46327328681946 2.13964223861694 1.47595024108887 1.35754179954529 1.46099877357483 1.59681940078735 1.57457339763641 1.7131530046463 2.18244576454163 1.96972715854645 1.91897594928741 2.31648921966553 2.07492542266846 2.35581040382385 2.33595275878906 1.72261786460876 2.03205442428589 2.22885775566101 2.8295214176178 8.13933563232422 20.0631141662598 31.5060577392578 4.72483205795288 30.9513301849365 -0.394280076026917 -1.65858292579651 1.48134291172028 2.22082352638245 3.05777621269226 6.61552572250366 0.518767595291138 -0.477248549461365 0.35973709821701 22.3119583129883 3.33040904998779 2.03738951683044 3.55066323280334 19.533031463623 5.07421493530273 5.00925302505493 6.06912136077881 7.30680894851685 6.79435777664185 6.92311954498291 6.62024259567261 9.22296142578125 4.29994821548462 8.55993843078613 2.2712779045105 2.67026925086975 4.14422607421875 17.4896697998047 22.2445945739746 14.976674079895 20.8340892791748 33.4541969299316 35.6972045898438 30.7005863189697 18.8762359619141 10.9661540985107 24.6783180236816 4.5583291053772 0.809015870094299 0.78148877620697 18.8568286895752 7.80960607528687 4.12260770797729 7.85016441345215 5.79581022262573 14.2184619903564 11.0392713546753 4.85158634185791 0.783670723438263 11.2345705032349 7.97687005996704 14.479419708252 4.40452909469604 5.55731725692749 13.1786556243896 7.4961519241333 9.79110145568848 9.82067775726318 10.0833024978638 10.1215944290161 10.583309173584 12.1133069992065 11.832483291626 11.9695291519165 11.8683223724365 9.74686050415039 9.17153263092041 10.0887298583984 11.0872497558594 11.602089881897 11.2805128097534 11.0911378860474 10.8324861526489 11.1622171401978 11.5817975997925 12.0730514526367 12.4175329208374 12.2934017181396 12.336950302124 12.3065423965454 14.0806856155396 11.8022165298462 13.6322822570801 11.2585554122925 9.11416339874268 8.65571212768555 8.09173488616943 7.44812059402466 7.20484399795532 6.29917812347412 6.0731315612793 5.48520517349243 6.12175989151001 5.95874643325806 5.32304716110229 4.78474998474121 4.74460792541504 4.68400144577026 3.92107582092285 4.95527315139771 5.0225625038147 23.5765018463135 13.7179765701294 18.059606552124 20.9277610778809 23.212854385376 21.2095375061035 19.3985843658447 6.05698156356812
1.69811606407166 1.97555768489838 1.92160189151764 2.18463349342346 1.53821516036987 1.41026699542999 1.49742186069489 1.55128681659698 2.52658104896545 1.4835786819458 1.57721018791199 1.5334655046463 1.51719641685486 1.43164706230164 1.71522545814514 1.13632166385651 2.02776980400085 2.74626874923706 3.15130400657654 2.65618014335632 2.70639872550964 2.78466105461121 3.10265374183655 3.21516895294189 1.53675961494446 1.13369512557983 1.55344867706299 0.17112922668457 2.54563570022583 1.98510599136353 -0.0803727880120277 9.64036846160889 0.428277671337128 0.523773014545441 12.3411407470703 9.77040672302246 2.10984086990356 -1.82686102390289 -0.251829326152802 0.906084537506104 2.04727029800415 2.35510349273682 2.19083762168884 1.92059290409088 1.35738277435303 1.30986034870148 1.35050284862518 1.4830709695816 1.49753510951996 2.04052901268005 1.85352301597595 1.81775116920471 2.22065997123718 2.02160406112671 2.31281805038452 2.28441023826599 1.67451393604279 1.96720838546753 2.11522698402405 2.30831933021545 5.0462212562561 9.94080352783203 1.53655016422272 4.36820316314697 14.9149465560913 -1.13655769824982 1.12420868873596 -0.934867024421692 0.960576713085175 2.39228749275208 0.0344594717025757 -0.13374499976635 39.1053276062012 33.3316459655762 13.8164415359497 1.14751493930817 19.5432720184326 1.12194633483887 9.21686935424805 4.36526250839233 3.28453850746155 4.08203029632568 3.55260920524597 6.20105361938477 5.84248352050781 4.99230051040649 5.39350175857544 3.49171137809753 4.54953670501709 11.7177791595459 1.23436796665192 23.0142669677734 3.36026334762573 23.5820236206055 35.6421813964844 26.02587890625 32.591121673584 31.1265449523926 25.2879257202148 25.8708057403564 29.0694828033447 17.399715423584 9.10926628112793 0.470261454582214 0.36572140455246 10.0913429260254 15.869158744812 24.5602855682373 30.1335868835449 39.7154769897461 14.9331045150757 14.3144330978394 8.1533670425415 15.8305625915527 18.1334095001221 16.4427795410156 6.60643482208252 3.97841382026672 5.16155242919922 12.6292114257812 5.94718503952026 6.89458656311035 9.45395755767822 9.6033296585083 9.86884593963623 10.2395305633545 9.56962394714355 11.5092725753784 11.1760339736938 10.7295331954956 9.24888324737549 8.7436466217041 9.3656644821167 10.3884687423706 10.8223810195923 10.5806684494019 10.3327360153198 10.0474891662598 10.1131687164307 10.6330099105835 11.4692125320435 11.8061008453369 11.733757019043 11.8099670410156 11.5997066497803 11.525426864624 12.2388982772827 12.6307878494263 10.4526672363281 8.97007942199707 8.40459632873535 7.88384056091309 7.46167659759521 6.84937953948975 6.45047664642334 6.0727653503418 5.34250783920288 5.95629978179932 5.7053804397583 4.98067951202393 3.74154877662659 3.53382515907288 4.12269496917725 3.02983546257019 3.63810014724731 3.62683272361755 3.92382144927979 15.338963508606 15.3873853683472 17.9506454467773 20.1129512786865 18.5824794769287 16.8823261260986 5.81231355667114
1.6032018661499 1.93464529514313 1.93055665493011 2.11035561561584 1.87069869041443 1.33608722686768 1.42742705345154 1.40169191360474 2.45358204841614 1.44920253753662 1.53959691524506 1.49490284919739 1.4791761636734 1.38732624053955 1.67414081096649 1.11837041378021 1.96758270263672 2.6682436466217 3.07146048545837 2.59956169128418 2.64749431610107 2.70810174942017 3.01417136192322 3.13538932800293 1.4505786895752 0.957570254802704 -2.16605925559998 -1.98698854446411 -1.80456209182739 1.73219347000122 -0.121737100183964 -0.0751114711165428 45.3992156982422 -1.8915331363678 3.61318397521973 3.66706442832947 2.16349101066589 -2.03295016288757 -1.81640648841858 -0.0784568339586258 1.59242916107178 1.11436057090759 0.780576169490814 1.8089679479599 1.29312455654144 1.24348926544189 1.26895093917847 1.37909877300262 1.36407661437988 1.50611841678619 1.9641717672348 1.80812871456146 1.79659616947174 2.22316408157349 2.25210690498352 2.21508121490479 1.61226975917816 1.83967566490173 1.94304943084717 2.04095816612244 4.08456420898438 7.28233003616333 28.314868927002 8.89092445373535 -0.465134292840958 -1.48278331756592 2.17787384986877 13.1547317504883 -0.650643408298492 -0.826870083808899 -0.208496570587158 33.4498443603516 24.7310466766357 16.5576076507568 8.56789016723633 13.0386085510254 4.06007766723633 27.4040546417236 7.03182125091553 4.65425634384155 3.81399202346802 2.44119763374329 1.28282642364502 4.55990076065063 5.27076959609985 4.50101232528687 4.68728685379028 23.2082576751709 7.71334838867188 10.9979152679443 12.0964288711548 2.39524006843567 12.6749229431152 9.82001399993896 23.0105361938477 24.635570526123 22.8759346008301 24.2679424285889 22.7349014282227 22.735034942627 22.2810115814209 17.641960144043 8.08876514434814 0.398834317922592 10.2972784042358 34.0506324768066 13.861180305481 11.884747505188 11.8631057739258 18.4648132324219 16.2782249450684 9.9984302520752 36.5953178405762 23.6858558654785 23.1779727935791 21.0770397186279 23.258129119873 18.3103523254395 7.44515466690063 5.64223670959473 16.8724174499512 6.80509567260742 7.7470440864563 9.26443767547607 9.56847286224365 9.94106483459473 9.3332405090332 10.7347345352173 10.5034294128418 10.0834131240845 9.0771656036377 8.35167407989502 8.8345890045166 9.76289653778076 10.134202003479 9.93501567840576 9.89699745178223 9.3867015838623 9.46094131469727 9.99591732025146 10.923376083374 11.2593307495117 11.2179393768311 11.2644948959351 11.0369710922241 10.992075920105 11.428430557251 11.6710414886475 9.95101928710938 8.68576049804688 8.21687984466553 8.02296733856201 7.53370094299316 6.72961711883545 6.2425217628479 5.82810831069946 5.23660659790039 5.75987815856934 4.70775270462036 4.19113159179688 4.357834815979 3.53055453300476 7.38926649093628 17.3448600769043 10.1084184646606 27.2910747528076 11.986065864563 4.59782552719116 7.90557098388672 15.660792350769 17.5703868865967 16.3587341308594 14.7835540771484 5.49483251571655
1.50868678092957 1.26428663730621 1.88544499874115 2.03230452537537 1.80394685268402 1.25450456142426 1.20970594882965 1.39494073390961 2.35392618179321 1.42482912540436 1.39749193191528 1.47171401977539 1.43542122840881 1.35114359855652 1.62876856327057 1.07093632221222 1.90545284748077 2.59318423271179 2.99258971214294 2.53871512413025 2.59116125106812 2.65261197090149 2.95032644271851 3.03377676010132 1.76457023620605 0.946415662765503 14.2644214630127 -2.45922088623047 -0.0990922823548317 1.43392610549927 -1.25015068054199 -1.67005002498627 -1.5358339548111 20.394100189209 -1.43791711330414 -0.375230044126511 1.21842133998871 4.67795372009277 -1.1841287612915 -0.215466231107712 1.50740766525269 40.2340126037598 43.9530830383301 1.73773109912872 1.23326516151428 1.18099129199982 1.22378396987915 1.30756306648254 1.29282069206238 1.43836879730225 1.88877356052399 1.72405326366425 1.69979619979858 2.12150549888611 2.17251586914062 2.14160180091858 1.57254064083099 1.77074253559113 1.83503150939941 1.94043838977814 2.95552134513855 5.83386516571045 13.9595212936401 6.2840723991394 -0.497173696756363 -2.03585290908813 1.12357091903687 11.1130104064941 16.5540180206299 39.8302841186523 24.4828624725342 14.3642091751099 5.30720663070679 15.1533136367798 11.8722610473633 9.66925144195557 0.880572974681854 15.6660499572754 6.20022535324097 4.14939212799072 2.68031454086304 0.633083045482635 1.00305128097534 2.12631344795227 3.72010517120361 3.98143744468689 4.13906097412109 14.3903350830078 10.7413749694824 5.52653741836548 10.3874263763428 2.33049941062927 9.833740234375 5.94262266159058 12.43137550354 13.7011604309082 13.2152423858643 19.8401298522949 19.2420139312744 17.5615081787109 18.9301242828369 18.1303215026855 19.0525379180908 26.8977108001709 21.1877670288086 16.5100021362305 27.0182247161865 30.3337669372559 19.4399375915527 9.25846862792969 9.29524230957031 23.5207252502441 29.4967594146729 44.2563552856445 22.617919921875 19.096809387207 17.4221534729004 15.1178207397461 5.57500171661377 5.27835416793823 9.67332744598389 13.771203994751 5.69335126876831 5.99009561538696 9.30996036529541 9.64931106567383 9.01450061798096 10.0653829574585 9.9093770980835 9.43145942687988 8.44914436340332 7.99042463302612 8.02290439605713 9.20604419708252 9.52387428283691 9.36649608612061 9.3941650390625 8.89720249176025 8.97037220001221 9.57508087158203 10.4410247802734 10.7365818023682 10.7209901809692 10.7822170257568 10.5601053237915 10.4968166351318 10.9045295715332 10.2237215042114 10.5520572662354 8.76168918609619 7.92980051040649 7.76158666610718 7.32893419265747 6.84338665008545 6.13450288772583 5.68027544021606 5.03897476196289 4.88223266601562 22.4812088012695 4.78169345855713 4.30989646911621 15.3972139358521 2.93351602554321 8.68686294555664 3.50696635246277 14.1537714004517 7.54519128799438 18.2624034881592 12.5966796875 4.80054426193237 5.84420680999756 15.1404314041138 14.1038522720337 5.09906196594238
1.40451049804688 1.20103514194489 1.85168135166168 1.76563215255737 1.96027219295502 1.27226185798645 1.22551667690277 1.33015823364258 2.20500326156616 1.41419041156769 1.36582136154175 1.43484961986542 1.37434756755829 1.34230697154999 1.58153760433197 1.02378261089325 1.84950959682465 2.53927850723267 2.928386926651 2.47363495826721 2.54397869110107 2.61352705955505 2.60231494903564 2.9545156955719 1.71217942237854 1.13677668571472 9.40129566192627 13.0661430358887 -1.88651597499847 -0.86232602596283 37.5513496398926 48.1578598022461 20.3987197875977 -2.00153160095215 -1.61247026920319 4.28617286682129 6.06864261627197 8.92448234558105 8.59200191497803 -0.254179507493973 0.396947711706161 21.9872226715088 25.6411972045898 1.73193109035492 1.20246493816376 1.09278905391693 1.13271868228912 1.25479423999786 1.23186230659485 1.36650860309601 1.79184651374817 1.64405524730682 1.62335133552551 2.0289409160614 2.09046697616577 2.06605577468872 1.88491463661194 1.5000684261322 1.74332928657532 1.83955466747284 2.31606507301331 4.69506406784058 4.48194932937622 1.15217113494873 12.2924003601074 40.1938781738281 14.4384241104126 27.3507480621338 31.4848613739014 27.3748664855957 22.9576396942139 29.4161243438721 11.0408477783203 12.2253112792969 9.90367126464844 2.33623123168945 22.7140712738037 4.55177021026611 9.93171787261963 5.12873315811157 0.934883236885071 9.71394443511963 0.868279278278351 1.92296743392944 2.74489712715149 3.87707686424255 3.73799991607666 4.28130340576172 13.7156200408936 15.9212684631348 6.44337844848633 20.6896991729736 30.2163887023926 3.67160558700562 15.1527452468872 32.6509857177734 39.0027770996094 18.752779006958 17.8068523406982 14.8703279495239 16.918041229248 16.1944980621338 19.5124492645264 22.906120300293 20.7656803131104 38.9628791809082 21.2245674133301 20.8057079315186 8.10140800476074 7.13827276229858 14.0781621932983 23.2565364837646 18.249698638916 20.0140190124512 21.5396060943604 11.9649381637573 8.10402774810791 6.2350115776062 6.00860261917114 4.92463397979736 15.2958850860596 13.9419984817505 25.8155517578125 17.0257015228271 6.43522500991821 9.00829792022705 9.43146800994873 9.48702621459961 9.14751052856445 9.30299758911133 8.12866878509521 7.10940599441528 7.674635887146 8.15619564056396 8.97414112091064 8.88373565673828 8.9490385055542 8.75107479095459 8.64725589752197 9.22209644317627 9.95804119110107 10.2628564834595 9.99345111846924 10.1690616607666 10.2185735702515 10.0280532836914 10.4059629440308 9.7944507598877 9.81883335113525 8.79124355316162 7.81674385070801 7.45002889633179 7.0266695022583 6.59076738357544 5.91957712173462 5.4591908454895 4.80036020278931 4.67718267440796 5.34116363525391 4.34264373779297 3.8884265422821 5.78312301635742 2.67545199394226 10.1567916870117 15.9238758087158 9.95112133026123 9.86282348632812 7.45537042617798 4.12028121948242 4.36604022979736 12.9516448974609 10.5225563049316 12.6812601089478 11.1628503799438
1.26083827018738 1.15695285797119 0.602663040161133 1.75012373924255 1.91536664962769 1.26551115512848 1.15520370006561 1.2657173871994 1.32596790790558 2.1411828994751 1.34279465675354 1.40748238563538 1.34238684177399 1.30421042442322 1.54302394390106 0.990670442581177 0.939911305904388 2.49800562858582 2.87798476219177 2.43225979804993 2.38741421699524 2.42530298233032 2.45370316505432 2.72099614143372 2.78682351112366 1.10103714466095 2.51327610015869 5.80692720413208 9.80695152282715 6.44523000717163 19.939208984375 28.1589756011963 37.0402603149414 43.5598564147949 37.5136528015137 6.35543394088745 -1.31205689907074 -1.88740634918213 6.95152235031128 -0.413389921188354 -0.772480666637421 1.74076616764069 14.0968685150146 16.692569732666 1.12410604953766 1.01756417751312 1.07596755027771 1.19948446750641 1.14909982681274 1.27617228031158 1.70558381080627 1.57464528083801 1.56060361862183 1.94615137577057 1.77831816673279 2.00563478469849 1.95813465118408 1.40176844596863 1.64615225791931 1.63326513767242 2.1159348487854 2.69239377975464 3.61766004562378 22.3322467803955 11.6462497711182 31.5362300872803 21.943021774292 14.6828899383545 16.7265739440918 17.3140392303467 20.1903400421143 18.0053367614746 8.56086349487305 9.86932468414307 9.52897548675537 9.6179723739624 12.34739112854 3.33649396896362 7.22633647918701 4.29972362518311 11.6709785461426 0.529646158218384 6.84867334365845 23.4147510528564 12.8864612579346 3.73264765739441 3.46361255645752 3.76655960083008 7.06384754180908 12.9020824432373 10.4670553207397 15.1697359085083 7.51277208328247 28.6494674682617 21.1410522460938 19.4370098114014 23.9292106628418 24.4168395996094 15.3259706497192 29.1834049224854 18.7549533843994 13.5092878341675 10.5237121582031 33.8244895935059 33.6171035766602 20.5658988952637 12.5593662261963 7.87631130218506 6.13600206375122 10.2608127593994 8.50418567657471 9.77120685577393 12.4313545227051 15.0201301574707 16.3184585571289 23.3189754486084 29.4454078674316 5.37324810028076 4.14590978622437 4.53093004226685 7.78118562698364 6.04117393493652 16.9627208709717 5.90622663497925 15.9368886947632 6.48575782775879 9.16098785400391 9.00216960906982 8.65619659423828 8.84628677368164 8.33368968963623 6.67305135726929 7.29852247238159 7.8016357421875 8.34806823730469 8.46945285797119 8.54270362854004 8.40579223632812 8.05202007293701 8.58140754699707 8.90648555755615 9.43259048461914 9.71562671661377 9.73086643218994 9.7844066619873 9.59073257446289 9.91246223449707 9.3505973815918 9.22885322570801 8.57669734954834 7.66768980026245 7.16503810882568 6.76121425628662 6.48790979385376 5.80058860778809 5.30355024337769 5.04367113113403 4.66378021240234 3.65132641792297 3.56416201591492 3.25152206420898 2.44213366508484 33.9220390319824 6.87290287017822 8.10960674285889 9.15954971313477 25.6124706268311 4.81540107727051 3.744473695755 3.6039822101593 22.7480564117432 11.925684928894 8.21558380126953 6.02239656448364
1.21301281452179 1.74434196949005 1.01464688777924 1.82010757923126 0.822681069374084 1.65126383304596 1.09744536876678 1.18466734886169 1.2422581911087 1.98655557632446 1.35994935035706 1.39010167121887 1.31052231788635 1.27532041072845 1.17356538772583 1.45836496353149 0.94965785741806 1.7666974067688 2.41854953765869 2.76830387115479 2.30992102622986 2.37174415588379 2.41058492660522 2.6827597618103 2.738121509552 1.06125104427338 9.7918004989624 12.6000881195068 6.3604211807251 34.6325759887695 0.879880785942078 12.1175088882446 20.1724147796631 16.8898468017578 29.1349849700928 16.7115383148193 10.2354946136475 13.4927291870117 4.62007665634155 13.3016633987427 21.5280265808105 1.65289974212646 10.15101146698 12.0556964874268 1.55786871910095 1.11113619804382 1.0301605463028 1.08106279373169 1.12565815448761 1.121218085289 1.62695038318634 1.50186252593994 1.4922548532486 1.85313320159912 1.68009829521179 1.88920879364014 1.82749259471893 1.2920857667923 1.4716180562973 1.51505887508392 1.68802320957184 2.24531888961792 2.91187858581543 9.2062816619873 28.480936050415 28.4639720916748 17.8385276794434 18.8624649047852 17.2245559692383 13.7846231460571 16.065990447998 14.0286226272583 3.85618996620178 9.15524291992188 6.09605026245117 6.25985383987427 3.93407559394836 7.16728782653809 5.81876468658447 3.95942163467407 6.3854923248291 10.3436555862427 5.61358499526978 14.0938472747803 8.80988025665283 3.51473951339722 3.26459836959839 3.47043538093567 5.4933500289917 6.23282861709595 14.3163499832153 18.4370288848877 25.0625495910645 24.5560035705566 10.5525798797607 15.0885334014893 21.1055564880371 24.9079685211182 32.1738739013672 18.900447845459 16.5374298095703 23.2555561065674 38.625415802002 19.1183032989502 20.5677814483643 12.9056234359741 9.59622955322266 14.7743806838989 21.7871112823486 5.92467260360718 8.32464408874512 8.15400123596191 9.95353317260742 14.4055137634277 14.3013010025024 12.4543800354004 10.6054353713989 25.6124420166016 27.7368812561035 29.8443698883057 12.751389503479 15.8783416748047 15.3618993759155 8.67886066436768 5.37986516952515 8.33902931213379 8.8722448348999 8.2138671875 8.49345588684082 8.42286777496338 7.91642379760742 6.69276237487793 7.02020406723022 7.12741756439209 7.78514766693115 8.1092472076416 8.14727973937988 8.05348491668701 7.71999025344849 7.95113039016724 8.48555088043213 9.03549575805664 9.29114627838135 9.3252124786377 9.37630558013916 9.17510509490967 9.03174591064453 9.30576229095459 8.78871536254883 8.17411518096924 7.37502193450928 5.46384143829346 6.7656364440918 6.39207077026367 5.73981046676636 5.49302291870117 5.09140539169312 4.54185152053833 3.0557849407196 2.80793571472168 2.91901826858521 11.1244649887085 15.4816989898682 13.190299987793 11.7622385025024 3.56248593330383 3.04667782783508 2.78146624565125 2.3951461315155 2.43294429779053 2.72441792488098 7.89268589019775 7.2065372467041 5.85640478134155
1.21781539916992 1.51383233070374 6.75046873092651 1.80934524536133 0.733857870101929 1.6594785451889 1.06841635704041 1.1211268901825 1.09416687488556 1.83219695091248 1.274338722229 1.27346396446228 1.29586100578308 1.24619209766388 1.15331935882568 1.44244873523712 0.932224035263062 0.924219071865082 2.36269187927246 2.68527913093567 2.2497775554657 1.14020383358002 2.35751461982727 2.63968229293823 2.69996738433838 1.38443410396576 45.0507621765137 50.508171081543 49.0726203918457 20.9658870697021 11.5422277450562 9.05117416381836 4.63048076629639 40.7445526123047 25.0827865600586 17.7426280975342 18.7838764190674 9.4300012588501 2.20463466644287 4.02304363250732 6.53835487365723 13.7164144515991 7.46422576904297 7.59756994247437 1.32868444919586 -0.637107372283936 0.945977509021759 1.00659537315369 1.04427373409271 1.03745138645172 1.18961358070374 1.59984266757965 1.46964585781097 1.44739484786987 1.75752687454224 1.74314665794373 1.6836541891098 1.18870365619659 1.35210704803467 1.38488221168518 1.3685849905014 1.74340283870697 2.21274018287659 1.49917507171631 14.8711814880371 18.681568145752 36.9243812561035 7.81103706359863 14.0658445358276 11.9640789031982 13.7619705200195 11.7796821594238 10.100191116333 8.00412559509277 5.89418745040894 0.906074047088623 9.65431499481201 5.42592668533325 4.89588642120361 3.61752510070801 13.0138683319092 2.95725274085999 2.97534465789795 6.20918750762939 9.00313758850098 5.66978597640991 3.09143042564392 3.26138758659363 4.65282154083252 5.16709899902344 8.31569766998291 10.2738494873047 13.2424468994141 9.94711208343506 17.7552223205566 10.4746112823486 13.7601976394653 16.8892765045166 19.7205066680908 18.0581035614014 17.2690906524658 21.0786437988281 22.4180278778076 16.0534210205078 15.8512620925903 9.6422004699707 5.53716802597046 7.93749332427979 4.28410816192627 3.63172364234924 4.48144197463989 4.8659839630127 8.47011756896973 12.7923431396484 12.0203561782837 19.8966407775879 12.3625011444092 17.127613067627 11.1167402267456 14.2932443618774 9.35703086853027 12.6592016220093 6.42702484130859 23.9930381774902 32.6078872680664 6.05788135528564 6.46742916107178 7.9151177406311 8.06303405761719 8.03515338897705 7.54579305648804 6.56910800933838 6.7525372505188 6.80619144439697 7.41548824310303 7.59198999404907 7.65227746963501 7.73572587966919 7.39210939407349 7.6766505241394 8.18007946014404 8.65721416473389 8.91019153594971 8.94627571105957 8.97627639770508 8.75822925567627 8.58354568481445 8.80494403839111 8.32046318054199 7.74343109130859 7.03434371948242 4.60580348968506 4.05882406234741 4.47653341293335 3.71242880821228 3.26684045791626 4.88969421386719 4.39854907989502 38.4345436096191 40.9827461242676 14.6847171783447 6.21857643127441 2.43530654907227 2.30057716369629 2.63796901702881 2.7518138885498 2.32642221450806 2.27453756332397 1.6910172700882 1.40790057182312 1.53412687778473 2.82032442092896 7.39921998977661 9.29895687103271
-0.615004479885101 0.785761058330536 38.1941223144531 2.59191846847534 28.3065414428711 1.42946970462799 1.28564929962158 0.973826348781586 1.10700798034668 1.74101054668427 1.23707795143127 1.24185240268707 1.25905501842499 1.19688510894775 1.17522037029266 1.03428447246552 0.924743354320526 0.891203820705414 0.847926199436188 2.12006425857544 1.06257379055023 1.09705197811127 2.30329990386963 2.58997845649719 2.6668586730957 1.4620943069458 26.9118900299072 31.5016059875488 31.2821712493896 19.2060222625732 13.9639492034912 7.25605773925781 15.9226226806641 23.6649723052979 19.9899272918701 20.6792335510254 22.681568145752 6.05235528945923 4.98045063018799 30.8120594024658 21.4725074768066 23.4643268585205 5.72398805618286 5.13752746582031 0.788004219532013 -1.00912356376648 -0.423672825098038 0.930570542812347 0.968093454837799 0.976332426071167 1.1201376914978 1.48802816867828 1.30869591236115 1.29261994361877 1.58479130268097 1.59642243385315 1.55186152458191 1.40708410739899 1.03566837310791 1.18629586696625 1.20143127441406 1.47052097320557 1.43519866466522 1.37752509117126 2.14216065406799 10.1416063308716 23.5907745361328 39.8801918029785 14.525993347168 10.737738609314 12.3148221969604 10.3932437896729 20.9665508270264 3.84977102279663 7.84878444671631 6.68241691589355 1.24550807476044 4.38171577453613 4.26673078536987 1.95857512950897 8.62705230712891 22.4760665893555 13.9523601531982 4.82942628860474 7.09715270996094 4.26275539398193 2.87360548973083 2.88351917266846 3.98653197288513 4.49430894851685 5.15581798553467 7.31196880340576 9.77982139587402 9.57819271087646 12.6763257980347 27.3823261260986 11.3035364151001 11.7719554901123 15.4001760482788 17.4097499847412 14.9342470169067 15.0429677963257 14.2938327789307 15.8586854934692 14.835844039917 13.0635633468628 25.7141017913818 11.0368556976318 13.735279083252 6.85636234283447 3.30754733085632 12.7307176589966 7.63377141952515 12.7724771499634 21.0868854522705 13.688286781311 24.323127746582 25.5247669219971 27.7735614776611 24.5724258422852 13.4975671768188 21.1237850189209 22.424015045166 8.58741569519043 24.031925201416 20.7729930877686 21.4790458679199 6.48460388183594 7.61856746673584 7.68079042434692 7.19597673416138 6.2180757522583 5.58901214599609 6.46628856658936 7.075035572052 7.27978897094727 7.32230806350708 7.35111856460571 7.3597993850708 7.39680624008179 7.89196157455444 8.29537677764893 8.53434944152832 8.26879405975342 8.44051742553711 8.43725776672363 8.21242523193359 8.31596851348877 7.83269214630127 7.29526519775391 7.13687324523926 9.40685939788818 4.12528228759766 3.76408672332764 14.6391353607178 7.64810466766357 3.50498008728027 3.59525585174561 11.5350275039673 19.4064025878906 3.3369140625 2.28516435623169 1.74609887599945 2.0649561882019 2.00602698326111 1.85241866111755 1.98171615600586 1.64533758163452 1.34300374984741 0.573565900325775 1.08101320266724 2.15520310401917 3.36952590942383 6.36485290527344
39.0107383728027 0.228288009762764 21.3840560913086 37.3911323547363 14.3236227035522 10.5191383361816 1.89450919628143 1.2703572511673 1.09169602394104 1.1431006193161 1.81111621856689 1.18019330501556 1.2309318780899 1.1819041967392 1.16675746440887 1.19777238368988 0.899330615997314 0.84336930513382 0.817201972007751 0.825006783008575 0.948359787464142 1.00145614147186 2.24953556060791 2.2818067073822 2.63049697875977 1.86660373210907 1.3077677488327 16.353307723999 20.2082004547119 20.9472217559814 11.4954509735107 6.42171144485474 25.7667484283447 11.0466003417969 16.5551662445068 15.1975440979004 12.7665376663208 48.6904106140137 33.8932876586914 12.3724555969238 20.8485546112061 18.4683628082275 5.13507413864136 4.50236463546753 0.722656726837158 4.45267677307129 39.0981674194336 0.838188409805298 0.898762226104736 0.894387423992157 1.02900207042694 1.3189195394516 1.0596741437912 1.0709822177887 1.42710208892822 1.2780054807663 1.48320376873016 0.685221552848816 0.855959534645081 1.02654683589935 0.927838742733002 1.295565366745 1.28022444248199 1.33546078205109 1.91823816299438 8.59915828704834 11.0537300109863 12.348123550415 11.7620010375977 9.62459278106689 11.1468601226807 9.31952571868896 9.59750080108643 6.36929845809937 5.77011728286743 15.2689323425293 14.6093311309814 3.59640693664551 1.94866287708282 3.59452295303345 3.08056259155273 11.8145341873169 8.04540729522705 4.01905155181885 5.70131063461304 3.51805281639099 2.71935844421387 2.73000264167786 3.01081728935242 3.44625806808472 4.13872814178467 5.65616416931152 8.23714256286621 7.78884506225586 10.5729732513428 16.1339359283447 17.5408744812012 27.8584995269775 12.6103601455688 11.8930759429932 12.0780763626099 12.3546495437622 12.0710144042969 12.7250089645386 11.8153829574585 16.0909309387207 18.4893112182617 8.89540672302246 10.8082962036133 20.3161525726318 18.7129535675049 21.9168281555176 14.8062810897827 24.6350650787354 23.1644477844238 14.8147840499878 16.1912536621094 17.3277912139893 23.534704208374 22.7734127044678 28.6574325561523 20.1675090789795 20.3996963500977 35.7219696044922 17.2019462585449 26.5070896148682 15.1571741104126 6.93800592422485 6.39515447616577 7.01371192932129 7.27883148193359 5.90112447738647 5.40522527694702 6.21654844284058 6.54051065444946 6.99190711975098 7.01581716537476 7.06636190414429 7.04695749282837 7.10123014450073 7.57124710083008 7.42239856719971 7.81944370269775 8.01698398590088 8.04191875457764 8.0168285369873 7.78215837478638 7.84403514862061 7.38047218322754 7.26100158691406 6.73875761032104 34.6271705627441 33.0745582580566 10.9569149017334 5.78060817718506 2.61419415473938 2.52074313163757 2.88838577270508 3.01697945594788 3.62979960441589 2.5106246471405 1.76135003566742 1.14797937870026 1.71117615699768 1.59364235401154 1.42067086696625 1.02613496780396 0.956253111362457 1.05626308917999 0.73102080821991 0.841600239276886 1.26323044300079 3.11994743347168 4.92007732391357
20.5381450653076 17.6467113494873 1.00721669197083 15.0558767318726 18.3482227325439 1.65611279010773 0.0772319510579109 2.22350311279297 1.61502110958099 2.24937725067139 1.68232250213623 1.13290548324585 1.18478667736053 1.13923966884613 1.1495920419693 1.06322610378265 0.88407289981842 0.980760335922241 0.796498656272888 0.765271604061127 0.857035398483276 0.882163286209106 1.35186159610748 2.15353894233704 2.4348349571228 2.50872039794922 2.18451952934265 13.4163646697998 12.6731309890747 13.460597038269 10.297456741333 6.08088541030884 14.2617511749268 14.4092569351196 14.1506090164185 13.0334463119507 28.5601387023926 18.9528522491455 18.0064296722412 35.8405990600586 23.7228469848633 20.4568157196045 3.8816032409668 -1.07785725593567 -1.70431292057037 47.6394119262695 18.5804214477539 0.609232604503632 0.801364779472351 0.861468136310577 0.8676478266716 1.22339391708374 0.949731051921844 0.959973216056824 1.3220442533493 0.953129827976227 1.35458135604858 22.9612808227539 0.733690202236176 0.963223516941071 0.798776090145111 1.17939853668213 -0.790693342685699 -0.37022653222084 -0.0995973870158195 -0.832817316055298 5.55945253372192 5.64656686782837 19.8803157806396 8.78105163574219 9.59205436706543 5.48325443267822 4.98804521560669 3.52387428283691 3.81403279304504 14.5202198028564 16.3658618927002 0.614940941333771 1.9867023229599 3.21386909484863 2.82315850257874 5.1241888999939 6.61156749725342 2.28775000572205 4.77490186691284 2.93589377403259 2.72305297851562 2.60526752471924 2.72839331626892 3.25086379051208 3.76228785514832 4.7143931388855 7.07609176635742 6.79633617401123 9.06264019012451 7.24026107788086 10.897777557373 13.7980365753174 26.1295299530029 29.797290802002 27.9483299255371 25.4000091552734 9.80244636535645 10.1477613449097 10.8116426467896 14.3618698120117 19.601131439209 16.451868057251 10.3381900787354 17.7424793243408 27.4489097595215 17.756462097168 15.5420780181885 11.9107036590576 12.3080263137817 13.9879713058472 12.0021934509277 10.8624620437622 13.1430721282959 16.1144008636475 15.8782052993774 13.1848258972168 12.6025457382202 18.2952289581299 12.1442108154297 9.63064002990723 6.01579999923706 6.15147686004639 5.39073133468628 4.96374940872192 6.93408107757568 6.48956108093262 5.19179677963257 5.98253870010376 5.91148567199707 6.35571575164795 6.70228862762451 6.77722024917603 6.72846126556396 6.35666227340698 6.70642280578613 7.16001987457275 7.42073726654053 7.59806394577026 7.62796020507812 7.60422229766846 7.36877965927124 7.13522577285767 7.22168636322021 6.78699827194214 6.24693727493286 5.29538679122925 14.1762609481812 3.00704121589661 2.58379364013672 2.5384738445282 2.33915233612061 2.31251120567322 2.43308520317078 2.3376305103302 1.93804681301117 1.19088280200958 0.517394363880157 0.854004561901093 0.666815102100372 0.630668699741364 0.365012615919113 0.715385794639587 0.340096980333328 -0.000775850610807538 -0.0274033676832914 0.820130050182343 1.4330837726593 2.81537532806396
0.461089849472046 14.4433155059814 1.87283635139465 14.0686616897583 14.1709680557251 38.8979988098145 38.7278289794922 3.68572330474854 3.97277998924255 1.66618323326111 1.56854653358459 1.09990179538727 1.15960443019867 1.10683333873749 1.10079860687256 1.01410353183746 0.873521685600281 0.835791945457458 0.793047070503235 -0.649439871311188 -0.603945314884186 0.7241171002388 1.28210163116455 2.11204051971436 2.1403911113739 2.47528576850891 2.10658717155457 11.4870529174805 21.199089050293 20.3902645111084 9.20372200012207 3.52164363861084 5.53693866729736 11.2429523468018 12.2571487426758 11.355583190918 15.5713710784912 23.1973419189453 29.8937950134277 21.0395622253418 15.9680013656616 16.2191829681396 3.45287990570068 47.050537109375 19.766544342041 30.8327140808105 21.8313884735107 13.7351140975952 0.731868267059326 0.796039164066315 0.788302898406982 0.845386624336243 1.08150589466095 0.933742523193359 0.912166118621826 7.14080905914307 1.25314998626709 10.2979421615601 0.667822301387787 0.794228374958038 0.865244030952454 -0.821176469326019 -0.845251619815826 -0.55499666929245 -0.516662180423737 -0.97816401720047 -0.732989549636841 4.99477243423462 15.9785099029541 9.19569301605225 8.7153787612915 2.81366086006165 3.03360080718994 1.48136031627655 2.16199588775635 0.165897652506828 0.134230390191078 3.89682412147522 0.723848402500153 1.25514376163483 1.55695486068726 0.913825333118439 0.484892696142197 0.596043169498444 4.09200000762939 3.62082576751709 2.59233593940735 2.46902060508728 2.58794903755188 5.05966472625732 3.72710990905762 4.28022623062134 5.09146404266357 6.52316808700562 7.76136541366577 6.8077564239502 9.82933139801025 10.6573505401611 12.3259286880493 14.2654695510864 12.8040504455566 12.0524044036865 29.5012874603271 9.82446384429932 7.68154525756836 8.40475082397461 7.98936080932617 9.43574619293213 9.34478759765625 16.9636039733887 20.7274856567383 14.9715595245361 12.8613948822021 11.1329069137573 10.8879432678223 11.560905456543 11.279146194458 10.6848955154419 10.5620288848877 12.5964803695679 12.3062953948975 9.94437503814697 10.9243583679199 6.40649271011353 6.69553804397583 7.72219228744507 5.63534212112427 5.81303596496582 5.27674055099487 4.5699782371521 4.74377822875977 6.05154657363892 5.02527809143066 5.74056673049927 5.66012096405029 6.01263046264648 6.28752326965332 6.47400951385498 6.41775226593018 6.0645055770874 6.40905427932739 6.82000064849854 7.00908327102661 7.18161964416504 7.21423196792603 7.18810272216797 6.96842384338379 6.7345175743103 6.80342531204224 5.40439510345459 5.29353046417236 4.91594648361206 3.4061598777771 2.4614884853363 2.54340696334839 2.21539998054504 1.80582070350647 1.52153718471527 1.57611238956451 1.40893316268921 1.11424350738525 0.436988323926926 0.289514273405075 0.176895380020142 -0.209161683917046 0.325682610273361 -0.155662670731544 -0.320914447307587 21.4422836303711 24.9634857177734 32.5295257568359 0.560756623744965 27.6076507568359 1.83427894115448
13.1279773712158 11.1894769668579 6.13178396224976 8.72304725646973 11.5289764404297 22.7000484466553 22.1180248260498 2.3040144443512 2.41879177093506 1.0649710893631 1.46515989303589 1.03687369823456 1.03235447406769 1.09166753292084 1.07011067867279 -0.653574287891388 0.862971067428589 0.815585494041443 0.750300109386444 -1.03301727771759 7.97719669342041 0.604614555835724 0.595356285572052 1.2571188211441 1.47466278076172 1.961629986763 1.90905511379242 10.1522741317749 12.6915063858032 13.0662126541138 10.3444185256958 6.10412502288818 5.16643810272217 9.27423191070557 8.68671417236328 10.7687454223633 9.87938404083252 14.5253849029541 16.2279491424561 16.5509834289551 13.4069185256958 13.4665613174438 5.69581651687622 31.6894702911377 45.5769157409668 7.02235507965088 22.3277912139893 11.6877784729004 0.652232348918915 0.736186861991882 0.71919709444046 0.795652151107788 1.07631361484528 0.889092862606049 0.832459151744843 2.44581246376038 1.20091652870178 1.11346924304962 6.23102045059204 0.752861022949219 -0.476289451122284 0.0672226920723915 -0.927917897701263 -0.882489562034607 -0.655771672725677 -0.917186498641968 5.51811265945435 3.79969620704651 2.57828116416931 3.20728063583374 0.976669311523438 2.02601194381714 1.32741272449493 0.53095418214798 -0.106942437589169 5.99353742599487 12.3602046966553 -0.155627325177193 -0.0819685012102127 0.428714275360107 0.517045259475708 0.859917819499969 1.21284675598145 3.56602549552917 2.54595732688904 3.63672924041748 2.45747518539429 2.35247468948364 2.76813077926636 2.9788703918457 3.63596391677856 5.72611951828003 4.88591289520264 5.65548133850098 5.8499927520752 6.73282432556152 8.31082725524902 9.78212451934814 10.5827054977417 11.8333120346069 11.5034923553467 11.2648553848267 15.240216255188 17.3033847808838 9.80322456359863 8.31322002410889 7.7497992515564 16.6531391143799 16.0216846466064 7.31537103652954 11.4564123153687 12.9557046890259 3.4239284992218 4.5908727645874 6.80971479415894 8.49190521240234 10.9661321640015 17.8703269958496 10.5515508651733 9.9567232131958 9.90384674072266 8.34058094024658 10.1668043136597 10.9580869674683 14.4021806716919 11.367938041687 18.5518169403076 23.7954139709473 5.13579988479614 4.36357259750366 4.32082319259644 5.8053617477417 4.8951301574707 5.4682297706604 5.3549108505249 5.63517570495605 5.94079399108887 6.0022931098938 6.10260915756226 5.79209280014038 6.12643241882324 6.51757907867432 6.63430070877075 6.80157375335693 6.83562326431274 6.79704093933105 6.59617805480957 6.35954713821411 6.42259979248047 4.99746370315552 4.78201818466187 4.48950815200806 2.4413468837738 2.55288743972778 1.75867795944214 1.47927808761597 1.14200222492218 0.63004869222641 0.777262926101685 0.658864140510559 0.49699005484581 0.139493107795715 -0.320823311805725 -0.398909986019135 1.57924234867096 -0.940746068954468 9.42808246612549 24.641357421875 1.884894490242 8.7052173614502 6.20928001403809 25.932731628418 5.15925216674805 2.10947632789612
16.5591239929199 9.02176856994629 4.54638719558716 7.27222061157227 8.89926624298096 8.47023677825928 14.7637529373169 14.2119636535645 1.03840184211731 1.02560698986053 1.4133712053299 0.996323645114899 1.01118803024292 1.07512199878693 -0.192384734749794 19.5249137878418 -0.560390591621399 -0.893267631530762 -1.42385041713715 -1.58235168457031 -1.293532371521 -0.9972864985466 0.529714941978455 1.18884420394897 1.079216837883 1.25338304042816 1.33911526203156 9.01913547515869 11.386739730835 11.657772064209 9.47810173034668 7.19535350799561 4.84003353118896 8.12495708465576 7.61983728408813 9.6462984085083 8.86937522888184 10.9164705276489 13.306981086731 13.581395149231 11.1534042358398 11.4422636032104 9.93046283721924 5.94175672531128 28.3429088592529 23.1193141937256 17.635612487793 9.63974285125732 1.12371003627777 0.693222284317017 0.647469818592072 0.761401295661926 1.05657958984375 0.880450367927551 0.815090417861938 1.08943378925323 0.951885163784027 1.0772168636322 0.317947298288345 -0.558652281761169 -0.696443676948547 -0.432286769151688 19.7917995452881 19.3268184661865 14.983606338501 7.92409086227417 -1.1746472120285 2.66155433654785 2.00618147850037 14.3468952178955 1.66266548633575 0.680040180683136 0.43827760219574 -0.155067145824432 2.93730401992798 1.12223744392395 0.146312460303307 1.71546292304993 1.29473698139191 0.101868025958538 0.175792545080185 0.563502907752991 0.344863742589951 0.48702135682106 3.61103272438049 3.25504970550537 2.86773300170898 5.34226989746094 2.58063197135925 2.68290853500366 3.46919512748718 3.80601167678833 4.15273141860962 5.1332106590271 4.5407280921936 6.02440118789673 7.81229066848755 9.21572017669678 10.0807828903198 11.2110528945923 10.84938621521 10.7787017822266 10.6977519989014 9.5463171005249 18.4614295959473 17.7679595947266 11.1548299789429 8.74140453338623 7.56733369827271 6.64096069335938 5.38160371780396 3.04625225067139 2.68709754943848 4.10042285919189 4.30801057815552 6.13225173950195 8.71755981445312 10.5117511749268 10.7474279403687 8.87849998474121 8.30740547180176 5.98484659194946 6.33310222625732 7.47740983963013 12.3495645523071 8.20157814025879 13.0806303024292 17.4109535217285 17.0777015686035 4.65080118179321 3.97479772567749 3.38455414772034 4.51006126403809 4.43996572494507 5.07484197616577 5.2859058380127 5.57970094680786 5.53431701660156 5.76757192611694 5.71094512939453 5.85415887832642 6.23125553131104 6.29556035995483 6.44694375991821 6.22661638259888 6.36109685897827 6.33178377151489 6.13161993026733 4.50218725204468 4.68302345275879 10.539758682251 4.52892112731934 22.3075141906738 1.81939625740051 1.05981814861298 0.65244460105896 0.76837170124054 0.262222856283188 0.49548926949501 0.27226585149765 0.203397899866104 -0.533837735652924 -0.524910032749176 -1.67439424991608 -0.476173400878906 33.9334411621094 -0.219960331916809 15.2278490066528 18.045093536377 12.6862087249756 25.5433006286621 23.4983196258545 6.54818391799927 1.40897142887115
13.2660942077637 7.68266105651855 3.64419388771057 6.17719125747681 7.45298147201538 7.12616491317749 11.3351364135742 10.8849925994873 0.990018129348755 0.987246036529541 0.989044725894928 1.34983861446381 -0.588116765022278 -0.305551171302795 -0.755505323410034 9.40074157714844 -0.592419862747192 6.93982124328613 0.713469266891479 1.24358487129211 0.626644849777222 9.57908153533936 0.524573087692261 0.511212408542633 0.854393005371094 1.22880530357361 1.25442790985107 1.37018203735352 7.88754177093506 10.1211652755737 10.1063566207886 6.62832260131836 4.534339427948 7.24180936813354 6.47945928573608 8.77625560760498 8.0343713760376 8.25299644470215 11.2638864517212 11.5041313171387 9.67707061767578 9.91986846923828 8.95175266265869 1.96319079399109 17.061544418335 18.9953842163086 15.0172710418701 8.34525394439697 1.88603472709656 0.660793125629425 0.627074241638184 0.728881478309631 1.03302907943726 0.875805199146271 0.80952388048172 -0.323838233947754 7.57405424118042 0.305950999259949 -0.137847229838371 6.39452600479126 7.14461803436279 14.5672416687012 7.44817924499512 15.4926900863647 3.48512029647827 5.03406810760498 22.2091217041016 16.5868816375732 1.76684641838074 2.39672899246216 1.53278768062592 14.8587579727173 4.37101221084595 -0.375745296478271 -0.0524621978402138 6.60585117340088 9.72434902191162 7.37194061279297 3.27935838699341 -0.0316248573362827 -0.180629625916481 -0.000833590980619192 -0.103581644594669 0.375904381275177 8.94632720947266 2.89634490013123 2.29848456382751 2.1286084651947 2.25199174880981 2.55509281158447 2.87405610084534 3.28329753875732 3.81841659545898 4.7351713180542 4.5210747718811 5.44606494903564 6.37884664535522 8.66425800323486 9.47160148620605 10.6135063171387 10.316596031189 10.2748889923096 10.2351484298706 9.51884746551514 11.0358848571777 9.25610542297363 8.37837505340576 7.57582664489746 7.03575897216797 3.8545081615448 4.56185579299927 2.89702296257019 9.14142608642578 3.44169282913208 4.18564891815186 5.17273092269897 8.19029903411865 9.72893524169922 7.72454166412354 8.82128143310547 9.51399230957031 14.8906002044678 5.86268663406372 6.59131765365601 7.08144760131836 5.77832269668579 14.1687898635864 12.07213306427 5.19300270080566 17.5854873657227 3.63316035270691 3.34814882278442 2.8379008769989 4.16887998580933 4.77973985671997 4.92361736297607 5.24348402023315 5.1976752281189 5.45867395401001 5.41371583938599 5.58232927322388 5.9513144493103 5.7690601348877 5.86549997329712 6.00878620147705 6.05807542800903 5.98756837844849 5.73221445083618 33.4005546569824 4.11938238143921 4.87863922119141 4.18957328796387 6.95852327346802 1.62688863277435 0.814330041408539 0.239201962947845 0.342852354049683 -0.247229546308517 -0.372129589319229 -0.338136374950409 -0.993914544582367 -1.03080058097839 -1.15526330471039 31.5988807678223 -0.83821702003479 10.5037097930908 -0.241920754313469 0.0995918139815331 9.24774360656738 14.3892469406128 13.5839614868164 11.5050535202026 0.507932960987091 1.05577874183655
11.1003284454346 6.79174089431763 3.102299451828 0.782805442810059 6.36332988739014 3.60142421722412 9.31505107879639 8.58028221130371 0.948390662670135 0.979122877120972 0.962685585021973 -0.843974530696869 -0.620516657829285 -0.764907658100128 16.9913120269775 -0.616694271564484 5.34375143051147 0.720200061798096 30.2285003662109 3.85055017471313 -1.4530074596405 -1.32748711109161 0.25410869717598 0.304726004600525 0.709463894367218 1.20617020130157 1.22641277313232 1.04556226730347 7.22857475280762 9.3098840713501 9.22743129730225 6.74020624160767 2.18341732025146 5.19073247909546 6.332848072052 8.15532493591309 7.37202501296997 6.13519954681396 9.73673915863037 9.94537448883057 8.9058723449707 8.27114963531494 8.44105339050293 1.69606256484985 14.2105436325073 16.0472164154053 13.2220411300659 -0.917844593524933 -1.1766232252121 1.03229868412018 0.679025590419769 0.644151389598846 1.00780093669891 -0.674244999885559 -0.327297240495682 23.8901138305664 0.282088726758957 0.0232859905809164 3.32451128959656 2.20937752723694 2.69879698753357 0.242735281586647 15.0132369995117 2.02428388595581 -0.431336790323257 1.57357215881348 10.0214920043945 9.17297458648682 21.8626327514648 17.8991966247559 2.42010831832886 -0.115143701434135 1.9853926897049 1.84017133712769 -0.507590293884277 0.555692195892334 -0.312810510396957 -0.147646963596344 -0.362822890281677 -0.332717627286911 -0.314728885889053 -0.0612962208688259 10.5956754684448 0.404187887907028 5.32682323455811 2.57488894462585 2.3513081073761 2.10650086402893 2.25355887413025 2.35800957679749 2.74768400192261 3.09615302085876 3.54852175712585 3.97943019866943 4.45721530914307 4.81900024414062 5.35717630386353 7.20467138290405 8.86779499053955 9.64762306213379 9.82907676696777 9.62904834747314 9.6100549697876 9.00362968444824 8.72317504882812 7.39108800888062 7.89785099029541 5.37314128875732 5.10692358016968 12.9495973587036 3.06667876243591 6.07422924041748 2.45560455322266 3.4391827583313 4.15682172775269 5.02472162246704 5.8018651008606 9.08253002166748 7.24447774887085 6.75656175613403 10.1727819442749 9.61658096313477 4.87298488616943 5.3639988899231 5.27638339996338 5.51437950134277 5.46598625183105 4.80330657958984 9.43979167938232 4.38168001174927 3.63079237937927 3.33697772026062 2.3752760887146 2.20648121833801 4.48202991485596 4.36127042770386 4.62411403656006 4.886643409729 5.19168853759766 5.12742567062378 4.93665266036987 5.24059963226318 5.59131526947021 5.57402801513672 5.71306324005127 5.77213573455811 5.70688343048096 4.39164924621582 3.91668176651001 6.34649085998535 3.86609625816345 3.01475381851196 2.44685983657837 1.47586011886597 0.842392206192017 12.2473821640015 15.0515041351318 -0.30432665348053 -0.511842608451843 6.98528003692627 27.7932605743408 36.9692001342773 25.1475009918213 2.00981092453003 -1.4634462594986 -0.915232181549072 13.1722269058228 -0.00757911242544651 8.26987934112549 8.1970100402832 9.48582077026367 8.18725776672363 0.279521614313126 0.968731582164764
9.51080799102783 1.83309102058411 6.09680414199829 0.868493914604187 5.14403676986694 5.80725002288818 7.75396919250488 7.18096733093262 0.947881400585175 -0.393067121505737 -0.774351894855499 -0.812875747680664 -0.887363493442535 -0.79615306854248 9.37984466552734 -0.916372954845428 0.382567882537842 -0.567848801612854 10.0745620727539 31.2044982910156 4.66784429550171 5.56668519973755 3.86611700057983 0.221269711852074 0.697573363780975 0.737655520439148 1.20094132423401 0.9192014336586 6.65185976028442 8.56935119628906 8.4247932434082 7.35091400146484 4.47393751144409 3.9403715133667 5.78513526916504 5.7101263999939 7.41260290145874 6.71500587463379 7.91248512268066 8.37624835968018 8.48542881011963 7.38686084747314 7.56327533721924 3.88459801673889 12.0393228530884 13.7819519042969 11.5673704147339 32.3387222290039 10.5648431777954 -0.691780984401703 0.650365710258484 0.621038675308228 -0.683910667896271 3.21964192390442 -0.81385338306427 10.6630640029907 0.0774604380130768 39.6500473022461 5.73678493499756 -1.0865763425827 1.34412860870361 0.821028172969818 -1.38218021392822 -1.03584563732147 5.26390075683594 -0.0983852371573448 2.88242268562317 5.02244567871094 10.610068321228 8.03736686706543 8.59365558624268 16.6534652709961 0.078256256878376 -0.967728853225708 -1.02392363548279 -1.02150511741638 -1.04552602767944 -0.837550282478333 5.88798475265503 -1.12034106254578 16.3795719146729 17.9205150604248 -0.266074180603027 2.97382426261902 0.861831784248352 1.60382473468781 2.35887479782104 2.00005698204041 2.09190583229065 2.17787146568298 2.44193696975708 2.7870922088623 3.26083469390869 3.77987766265869 4.21504592895508 4.24699783325195 5.10039710998535 6.7161078453064 7.67885303497314 8.37477397918701 9.33509063720703 9.01474666595459 8.97265815734863 8.98014068603516 8.27446269989014 7.10014581680298 7.37344360351562 4.61056756973267 3.96726536750793 3.94297885894775 2.38725471496582 3.37512588500977 2.36903524398804 11.5936822891235 6.83836317062378 20.6443672180176 5.61986780166626 6.05480051040649 6.91586542129517 5.77828884124756 7.28143072128296 6.13282585144043 4.57406044006348 4.82947874069214 5.02300548553467 5.18123483657837 4.5598316192627 8.55324077606201 5.08193159103394 4.37842702865601 3.3982400894165 2.95244765281677 1.72271704673767 2.03253817558289 2.39962100982666 4.10762023925781 4.39421319961548 4.6173529624939 4.95252418518066 4.87261819839478 4.69921207427979 5.00638484954834 5.35802984237671 5.3062801361084 5.43258285522461 5.48955774307251 5.42137908935547 3.56154465675354 8.68154335021973 4.78079652786255 3.39518094062805 2.49555945396423 2.11545562744141 1.44083309173584 8.2817440032959 0.0650512427091599 0.197065263986588 8.31571865081787 22.7890319824219 3.78044533729553 19.9360656738281 2.55359649658203 15.2161197662354 17.760570526123 25.423770904541 0.782936811447144 7.89312219619751 0.649039804935455 10.3810844421387 16.1977481842041 11.2437171936035 7.6736307144165 35.402645111084 0.80600368976593
