NCOLS 172
NROWS 32
XLLCORNER 353808
YLLCORNER 6700928
CELLSIZE 16 
NODATA_value -3.4e+38 
0.617810308933258 0.623683214187622 0.546084642410278 0.35589337348938 0.0824573338031769 -0.22730715572834 -0.685038506984711 -1.28802525997162 -1.79285514354706 -2.12892723083496 -2.44543361663818 -2.99737691879272 -3.20099449157715 -3.18229699134827 -3.14160442352295 0.702431082725525 1.83464848995209 3.51025128364563 1.97887647151947 -1.06496632099152 -2.50760507583618 -2.56932306289673 -0.227012768387794 -1.90300250053406 -2.27055478096008 -2.14968347549438 -2.20617771148682 -2.31719565391541 -2.41013622283936 -2.58126616477966 -2.82617878913879 -2.77243590354919 -2.73025155067444 -2.6109824180603 -2.4669177532196 -2.35717988014221 -0.330288022756577 3.46328806877136 5.8821702003479 0.772758781909943 -0.776707053184509 -0.603633165359497 0.025230610743165 4.45022535324097 9.76797962188721 12.7128114700317 10.5092821121216 8.79223823547363 7.31693506240845 6.37012004852295 4.94497728347778 2.55722403526306 0.907503247261047 1.35950434207916 1.94512414932251 1.90106439590454 0.955318331718445 0.208126470446587 -0.111561007797718 -0.0177495405077934 0.0904014334082603 0.135908901691437 0.204931855201721 0.0817677304148674 -0.00341177172958851 -0.0752723217010498 -0.148769736289978 -0.226736173033714 -0.363407462835312 -0.385869234800339 -0.396622687578201 -0.407221794128418 -0.411029100418091 -0.414883762598038 -0.404355496168137 -0.0555025860667229 -0.310826271772385 0.0703427195549011 0.182278007268906 0.221547454595566 0.165786936879158 0.228765740990639 0.540115296840668 0.755365371704102 0.628021597862244 0.707114934921265 0.68372368812561 1.08780145645142 1.28502452373505 1.67736840248108 1.97344470024109 2.06884741783142 2.26364827156067 2.24346685409546 2.36928153038025 2.83928894996643 2.77611422538757 2.96309471130371 3.04572510719299 3.02521514892578 2.99022078514099 2.84241509437561 2.75398421287537 2.81528067588806 2.73494553565979 2.80409812927246 2.72679615020752 2.74700164794922 2.71697449684143 2.7528817653656 2.67320537567139 2.82871150970459 2.78267598152161 2.76285266876221 2.81985569000244 2.92793440818787 2.8154182434082 2.83201432228088 2.73312902450562 2.60266137123108 2.53844046592712 2.38765478134155 2.30791115760803 2.27829599380493 3.73795485496521 4.69577169418335 5.42496538162231 4.67870950698853 3.96556973457336 3.00414776802063 2.71224093437195 2.96089315414429 3.13869953155518 3.30041837692261 3.33904147148132 3.39573907852173 3.34795427322388 3.19534826278687 3.00458312034607 2.74767565727234 2.52875900268555 2.45238065719604 2.38096690177917 2.38585114479065 2.41336059570312 2.33479189872742 2.35136866569519 2.37947463989258 2.42863154411316 2.46740126609802 2.50268816947937 2.5035138130188 2.51704931259155 2.55627989768982 2.61256885528564 2.69667935371399 2.93343615531921 3.22461342811584 3.32033181190491 3.33035182952881 3.41813087463379 3.52526640892029 3.9085910320282 4.86943244934082 5.83358192443848 6.09626007080078 6.05045318603516 6.07298564910889 5.95384454727173 5.92391538619995 5.83303785324097 5.67999935150146
0.66452157497406 0.617312610149384 0.549085795879364 0.42806687951088 0.231366857886314 -0.0703926682472229 -0.504682183265686 -1.14856863021851 -1.63366949558258 -1.93623232841492 -2.36161184310913 -2.96643209457397 -2.98159861564636 -3.05380129814148 -3.10956406593323 3.24825716018677 7.51988649368286 4.40039443969727 2.17406678199768 -1.15821027755737 -2.43197131156921 -2.54506635665894 -2.39787244796753 2.11269998550415 -1.902592420578 -1.87932217121124 -1.9135776758194 -2.17964720726013 -2.40585541725159 -2.62119698524475 -2.67998766899109 -2.6293032169342 -2.57230877876282 -2.45174384117126 -2.3272807598114 -2.27819347381592 0.670598447322845 1.59008026123047 1.4968193769455 -0.752653241157532 -0.587469220161438 -0.642467856407166 1.98990094661713 3.72237229347229 10.9572315216064 17.12135887146 15.1967315673828 9.88440895080566 8.49858093261719 5.83506488800049 5.52955150604248 2.88420009613037 1.7304128408432 2.78532242774963 3.86183047294617 3.01667642593384 1.4546924829483 -0.00161738879978657 0.177221357822418 0.231874346733093 0.279893428087234 0.300673842430115 0.26338917016983 0.0791592597961426 -0.0221129935234785 -0.0898825749754906 -0.160725191235542 -0.273835837841034 -0.35266038775444 -0.364100456237793 -0.372664749622345 -0.383482754230499 -0.391488820314407 -0.400715529918671 -0.391441732645035 0.00557344267144799 0.192210614681244 0.239259257912636 0.299654066562653 0.284720242023468 0.254750996828079 0.245567932724953 0.484240472316742 0.961014807224274 1.06122827529907 0.722335934638977 0.807297348976135 1.01277351379395 0.98241800069809 1.15298676490784 1.64845335483551 1.84263479709625 2.17622637748718 2.34967017173767 2.36811661720276 2.67238569259644 2.52001142501831 2.91870713233948 3.22100758552551 3.32814645767212 3.19367551803589 3.0635678768158 3.13481211662292 3.027188539505 2.90242433547974 3.01035451889038 3.05219435691833 2.9921703338623 2.97906994819641 3.02351498603821 3.02530765533447 3.10212349891663 3.02155423164368 2.96275973320007 2.99055123329163 2.90824317932129 2.92961740493774 2.82882523536682 2.77880167961121 2.69405603408813 2.57479929924011 2.45507121086121 2.29605150222778 2.19930195808411 2.22298550605774 3.49210166931152 5.12237644195557 6.08927869796753 4.76524114608765 3.5758376121521 2.77893209457397 3.18801689147949 3.41467881202698 3.44312214851379 3.50345540046692 3.45651650428772 3.30103850364685 3.12704873085022 2.98457479476929 2.80883717536926 2.61770057678223 2.52075052261353 2.5280818939209 2.52889251708984 2.45145750045776 2.4488205909729 2.49264049530029 2.51618695259094 2.53673052787781 2.61286616325378 2.65874314308167 2.69141244888306 2.72490763664246 2.76943278312683 2.74801993370056 2.89760661125183 3.09430885314941 3.33871459960938 3.48501014709473 3.56162285804749 3.67361497879028 4.02845573425293 4.67204093933105 6.09364604949951 6.36139059066772 6.30639219284058 6.34039926528931 6.22954750061035 6.16488027572632 6.10024118423462 5.9262580871582 5.6931324005127
0.66094172000885 0.628625392913818 0.654518902301788 0.54985785484314 0.384869664907455 0.0680658593773842 -0.323056697845459 -0.849201083183289 -1.41963744163513 -1.76750671863556 -2.21125960350037 -2.8250584602356 -2.87328433990479 -2.94070506095886 -3.04443287849426 -2.93297648429871 3.68899512290955 1.06592106819153 1.99215173721313 0.530630648136139 -2.26429128646851 -2.35452246665955 -2.24077868461609 6.38055610656738 0.589239239692688 -1.67757952213287 -1.6811363697052 -1.99239993095398 -2.27696013450623 -2.44034075737 -2.48986196517944 -2.50784111022949 -2.33080530166626 -2.29633975028992 -2.2476179599762 -2.02343773841858 -1.69858193397522 0.912151575088501 -0.362085431814194 -0.662151277065277 -0.572052597999573 -0.834579288959503 -1.16564249992371 -1.58572387695312 -1.49035203456879 5.98904466629028 14.278697013855 10.9468221664429 9.02327537536621 7.17418909072876 6.8627028465271 4.07353925704956 3.4864718914032 6.17286205291748 9.293776512146 3.20113468170166 1.03217840194702 0.277664959430695 0.357896000146866 0.49990126490593 0.402261704206467 0.348430931568146 0.264219731092453 0.16827130317688 0.0190672855824232 -0.0669486448168755 -0.176875725388527 -0.286078631877899 -0.335446387529373 -0.354301303625107 -0.363137036561966 -0.36822110414505 -0.381894111633301 -0.384889155626297 -0.227032080292702 0.255314141511917 0.348871946334839 0.424047201871872 0.295312911272049 0.334582567214966 0.368203580379486 0.218575149774551 0.246644571423531 0.602044880390167 1.07904350757599 0.932430982589722 0.973532974720001 1.01240766048431 1.04985845088959 1.15080118179321 1.23691999912262 1.68151831626892 1.99348318576813 2.04356384277344 2.34170484542847 2.49324107170105 2.43521094322205 2.7402937412262 2.98226404190063 3.31716227531433 3.31747317314148 3.52463173866272 3.40783929824829 3.24385333061218 3.04927802085876 3.29948687553406 3.35293817520142 3.24663281440735 3.35802507400513 3.35664319992065 3.34100103378296 3.307461977005 3.31644892692566 3.20407891273499 3.08780407905579 3.04583978652954 2.99877595901489 2.98336553573608 2.89763569831848 2.79005479812622 2.65834426879883 2.5736026763916 2.43066549301147 2.27291822433472 2.20912885665894 2.28089237213135 2.99090480804443 5.61964559555054 6.15651607513428 4.12437105178833 3.11178588867188 3.28762865066528 3.5434193611145 3.60633897781372 3.5567033290863 3.40096187591553 3.24066781997681 3.09779238700867 3.01223039627075 2.8587121963501 2.72662329673767 2.67659258842468 2.66220545768738 2.60293173789978 2.610023021698 2.60900568962097 2.63293075561523 2.65401577949524 2.71539044380188 2.72321271896362 2.75620818138123 2.78120279312134 2.8061408996582 2.89139366149902 3.0927369594574 3.25601363182068 3.46528077125549 3.57753753662109 3.57689738273621 3.65734910964966 3.91159248352051 4.31804656982422 5.23411226272583 6.29372215270996 6.64022254943848 6.68406677246094 6.53722715377808 6.44895839691162 6.36610841751099 6.20293569564819 5.98473978042603 5.62877321243286
0.683860719203949 0.717113852500916 0.643252670764923 0.612533211708069 0.480806052684784 0.210970804095268 -0.180869042873383 -0.635866820812225 -1.13351082801819 -1.60114669799805 -2.07695269584656 -2.67103147506714 -2.70560646057129 -2.68799352645874 -2.79099225997925 -2.71765470504761 0.441210895776749 -2.29652237892151 -2.20542001724243 1.63202655315399 2.0774519443512 -2.19065380096436 -2.06237149238586 2.06950306892395 3.99199485778809 -0.761671841144562 -1.54872691631317 -1.69429838657379 -1.94801461696625 -2.18702530860901 -2.18665218353271 -2.18396663665771 -2.1428062915802 -2.10276031494141 -1.90542471408844 -1.68584311008453 -1.29493498802185 -0.650934636592865 -0.591280221939087 -0.447343528270721 -0.699051260948181 -1.05772078037262 -1.51603317260742 -1.59780740737915 -1.87047684192657 -0.682635962963104 6.11127281188965 5.76175308227539 3.74940061569214 4.46330451965332 5.71852922439575 5.23346424102783 5.00134801864624 6.67712497711182 12.5533771514893 10.9493732452393 0.598215162754059 0.491190075874329 0.521851599216461 0.510775864124298 0.572985053062439 0.37385019659996 0.379380375146866 0.447537958621979 0.366397529840469 0.0528263635933399 -0.156795367598534 -0.234338566660881 -0.309354722499847 -0.344063967466354 -0.358832359313965 -0.366184771060944 -0.371777921915054 -0.383299201726913 -0.378032743930817 0.474688053131104 0.67655748128891 0.58604109287262 0.462894171476364 0.413115471601486 0.405672758817673 0.321234375238419 0.275616854429245 0.383796364068985 0.715082883834839 1.02026689052582 1.22746169567108 1.17338931560516 1.19881069660187 1.20420336723328 1.31137955188751 1.47010624408722 1.89104771614075 1.89448249340057 2.07494258880615 2.35399031639099 2.40345740318298 2.4042809009552 2.56524610519409 3.00903391838074 2.9652943611145 3.4936466217041 3.64232635498047 3.36557126045227 2.85034584999084 3.34785223007202 3.45474672317505 3.68834066390991 3.78271508216858 3.67619514465332 3.67646312713623 3.71662616729736 3.44413566589355 3.43763494491577 3.2667396068573 3.18391036987305 3.09743547439575 3.02989149093628 2.93987607955933 2.81446528434753 2.77638101577759 2.71787285804749 2.60206294059753 2.44183897972107 2.37714099884033 2.27349138259888 2.25949382781982 2.51438927650452 4.88281583786011 5.09579372406006 3.59079957008362 3.59672999382019 3.62165474891663 3.66758441925049 3.52209424972534 3.36624217033386 3.21789169311523 3.10781121253967 2.99563121795654 2.87621855735779 2.88714599609375 2.87668657302856 2.82630705833435 2.82488012313843 2.80002999305725 2.80904221534729 2.85148525238037 2.9565863609314 2.92258930206299 2.91630005836487 2.92450523376465 2.9608747959137 3.00590300559998 3.06235861778259 3.31791186332703 3.69772553443909 3.77489972114563 3.74644827842712 3.83637189865112 3.98111319541931 4.43298149108887 5.53487968444824 6.60579490661621 6.87912750244141 6.80103969573975 6.84506893157959 6.78912401199341 6.67470836639404 6.49690818786621 6.32273006439209 6.08008432388306 5.46593999862671
0.76214998960495 0.693036139011383 0.669092953205109 0.628355383872986 0.548742890357971 0.344336152076721 0.0200542770326138 -0.399801075458527 -0.893620193004608 -1.37830293178558 -1.91519558429718 -2.32673192024231 -2.43721342086792 -2.50085639953613 -2.58869767189026 -2.47496247291565 0.402440369129181 -2.06837821006775 -2.2141854763031 -2.20595407485962 3.62454080581665 -0.579328536987305 -1.84290611743927 -1.79351997375488 -0.739555716514587 -0.887584269046783 -1.47859787940979 -1.55216073989868 -1.6603696346283 -1.81488215923309 -1.92711842060089 -1.88874554634094 -1.87367129325867 -1.6928528547287 -1.52245378494263 -1.20257484912872 -0.747469782829285 -0.545833945274353 -0.287319332361221 -0.438381612300873 -0.805691123008728 -1.02219998836517 -1.41604340076447 -1.73736453056335 -1.96126389503479 -1.11228847503662 3.73564648628235 6.12122344970703 2.53731846809387 0.867343008518219 -0.424327313899994 -1.33187091350555 -1.17113316059113 0.683646440505981 5.31375455856323 9.64396095275879 1.75583803653717 0.585390746593475 0.639117419719696 0.643895447254181 0.544328927993774 0.586842656135559 0.63739150762558 0.674998939037323 0.674476206302643 0.387473970651627 -0.0599813349545002 -0.187914222478867 -0.269073009490967 -0.329067438840866 -0.352757036685944 -0.366594761610031 -0.370489746332169 -0.375309586524963 -0.384137719869614 0.00053126405691728 0.756176650524139 0.793020308017731 0.650318801403046 0.488715499639511 0.389019727706909 0.400968879461288 0.467108845710754 0.600111186504364 0.734332501888275 0.869824349880219 1.25816905498505 1.50263011455536 1.44759297370911 1.36395347118378 1.50042617321014 1.54502665996552 1.68613636493683 1.99844324588776 2.1851327419281 2.2430522441864 2.36640286445618 2.42491126060486 2.40420484542847 2.50810074806213 2.57050132751465 3.34873795509338 3.56546092033386 3.20170855522156 2.75461483001709 2.77151107788086 3.16031265258789 3.58818960189819 4.05350112915039 4.1115288734436 4.35137891769409 4.129075050354 3.85061883926392 3.44997382164001 3.42516946792603 3.29396677017212 3.19800209999084 3.09252262115479 2.9898989200592 2.90378093719482 2.91006803512573 2.82918834686279 2.78693270683289 2.66133117675781 2.52070593833923 2.40457248687744 2.45123624801636 2.58549499511719 2.90288329124451 4.00415468215942 4.06623554229736 3.8564760684967 3.80637216567993 3.8069953918457 3.64941215515137 3.50879955291748 3.25579357147217 3.1805408000946 3.09347176551819 3.05806994438171 3.02830076217651 3.01385021209717 2.97094249725342 2.9967041015625 3.02694630622864 3.04000234603882 3.10505676269531 3.15071892738342 3.13366770744324 3.13817191123962 3.16746950149536 3.21978545188904 3.20674204826355 3.35688376426697 3.55209851264954 3.78416752815247 3.99975562095642 4.05021476745605 4.16817378997803 4.57451248168945 5.29914999008179 6.97596025466919 7.25471878051758 7.176100730896 7.22487783432007 7.10252857208252 6.98708820343018 6.86012744903564 6.70453310012817 6.45286273956299 6.09486818313599 5.59493970870972
0.742605268955231 0.72713714838028 0.690665483474731 0.626725912094116 0.572516024112701 0.429075092077255 0.198660850524902 -0.16094084084034 -0.638938784599304 -1.13654255867004 -1.76522517204285 -2.0348379611969 -2.22054862976074 -2.23711037635803 -2.30314230918884 -2.18861961364746 -0.540656208992004 -1.87398815155029 -1.98675763607025 -2.16774821281433 -1.99138200283051 -0.853977501392365 -1.61203396320343 -1.61679565906525 -1.5043044090271 -1.36957287788391 -1.40300607681274 -1.48898220062256 -1.5346839427948 -1.52175903320312 -1.55294299125671 -1.51649796962738 -1.51690101623535 -1.39554738998413 -1.07156479358673 -0.773331940174103 -0.425847709178925 -0.146086916327477 -0.129697158932686 -0.354446649551392 -0.736720144748688 -1.18789708614349 -1.3482837677002 -1.74429106712341 -2.19406127929688 -2.31244707107544 -2.16278123855591 -1.67549610137939 -0.188916802406311 -0.446948200464249 -0.823827505111694 -1.08556020259857 -0.91603672504425 -0.568485796451569 -0.0923656150698662 3.79032325744629 0.928935170173645 0.679693996906281 0.674227178096771 0.61358231306076 0.72358375787735 0.764625608921051 0.84285831451416 0.911458313465118 0.866452753543854 0.684878528118134 0.116917446255684 -0.137792527675629 -0.234276160597801 -0.298948466777802 -0.346800357103348 -0.362480968236923 -0.372395545244217 -0.373406082391739 -0.342873722314835 -0.177731394767761 0.530794858932495 0.944888174533844 0.757016837596893 0.613053858280182 0.461341977119446 0.479899734258652 0.554065346717834 0.708607494831085 0.894829392433167 1.00272870063782 1.08003807067871 1.47128093242645 1.68958234786987 1.58833956718445 1.55155372619629 1.6927832365036 1.71038687229156 1.92419075965881 2.27048826217651 2.33621978759766 2.40808010101318 2.51529216766357 2.536297082901 2.46310901641846 2.35257697105408 2.72162914276123 3.17501878738403 3.0646824836731 2.78939342498779 2.82410740852356 3.04181408882141 3.2886426448822 3.87159562110901 4.14762878417969 4.5753960609436 4.71798849105835 4.2537522315979 3.66240048408508 3.51126050949097 3.48350954055786 3.31651067733765 3.11160063743591 3.04179525375366 3.07594013214111 3.03219366073608 2.97477388381958 2.93952322006226 2.79112219810486 2.66768980026245 2.57170176506042 2.66424775123596 2.82195401191711 3.12761783599854 3.42198967933655 3.83443164825439 4.05312490463257 4.12413311004639 3.92987060546875 3.76823854446411 3.55387997627258 3.321702003479 3.34081602096558 3.31207680702209 3.28012943267822 3.24103832244873 3.21772813796997 3.18023753166199 3.16256070137024 3.19525647163391 3.24227094650269 3.33493542671204 3.35726952552795 3.35579943656921 3.39588308334351 3.44859004020691 3.4214231967926 3.58665227890015 3.78825759887695 4.00429677963257 4.11203098297119 4.08302402496338 4.22654628753662 4.44238519668579 4.90480518341064 6.03280448913574 7.19203424453735 7.54091739654541 7.61829328536987 7.50313091278076 7.36369657516479 7.24145221710205 7.06708717346191 6.78234624862671 6.41172409057617 5.91101217269897 5.52352619171143
0.795445382595062 0.752867460250854 0.699198246002197 0.644414484500885 0.549524307250977 0.465030342340469 0.296073079109192 -0.0187062323093414 -0.429800897836685 -0.884435832500458 -1.44920706748962 -1.76115787029266 -1.94492161273956 -2.04719090461731 -2.0928897857666 -1.97972702980042 -1.80046856403351 -1.62494730949402 -1.64868545532227 -1.74476301670074 -1.73585212230682 -1.54420828819275 -1.30492413043976 -1.22507202625275 -1.15279591083527 -1.08650171756744 -1.30809652805328 -1.37462508678436 -1.38546621799469 -1.29275059700012 -1.28650295734406 -1.36262917518616 -1.37225759029388 -1.12606370449066 -0.754395663738251 -0.262757748365402 -0.059210978448391 0.223055481910706 0.149124324321747 -0.129453361034393 -0.679500579833984 -0.936629831790924 -1.42423057556152 -1.77790939807892 -2.13840389251709 -2.07203412055969 -1.83160412311554 -1.64591479301453 -1.49420940876007 -1.29061114788055 -0.880196630954742 -0.713313817977905 -0.376319825649261 -0.0519847460091114 0.406923949718475 1.21337056159973 0.832148313522339 0.727946519851685 0.594912171363831 0.758194148540497 0.959011077880859 1.24943804740906 1.22962558269501 1.19761776924133 1.19920837879181 0.950945496559143 0.396154046058655 -0.11911878734827 -0.191263258457184 -0.272121429443359 -0.322735995054245 -0.349095106124878 -0.369095921516418 -0.378722786903381 -0.376824975013733 -0.380930036306381 0.165164709091187 0.992775142192841 0.906511962413788 0.685264885425568 0.698652267456055 0.650519609451294 0.816881716251373 0.956033945083618 0.956021070480347 1.12935447692871 1.19436275959015 1.30456364154816 1.44671380519867 1.7064163684845 1.76325225830078 1.70468831062317 1.86602306365967 2.0235059261322 2.06666707992554 2.24500393867493 2.35097908973694 2.47973155975342 2.57725048065186 2.38672351837158 2.44990110397339 2.52645015716553 2.83394336700439 2.86965417861938 3.10003733634949 3.15055561065674 3.14281439781189 3.13905620574951 3.55305862426758 3.68202543258667 3.95660305023193 4.36426782608032 4.43749618530273 3.96910333633423 3.76595067977905 3.68440747261047 3.32603359222412 3.14650106430054 3.10172295570374 3.17958950996399 3.17491936683655 3.10663080215454 3.04291033744812 2.91257166862488 2.79325294494629 2.91454648971558 3.06814002990723 3.27023339271545 3.49517440795898 3.84274291992188 4.04438781738281 4.32842969894409 4.20466661453247 4.08543109893799 3.83820915222168 3.62300848960876 3.58031487464905 3.58881664276123 3.57786655426025 3.50027084350586 3.49607706069946 3.44112467765808 3.42230176925659 3.41755485534668 3.47868776321411 3.60092306137085 3.57613277435303 3.50882077217102 3.51513743400574 3.54707169532776 3.64942765235901 3.83492398262024 4.06710815429688 4.26474523544312 4.39243412017822 4.36171865463257 4.41019916534424 4.63066864013672 5.19373655319214 6.41131401062012 7.59079217910767 7.94529294967651 7.82585763931274 7.84729671478271 7.74687194824219 7.62735176086426 7.45946311950684 7.25832080841064 6.96795320510864 6.21473550796509 5.80812501907349 5.21167755126953
0.825701534748077 0.757698237895966 0.711831033229828 0.627918064594269 0.568246364593506 0.508513808250427 0.380042105913162 0.0947321802377701 -0.256901979446411 -0.714225828647614 -1.16162097454071 -1.44333434104919 -1.66277897357941 -1.85149824619293 -1.8958752155304 -1.75324904918671 -1.54699921607971 -1.32771277427673 -1.2187762260437 -1.17634689807892 -1.22325229644775 -1.18438112735748 -0.994161903858185 -0.853917598724365 -0.763379454612732 -0.754933774471283 -1.0272558927536 -1.20917093753815 -1.16512382030487 -1.09615767002106 -1.01032674312592 -1.03322815895081 -0.925461649894714 -0.687768697738647 -0.0424105264246464 0.110244609415531 0.470196843147278 0.492734581232071 0.501965463161469 0.0891872197389603 -0.156558752059937 -0.6910799741745 -1.08036744594574 -1.39793515205383 -1.4961256980896 -1.47038435935974 -1.49888014793396 -1.41450583934784 -1.24108290672302 -1.01156437397003 -0.688854694366455 -0.330669283866882 0.0725055187940598 0.465362012386322 0.569348573684692 0.872360408306122 0.848146736621857 0.750568568706512 1.02966737747192 1.48091471195221 1.84953093528748 1.5835292339325 1.44847214221954 1.35453975200653 1.48872303962708 1.27482223510742 0.653265595436096 -0.0924953818321228 -0.176853314042091 -0.221000403165817 -0.289918899536133 -0.329213678836823 -0.360744893550873 -0.387247532606125 -0.39299800992012 -0.40089151263237 -0.264577269554138 0.750942170619965 1.19998860359192 0.999806582927704 1.08495759963989 1.11264514923096 1.15238833427429 1.1837192773819 1.29062736034393 1.18626177310944 1.2518208026886 1.40532088279724 1.61735236644745 1.64827239513397 1.7593297958374 1.85533452033997 1.97739815711975 2.05833959579468 1.91912126541138 1.97833621501923 2.17120575904846 2.33234691619873 2.30810904502869 2.344886302948 2.44333362579346 2.44755339622498 2.64968776702881 2.8245644569397 2.88745999336243 3.10019564628601 3.03469252586365 2.88193917274475 3.21660447120667 3.46563005447388 3.66551947593689 3.81662368774414 3.95098853111267 4.09471845626831 4.10645484924316 3.70234632492065 3.32777309417725 3.18109226226807 3.27448391914368 3.28803300857544 3.28199672698975 3.25558710098267 3.23630404472351 3.17968916893005 3.17357039451599 3.14600157737732 3.3379282951355 3.55712985992432 4.03810834884644 4.15090990066528 4.28696537017822 4.48396778106689 4.3578987121582 4.11364984512329 3.89052867889404 3.84539103507996 3.78811025619507 3.80520629882812 3.86127734184265 3.73492002487183 3.74592041969299 3.72622847557068 3.72459983825684 3.78952622413635 3.91964626312256 3.88934421539307 3.79443264007568 3.79536938667297 3.80780053138733 3.87534952163696 3.86501789093018 4.19516801834106 4.56616878509521 4.69481658935547 4.67840671539307 4.71522378921509 4.93099975585938 5.48447895050049 6.88751840591431 8.05042171478271 8.45059108734131 8.32454109191895 8.29244422912598 8.16301918029785 7.97954177856445 7.85488986968994 7.67838144302368 7.37963771820068 6.9601526260376 6.41525554656982 5.50291776657104 4.94539308547974
0.844006538391113 0.797834396362305 0.716355800628662 0.641546189785004 0.575567066669464 0.513051807880402 0.43988886475563 0.207535967230797 -0.00775365252047777 -0.462450385093689 -0.880716800689697 -1.13299167156219 -1.30413115024567 -1.53345251083374 -1.54867053031921 -1.43937873840332 -1.20415842533112 -1.02327597141266 -0.866063416004181 -0.784370005130768 -0.741629779338837 -0.738657832145691 -0.632474839687347 -0.545326232910156 -0.455593705177307 -0.410318434238434 -0.562687575817108 -0.802106499671936 -0.968247473239899 -0.901250302791595 -0.686995208263397 -0.285531848669052 -0.0823810249567032 0.30691534280777 0.396465927362442 0.759702682495117 0.777200102806091 0.773624360561371 0.762512564659119 0.476980626583099 0.00869502127170563 -0.357628405094147 -0.742012739181519 -0.880061030387878 -0.974084854125977 -1.05069839954376 -0.809372186660767 -0.850332140922546 -0.862190365791321 -0.643230199813843 -0.351745069026947 0.143698751926422 0.527876675128937 0.652970910072327 0.928851664066315 0.888009369373322 1.16908419132233 1.60959494113922 1.97841119766235 1.69537472724915 1.22824931144714 1.48998522758484 1.3034462928772 1.33505666255951 1.47995018959045 1.5399181842804 1.03688251972198 -0.0557971633970737 -0.165620192885399 -0.204981446266174 -0.232650950551033 -0.298599243164062 -0.340265780687332 -0.374926298856735 -0.390508145093918 -0.406510323286057 -0.391294032335281 0.20615853369236 0.820756435394287 1.11828470230103 1.4913604259491 1.75257754325867 1.65911781787872 1.5605651140213 1.37556684017181 1.35876488685608 1.49670827388763 1.71853268146515 1.71142768859863 1.79127335548401 1.78840041160583 1.92660677433014 2.10509467124939 2.06319689750671 1.94776451587677 2.01435685157776 2.13142895698547 2.15737009048462 2.18524861335754 2.22109270095825 2.30892634391785 2.19724154472351 2.44605588912964 2.67618083953857 2.63974523544312 3.03321814537048 3.00484108924866 2.87177491188049 3.05939507484436 3.38101029396057 3.81707382202148 4.06653356552124 4.15317153930664 4.28805541992188 4.13293075561523 3.8047194480896 3.45766425132751 3.57026290893555 3.55574464797974 3.39534997940063 3.34442806243896 3.29250407218933 3.55674839019775 3.63421893119812 3.59051442146301 3.66492772102356 3.6414213180542 3.86543226242065 4.19224643707275 4.42064666748047 4.60457468032837 4.54423475265503 4.52198839187622 4.20957279205322 4.14045095443726 4.21082973480225 4.14771795272827 4.13580465316772 4.12725973129272 4.06403541564941 3.98950386047363 3.99572682380676 4.0129542350769 4.09471416473389 4.16826772689819 4.13797473907471 4.1409912109375 4.10966682434082 4.12357425689697 4.10014390945435 4.30787563323975 4.56684589385986 4.75511026382446 4.94912385940552 5.05351543426514 5.19214391708374 5.67374229431152 6.58782911300659 8.5888786315918 9.02670955657959 8.90425395965576 8.78248119354248 8.62224674224854 8.40621662139893 8.2940559387207 8.13571071624756 7.81024742126465 7.35519075393677 6.76261949539185 6.29931831359863 5.67644071578979 4.7297248840332
0.84016340970993 0.792963743209839 0.728548109531403 0.667514145374298 0.612230896949768 0.510126054286957 0.426812827587128 0.362522125244141 0.190232574939728 -0.0660848319530487 -0.509175717830658 -0.866614460945129 -1.01395070552826 -1.1904639005661 -1.14110898971558 -1.04436433315277 -0.886037230491638 -0.755621135234833 -0.674705147743225 -0.590783774852753 -0.462393462657928 -0.398548662662506 -0.334338843822479 -0.250176578760147 -0.110777415335178 -0.0184913109987974 -0.00878990348428488 -0.0885139107704163 -0.353326141834259 -0.438080847263336 -0.159677386283875 0.125493615865707 0.41708892583847 0.827471792697906 1.07663786411285 1.13256764411926 1.04432499408722 1.01916146278381 0.856728732585907 0.755574762821198 0.39498633146286 -0.0995688810944557 -0.378631412982941 -0.471368759870529 -0.419944763183594 -0.264672636985779 -0.122229911386967 -0.223374128341675 -0.449912011623383 -0.145523726940155 0.209736511111259 0.427211880683899 0.877067267894745 1.03480315208435 0.935640633106232 1.20809841156006 1.51941847801208 1.37144029140472 1.04942107200623 0.719260692596436 0.679337501525879 0.847980380058289 0.948451519012451 1.09010922908783 1.59842920303345 1.97001004219055 1.79003322124481 0.347401261329651 -0.110979929566383 -0.169555991888046 -0.18424154818058 -0.223440900444984 -0.317610085010529 -0.35785174369812 -0.382919281721115 -0.420120626688004 -0.446199119091034 -0.239791870117188 -0.025143276900053 0.557355642318726 1.24498069286346 1.77589213848114 2.13034462928772 1.88464534282684 1.59462714195251 1.45400202274323 1.67633700370789 1.87887239456177 1.9276088476181 1.86502742767334 1.985182762146 2.16666388511658 2.16840028762817 2.00496745109558 2.09245443344116 2.15083050727844 2.08060121536255 2.07143449783325 2.08001255989075 2.14577317237854 2.08287382125854 2.03607749938965 2.08144187927246 2.27711224555969 2.29882597923279 2.80499529838562 2.95352292060852 2.89993953704834 3.02360224723816 3.17281031608582 3.69532489776611 4.16550159454346 4.64846897125244 4.46634101867676 4.29559755325317 4.08250093460083 3.88889908790588 3.60203385353088 3.67322564125061 3.55355906486511 3.69404935836792 3.80778241157532 3.84760165214539 3.87664604187012 4.13652229309082 4.07734155654907 4.29229497909546 4.45169401168823 4.53052663803101 4.76367139816284 4.64929962158203 4.66255950927734 4.4903507232666 4.65894317626953 4.57580471038818 4.57065916061401 4.55830860137939 4.66759300231934 4.51270961761475 4.44157934188843 4.39075088500977 4.41703033447266 4.50683498382568 4.56266832351685 4.52158784866333 4.43076753616333 4.48920202255249 4.5269889831543 4.38926887512207 4.61311626434326 4.9415545463562 5.1108021736145 5.26550006866455 5.24155330657959 5.27545022964478 5.54557418823242 6.15659523010254 7.66323089599609 8.96067810058594 9.33145904541016 9.36579704284668 9.21302127838135 8.92802810668945 8.77750778198242 8.65994548797607 8.30737113952637 7.79866409301758 7.17299842834473 6.64327812194824 5.96642112731934 5.35298490524292 4.6685676574707
0.838533043861389 0.774926543235779 0.733002185821533 0.683426797389984 0.620751619338989 0.495909512042999 0.579161107540131 0.624607443809509 0.601963758468628 0.320699572563171 -0.0804766863584518 -0.454322516918182 -0.645541667938232 -0.759278416633606 -0.652973294258118 -0.595979690551758 -0.603654146194458 -0.496496647596359 -0.453608930110931 -0.41293066740036 -0.302958190441132 -0.176067665219307 -0.110218651592731 0.536460161209106 0.206513971090317 0.312591820955276 0.465842723846436 0.508005857467651 0.337251663208008 0.410365134477615 0.52493155002594 0.764097929000854 1.22446012496948 1.36207723617554 1.58061575889587 1.41606318950653 1.29122710227966 1.04812932014465 1.04435729980469 0.782441020011902 0.503962695598602 0.21965229511261 -0.0260612461715937 0.0275663454085588 0.170904949307442 0.246062338352203 0.136300355195999 0.101475425064564 0.134270906448364 0.347808212041855 0.636008143424988 1.1070396900177 1.13081121444702 1.13468992710114 0.900996208190918 0.898105680942535 0.700111567974091 0.532252848148346 0.411875009536743 0.373951464891434 0.355758816003799 0.507633626461029 0.608573853969574 0.724383413791656 0.883721470832825 1.69704675674438 2.94849848747253 1.5254499912262 0.109925419092178 -0.0949199721217155 -0.130989089608192 -0.156975314021111 -0.21869121491909 -0.333338528871536 -0.382270634174347 -0.431376218795776 -0.462446659803391 -0.481042772531509 -0.461139589548111 -0.384532630443573 0.152762204408646 1.10056638717651 1.77143681049347 2.04721260070801 1.89313995838165 1.70281517505646 1.79594254493713 1.85611271858215 1.89673352241516 2.11532115936279 2.27505898475647 2.2081356048584 2.05144333839417 2.06521272659302 2.12199139595032 2.18964195251465 2.06844449043274 2.01136326789856 1.91164612770081 1.88442444801331 2.03219103813171 2.13770627975464 1.81784546375275 1.79309093952179 1.81597495079041 2.28710985183716 2.61362767219543 2.83406114578247 2.99366569519043 2.92178893089294 3.26717829704285 3.83791017532349 4.65072202682495 4.41904163360596 4.48838186264038 4.65882873535156 4.29743242263794 4.36774921417236 3.55750131607056 4.6954517364502 4.51683855056763 4.97426748275757 4.19155359268188 4.42284488677979 4.52150917053223 4.76880741119385 4.94130897521973 4.89825963973999 4.76787948608398 4.90326356887817 4.76135158538818 4.55452728271484 4.82183456420898 5.03210783004761 4.97963190078735 5.30873441696167 5.32376432418823 5.04490089416504 4.86192464828491 4.81738567352295 4.82054376602173 4.90663862228394 5.07645702362061 5.04035329818726 4.83826494216919 4.80607128143311 4.74393081665039 4.79353857040405 5.03175973892212 5.33372735977173 5.52270460128784 5.68639326095581 5.66483640670776 5.71179628372192 6.00588035583496 6.67920398712158 8.28484725952148 9.69280338287354 10.0512666702271 9.90901279449463 9.75746154785156 9.59074592590332 9.36242485046387 9.15454387664795 9.01517677307129 8.65068435668945 7.70029592514038 7.06198978424072 6.32993125915527 5.64619112014771 5.0838475227356 4.55122137069702
0.846022307872772 0.78229296207428 0.730797171592712 0.670186340808868 0.595203459262848 0.688215017318726 0.781000077724457 0.918986916542053 0.864225625991821 0.812807321548462 0.390852779150009 -0.0563895031809807 -0.306441009044647 -0.349390685558319 -0.187393814325333 -0.195368453860283 -0.235858365893364 -0.246162235736847 -0.241949021816254 -0.221973150968552 0.69309937953949 -0.0447118878364563 1.05210423469543 0.682495772838593 0.873019099235535 0.701594769954681 0.811774909496307 0.94725489616394 1.31609404087067 1.36457788944244 1.44158244132996 1.79357314109802 1.7187602519989 2.06304335594177 1.81179523468018 1.77805662155151 1.43489217758179 1.31097865104675 1.04724490642548 0.785774230957031 0.520363986492157 0.339426875114441 0.398029953241348 0.494122177362442 0.501942873001099 0.412251621484756 0.29855141043663 0.364456176757812 0.532258033752441 0.902783632278442 1.29140043258667 1.23883247375488 1.26285326480865 1.00164914131165 0.776052236557007 0.391763955354691 0.230005651712418 0.132226556539536 0.052797969430685 0.0625442415475845 0.00954343378543854 0.100524708628654 0.109314687550068 0.379056185483932 0.465908288955688 0.791851758956909 1.51923286914825 2.75319790840149 0.98280394077301 0.168844744563103 -0.0725941807031631 -0.118135593831539 -0.167311832308769 -0.268882781267166 -0.373474210500717 -0.419919610023499 -0.453259527683258 -0.441476941108704 -0.417299032211304 -0.374730795621872 -0.292808324098587 -0.198228687047958 1.10470879077911 1.60176920890808 2.01579618453979 2.04429531097412 1.96353554725647 2.0206081867218 1.9757776260376 2.2665798664093 2.35231137275696 2.10096454620361 2.10232067108154 2.20579552650452 2.35695362091064 2.21941232681274 2.1002242565155 1.96204924583435 1.88708877563477 1.8563004732132 2.27234244346619 1.83663654327393 1.8041832447052 1.74977374076843 2.12476849555969 2.62857556343079 2.85966897010803 3.02902317047119 2.86404061317444 2.88647866249084 2.78614497184753 3.15355372428894 4.19774675369263 3.6821460723877 3.9521586894989 4.59665489196777 5.08688163757324 4.3395528793335 3.60865473747253 5.26639890670776 5.57055473327637 6.08431196212769 5.70561599731445 4.82405281066895 4.96021223068237 5.46579074859619 5.48102569580078 5.15135860443115 5.12135457992554 4.88858795166016 4.85706996917725 4.95950078964233 5.18999910354614 5.25530052185059 5.32458305358887 6.04563999176025 5.78408336639404 5.55081510543823 5.50298833847046 5.48286724090576 5.37975978851318 5.50265216827393 5.43254375457764 5.39051198959351 5.35145664215088 5.28496265411377 5.27983331680298 5.18614482879639 5.49501991271973 6.01211977005005 6.18002939224243 6.15993595123291 6.21634531021118 6.54068088531494 7.2611517906189 9.0247106552124 10.5343704223633 10.8503255844116 10.7057638168335 10.4860429763794 10.3016204833984 9.93439674377441 9.81463432312012 9.6755952835083 9.30428409576416 8.66159534454346 7.96922492980957 6.76153516769409 6.00417757034302 5.3883113861084 4.8870906829834 4.84453916549683
0.850934326648712 0.775876343250275 0.710292458534241 0.636650502681732 0.697061479091644 0.802728772163391 0.925938248634338 1.0369518995285 1.16915237903595 1.04929423332214 0.844669163227081 0.556566655635834 0.198838368058205 0.226954340934753 0.299021393060684 0.155663281679153 0.0809787735342979 0.0108701661229134 -0.0751291960477829 -0.0645679086446762 3.55745983123779 2.26236987113953 1.10962331295013 1.14775276184082 1.08811473846436 1.12207305431366 1.15502786636353 1.39403009414673 1.60828804969788 1.7468935251236 1.87756609916687 2.22154426574707 2.35131311416626 2.12330508232117 2.04643297195435 1.89503145217896 1.68422615528107 1.34771907329559 1.05908906459808 0.886232435703278 0.785901963710785 0.770007073879242 0.927394032478333 1.12318384647369 1.07884681224823 0.967712163925171 0.90422511100769 0.990313291549683 1.09785842895508 1.17495608329773 1.37969756126404 1.22727048397064 1.02197861671448 0.862321257591248 0.606873512268066 0.289814949035645 0.128739506006241 0.0515401810407639 -0.00147113471757621 -0.0789636671543121 -0.100452579557896 -0.087805837392807 -0.0921447798609734 -0.0869996100664139 -0.071744330227375 0.286889851093292 0.384146451950073 1.29180550575256 2.08177375793457 1.08815765380859 0.363900452852249 0.0448222905397415 -0.106605514883995 -0.22310833632946 -0.340524882078171 -0.401453822851181 -0.394402831792831 -0.368729382753372 -0.320861726999283 -0.295168250799179 -0.305422216653824 -0.195592537522316 -0.135674819350243 0.864403605461121 2.40759229660034 2.48511576652527 2.30567193031311 2.16301703453064 2.34441542625427 2.61044192314148 2.41026663780212 2.20563673973083 2.28986692428589 2.47362518310547 2.35433650016785 2.28037071228027 2.1512930393219 1.98157227039337 1.89957976341248 1.83593273162842 2.42153644561768 1.84330332279205 1.81928062438965 1.89556968212128 2.28564357757568 2.74485111236572 3.07925391197205 2.9197678565979 2.93474793434143 2.79661655426025 2.65880131721497 2.51768827438354 3.46636772155762 3.08813285827637 3.34767580032349 4.21140956878662 4.71083498001099 4.27518558502197 3.31540107727051 4.13382148742676 4.24879455566406 5.73954725265503 6.17060899734497 4.5203652381897 5.39240598678589 5.61479663848877 5.71228313446045 5.52024126052856 5.07658863067627 5.10762405395508 5.63642835617065 5.7749981880188 5.62482118606567 5.58362150192261 6.44267845153809 6.61371517181396 6.3258376121521 6.39171838760376 6.49714088439941 6.19428586959839 6.32208919525146 6.15088748931885 6.13069248199463 5.87542343139648 5.76178503036499 5.86467313766479 5.77404975891113 5.86248159408569 6.22182750701904 6.3404655456543 6.52076959609985 6.64972496032715 6.85528421401978 7.49917125701904 8.68685054779053 11.285080909729 11.7965602874756 11.6396732330322 11.3272724151611 11.12464427948 10.7309474945068 10.6687250137329 10.4364433288574 10.0580787658691 9.31802463531494 8.56683540344238 7.85011959075928 7.04265594482422 5.7851710319519 5.3201789855957 5.07574129104614 5.07762956619263
0.862081408500671 0.799551069736481 0.672753930091858 0.77588164806366 0.872914016246796 0.981159567832947 1.17070817947388 1.14935791492462 1.27095794677734 1.18825078010559 1.14809572696686 1.00953352451324 0.81306403875351 0.66197657585144 0.626978814601898 0.500142395496368 0.411864578723907 0.220672428607941 -0.0288468357175589 -0.165900215506554 -0.0332076996564865 4.04690742492676 3.14327812194824 1.71832668781281 1.32642436027527 1.23792278766632 1.44998776912689 1.69752442836761 1.98334264755249 2.25888395309448 2.70466995239258 2.54660749435425 2.74270486831665 2.41481900215149 2.20814895629883 1.91723334789276 1.82782530784607 1.57853734493256 1.23546588420868 1.16107571125031 1.19266593456268 1.17646443843842 1.339275598526 1.32292139530182 1.25589191913605 1.21321845054626 1.23930394649506 1.32231998443604 1.23108947277069 1.39315843582153 1.24151384830475 1.19312715530396 0.960406184196472 0.693762481212616 0.419292837381363 0.235831215977669 0.108739525079727 0.0268792994320393 -0.0237716771662235 -0.0720017552375793 -0.0812347531318665 -0.075892485678196 -0.0740598440170288 -0.0701715648174286 -0.068532794713974 -0.0487065277993679 0.0414136275649071 0.365386843681335 0.770228505134583 1.61350524425507 1.05869162082672 0.323761194944382 0.0137682948261499 -0.163113579154015 -0.200312808156013 -0.384386271238327 -0.311718732118607 -0.249654546380043 -0.224996417760849 -0.227540746331215 -0.189049854874611 -0.177748113870621 -0.155759274959564 -0.11738632619381 2.29082536697388 2.84199976921082 2.69416308403015 2.67062973976135 3.12057113647461 2.72948718070984 2.3874568939209 2.42871785163879 2.61185932159424 2.49643969535828 2.45044684410095 2.34660792350769 2.20008826255798 2.08737540245056 1.96740818023682 1.7371381521225 1.88423705101013 1.8528538942337 1.9611611366272 2.39853000640869 2.72521948814392 2.95027327537537 3.10453748703003 3.01171255111694 2.85719203948975 2.69646906852722 2.51978993415833 2.46926593780518 3.21354126930237 3.62000179290771 3.79347491264343 3.79893064498901 4.08656167984009 3.64661574363708 3.04801201820374 3.76952791213989 4.42625713348389 4.8226170539856 5.73916625976562 5.86954355239868 6.01229095458984 6.07561492919922 5.75437259674072 5.23486804962158 5.07487916946411 5.06916093826294 6.00571441650391 6.35343217849731 6.09125900268555 7.62608242034912 7.8658595085144 7.39531183242798 7.12288045883179 7.01148557662964 7.13835668563843 7.35928201675415 7.13077688217163 7.01132106781006 6.72294616699219 6.34359264373779 6.15017604827881 6.10680437088013 6.39406776428223 6.83770990371704 6.96291351318359 7.17105197906494 7.15623044967651 7.21530342102051 7.59278345108032 8.48968029022217 10.4680709838867 12.208664894104 12.4011783599854 12.2839002609253 12.0673418045044 11.6572217941284 11.5082149505615 11.3317499160767 10.9094505310059 10.0688028335571 9.26195907592773 8.44660472869873 7.58221340179443 6.68044471740723 5.77537870407104 5.061927318573 5.3300404548645 5.19381427764893
1.14750170707703 1.03604543209076 0.896241247653961 0.999504923820496 1.11444449424744 1.32121121883392 1.30035543441772 1.43147027492523 1.32624590396881 1.35609018802643 1.3522891998291 1.30576908588409 1.14889252185822 1.04535222053528 0.89968204498291 0.759178936481476 0.640715777873993 0.461995661258698 0.183063015341759 -0.0276023838669062 -0.0598817057907581 0.191700965166092 2.63248157501221 2.95615744590759 2.0330376625061 1.44968295097351 1.82201492786407 2.67829561233521 2.52975106239319 2.94531345367432 2.76578116416931 3.00755095481873 2.70829796791077 2.60613036155701 2.19201421737671 2.03564953804016 1.74431431293488 1.50457870960236 1.44140040874481 1.50405514240265 1.50645232200623 1.59997081756592 1.57919800281525 1.42657947540283 1.32536602020264 1.34971618652344 1.42871129512787 1.42395091056824 1.49425101280212 1.31090223789215 1.25762474536896 1.05565404891968 0.932296454906464 0.479532241821289 0.271511316299438 0.179533168673515 0.169351443648338 0.0960914343595505 0.0345317274332047 -0.00542228110134602 -0.0106408214196563 -0.0321756526827812 -0.0213038995862007 -0.0165523793548346 -0.0060846358537674 0.124653667211533 0.548373341560364 0.624326467514038 0.474648416042328 1.05304956436157 1.39306676387787 1.39855003356934 0.344559818506241 0.0149572463706136 -0.106449961662292 -0.232463181018829 -0.259651511907578 -0.141332522034645 -0.149076282978058 -0.105959005653858 -0.124864235520363 -0.122166112065315 -0.137732103466988 -0.160055130720139 0.634071528911591 2.86230802536011 3.31250476837158 3.9750919342041 3.13038492202759 2.67526078224182 2.49301266670227 2.50997877120972 2.69775342941284 2.56660866737366 2.49550104141235 2.39824819564819 2.31908106803894 2.18550658226013 2.11423969268799 2.0173225402832 1.98626911640167 1.95474648475647 2.50036454200745 2.86403274536133 3.10550737380981 3.24786520004272 3.03481960296631 3.03815889358521 2.86710572242737 2.56391525268555 2.48509383201599 2.67159676551819 3.40141630172729 3.67933034896851 3.46815609931946 3.69528222084045 4.84783172607422 3.57169961929321 2.76895523071289 3.61014437675476 4.43921613693237 5.69561100006104 6.21301603317261 7.00368595123291 6.76671171188354 6.14751768112183 5.74901485443115 5.20262050628662 4.63916015625 4.83077573776245 5.53737592697144 6.64867067337036 7.99913597106934 8.73288631439209 7.72827959060669 7.75489234924316 8.04435539245605 8.17572498321533 7.94123792648315 7.92890310287476 8.0032958984375 7.78439140319824 7.33623218536377 6.94896793365479 6.57458782196045 6.42258787155151 6.66336822509766 7.46805000305176 7.84121656417847 7.90890502929688 8.01541805267334 8.44513988494873 9.37537288665771 11.6281900405884 13.5550098419189 13.7587833404541 13.4547691345215 12.9333486557007 12.7023887634277 12.7687349319458 12.3502168655396 11.9841060638428 11.501317024231 10.2609643936157 9.13365936279297 8.20588874816895 7.18868780136108 6.38186550140381 5.61806774139404 5.49697208404541 5.47668838500977 5.16138076782227
1.37229692935944 1.14015758037567 1.01201403141022 1.12555301189423 1.2708193063736 1.4319099187851 1.60806715488434 1.48926210403442 1.45077240467072 1.43933987617493 1.51731133460999 1.45136737823486 1.37167823314667 1.23917007446289 1.12065768241882 1.01370239257812 0.880228817462921 0.737563073635101 0.646722495555878 0.418274611234665 0.327485889196396 0.347539335489273 0.549937665462494 2.01143717765808 1.28426539897919 2.87968015670776 3.91182398796082 3.44044923782349 3.14610862731934 2.95218634605408 3.21713781356812 2.89914393424988 2.81699347496033 2.61034750938416 2.32900595664978 1.8900933265686 1.7566112279892 1.64971959590912 1.72965860366821 1.73310530185699 1.78574073314667 1.74792671203613 1.57640862464905 1.46175646781921 1.39542484283447 1.3791811466217 1.49017667770386 1.71095216274261 1.44968032836914 1.35702967643738 1.12724959850311 0.972563505172729 0.790758907794952 0.409797251224518 0.23921363055706 0.236653313040733 0.234625488519669 0.183689847588539 0.13663537800312 0.0869381725788116 0.0450944043695927 0.021183243021369 0.0265667010098696 0.00678123254328966 -0.00845249556005001 -0.0327805317938328 0.303976774215698 0.404275566339493 0.241803124547005 0.764308393001556 0.501529395580292 1.25305199623108 1.33295214176178 0.271443694829941 0.000288740760879591 -0.173374116420746 -0.143114641308784 -0.111580140888691 -0.0138631239533424 -0.0449763834476471 -0.0342426709830761 -0.0689869523048401 -0.0714349150657654 -0.143363267183304 -0.202406674623489 0.707337319850922 3.32561373710632 4.54288673400879 3.13361716270447 2.68874406814575 2.66520762443542 2.96267771720886 2.6998565196991 2.61238574981689 2.51121163368225 2.41817688941956 2.38764762878418 2.28060626983643 2.27908372879028 2.17944025993347 2.10984086990356 2.35454440116882 2.97207903862 3.23787236213684 3.39578819274902 3.17114615440369 3.157639503479 2.98462915420532 2.78554487228394 2.59206295013428 2.29456424713135 2.15410447120667 2.4388210773468 2.96979069709778 3.49843668937683 3.89147400856018 5.10760974884033 3.25600433349609 2.57850050926208 3.3183925151825 3.61970973014832 5.08410787582397 7.24554204940796 7.31244468688965 7.18945980072021 6.16337394714355 5.53652667999268 5.2051739692688 4.7966480255127 4.87103796005249 5.41861963272095 5.99782943725586 7.32501745223999 9.09394359588623 8.30012226104736 8.34568691253662 9.59190082550049 9.58426856994629 8.92142200469971 8.65905666351318 8.28797435760498 8.04554748535156 7.64508533477783 7.26672172546387 6.85605096817017 6.86070203781128 7.51133012771606 7.8488655090332 8.24674415588379 8.45326232910156 8.79343223571777 9.64931583404541 11.1671495437622 14.4462413787842 15.0958909988403 14.9138422012329 14.3539590835571 13.9756832122803 13.7215919494629 13.7211580276489 13.287938117981 12.6056127548218 11.510612487793 10.5903787612915 8.91675662994385 7.77780055999756 6.86390352249146 6.13828277587891 5.8038387298584 5.76480722427368 5.59825992584229 5.3036994934082
1.50664675235748 1.22944343090057 1.34568560123444 1.42438697814941 1.66139435768127 1.63076305389404 1.73508536815643 1.63640129566193 1.62414860725403 1.64834523200989 1.61623871326447 1.59818708896637 1.48668694496155 1.36520767211914 1.32348644733429 1.22367262840271 1.15194511413574 1.07810711860657 0.915794491767883 0.775741279125214 0.677115142345428 0.66359156370163 0.861322104930878 1.1881822347641 1.5686856508255 5.6955189704895 5.59428310394287 4.09409618377686 3.31823706626892 3.44129610061646 3.09284472465515 3.01476883888245 2.7995138168335 2.49548649787903 2.31613445281982 1.99144315719604 1.87098956108093 1.81756365299225 1.92031669616699 2.00178837776184 1.92563831806183 1.72689497470856 1.78266298770905 2.12101674079895 2.14684677124023 1.96395587921143 1.81771063804626 1.79443800449371 1.5409814119339 1.24579894542694 1.09240734577179 0.879491090774536 0.63038957118988 0.444557696580887 0.299637049436569 0.29912856221199 0.300828188657761 0.244037628173828 0.179415673017502 0.125623300671577 0.0746763646602631 0.0345097333192825 0.0111021315678954 0.00389364687725902 -0.00560981500893831 -0.0421583950519562 0.0747922733426094 0.0850692540407181 0.24621993303299 0.450386703014374 0.241326630115509 0.703338921070099 1.39377152919769 0.945677161216736 0.176248371601105 -0.0617486946284771 -0.030591793358326 -0.0388208962976933 0.0461893640458584 0.0730001106858253 0.0127347968518734 -0.0263394620269537 -0.022740188986063 -0.146129369735718 0.31470137834549 -0.358286052942276 1.03333175182343 4.02108144760132 2.97759175300598 2.82178544998169 3.23140931129456 2.86788558959961 2.94394493103027 2.82458519935608 2.68001270294189 2.55727458000183 2.38850140571594 2.5726535320282 2.68887209892273 2.60263681411743 2.47435426712036 2.58732008934021 3.12513422966003 3.51188635826111 3.28648400306702 3.27439188957214 3.10401725769043 2.91178846359253 2.6969165802002 2.5463809967041 2.22358155250549 1.99244344234467 1.89726519584656 2.48220729827881 3.47654366493225 3.98953413963318 5.19151496887207 2.70805048942566 2.68878197669983 2.80443596839905 3.16027140617371 3.41779541969299 5.6146993637085 6.40644645690918 7.58090496063232 5.94397163391113 5.53167057037354 4.85152626037598 4.58872699737549 4.76738882064819 6.14960813522339 4.51346302032471 6.02757406234741 7.76632070541382 8.46044063568115 9.33118438720703 9.77330780029297 10.2694549560547 9.88139057159424 9.22942352294922 8.75913047790527 8.25650596618652 7.73705005645752 7.37478590011597 7.1456184387207 7.9341402053833 8.345627784729 8.73414993286133 9.04982566833496 9.42782497406006 10.5111141204834 11.8417320251465 14.0306310653687 16.3519306182861 16.6127967834473 15.8917932510376 15.4541091918945 14.9437065124512 15.4769287109375 14.6519155502319 14.2091150283813 12.6048908233643 11.645679473877 10.4239225387573 9.37957382202148 7.4690899848938 6.67840433120728 5.95944166183472 6.08606052398682 5.88919687271118 5.5770959854126 5.22296380996704
1.71610069274902 1.82410252094269 1.82786536216736 1.99964761734009 1.9061381816864 1.97493708133698 1.77182877063751 1.81468462944031 1.86644899845123 1.82537746429443 1.78963577747345 1.70252811908722 1.60013937950134 1.54808413982391 1.50408029556274 1.50386798381805 1.48642611503601 1.3117378950119 1.16830933094025 1.09204578399658 1.11255443096161 1.12878978252411 1.30488193035126 1.58124196529388 1.86831951141357 4.9024829864502 7.09071636199951 4.06887817382812 3.29168105125427 3.60478615760803 3.2205798625946 2.99629402160645 2.6781907081604 2.46458339691162 2.23785066604614 2.12340378761292 2.0718789100647 2.12031531333923 2.10913610458374 2.16483306884766 2.43130826950073 2.99390506744385 2.97521328926086 3.11252784729004 2.91289091110229 2.62482810020447 2.39835643768311 1.74670886993408 1.60473823547363 1.24580776691437 0.977844178676605 0.694140672683716 0.484753549098969 0.339020937681198 0.311686307191849 0.310515165328979 0.29211214184761 0.271785169839859 0.232891127467155 0.169610738754272 0.0916143581271172 0.0342992059886456 0.14884053170681 0.0663204342126846 -0.0320561639964581 -0.0370952263474464 0.217054128646851 0.247215688228607 0.311520516872406 0.249499768018723 0.279953718185425 0.3146952688694 0.921847105026245 1.4302134513855 0.609109997749329 0.125865697860718 0.0593909546732903 0.131727829575539 0.122424855828285 0.129145979881287 0.0969187095761299 0.0582291185855865 0.0105526773259044 -0.165493503212929 0.500186860561371 -0.456697463989258 -0.524108588695526 -0.0551332496106625 2.98008728027344 3.6924409866333 2.97695851325989 2.95035338401794 3.14593887329102 3.03111052513123 2.88527846336365 2.47125339508057 2.39180946350098 2.70981645584106 3.05142688751221 3.13077282905579 2.93736433982849 3.10181570053101 3.37585520744324 3.51037263870239 3.36623430252075 3.18690705299377 3.0016508102417 2.88463258743286 2.62823390960693 2.32910299301147 2.16513538360596 1.92074990272522 1.90921592712402 2.03341126441956 3.40528011322021 4.08110284805298 4.48951387405396 2.83092069625854 2.89916181564331 3.24231243133545 3.48789429664612 3.60434746742249 3.68240523338318 5.91633558273315 6.51654529571533 5.85178375244141 4.89362955093384 4.60594081878662 4.25627946853638 4.71042776107788 5.80866146087646 3.67707443237305 5.08471393585205 6.22083473205566 7.28906297683716 8.17231369018555 9.45713996887207 10.2190399169922 9.88874912261963 10.011923789978 9.7613582611084 8.65229606628418 8.06541728973389 7.51719379425049 8.27176761627197 8.78756809234619 9.12177753448486 9.53598880767822 10.228178024292 11.5099534988403 13.2920007705688 15.8784809112549 18.6982097625732 19.065616607666 18.1358051300049 17.3210258483887 17.2020874023438 17.7874431610107 16.5493297576904 16.0673789978027 14.9272804260254 13.3434238433838 11.4480209350586 10.2750473022461 8.86731719970703 7.70007228851318 6.40701007843018 6.34819364547729 6.27647352218628 5.91101169586182 5.49061393737793 5.05697584152222
1.85385680198669 2.02646732330322 2.37009954452515 2.43427515029907 2.40793347358704 2.06047749519348 2.0068051815033 1.94008612632751 2.03661775588989 2.01238918304443 1.95002806186676 1.86108863353729 1.7134758234024 1.69661593437195 1.73890483379364 1.68239367008209 1.70315456390381 1.67620265483856 1.57785475254059 1.44277215003967 1.52198207378387 1.77922320365906 1.92158532142639 1.96660161018372 2.15949869155884 2.53867220878601 6.57908296585083 5.47883749008179 3.82228422164917 3.45188641548157 3.36950516700745 2.87712287902832 2.64220952987671 2.52943921089172 2.4686484336853 2.33636975288391 2.42137479782104 2.41812181472778 2.4455029964447 2.14620041847229 1.82067596912384 1.9991751909256 1.55410587787628 1.63379955291748 1.66418397426605 1.89234578609467 1.68815815448761 1.6664947271347 1.42212009429932 1.21430087089539 0.726339638233185 0.530864000320435 0.375286728143692 0.318738222122192 0.320859163999557 0.315321683883667 0.302226841449738 0.283078908920288 0.266308307647705 0.225825130939484 0.149012833833694 0.0607569590210915 0.0328369773924351 0.13283509016037 0.0412853360176086 0.0106359552592039 -0.0817283242940903 0.125138744711876 0.667218148708344 0.267503619194031 0.301272243261337 0.185952618718147 0.449082791805267 1.20709478855133 1.42790627479553 0.46651217341423 0.236253544688225 0.215058267116547 0.252770960330963 0.201309442520142 0.186078310012817 0.132978424429893 0.0361494347453117 -0.291634142398834 -0.351504623889923 -0.475176274776459 0.0530697964131832 0.21905928850174 2.71798300743103 4.2052788734436 3.12783694267273 2.79514050483704 2.93135023117065 3.05304408073425 2.84003090858459 2.5298707485199 2.2987687587738 2.43386936187744 2.67547965049744 3.08481502532959 3.25338268280029 3.56160593032837 3.68142008781433 3.38654565811157 3.37715077400208 3.20898008346558 2.89511346817017 2.68234539031982 2.47951817512512 2.22075414657593 2.03502154350281 1.95534873008728 2.07085633277893 2.04170346260071 2.80889749526978 4.15822887420654 4.14022207260132 3.05743956565857 3.43874764442444 3.68227863311768 3.8848888874054 3.78701186180115 3.81299948692322 7.80539655685425 6.78711891174316 4.73112964630127 4.31195449829102 3.98030591011047 3.48925304412842 3.87703227996826 4.82560062408447 3.88715744018555 4.64210844039917 4.94735813140869 4.96506977081299 6.37033748626709 8.36865043640137 9.6721305847168 10.030460357666 9.92631053924561 10.1075401306152 9.84808349609375 8.00455188751221 7.57230710983276 8.86091041564941 9.61907291412354 9.8362398147583 10.3839483261108 11.6111221313477 13.5475454330444 17.4573707580566 20.9418430328369 21.7552375793457 20.8930339813232 19.7210865020752 20.1967277526855 20.9208030700684 18.9933700561523 18.4443798065186 16.839672088623 15.0422239303589 13.6874408721924 11.5559177398682 9.70459938049316 8.44520664215088 7.46264219284058 6.73014116287231 6.63967323303223 6.39827156066895 6.06326627731323 5.40600156784058 5.01106739044189
2.3454737663269 2.26049780845642 2.64700794219971 2.79721713066101 2.44655704498291 2.43342280387878 2.35067749023438 2.3566563129425 2.23069930076599 2.20851397514343 2.10340905189514 1.9499945640564 1.91552245616913 1.89242446422577 1.91895544528961 1.95919942855835 1.99132454395294 1.96014273166656 1.93444716930389 1.95171439647675 2.04157829284668 1.97907042503357 2.54270362854004 2.61712837219238 2.59826254844666 3.18583202362061 3.25877952575684 3.89302706718445 4.91214466094971 4.17951679229736 3.69658088684082 3.23268175125122 3.01992678642273 2.85825777053833 2.68723034858704 2.6434223651886 2.50798940658569 2.47323536872864 2.2937924861908 1.79376721382141 1.554443359375 1.49866032600403 1.50900256633759 1.71464276313782 2.03537702560425 1.8330090045929 1.75276505947113 1.44665050506592 1.25577676296234 1.01320278644562 0.779422521591187 0.399624556303024 0.342151492834091 0.336073666810989 0.329076856374741 0.313228726387024 0.310397356748581 0.295955330133438 0.280448853969574 0.236002162098885 0.189095288515091 0.120833396911621 0.0477627143263817 -0.0230441465973854 -0.00977525860071182 0.119089908897877 -0.0284562185406685 0.0841908007860184 0.257497102022171 0.184567704796791 0.230702579021454 0.122814811766148 0.334190279245377 0.541708946228027 1.17599546909332 1.23352038860321 0.354537844657898 0.381956100463867 0.31252521276474 0.345701694488525 0.276315003633499 0.163116678595543 0.0289561226963997 -0.333337932825089 -0.38125005364418 -0.14195092022419 1.1040233373642 -0.212241619825363 0.0167022980749607 2.98345851898193 2.90097308158875 2.52137303352356 2.38089323043823 2.74961280822754 2.61705493927002 2.58176803588867 2.16627073287964 2.13574981689453 2.46906423568726 3.29876208305359 3.67637586593628 3.85040307044983 3.5465099811554 3.52037310600281 3.30736041069031 3.01489162445068 2.77169466018677 2.40960884094238 2.39644432067871 2.17058372497559 2.08742809295654 2.03749060630798 2.1741931438446 2.07891631126404 2.28810858726501 3.48794436454773 4.564377784729 3.13493514060974 3.78931498527527 4.12495422363281 4.07547950744629 4.0274453163147 3.6876437664032 5.00062894821167 7.14057350158691 3.86323094367981 3.24030566215515 3.11762261390686 3.03491401672363 2.96066379547119 3.66275262832642 2.93264842033386 3.67170715332031 4.22749900817871 4.2696270942688 4.32547283172607 6.43923044204712 8.97761249542236 8.80380535125732 9.09620475769043 9.56521224975586 9.10769367218018 8.3409595489502 9.18185043334961 9.57865905761719 9.7022123336792 9.92587184906006 11.7943353652954 13.9930362701416 15.7040090560913 20.7077293395996 22.0348491668701 22.6411838531494 21.7532386779785 21.4287776947021 21.5841732025146 22.5642261505127 21.2222881317139 19.2577667236328 17.3045101165771 15.4363355636597 13.3925151824951 12.0728311538696 9.59346008300781 8.15537643432617 7.14026212692261 7.03016662597656 6.75644874572754 6.3934965133667 5.95228385925293 5.70322465896606 5.71810150146484
2.93775153160095 3.29325437545776 3.26854753494263 3.13252282142639 2.81309914588928 2.70359659194946 2.70107293128967 2.62148189544678 2.56208038330078 2.40661215782166 2.30986595153809 2.19864463806152 2.17841172218323 2.2203106880188 2.23846507072449 2.29222202301025 2.27132368087769 2.35727453231812 2.67209100723267 2.81724047660828 2.56167387962341 2.67292714118958 3.00720429420471 3.00004529953003 2.92361235618591 3.56656336784363 4.39909887313843 5.26085615158081 8.13926219940186 7.11712026596069 4.31631088256836 3.69024229049683 3.35686588287354 3.09038496017456 3.03899741172791 2.98972749710083 2.74352669715881 2.82722353935242 2.26119804382324 1.76572251319885 1.65668845176697 1.65611529350281 1.81192696094513 1.86513078212738 2.14430975914001 1.95254945755005 1.5765792131424 1.37485074996948 1.07608091831207 0.727522194385529 0.535540878772736 0.332957863807678 0.344295501708984 0.344293594360352 0.415064513683319 0.317139387130737 0.302478522062302 0.295540243387222 0.293368428945541 0.255103945732117 0.213198319077492 0.156109854578972 0.0955010503530502 0.00199602218344808 -0.0174719225615263 -0.0861696004867554 -0.0814648866653442 0.388319075107574 0.0212535820901394 0.170873329043388 0.28119096159935 0.0513571463525295 0.337231040000916 0.423255652189255 0.553337752819061 1.26875054836273 1.03902888298035 0.46685716509819 0.45473712682724 0.464873701334 0.367195457220078 0.167742192745209 -0.00564880343154073 -0.310358256101608 -0.431770324707031 -0.317627549171448 -0.208747252821922 0.12421016395092 -0.578543305397034 0.164929553866386 0.597321093082428 1.2235951423645 2.0523316860199 2.28730535507202 2.33414006233215 2.36538434028625 2.17854452133179 2.08871269226074 2.73592090606689 3.4258987903595 3.96541142463684 3.6932635307312 3.66879510879517 3.44351172447205 3.10403203964233 2.82416725158691 2.69263553619385 2.33273196220398 2.32454633712769 2.21155524253845 2.20438480377197 2.25976228713989 2.20958948135376 2.36022210121155 2.64328742027283 2.96555805206299 4.21947860717773 3.90082669258118 4.06880187988281 4.33303737640381 4.35546398162842 4.06129837036133 3.49942207336426 3.29731225967407 5.94367790222168 3.22962403297424 3.22800898551941 3.10844683647156 2.92042350769043 2.64705801010132 2.52385878562927 2.53615093231201 3.03232884407043 3.4106388092041 3.33788180351257 3.22062993049622 3.76213121414185 4.91168975830078 6.50459289550781 7.93107509613037 7.82586908340454 8.93544673919678 10.1804447174072 10.789909362793 10.8254995346069 11.3925294876099 12.9321346282959 15.9193744659424 18.0016956329346 19.5641193389893 24.1728687286377 25.0638847351074 23.7747936248779 23.4275283813477 26.6226711273193 25.5888519287109 22.8414154052734 21.7235260009766 19.5593090057373 17.6572723388672 15.2030534744263 13.6066665649414 11.2881689071655 9.80347442626953 7.75053739547729 7.43661785125732 7.13082695007324 6.7674036026001 6.29388332366943 6.68467855453491 6.73487949371338 6.67737245559692
4.19177961349487 4.25734901428223 3.84589385986328 3.34534645080566 3.14307284355164 3.20429968833923 3.07490134239197 2.95639610290527 2.78153920173645 2.62014222145081 2.4395968914032 2.33123183250427 2.33578705787659 2.28598809242249 2.36248183250427 2.49073672294617 2.58556866645813 2.68729209899902 3.04670667648315 3.26854562759399 3.28600907325745 3.55323696136475 4.05258989334106 4.17615270614624 4.80944108963013 6.22677230834961 4.19680500030518 3.47809147834778 4.37051010131836 5.92251110076904 6.83955478668213 4.18718576431274 3.75641775131226 3.55093622207642 3.39700531959534 3.48031663894653 3.18383264541626 2.97147417068481 2.28244376182556 1.85905706882477 1.85750114917755 2.02159810066223 2.08347201347351 2.35994601249695 2.13159728050232 2.04288935661316 1.65687334537506 1.16523504257202 0.81889533996582 0.591391444206238 0.42558878660202 0.344342440366745 0.340374678373337 0.335669249296188 0.328594535589218 0.321610629558563 0.309816688299179 0.296764492988586 0.286051005125046 0.277099937200546 0.24756395816803 0.195654273033142 0.119648285210133 0.0429860949516296 0.169849440455437 -0.0803539454936981 -0.0419312156736851 0.400885313749313 0.0671146214008331 0.189071357250214 0.170363545417786 -0.0602149851620197 0.267967641353607 0.407762408256531 0.367048442363739 0.656652212142944 0.953540563583374 0.764076590538025 0.564561903476715 0.530846953392029 0.431715548038483 0.196332797408104 -0.00683686044067144 -0.300353646278381 -0.577407240867615 -0.737285912036896 -0.867514252662659 -0.34340101480484 0.571885049343109 0.832288920879364 1.15691983699799 1.18478405475616 1.35914957523346 1.78845536708832 1.92313301563263 2.12445878982544 2.07241678237915 2.87229084968567 3.4014687538147 3.79542970657349 3.9928879737854 3.80537819862366 3.5265645980835 3.22467017173767 2.94647312164307 2.7740581035614 2.42128992080688 2.2435462474823 2.43863201141357 2.36114573478699 2.47930908203125 2.43300867080688 2.32519555091858 2.63544654846191 3.01346397399902 3.31104636192322 3.90916609764099 4.48986768722534 4.74770498275757 4.59293937683105 4.50328826904297 4.0283055305481 3.42382025718689 3.16400957107544 5.14214420318604 3.25940918922424 3.13500189781189 3.06728363037109 2.70422792434692 2.47793197631836 2.2708420753479 2.17189502716064 2.44279074668884 2.68072199821472 2.5270721912384 2.60374021530151 3.27226901054382 3.62202191352844 4.4497766494751 6.35525465011597 8.64939594268799 12.7667760848999 13.1435651779175 12.8277969360352 12.3502616882324 12.7701864242554 15.2481718063354 18.7842235565186 23.1333122253418 27.829195022583 28.5695285797119 26.9643478393555 23.8026485443115 26.360445022583 28.7461605072021 25.801778793335 23.7644920349121 21.3813056945801 20.2358093261719 16.9175052642822 15.6799039840698 12.7350635528564 10.8526096343994 9.36944198608398 7.79140090942383 7.62722253799438 7.2048225402832 9.0205545425415 8.49812316894531 9.00884532928467 7.54795265197754 7.61515712738037
5.59945297241211 4.82846641540527 4.27565288543701 4.06655597686768 3.78892970085144 3.61392951011658 3.46525263786316 3.29065799713135 3.08600234985352 2.97066903114319 2.85553860664368 2.79193496704102 2.7259247303009 2.67023992538452 2.78316688537598 2.79163813591003 3.05581259727478 3.40979170799255 3.46578145027161 3.89951014518738 4.23520517349243 4.6269679069519 4.65569448471069 4.88010120391846 4.03781318664551 4.21024322509766 3.56832790374756 3.47397041320801 2.93214535713196 4.21114921569824 5.77351379394531 5.66585874557495 4.37266397476196 3.97562575340271 4.04728174209595 3.92840957641602 3.47306704521179 2.99981665611267 2.25276803970337 2.06775856018066 1.99538242816925 2.22976493835449 2.63430953025818 2.35626697540283 2.23306322097778 1.81141626834869 1.59398698806763 0.896167576313019 0.653377413749695 0.485520660877228 0.377788037061691 0.369807600975037 0.357024997472763 0.342755347490311 0.326189607381821 0.315474838018417 0.310547262430191 0.30691197514534 0.293962270021439 0.285595208406448 0.267759054899216 0.229446977376938 0.156868368387222 0.0913952812552452 0.0461241044104099 -0.0504006333649158 -0.00107218744233251 -0.0537295788526535 0.0687701851129532 0.527964890003204 0.023419352248311 -0.0476342178881168 0.109572008252144 0.297105431556702 0.357642263174057 0.48097887635231 0.539149224758148 0.724277138710022 0.663291335105896 0.596143066883087 0.422089368104935 0.24420353770256 -0.0239304434508085 -0.401502549648285 -0.675236880779266 -0.817757368087769 -0.92695164680481 -0.69096714258194 1.16154146194458 1.48579263687134 1.37454795837402 1.43536829948425 1.11391639709473 1.40142464637756 1.58008086681366 1.65464961528778 2.60560655593872 3.61682105064392 4.05075454711914 4.21703767776489 3.86673092842102 3.76888179779053 3.5034773349762 3.0117518901825 2.84720659255981 2.47174406051636 2.26999139785767 2.04734826087952 2.14622950553894 2.52696990966797 2.60057353973389 2.41998076438904 2.55601572990417 2.94596004486084 3.40050315856934 4.0813159942627 4.55863380432129 4.9640851020813 5.17687559127808 5.02213191986084 4.65199947357178 4.16130352020264 3.44252276420593 3.12458944320679 3.31311392784119 3.1671245098114 3.09307646751404 2.96719002723694 2.61235594749451 2.32830905914307 2.15340161323547 2.08594608306885 2.04921817779541 2.1759467124939 2.27329707145691 2.49285125732422 3.26012325286865 3.44895672798157 3.61261224746704 4.25245809555054 7.92799520492554 12.02672290802 13.1442604064941 12.6752872467041 12.56374168396 13.6529445648193 15.883228302002 24.7088108062744 33.4016723632812 34.9318695068359 32.0463523864746 27.6171035766602 27.0876560211182 28.3704261779785 29.1093101501465 27.1889305114746 23.5331439971924 21.9871826171875 19.5553359985352 17.7985916137695 14.3900575637817 12.2649574279785 10.2668943405151 8.66806888580322 8.03814220428467 7.62793254852295 8.22316360473633 12.9976396560669 14.0137071609497 10.0320796966553 8.89086437225342 9.86517906188965
6.28899335861206 5.39882040023804 5.34143781661987 4.87267589569092 4.71003770828247 4.23336601257324 3.94340872764587 3.69430184364319 3.48091340065002 3.37210273742676 3.38348960876465 3.3365843296051 3.22558188438416 3.28799176216125 3.28416633605957 3.72671842575073 3.95820951461792 4.04526376724243 4.99247217178345 5.21109819412231 5.66488885879517 5.04071140289307 4.66055679321289 5.02107906341553 4.82214164733887 3.93842887878418 3.71016931533813 3.29879307746887 2.94243955612183 3.37549495697021 4.52688503265381 5.29023361206055 4.67986965179443 4.41955471038818 4.53817367553711 3.95263051986694 3.54280686378479 3.10911273956299 2.50759935379028 2.32452750205994 2.51071834564209 2.58542370796204 2.83753442764282 2.54978084564209 2.02496457099915 1.74565780162811 1.36102700233459 0.834163069725037 0.516959011554718 0.380007952451706 0.391342371702194 0.380934059619904 0.370411187410355 0.362145632505417 0.34476312994957 0.329219996929169 0.319542914628983 0.307763427495956 0.308227181434631 0.300438076257706 0.280076116323471 0.251442760229111 0.200579583644867 0.142339497804642 0.0568908080458641 -0.0104336077347398 0.0641187131404877 -0.087518997490406 0.0933092013001442 0.326511353254318 0.113708660006523 0.0577564164996147 0.145059019327164 0.355495393276215 0.493454664945602 0.50760018825531 0.624016165733337 0.666330277919769 0.677384495735168 0.592662036418915 0.444671660661697 0.251021295785904 0.0421228110790253 -0.332466900348663 -0.660553216934204 -0.848063766956329 -0.979780673980713 -0.909169495105743 0.300557464361191 1.03572642803192 0.976849257946014 1.11440312862396 1.24227130413055 1.32009744644165 1.66313517093658 2.09681296348572 3.03545451164246 3.88342571258545 4.61749362945557 4.12575006484985 4.02256107330322 3.75381970405579 3.36978721618652 3.03556799888611 2.52067184448242 2.308434009552 2.05969429016113 1.98973274230957 2.22619938850403 2.65518999099731 2.51105141639709 2.69868946075439 3.02399015426636 3.23002243041992 3.59932255744934 4.60237598419189 5.22527122497559 5.38970518112183 5.53572607040405 5.22618198394775 4.69730043411255 4.06569194793701 3.52642440795898 3.31923985481262 3.38794302940369 3.1939263343811 2.99730706214905 2.71790552139282 2.51205277442932 2.25420737266541 2.13380861282349 2.04114985466003 2.1122100353241 2.26803350448608 2.40674662590027 2.74782133102417 3.44676923751831 3.71397113800049 3.77839803695679 3.6865975856781 3.5545380115509 6.72149658203125 9.34195423126221 9.56540966033936 10.1220455169678 11.5108985900879 14.8829393386841 27.1486129760742 30.02170753479 32.9868774414062 31.2433319091797 24.2430801391602 23.7319602966309 35.9852180480957 34.0156669616699 27.2575073242188 24.8224639892578 21.5157508850098 18.9490547180176 17.7966117858887 14.9071521759033 11.4747228622437 9.39997482299805 8.45942115783691 8.76265430450439 8.74219131469727 6.47592687606812 10.1581201553345 15.4202680587769 12.7442893981934 11.5407009124756 12.8758192062378
4.88840627670288 4.5205979347229 5.69053602218628 5.80087947845459 5.65307760238647 5.05766820907593 4.64650201797485 4.44218397140503 4.15821981430054 4.07106113433838 4.00097990036011 3.8051495552063 3.95955371856689 3.93162369728088 4.00161504745483 4.44208574295044 4.90813732147217 5.33538436889648 6.03442430496216 6.83272504806519 6.303297996521 5.87956476211548 6.07389163970947 5.09362936019897 5.17174863815308 4.19814825057983 3.56198930740356 2.98670506477356 3.3203592300415 3.83291554450989 4.38327169418335 4.96230983734131 4.91170644760132 5.19484376907349 4.86970090866089 4.23817586898804 3.94906163215637 3.59514856338501 2.88836479187012 2.97333908081055 2.99760890007019 3.19882202148438 2.90666031837463 2.68367338180542 2.18174839019775 1.50416421890259 1.05126392841339 0.747935175895691 0.405070394277573 0.400346487760544 0.394306272268295 0.388735592365265 0.377938985824585 0.384204059839249 0.355602592229843 0.345552265644073 0.347849100828171 0.34403994679451 0.323535144329071 0.306188672780991 0.297126799821854 0.266450971364975 0.227844566106796 0.184317260980606 0.112426809966564 0.0559499561786652 0.00956886727362871 -0.0605642162263393 0.426539182662964 -0.0135713256895542 0.0831326693296432 0.153131008148193 0.312090039253235 0.389632999897003 0.517859041690826 0.600925624370575 0.682575047016144 0.680266976356506 0.607608616352081 0.572659015655518 0.475128293037415 0.269218623638153 -0.0146191911771894 -0.288927733898163 -0.669460713863373 -0.874975144863129 -0.884544968605042 -0.836520731449127 -0.865716755390167 0.482058256864548 1.08580648899078 1.31077766418457 1.50077652931213 1.56586158275604 2.26588201522827 3.37314510345459 4.04289579391479 4.62980031967163 4.7232780456543 4.32650899887085 4.0552020072937 3.62811040878296 3.23500418663025 2.99616694450378 2.51238083839417 2.12526202201843 2.25822186470032 2.43588256835938 2.7305474281311 2.72551679611206 2.62877607345581 2.98911547660828 3.44740796089172 3.79594016075134 4.50188112258911 5.08564281463623 5.53163719177246 5.80004501342773 5.61771440505981 5.27360868453979 4.62584495544434 4.16089248657227 3.79019784927368 3.61138844490051 3.38996171951294 3.20335102081299 2.79576921463013 2.5466673374176 2.2949070930481 2.19074988365173 2.12980318069458 2.13297986984253 2.23073244094849 2.38744592666626 2.79836463928223 3.34812045097351 3.62018752098083 3.70982074737549 3.82119655609131 3.64912962913513 3.36374926567078 3.36505556106567 3.83370399475098 4.8997597694397 5.36229467391968 5.62194967269897 4.95736312866211 8.55267906188965 12.3473596572876 16.7509956359863 20.7650508880615 14.7659473419189 11.3671245574951 20.660816192627 33.4935646057129 31.9949626922607 24.2294750213623 21.2177982330322 19.5611381530762 16.320743560791 14.5234260559082 11.0819473266602 8.98135852813721 8.2513599395752 8.03903102874756 8.77823448181152 7.56024789810181 6.84119033813477 10.6244716644287 14.9334993362427 14.2201528549194 15.5528020858765
2.4502694606781 3.16395401954651 4.38565874099731 5.44158363342285 5.73185110092163 5.63595008850098 5.58382940292358 5.42199850082397 5.20061779022217 5.30098533630371 5.00164079666138 5.24603843688965 4.43539428710938 3.98098850250244 4.34788846969604 5.16512012481689 6.05454778671265 7.06612634658813 7.13685178756714 7.58951902389526 7.34520483016968 7.44570207595825 6.29199743270874 6.13301134109497 4.81554651260376 4.3681001663208 3.24087119102478 2.70296168327332 3.4245879650116 4.34206438064575 5.5695595741272 5.5405535697937 5.82476472854614 5.43254613876343 4.80386400222778 4.55081129074097 4.34237957000732 4.28075075149536 4.11983489990234 3.81327819824219 3.84013223648071 3.36542868614197 3.07625246047974 2.51112198829651 2.12465476989746 1.16665208339691 0.840154051780701 0.590822279453278 0.417161673307419 0.413167864084244 0.40410453081131 0.398386806249619 0.398823827505112 0.402078986167908 0.359380394220352 0.360834419727325 0.372138440608978 0.380289316177368 0.363305270671844 0.337896853685379 0.312183231115341 0.284408092498779 0.256381660699844 0.210190877318382 0.1561668664217 0.129784628748894 0.0544609725475311 0.00239105918444693 0.413161724805832 0.0835653841495514 0.174666687846184 0.346177279949188 0.391570925712585 0.523116886615753 0.572372913360596 0.655797481536865 0.695168554782867 0.694100737571716 0.59695291519165 0.519694268703461 0.469526916742325 0.234345033764839 -0.0223614163696766 -0.295302301645279 -0.643897533416748 -0.775503039360046 -0.775713384151459 -0.86455500125885 -0.561995387077332 0.634905695915222 1.59317421913147 1.7906266450882 1.52417075634003 2.30320000648499 3.94642233848572 4.56524038314819 5.19971323013306 5.26268815994263 4.79429388046265 4.53185939788818 4.19248962402344 3.51223492622375 3.20862460136414 2.67498707771301 2.4192259311676 2.88053154945374 3.07198023796082 3.29953956604004 3.08482146263123 2.80996417999268 2.9350893497467 3.34507274627686 3.8936140537262 4.79085350036621 5.49036836624146 5.86217641830444 6.02534008026123 6.05787324905396 5.74696254730225 5.25265312194824 4.66063022613525 4.25011348724365 3.97382760047913 3.69996547698975 3.44695401191711 3.19042778015137 2.77724170684814 2.44797301292419 2.27157139778137 2.21226668357849 2.16636943817139 2.30347061157227 2.43167281150818 2.65721249580383 3.49439311027527 3.70071077346802 3.89035654067993 3.99403190612793 3.93132162094116 3.67971467971802 3.49628901481628 3.11413478851318 2.64004611968994 2.00619864463806 1.25012016296387 0.39240974187851 -1.06816327571869 -1.41056835651398 6.85091495513916 12.6846551895142 14.7549781799316 11.5582752227783 9.60576915740967 11.2632598876953 22.6674098968506 30.3283367156982 28.1223735809326 22.0189990997314 18.1235027313232 16.1563816070557 13.1358261108398 10.9434595108032 8.92848777770996 7.80521965026855 6.76426267623901 6.43692493438721 6.16227197647095 7.64580869674683 9.76207542419434 14.0614376068115 17.5843925476074 17.2504940032959
0.389950484037399 2.04788446426392 3.25310969352722 4.06925296783447 4.57980155944824 4.97679710388184 5.36478328704834 5.97932100296021 6.91939067840576 7.08173561096191 6.19213771820068 4.74249362945557 4.31713962554932 5.90308475494385 7.30217838287354 7.37597465515137 9.52230644226074 9.07036590576172 9.45307350158691 8.20943927764893 8.94089221954346 7.70737886428833 7.3950629234314 5.75799322128296 5.2000207901001 4.15651941299438 3.2892735004425 2.04085373878479 2.75057649612427 3.18805718421936 5.89610528945923 7.06104516983032 5.94920015335083 5.08751678466797 5.40582609176636 5.56380987167358 5.35279607772827 5.23463869094849 4.77541065216064 5.28690242767334 4.51104211807251 3.73817491531372 3.03339338302612 2.47012281417847 1.85196578502655 1.12556076049805 0.658559024333954 0.451300412416458 0.43320032954216 0.420711159706116 0.425727397203445 0.418446451425552 0.471892565488815 0.384504646062851 0.3681321144104 0.473702847957611 0.386473894119263 0.381420373916626 0.382433295249939 0.37564605474472 0.353867620229721 0.318819940090179 0.286563247442245 0.2468091994524 0.213906764984131 0.176228493452072 0.11838822811842 0.0917040705680847 0.0795366689562798 0.144294410943985 0.389387935400009 0.446156293153763 0.55907541513443 0.562204420566559 0.677842319011688 0.721493303775787 0.717367172241211 0.63519424200058 0.586350321769714 0.501250207424164 0.407801061868668 0.241504162549973 -0.0540298223495483 -0.274025946855545 -0.490561753511429 -0.62349808216095 -0.802502691745758 -0.858723282814026 -0.902032852172852 0.779144108295441 2.30995106697083 2.13834261894226 2.46246838569641 3.60687375068665 5.43599700927734 6.12126016616821 6.03514003753662 5.47748422622681 5.12388181686401 4.71099233627319 4.04329061508179 3.59340786933899 3.17123293876648 2.93534755706787 2.30753588676453 2.64211654663086 3.96237897872925 3.65501618385315 3.02304458618164 3.19421720504761 3.56890463829041 3.83739566802979 4.26278591156006 5.49522399902344 6.3824028968811 6.56522798538208 6.50803327560425 6.18204545974731 5.81516122817993 5.30516910552979 4.69461345672607 4.33052587509155 4.04992198944092 3.7819709777832 3.47403407096863 3.04621195793152 2.76518750190735 2.45255470275879 2.33817553520203 2.24320220947266 2.30111289024353 2.46839833259583 2.62433552742004 3.00816321372986 3.80455017089844 4.08795595169067 4.19738388061523 4.2130331993103 4.12098217010498 3.84947514533997 3.6579258441925 3.20339822769165 2.35851883888245 1.41543650627136 0.728977501392365 -0.3502496778965 -1.27649390697479 -1.78882098197937 -1.85991859436035 4.93055772781372 9.59321880340576 8.88828754425049 7.6703314781189 7.47489976882935 13.4129028320312 27.1334381103516 33.2392311096191 21.4850673675537 17.7059211730957 14.4047412872314 11.8917484283447 10.2230958938599 8.61292457580566 7.54359436035156 5.95672607421875 5.07956171035767 7.03911876678467 10.5950469970703 14.4006414413452 20.7262630462646 21.289981842041 19.4713249206543
0.047466691583395 0.196470335125923 2.31213808059692 3.34452152252197 3.44928479194641 3.26608848571777 3.9870924949646 5.04107904434204 6.6906270980835 5.56469440460205 5.02102947235107 6.38574171066284 8.86155414581299 10.0585012435913 10.4308204650879 14.0063629150391 13.2984762191772 12.1369609832764 9.80378818511963 9.552077293396 9.45566844940186 8.77204322814941 6.89802360534668 6.29039716720581 4.96983194351196 3.88010048866272 2.98112869262695 1.99278450012207 1.9439891576767 1.58891236782074 4.49519681930542 8.27752685546875 5.43748569488525 5.32748413085938 6.25536966323853 7.02148103713989 6.82951259613037 6.58317518234253 6.33468103408813 5.9017333984375 5.15872383117676 4.12478017807007 3.22842884063721 2.24774479866028 1.49993741512299 1.06108844280243 0.510924756526947 0.452274233102798 0.446404218673706 0.444111973047256 0.638236284255981 0.636393308639526 0.567618429660797 0.378467172384262 0.376361936330795 0.393185615539551 0.406120419502258 0.394515097141266 0.388870179653168 0.378669142723083 0.378858506679535 0.367193013429642 0.349871098995209 0.317489862442017 0.272753775119781 0.213444605469704 0.166497364640236 0.128514736890793 0.118471793830395 0.213986739516258 0.526239931583405 0.625001966953278 0.592147588729858 0.675637900829315 0.751637279987335 0.750639677047729 0.654626071453094 0.601809144020081 0.543431401252747 0.483501076698303 0.362945377826691 0.225748956203461 -0.0253830105066299 -0.20670185983181 -0.355085968971252 -0.52163153886795 -0.703069806098938 -0.830971658229828 -0.89233672618866 -0.0174737572669983 2.49910283088684 3.22187232971191 3.86165070533752 5.30887079238892 6.19887924194336 7.13412094116211 6.40799427032471 5.83515882492065 5.33691740036011 4.59417772293091 3.93712329864502 3.37781429290771 2.75038766860962 2.34013533592224 1.76635277271271 2.31749582290649 4.30888080596924 3.79536271095276 3.30696177482605 3.94201803207397 4.3010950088501 4.69900321960449 5.48324966430664 6.32122039794922 6.75216197967529 7.07455062866211 6.63202953338623 6.23403930664062 5.68594789505005 5.21311140060425 4.74347734451294 4.50319623947144 4.22407102584839 3.80542206764221 3.3345365524292 3.00349593162537 2.62910890579224 2.50945711135864 2.39889883995056 2.45308232307434 2.50433325767517 2.71106767654419 3.18505668640137 3.78437566757202 4.13690090179443 4.22818660736084 4.40281295776367 4.42948198318481 4.31205558776855 4.16997385025024 3.67957949638367 3.02230501174927 2.05188131332397 1.11543416976929 0.404537409543991 -0.577652931213379 -1.31283700466156 -1.81848680973053 -2.06862926483154 -2.10097026824951 0.858612954616547 0.81324303150177 1.57940518856049 2.9593460559845 6.12701034545898 16.2690334320068 31.150857925415 28.9181118011475 15.9977788925171 12.6239891052246 10.4689931869507 9.51195526123047 8.22070217132568 6.86258268356323 5.43441724777222 6.66887521743774 9.57390308380127 17.0554885864258 24.3894996643066 27.0027236938477 24.9434871673584 22.0921821594238
0.0156097142025828 0.0156707819551229 0.656095504760742 2.53011703491211 3.13714361190796 2.6110315322876 2.72634100914001 3.23265099525452 3.8930983543396 5.11769676208496 6.10959672927856 6.29732894897461 8.36597156524658 9.93999671936035 9.82547473907471 13.4040184020996 16.5407943725586 13.5545873641968 11.7844762802124 11.2422552108765 10.0058298110962 9.37447071075439 7.40024995803833 5.92241287231445 4.77980184555054 3.64436411857605 2.41688418388367 1.30772542953491 0.752021074295044 -0.0550727918744087 1.65661835670471 7.1449670791626 5.27086782455444 4.78381013870239 5.72592687606812 7.16326332092285 8.31658363342285 9.38614654541016 9.29943466186523 7.0313138961792 5.00195980072021 4.07525205612183 2.71445202827454 2.84019470214844 2.0670964717865 1.09990084171295 0.616785287857056 0.520071864128113 0.45449897646904 0.631220459938049 0.849499523639679 0.801081538200378 0.483457893133163 0.395623862743378 0.404602736234665 0.405331194400787 0.405538350343704 0.409716784954071 0.395340591669083 0.390441417694092 0.385410457849503 0.37930554151535 0.374063760042191 0.363333106040955 0.338148325681686 0.277949631214142 0.234073027968407 0.189446613192558 0.265858024358749 0.474815517663956 0.575902283191681 0.676550328731537 0.734742701053619 0.742255330085754 0.771157741546631 0.775647342205048 0.658455312252045 0.56391966342926 0.502617597579956 0.367183893918991 0.313829004764557 0.35786446928978 0.0334285199642181 -0.0559404045343399 -0.206400886178017 -0.384170204401016 -0.589757859706879 -0.759452223777771 -0.895324945449829 -0.947595775127411 2.06926846504211 4.87101984024048 6.53492736816406 7.95276212692261 8.47680568695068 7.8260440826416 6.99478387832642 6.26615953445435 5.14754676818848 4.42473077774048 3.64971232414246 2.78290700912476 2.47032141685486 2.11155438423157 1.84418487548828 1.80026912689209 3.92572069168091 3.54728674888611 3.78401446342468 4.70355939865112 5.36806488037109 6.14153623580933 7.04620265960693 7.34416389465332 7.61626148223877 7.44962787628174 7.01065397262573 6.36654329299927 5.57760953903198 5.22747564315796 4.80801010131836 4.55002641677856 4.27949237823486 3.73032212257385 3.27167224884033 2.8877170085907 2.73613142967224 2.59899353981018 2.56620359420776 2.68193030357361 2.89402604103088 3.40828394889832 4.03097677230835 4.43458127975464 4.51903295516968 4.6141471862793 4.62104797363281 4.62069654464722 4.60032558441162 4.17136573791504 3.45544409751892 2.59629797935486 1.86002397537231 0.913465857505798 0.254662305116653 -0.51651805639267 -1.18261277675629 -1.67441701889038 -2.08695912361145 -2.15172719955444 -1.71626842021942 -0.597003281116486 -0.472689509391785 0.309281229972839 1.57331991195679 3.53138327598572 15.1866016387939 24.230260848999 17.0224018096924 11.5785675048828 11.8151826858521 9.16391849517822 7.58826780319214 6.75161409378052 6.56665325164795 7.42464351654053 11.4017467498779 19.3266983032227 26.3083992004395 32.7439231872559 31.2478294372559 27.7309608459473
0.379143953323364 0.0675835162401199 0.00518381176516414 1.1700245141983 1.848060131073 2.11446452140808 2.30856037139893 2.27570366859436 2.92744469642639 3.47763729095459 3.74715518951416 2.95362663269043 3.99880838394165 7.27475214004517 5.47711420059204 7.73732757568359 16.8228340148926 15.182671546936 13.665657043457 12.2678108215332 11.2799186706543 8.98006153106689 7.9003849029541 5.78118276596069 4.47271823883057 3.14096331596375 1.67379701137543 0.801422595977783 0.178168043494225 -0.305923312902451 -0.482074439525604 4.43613290786743 3.7867169380188 3.89326238632202 4.96669292449951 6.54585123062134 8.08542728424072 8.899658203125 11.9731464385986 8.71172523498535 5.09074258804321 3.64575672149658 2.11215329170227 1.61365962028503 2.88813972473145 3.29169821739197 1.79627060890198 1.06116759777069 0.727400302886963 1.14459013938904 1.17330348491669 0.797892093658447 0.427201837301254 0.407903611660004 0.476788341999054 0.488288134336472 0.412434130907059 0.410510003566742 0.414037793874741 0.407765835523605 0.39154264330864 0.391727119684219 0.395966917276382 0.375943660736084 0.36022213101387 0.343241661787033 0.372583627700806 0.42132493853569 0.560850262641907 0.651814222335815 0.735207557678223 0.745864808559418 0.804638624191284 0.821967303752899 0.80986624956131 0.709075152873993 0.65266627073288 0.555570960044861 0.380496144294739 0.292072981595993 0.234421357512474 0.378090292215347 0.124408677220345 0.0624109022319317 -0.0545920729637146 -0.246272951364517 -0.482033342123032 -0.705603182315826 -0.871982216835022 -0.298543244600296 3.07982015609741 8.30435180664062 10.9420213699341 10.692834854126 9.50153255462646 8.66667652130127 7.46102952957153 6.78439235687256 5.23464250564575 4.24169254302979 3.02821516990662 2.61059188842773 2.14363265037537 1.83406031131744 1.8838871717453 1.80389511585236 3.56835198402405 4.23703241348267 4.89163732528687 5.54400396347046 7.13717412948608 8.20695877075195 8.3342924118042 8.53126525878906 8.19241046905518 7.66878271102905 7.0544171333313 6.43233823776245 5.57292604446411 5.18053150177002 4.8832483291626 4.55536842346191 4.23454713821411 3.69874143600464 3.23683834075928 2.9919285774231 2.86882591247559 2.74934959411621 2.84240627288818 2.99889850616455 3.28141808509827 4.31587171554565 4.58008813858032 4.83739233016968 4.90124177932739 4.94282388687134 4.96613740921021 4.79447937011719 4.71715450286865 4.2952446937561 3.29378747940063 2.29612493515015 1.65002381801605 0.799624800682068 0.229832589626312 -0.525027990341187 -0.954124987125397 -1.51800203323364 -1.97800195217133 -1.78469657897949 -1.1819486618042 -0.482007175683975 0.452658027410507 2.36519551277161 4.13617658615112 4.39092588424683 8.37197303771973 16.3176765441895 14.5797729492188 10.8381595611572 12.1746912002563 8.80982398986816 6.74644947052002 6.06854057312012 5.37860202789307 6.20416498184204 8.8350772857666 12.7220649719238 20.748218536377 25.830358505249 29.077787399292 33.2111396789551
0.304220855236053 0.0323615781962872 0.054853655397892 1.40441942214966 1.35894203186035 1.83722770214081 1.53767776489258 2.11428761482239 1.96130156517029 2.03735876083374 2.29041504859924 1.11431813240051 1.18103444576263 3.76590466499329 5.42628479003906 4.23808908462524 9.49578666687012 16.5162467956543 15.8196058273315 13.5515165328979 10.9910907745361 9.36067008972168 7.22631454467773 6.23191690444946 3.93184614181519 2.22528219223022 1.15264344215393 0.465307325124741 0.184419929981232 -0.450444787740707 -0.529124140739441 1.9302499294281 1.49324786663055 1.10633087158203 2.70936679840088 5.26394319534302 7.0448112487793 6.12761354446411 8.07364463806152 8.60528373718262 4.62559843063354 2.96364879608154 1.75616431236267 0.918282687664032 1.73186647891998 2.26728415489197 2.7722499370575 2.86513113975525 1.96302843093872 1.75612962245941 1.50056076049805 0.74657940864563 0.419276893138885 0.520273208618164 0.542415976524353 0.522995233535767 0.528471171855927 0.415355741977692 0.420536428689957 0.403653502464294 0.408435791730881 0.412975043058395 0.40038001537323 0.395692884922028 0.383155882358551 0.367784529924393 0.496640831232071 0.782757043838501 0.805974006652832 0.902943432331085 0.808387219905853 0.897139489650726 0.902596890926361 0.877686619758606 0.751032590866089 0.679211318492889 0.599327802658081 0.536447584629059 0.39108344912529 0.16299594938755 0.14442290365696 0.443364799022675 0.179860770702362 0.149635344743729 0.0450003482401371 -0.137957081198692 -0.378267198801041 -0.662523925304413 -0.832027494907379 -1.01198184490204 5.12512111663818 9.52957820892334 13.400634765625 12.6228246688843 11.0862264633179 9.77925205230713 8.37187576293945 6.48041963577271 5.58730316162109 3.73917365074158 2.90516376495361 2.244633436203 1.7179811000824 1.70981383323669 1.81597816944122 2.54774141311646 4.59269046783447 6.16343116760254 6.74324560165405 7.46260786056519 8.29152202606201 9.67585754394531 9.91105461120605 9.2403621673584 8.57898616790771 7.70170307159424 6.96046829223633 6.22141647338867 5.6678581237793 5.21489477157593 4.91886377334595 4.4944543838501 3.95167064666748 3.60012316703796 3.28182411193848 3.15384674072266 3.07033586502075 3.04825854301453 3.11604475975037 3.35034871101379 3.80781579017639 4.72333145141602 5.0875940322876 5.24153280258179 5.27061414718628 5.16467237472534 5.13553285598755 5.04288578033447 4.62241363525391 3.92795276641846 2.95722770690918 2.01520228385925 1.39570116996765 0.783763527870178 0.25471442937851 -0.357894837856293 -0.785646080970764 -1.31817924976349 -1.55316770076752 -1.30855059623718 -0.650832116603851 0.171747460961342 1.39490103721619 2.5705246925354 4.10000610351562 4.85660696029663 7.20993900299072 9.48722648620605 10.3054609298706 9.15389823913574 9.60124397277832 7.8916072845459 5.67826271057129 4.88532972335815 4.24182415008545 3.8887984752655 3.08433985710144 5.35037660598755 17.3642139434814 20.3005714416504 18.02880859375 16.5285968780518
0.268486678600311 0.370542705059052 -0.0597231537103653 0.799317002296448 1.12324750423431 1.58384668827057 2.44531536102295 2.08369135856628 1.65203106403351 1.39561212062836 1.61897099018097 1.61892127990723 0.56372344493866 -0.262913167476654 2.57904076576233 2.3576352596283 4.33062553405762 17.1620388031006 18.540075302124 14.5266666412354 11.8499507904053 8.79033088684082 7.55279922485352 5.80696392059326 4.29639863967896 1.93101716041565 0.768674969673157 0.60956221818924 0.144567474722862 -0.412018686532974 -0.557845830917358 -0.544598698616028 -0.393312752246857 -0.606072425842285 -0.705487430095673 1.05823493003845 6.79932928085327 7.47302913665771 7.14336967468262 8.6838903427124 4.02333068847656 2.13127422332764 1.51220285892487 0.556413054466248 0.551653623580933 1.38434958457947 1.81811881065369 2.02226161956787 3.05590486526489 3.57953262329102 2.20559883117676 1.04033660888672 0.674222350120544 0.762302458286285 0.776036858558655 0.665424466133118 0.535678863525391 0.536645650863647 0.484985381364822 0.418603330850601 0.426220804452896 0.42746913433075 0.422410756349564 0.405833393335342 0.405416965484619 0.478609830141068 0.623112618923187 0.911112248897552 1.07525718212128 1.00422954559326 1.01296246051788 1.00033020973206 0.962683796882629 0.815719187259674 0.734721422195435 0.634986281394958 0.560045063495636 0.406619101762772 0.319504201412201 0.184623748064041 0.191035717725754 0.392047435045242 0.212798073887825 0.207056865096092 0.102353274822235 -0.0822512805461884 -0.30149844288826 -0.593156278133392 -0.927023768424988 -1.16848802566528 -0.74629682302475 5.51650714874268 11.149959564209 14.5514335632324 12.9108819961548 10.3303623199463 7.86473321914673 6.93998861312866 5.43212652206421 3.92662239074707 2.5385890007019 1.86944949626923 1.76356434822083 1.89902186393738 1.96906316280365 3.60241651535034 6.19121980667114 8.56719970703125 9.59018993377686 10.3145246505737 11.3997383117676 11.449951171875 10.9831590652466 10.086368560791 8.86291408538818 7.68915510177612 6.68840932846069 6.13243770599365 5.72248077392578 5.4033670425415 4.93152332305908 4.22674131393433 3.85779643058777 3.56174445152283 3.44417381286621 3.30693745613098 3.38737750053406 3.46180272102356 3.71045517921448 4.22762155532837 4.84391069412231 5.36444187164307 5.39230489730835 5.47585725784302 5.54584980010986 5.50775289535522 5.36259698867798 4.98244953155518 4.17668104171753 3.35882782936096 2.68084955215454 1.76873886585236 1.2597736120224 0.872962653636932 0.434372574090958 0.0347323305904865 -0.474266976118088 -0.870078802108765 -0.818874299526215 -0.39826312661171 0.012172375805676 1.60644507408142 2.15828609466553 3.27290511131287 7.47028493881226 7.54606914520264 8.53458023071289 8.75026988983154 9.47259616851807 10.3482599258423 9.04448318481445 6.4102578163147 5.26666164398193 4.63629865646362 3.87963390350342 2.86857771873474 0.947927355766296 0.106520056724548 10.4590282440186 18.3100051879883 18.2022876739502 13.8339385986328
