NCOLS 174
NROWS 31
XLLCORNER 353792
YLLCORNER 6701232
CELLSIZE 16 
NODATA_value -3.4e+38 
13.3282680511475 13.9432697296143 18.2263507843018 14.0474824905396 19.4604511260986 19.7591934204102 23.3013954162598 21.1962928771973 25.4905548095703 41.2535285949707 55.6784706115723 12.3346929550171 14.7587366104126 23.7392463684082 23.0245800018311 20.9490203857422 -1.75779104232788 8.7876443862915 -1.59076273441315 -1.44880819320679 -1.10744452476501 4.16684007644653 -0.694212079048157 5.86760330200195 3.77476024627686 -0.00482628121972084 0.163449019193649 0.294983923435211 1.5031464099884 3.77074766159058 10.9331970214844 24.2033023834229 3.81928324699402 4.70994997024536 5.4103798866272 9.38143539428711 16.7667045593262 31.084493637085 50.3257179260254 6.00608015060425 18.4604835510254 19.8072319030762 10.8665599822998 1.6511971950531 -1.05906796455383 -0.210139393806458 0.672409474849701 -1.48113799095154 -1.22467982769012 -0.0984748378396034 3.05865526199341 0.381173580884933 -2.237309217453 -0.344302088022232 4.44821643829346 15.8765649795532 11.5599994659424 15.158712387085 23.8774013519287 5.87882089614868 52.4580688476562 14.9634609222412 1.43422317504883 1.70752787590027 -4.83094501495361 -2.99907875061035 -1.75706708431244 1.93330776691437 1.24519872665405 -3.51358985900879 9.03048610687256 1.24280107021332 -4.11398839950562 -3.67690324783325 -3.48080611228943 0.714944362640381 -2.80504417419434 -2.15492033958435 9.67345142364502 22.549861907959 27.73974609375 -2.47783303260803 7.18294715881348 -2.21023678779602 -0.806157350540161 -0.638510465621948 -0.176849335432053 -0.0349958203732967 -0.0622415654361248 0.0414019264280796 0.114089198410511 0.213510915637016 0.495170503854752 0.589797914028168 5.55669689178467 13.2474279403687 0.813544392585754 1.42059552669525 1.48560774326324 1.46905839443207 1.01559162139893 1.05863356590271 1.33457183837891 1.60453462600708 1.66819608211517 1.73793613910675 1.81484651565552 1.5637743473053 1.84386956691742 1.95859491825104 2.09764456748962 2.24922847747803 2.42862820625305 1.84216701984406 2.03467774391174 2.03165173530579 2.13848543167114 2.57001996040344 3.34314274787903 24.8842124938965 42.4417495727539 -1.0844578742981 1.07818150520325 1.31059658527374 1.4339987039566 11.4128513336182 21.945987701416 0.7437903881073 -0.0791121572256088 6.4898943901062 -0.268096476793289 1.76442503929138 5.71046733856201 11.0007276535034 21.0985794067383 0.695644974708557 5.56862306594849 2.75115585327148 2.87462472915649 3.01974701881409 3.32574677467346 3.63714575767517 3.79845857620239 4.14719867706299 4.44474840164185 6.96435737609863 7.83392429351807 8.61164951324463 9.52792930603027 10.620774269104 12.8581285476685 14.8908462524414 17.6107959747314 21.3350887298584 26.6667385101318 42.2893409729004 15.1396417617798 23.2136135101318 3.31567978858948 3.80708360671997 30.4703769683838 3.1126127243042 3.54514384269714 5.2720422744751 5.42338132858276 5.39818239212036 5.55705165863037 5.68172311782837 5.81404733657837 6.77433300018311 7.08242082595825 7.45153427124023 7.85552549362183 7.65051937103271
13.598464012146 17.5648231506348 31.1316890716553 13.8863639831543 21.9718647003174 14.8208208084106 14.7820711135864 16.490026473999 20.6787490844727 38.6709289550781 47.1395683288574 17.0030536651611 29.6898975372314 20.2977924346924 24.7848720550537 10.2264089584351 6.67290592193604 0.444939643144608 9.17093372344971 -1.49590647220612 -0.45592799782753 5.65378761291504 -0.615514099597931 1.96041417121887 14.8664484024048 8.88727855682373 -0.502765417098999 0.200913265347481 0.969850718975067 2.75708484649658 3.56929874420166 15.4271602630615 29.0382919311523 3.76985859870911 6.00864219665527 13.501127243042 27.684534072876 46.3623352050781 7.42913055419922 9.79111766815186 11.2118701934814 18.9511966705322 5.62303686141968 0.875574171543121 4.99565029144287 15.4039793014526 1.14419960975647 -2.10568141937256 -1.77098536491394 0.457107543945312 6.28071784973145 -2.29129981994629 -1.42705154418945 0.371011078357697 3.28391981124878 16.4762268066406 14.034387588501 27.3823871612549 9.96766567230225 13.384955406189 -3.04564762115479 50.6416282653809 -2.25668048858643 4.73055839538574 -1.48566079139709 0.649116098880768 1.28739893436432 2.97038531303406 2.7419798374176 0.804677248001099 8.68619918823242 -4.0731258392334 10.4073629379272 -3.61399555206299 -3.02509593963623 -2.56882405281067 9.90188694000244 -1.39688551425934 6.17105197906494 8.73081398010254 23.9893321990967 1.3649845123291 -1.72822940349579 -1.89273297786713 -0.746232390403748 -0.348910987377167 0.0160874780267477 0.0528669618070126 0.437086760997772 0.722200632095337 1.0901312828064 1.43437385559082 0.633202612400055 0.896107733249664 1.26028716564178 1.64153432846069 1.99157607555389 1.56730401515961 1.847336769104 2.16701912879944 2.5971405506134 3.12407445907593 3.88072752952576 5.09301853179932 1.76903641223907 1.24922585487366 1.59376740455627 1.91232407093048 2.00237131118774 2.11142587661743 2.22520637512207 2.34953618049622 2.09177899360657 2.68771052360535 2.9545111656189 3.26569151878357 3.64612317085266 3.28764486312866 4.08747291564941 5.31138181686401 10.0926284790039 2.16235995292664 2.28743290901184 1.27915143966675 1.38387072086334 1.53493463993073 1.73540461063385 1.94210684299469 2.07583975791931 3.25802254676819 3.77251243591309 4.5081353187561 5.52387380599976 8.94519519805908 17.6206684112549 0.233112886548042 1.24435353279114 12.0696887969971 1.15082323551178 1.23118114471436 1.70642554759979 3.52261352539062 3.76905870437622 3.99716424942017 4.35456562042236 5.01789522171021 5.52944231033325 6.10333251953125 7.31043148040771 11.2235631942749 12.9817600250244 15.3698034286499 18.7510833740234 23.7631034851074 29.1834411621094 47.7902908325195 25.7544574737549 2.98261618614197 3.23525261878967 3.78511571884155 4.21468019485474 6.26088523864746 3.95914721488953 4.50337409973145 5.36402940750122 5.63230323791504 5.76966953277588 5.88602876663208 5.99079179763794 6.16427230834961 6.42274284362793 6.77276515960693 7.15051126480103 8.43124294281006
14.3145017623901 19.2169246673584 14.438346862793 19.9055137634277 27.787353515625 45.2681159973145 16.9247531890869 23.667573928833 25.6148204803467 25.519157409668 21.5540618896484 19.3259410858154 21.8985424041748 23.1078090667725 25.3378009796143 36.6607093811035 1.31158077716827 5.70137691497803 9.05955696105957 -1.84283912181854 -1.80576479434967 -0.517759799957275 -0.170295938849449 14.827841758728 0.474364131689072 0.350833177566528 0.622386813163757 0.863317370414734 1.74227249622345 2.33321094512939 5.78361463546753 6.22423028945923 12.0088453292847 30.9729518890381 6.80086803436279 12.576807975769 6.89515113830566 18.3954238891602 21.3832244873047 3.42937326431274 6.81259202957153 10.5047817230225 2.47665929794312 20.8656177520752 10.1101665496826 -2.14744734764099 -1.45413219928741 2.5539562702179 -0.347230046987534 8.6375846862793 15.6548480987549 -0.944678783416748 -0.0348355546593666 2.77708458900452 12.3941059112549 8.30568981170654 16.2237529754639 19.6634368896484 6.77297878265381 -1.19746923446655 -4.08424377441406 0.751452565193176 42.6115341186523 -0.583922684192657 7.35184049606323 -0.718260526657104 7.01339530944824 15.2382030487061 4.00599336624146 -2.71930050849915 -4.28738832473755 -3.70025491714478 -3.22381162643433 0.689881324768066 -2.54166984558105 -2.52908539772034 -2.1070613861084 0.764883816242218 -1.40382659435272 -1.33740413188934 15.1988220214844 29.1951789855957 -1.81346297264099 -1.7145391702652 -0.734536826610565 -0.566444277763367 -0.27178567647934 0.434232860803604 0.787319242954254 1.21061420440674 1.57071971893311 1.94548428058624 1.87807369232178 2.30477070808411 2.82867527008057 3.44846200942993 1.79722499847412 2.479487657547 2.97494077682495 3.6980140209198 4.56422853469849 5.95476961135864 3.98563408851624 5.31213569641113 7.98530864715576 15.251030921936 1.26698553562164 2.00485849380493 2.09900236129761 1.52223074436188 1.6088582277298 2.09963655471802 2.52441692352295 2.679030418396 2.86014819145203 3.07429456710815 3.31698513031006 4.2556324005127 4.9504566192627 5.8744421005249 8.12576866149902 15.852294921875 0.384521037340164 3.32871413230896 3.63617825508118 4.04640197753906 4.5273814201355 1.859903216362 2.25532460212708 2.61904954910278 3.11060953140259 3.76346254348755 4.98439502716064 4.53111696243286 11.3842544555664 13.8529596328735 0.762431919574738 0.941387355327606 0.639108240604401 0.948781847953796 1.69924652576447 1.73844504356384 2.06475567817688 2.10693550109863 2.41313123703003 2.65340781211853 5.20070219039917 5.69237804412842 6.98210954666138 8.0997486114502 9.59995174407959 11.8205337524414 15.2026281356812 24.2260475158691 41.324821472168 26.4569778442383 9.38043308258057 3.3226318359375 3.50329351425171 4.44571733474731 13.5707788467407 31.4968757629395 4.14190816879272 5.27976417541504 5.78547477722168 6.21700096130371 6.12029027938843 6.27213287353516 6.41923952102661 6.42488861083984 6.66541004180908 7.00169467926025 6.97637128829956 7.63699913024902
17.9528827667236 20.000904083252 19.7970905303955 23.1065082550049 26.383695602417 32.4988021850586 45.0069808959961 33.3545875549316 14.5229291915894 14.8877792358398 21.7054615020752 36.2480392456055 10.974666595459 11.6249694824219 12.7571926116943 22.9219036102295 2.30983805656433 19.004955291748 20.1298217773438 -0.905085504055023 -0.573535561561584 -0.103291966021061 -0.517330944538116 0.712562084197998 14.6280689239502 0.655330121517181 1.31498765945435 1.69811761379242 1.86748421192169 2.47419738769531 7.79132223129272 16.8772811889648 9.77152156829834 22.5602188110352 9.98508262634277 13.7478179931641 12.634238243103 4.51638221740723 4.53041315078735 5.88135004043579 7.83440685272217 23.2795829772949 14.3614978790283 -0.0706872940063477 -0.754533171653748 0.541570365428925 1.49977695941925 9.88584518432617 17.9185371398926 4.97678422927856 0.899349749088287 1.72719419002533 3.24489188194275 5.55048084259033 16.4457664489746 21.5064525604248 8.90966892242432 17.7421531677246 13.8252038955688 -1.22861731052399 -4.80159521102905 -4.62289905548096 -0.648097217082977 42.484375 -1.10349094867706 -3.13962316513062 17.0329570770264 2.67746686935425 14.5023612976074 -4.31144952774048 -3.94290280342102 -3.82358312606812 12.2345657348633 -3.23581004142761 7.16969108581543 -2.3672788143158 -0.214300289750099 7.72924089431763 -1.26325678825378 -0.797092735767365 -0.796520590782166 -0.824715971946716 -0.745563447475433 -0.685748398303986 -0.606408178806305 -0.653425455093384 -0.39573723077774 -0.258788675069809 -0.160857036709785 0.00593808107078075 0.121152304112911 1.05044972896576 2.32826948165894 2.81986999511719 3.38775753974915 4.01444959640503 4.13840675354004 5.04609537124634 6.17041349411011 7.64923286437988 10.0781335830688 3.92853951454163 9.23778915405273 18.3774909973145 0.205694869160652 13.3243818283081 0.642754316329956 1.3657341003418 1.42123520374298 2.21303725242615 2.3221480846405 2.43688488006592 2.56675028800964 2.70898199081421 2.19467687606812 2.40558338165283 3.04928088188171 3.65048456192017 3.97735500335693 4.39729070663452 4.86157655715942 6.16047477722168 14.0513572692871 20.5868339538574 0.588739156723022 3.24463486671448 2.81764698028564 5.22904491424561 6.12408781051636 7.29670286178589 8.9617919921875 11.6392555236816 4.01458549499512 7.87398481369019 15.2066583633423 1.60405778884888 9.5595874786377 0.611334025859833 1.19310760498047 1.37328219413757 1.62122082710266 1.65790688991547 1.96310770511627 2.02758765220642 2.16268301010132 2.21221613883972 2.64156007766724 3.02512526512146 3.83538579940796 4.4408073425293 8.18058395385742 9.42425537109375 11.197021484375 23.0154056549072 39.5760345458984 7.14697694778442 5.53404188156128 4.10602283477783 4.73547220230103 4.90711975097656 4.79175758361816 13.0320196151733 16.637170791626 5.25566720962524 6.20066833496094 6.46058416366577 6.43577718734741 6.59848356246948 6.76589918136597 6.93259954452515 7.33461332321167 8.53436374664307 10.1806144714355 12.544638633728
19.4129257202148 20.7687511444092 23.8131656646729 27.2767028808594 31.517147064209 37.4961318969727 49.9112129211426 34.4018135070801 10.9542579650879 10.9580430984497 11.8724670410156 36.0386047363281 19.4780921936035 34.4309616088867 6.82047653198242 16.5746574401855 25.8248271942139 1.07948994636536 2.42403745651245 5.05231285095215 0.655308365821838 3.52790379524231 15.5234661102295 0.687658667564392 1.73674237728119 2.63054013252258 8.64295482635498 1.41123151779175 2.46459627151489 1.39874053001404 9.5883731842041 2.36751627922058 17.5997371673584 2.96347284317017 3.11786031723022 7.37725591659546 3.91992831230164 3.76333498954773 3.37682867050171 5.81290245056152 30.9048805236816 4.45058059692383 13.1841487884521 13.7582111358643 1.49149930477142 11.8842706680298 -1.1519501209259 11.150785446167 0.61147266626358 21.1703453063965 -0.56812447309494 0.952888190746307 3.53185272216797 11.8594665527344 12.1960515975952 9.43721199035645 10.4930601119995 25.2870960235596 12.3375120162964 -1.05320703983307 -1.0437136888504 -4.7342848777771 -4.56866502761841 -4.40090703964233 40.0543403625488 -0.709328055381775 13.2813034057617 -2.35137319564819 -3.95555925369263 -3.58437728881836 -3.36944961547852 -2.7783260345459 -2.48742318153381 -2.33249306678772 10.4745054244995 -1.58796799182892 17.5226268768311 -1.33555221557617 -0.781342267990112 -0.765515625476837 -0.710346460342407 -0.698949873447418 -0.677753448486328 -0.627735912799835 -0.555945158004761 -0.46778866648674 -0.383340835571289 -0.329088270664215 -0.252840429544449 -0.149880185723305 0.0648852586746216 0.349389612674713 0.604420721530914 0.876836478710175 1.15682327747345 0.758269608020782 4.72134637832642 5.77182817459106 7.09184217453003 8.81280899047852 11.4556570053101 15.5390729904175 28.9969997406006 -0.0343642979860306 8.86260414123535 17.3982830047607 0.399398356676102 1.08117985725403 1.12797057628632 1.14374840259552 1.57057571411133 1.64369225502014 1.72259712219238 1.81427943706512 2.90750360488892 3.09211397171021 3.30609369277954 3.53922986984253 3.78399586677551 3.93443202972412 4.8200855255127 6.25062561035156 9.58258247375488 11.4654083251953 5.01236867904663 13.2877025604248 27.4251041412354 -0.595814943313599 1.21046769618988 1.73786354064941 4.33705282211304 5.66247367858887 18.0327072143555 33.0289535522461 0.0326175875961781 3.05142068862915 3.21196436882019 0.790982723236084 1.27760457992554 1.30796670913696 1.45040607452393 1.48515260219574 1.70333242416382 1.74017786979675 2.05767560005188 2.12609696388245 2.62837910652161 2.68439269065857 3.22389078140259 3.47520875930786 3.71588897705078 4.38027763366699 4.58666086196899 12.773416519165 23.7572040557861 15.2132091522217 28.7959747314453 4.23645830154419 7.23690557479858 5.21806907653809 5.54913949966431 5.64576292037964 6.01358413696289 6.03325510025024 6.43056344985962 6.36787796020508 6.67281627655029 6.84008312225342 7.0117506980896 7.18703699111938 7.16751432418823 7.3659143447876 7.57602453231812 7.79820251464844
20.029369354248 22.420015335083 25.610315322876 34.9476165771484 53.386043548584 25.6118011474609 26.5732879638672 36.0275764465332 20.3918476104736 6.85750722885132 7.69751262664795 10.7409172058105 19.858377456665 20.3113098144531 22.2987537384033 6.67158222198486 16.5722923278809 9.88487529754639 11.9946718215942 0.179684191942215 0.476483196020126 0.701089322566986 0.876315474510193 4.01089286804199 2.08394598960876 2.80551934242249 3.29167890548706 9.83373165130615 8.28775882720947 3.77105236053467 12.3695058822632 6.39978504180908 7.31853628158569 3.23670673370361 3.85340452194214 5.35195112228394 6.70976495742798 18.8641567230225 30.1301803588867 4.25019693374634 10.3933229446411 13.8228435516357 4.152099609375 6.64586877822876 14.7271699905396 -0.0895785689353943 2.00212669372559 -0.22310671210289 2.12219333648682 5.13689756393433 0.413322359323502 1.70111548900604 15.0944890975952 16.3023338317871 21.6459789276123 26.6459560394287 4.20297765731812 1.79848909378052 9.94844245910645 -2.54865574836731 0.548655033111572 -1.21830022335052 -1.19946277141571 -4.7814302444458 -3.90121483802795 36.8156280517578 0.579786777496338 9.24211978912354 -3.68615436553955 -2.66899943351746 4.91861724853516 -0.404078215360641 -2.2731716632843 -1.54904842376709 6.45805358886719 17.3344440460205 -1.01782608032227 -0.402856171131134 -0.484024316072464 -0.647478222846985 -0.630591094493866 -0.611734569072723 -0.588141620159149 -0.58418607711792 -0.532142162322998 -0.441512823104858 -0.391375333070755 -0.347513049840927 -0.267199277877808 -0.184598490595818 -0.134487152099609 -0.0224092341959476 0.0857914239168167 0.154899522662163 0.255491107702255 1.25271046161652 1.60411131381989 2.00990533828735 2.4010763168335 1.6500391960144 4.22571897506714 17.8311138153076 30.8835563659668 -0.250708192586899 9.05734539031982 11.8304643630981 22.452672958374 0.180781632661819 1.31885838508606 1.37574195861816 1.4364253282547 1.31215584278107 1.38015699386597 1.45908832550049 1.52433359622955 2.05652379989624 2.1896607875824 2.33238577842712 2.48591017723083 4.19136571884155 4.60408735275269 5.06751775741577 9.65927505493164 18.9264640808105 4.11252164840698 4.78296041488647 29.026388168335 6.82649374008179 -0.805874109268188 0.94812935590744 2.20569109916687 2.68930268287659 8.89128398895264 17.3141498565674 1.1485869884491 13.3317022323608 0.551338672637939 0.738635838031769 1.19446110725403 1.22449600696564 1.41125619411469 1.44217324256897 1.52545666694641 1.66638576984406 2.17170906066895 2.21638417243958 2.21945190429688 2.04057836532593 3.12643241882324 3.57672095298767 3.64297771453857 3.81574559211731 3.88941311836243 4.56251764297485 5.77963066101074 11.3006982803345 8.00247859954834 5.25915193557739 5.54829168319702 5.60364770889282 5.61398220062256 6.06050252914429 6.24158763885498 6.38710689544678 6.53440284729004 6.68670606613159 6.7921199798584 6.96408271789551 7.14708805084229 7.10327911376953 7.42711210250854 8.22679615020752 9.52479553222656 11.3319225311279
14.8872051239014 23.1840076446533 27.7005271911621 47.1046485900879 25.6320610046387 26.2614917755127 35.8472518920898 36.8147964477539 11.8555107116699 8.33835792541504 4.93105602264404 15.5744047164917 5.62387800216675 28.3558864593506 10.0079278945923 20.6342220306396 25.6636600494385 4.0292272567749 6.07292985916138 5.53427457809448 0.38971135020256 0.615057766437531 1.24187695980072 0.914585828781128 8.11627674102783 1.63320004940033 1.79122614860535 6.01421689987183 7.59432220458984 17.5698146820068 2.33375883102417 7.20881271362305 6.92044258117676 11.6989078521729 8.28870582580566 18.2036266326904 18.6003818511963 16.547679901123 26.9938335418701 4.48960447311401 2.83983707427979 8.62231159210205 12.5277976989746 2.85314393043518 3.15339231491089 -1.03865647315979 1.6247695684433 5.62833261489868 -0.926865756511688 -1.30790793895721 1.3368980884552 2.69708609580994 7.32066249847412 27.6721706390381 20.3309555053711 3.03451108932495 4.19419574737549 3.79650664329529 12.0812225341797 3.51675820350647 -4.77107954025269 -4.63683843612671 4.27542781829834 -4.45723867416382 -4.17112588882446 -3.39528894424438 -3.14947891235352 -2.95598888397217 6.40509414672852 -2.63259196281433 5.99462080001831 -1.38621282577515 22.1344680786133 4.1725172996521 -2.09418892860413 -0.968278348445892 -1.17928862571716 -0.500815451145172 -0.353723526000977 -0.33224493265152 -0.308502167463303 -0.267851531505585 -0.228654325008392 -0.325323879718781 -0.450541824102402 -0.401378124952316 -0.361604541540146 -0.37362739443779 -0.316799700260162 -0.253416895866394 -0.173011943697929 -0.0602232925593853 0.419304698705673 0.157648593187332 0.277361840009689 0.646718204021454 1.29745614528656 2.1785876750946 3.44043946266174 2.76558637619019 3.32793760299683 3.75478553771973 4.33206224441528 6.14389657974243 4.09853982925415 14.1618995666504 26.014310836792 -0.231182143092155 1.16430568695068 1.35081899166107 1.44026517868042 1.54075980186462 1.65503168106079 1.78392112255096 1.75332546234131 1.85701131820679 1.78138768672943 1.89622354507446 2.05824255943298 2.24083423614502 2.92778778076172 3.24581408500671 3.85706377029419 6.52365922927856 7.0178918838501 8.76170635223389 13.26926612854 25.1851654052734 -0.565802693367004 -0.522507131099701 0.600737631320953 2.93970966339111 3.82867836952209 5.97655296325684 3.63718867301941 6.59709739685059 0.556597411632538 0.990076124668121 1.0491429567337 1.08073592185974 1.25656926631927 1.28593480587006 1.48276054859161 1.51698923110962 1.55150234699249 1.74719905853271 2.27617263793945 2.32714557647705 2.54551982879639 3.11993145942688 3.27358746528625 3.73728775978088 3.80514645576477 3.96510243415833 4.75243186950684 6.51232004165649 12.7830715179443 5.41999387741089 5.63657140731812 5.93473482131958 6.08938837051392 6.22251653671265 6.36453008651733 6.51527500152588 6.66787672042847 6.62703609466553 6.88531398773193 7.05436134338379 7.23318147659302 7.42562770843506 7.59273338317871 8.54951667785645 10.0908050537109 12.4136381149292
17.2664756774902 18.9991893768311 22.580394744873 32.8012008666992 20.775577545166 26.7435531616211 37.091724395752 30.9928932189941 9.76306343078613 7.41164445877075 6.47509670257568 4.93672847747803 5.70969390869141 8.447509765625 10.3908834457397 20.0389766693115 24.0484962463379 2.21251201629639 10.3608665466309 6.73587322235107 5.84677457809448 -0.0170937590301037 -0.0038399500772357 1.04605889320374 1.21816289424896 1.60569906234741 4.63729953765869 2.20556163787842 11.2274942398071 31.9817028045654 1.98635017871857 4.50021028518677 4.81739234924316 13.9890489578247 3.99580764770508 11.833423614502 24.7901268005371 1.09172260761261 -1.77196776866913 2.62165546417236 -2.3539605140686 4.9691104888916 3.89759111404419 8.64847183227539 5.24350881576538 13.4360322952271 -3.6547589302063 2.55836796760559 0.333008944988251 -0.320329874753952 0.0763681158423424 1.7454332113266 4.37626552581787 11.7408590316772 11.1599054336548 4.49246120452881 -0.214817017316818 14.1910581588745 9.81734752655029 -0.527275741100311 -4.88097190856934 -4.41352558135986 4.1327428817749 -4.21705055236816 -4.02192640304565 1.90742588043213 36.7527847290039 -3.13467812538147 9.63391971588135 -2.06364417076111 10.6371879577637 13.2224817276001 -2.16259837150574 -1.7371119260788 0.234342485666275 -0.0191928315907717 -0.994662463665009 -1.1161812543869 -1.07985007762909 -1.05965518951416 -0.551601052284241 -0.350539475679398 -0.321133673191071 -0.151450246572495 -0.107268154621124 -0.0527626611292362 -0.00109325465746224 -0.0993064269423485 -0.268003553152084 -0.219780161976814 -0.173990115523338 -0.10027401894331 -0.0629768148064613 0.529708445072174 1.31154763698578 2.25517177581787 3.49898099899292 5.35429382324219 0.617595851421356 5.43455266952515 11.6193885803223 0.20867457985878 1.89712250232697 2.45406365394592 9.86440277099609 19.1659832000732 -0.0492421723902225 0.401066064834595 1.1919379234314 1.35478281974792 1.82318270206451 1.53191983699799 1.66076695919037 1.7226767539978 1.97479212284088 2.1672945022583 2.39464449882507 2.64976572990417 2.24825978279114 2.39311385154724 2.7264518737793 3.44105172157288 4.41282606124878 4.85315942764282 3.93317079544067 4.72866582870483 5.98858547210693 12.5332221984863 23.7679710388184 18.8025875091553 -0.948321878910065 3.13813591003418 6.08635330200195 2.9568943977356 5.74183177947998 0.62062281370163 0.908214807510376 0.934674263000488 0.978657305240631 1.00764513015747 0.785985469818115 1.00708639621735 1.15265369415283 1.19955503940582 1.81677389144897 1.86417937278748 2.50874280929565 2.56034874916077 2.28311538696289 2.32748103141785 3.08165502548218 3.34832096099854 3.80661678314209 3.89286613464355 4.86527729034424 5.14803409576416 5.38831090927124 5.50080251693726 5.84611511230469 6.13043165206909 6.25920343399048 6.24675846099854 6.39909982681274 6.46380853652954 6.68606424331665 6.86621332168579 7.03622245788574 7.21378231048584 7.40129041671753 7.38321781158447 7.66162157058716 8.17758750915527 9.40428829193115 11.4872426986694
15.989182472229 17.9064102172852 24.5006217956543 24.7735214233398 25.6370029449463 28.0280094146729 32.2877311706543 26.2552223205566 24.3614349365234 11.3845615386963 13.911057472229 6.79365253448486 5.02202987670898 1.79955458641052 4.78070306777954 6.42877626419067 18.3285331726074 25.4693717956543 1.04495215415955 9.1757287979126 12.6945133209229 1.56492340564728 10.2023239135742 0.0959550738334656 0.850989937782288 2.10374140739441 0.668008148670197 1.92812359333038 9.04654121398926 10.2910203933716 3.39603638648987 2.70747256278992 3.33385276794434 11.9731092453003 9.43490505218506 2.26473641395569 4.89111614227295 4.28382778167725 9.37297916412354 -1.51534199714661 -2.41477513313293 -1.87473177909851 1.39599192142487 4.74798393249512 -2.33425617218018 -2.24518060684204 -0.0919315367937088 8.0045280456543 15.4267492294312 -2.18981719017029 2.26644945144653 3.60025310516357 11.7813997268677 8.45707988739014 4.7349271774292 6.15683078765869 2.48318576812744 7.05298185348511 24.9881706237793 -4.65588665008545 -4.57861518859863 -4.35047340393066 5.08779096603394 -1.33451962471008 -3.44727182388306 -2.81228733062744 -0.392052203416824 10.3654937744141 -1.95556282997131 12.8713531494141 -0.18109093606472 8.19486045837402 -1.71005046367645 0.669526159763336 1.04972362518311 0.329949140548706 -0.813297986984253 -1.03724551200867 -0.991221725940704 -0.968077957630157 -0.932962119579315 -0.918918311595917 -0.433723449707031 -0.260730355978012 -0.21920707821846 -0.177447661757469 -0.122672319412231 0.0597178749740124 0.100133821368217 0.136150419712067 0.183740332722664 0.244065254926682 0.155141174793243 0.0482667572796345 0.193822011351585 0.32779797911644 0.456775724887848 0.523485600948334 8.39929008483887 18.4557266235352 -0.0847554728388786 0.637153267860413 0.861247539520264 0.902370095252991 0.833952248096466 5.04397535324097 9.93415832519531 0.365780472755432 0.460759490728378 0.567349672317505 1.4763491153717 1.97561120986938 2.20004367828369 2.45218920707703 2.76866793632507 2.22674536705017 2.48142313957214 2.72596764564514 3.23909330368042 3.97964715957642 5.16629981994629 5.95912313461304 6.77213191986084 5.62328720092773 9.55119228363037 2.13874244689941 7.80443334579468 5.42079639434814 20.0350494384766 5.08929920196533 18.8384799957275 -0.661802053451538 1.50791621208191 2.92619872093201 6.79254007339478 0.287378519773483 0.580182254314423 0.55244117975235 0.57952082157135 0.602247953414917 1.03843367099762 1.06956422328949 1.09857070446014 1.1242903470993 1.81713330745697 1.94228851795197 1.98447465896606 1.94835162162781 2.62341070175171 2.68340730667114 3.45653510093689 3.51066446304321 3.30222058296204 3.47944355010986 3.99771356582642 4.51820516586304 5.33700609207153 5.44785642623901 5.64644765853882 5.7691912651062 5.89508533477783 6.42626953125 6.57034778594971 6.71517992019653 6.87094783782959 7.03416776657104 7.10724020004272 7.14257717132568 7.45293760299683 7.65935039520264 7.86942577362061 8.08785724639893 8.41496753692627 10.2931537628174
19.4610042572021 24.9545021057129 36.7872314453125 26.629467010498 29.8278942108154 29.2374248504639 37.5963706970215 30.0368423461914 16.8312931060791 22.6779880523682 9.73568439483643 7.36994791030884 8.77715587615967 10.5788621902466 0.131545335054398 0.904993236064911 4.78236055374146 7.35351991653442 26.5273971557617 6.44256782531738 19.605411529541 0.270386189222336 1.40990948677063 2.44664525985718 8.15375232696533 16.8014736175537 -0.0120839336887002 1.29641950130463 4.96207666397095 9.16294574737549 1.48384690284729 3.1204822063446 3.13724565505981 23.7970066070557 4.35588264465332 9.71449375152588 4.09220504760742 6.91870832443237 9.65086460113525 5.37751770019531 0.931337177753448 -4.50931215286255 -3.43594980239868 -1.96375286579132 -1.40483582019806 1.33840250968933 -0.615344882011414 -0.78053867816925 -1.51973938941956 1.31385636329651 1.43513941764832 6.5269947052002 6.36982154846191 18.3103523254395 24.1591720581055 -4.39783763885498 17.1711101531982 6.52837991714478 47.3949203491211 10.8317213058472 -4.71984481811523 -4.59417390823364 -3.59573435783386 -3.07133865356445 -2.59036898612976 -1.9620064496994 -0.498053312301636 5.29261016845703 5.74550724029541 -1.7552033662796 -1.51588261127472 -0.279417097568512 0.167195722460747 0.814315438270569 1.14218413829803 -0.116700448095798 -1.01718664169312 -0.939617931842804 -0.877299726009369 -0.852090835571289 -0.824064135551453 -0.817740738391876 -0.840542852878571 -0.453199446201324 -0.345913708209991 -0.314822226762772 -0.282420098781586 -0.254645705223083 -0.0701316893100739 -0.045579943805933 -0.0124573456123471 0.083984375 0.312952309846878 0.419445514678955 0.550583720207214 0.678805828094482 0.819546818733215 0.730281591415405 0.968976676464081 1.70775556564331 3.44180059432983 8.02011394500732 0.572345435619354 1.12776553630829 1.20730066299438 2.28802752494812 0.927700281143188 1.12840735912323 1.2074887752533 1.22360169887543 1.39631330966949 1.61024343967438 1.78592920303345 2.0383677482605 2.31346106529236 3.19700407981873 3.72402238845825 4.44675874710083 5.48222160339355 7.1165919303894 5.06673049926758 8.11164569854736 15.9019269943237 2.64482498168945 2.84266042709351 1.46029317378998 4.54159212112427 5.42354297637939 10.3195943832397 21.970386505127 -0.25149142742157 14.0951461791992 -0.479903340339661 -0.437033295631409 -0.372209817171097 -0.0175152756273746 0.539138555526733 0.600538194179535 0.627665936946869 0.690177261829376 0.90393477678299 0.928782224655151 0.784784853458405 1.57208693027496 2.16596102714539 2.21274018287659 2.00806641578674 2.11532783508301 2.24157166481018 2.28661322593689 2.94344449043274 3.65638494491577 3.74501538276672 3.67119073867798 3.7751727104187 3.91470098495483 4.59733247756958 5.11613416671753 5.58998346328735 5.71266984939575 5.84064817428589 5.97619771957397 6.11911249160767 6.36216497421265 6.52033615112305 6.68710041046143 7.24256134033203 7.42089939117432 7.61056756973267 7.81002902984619 7.97999954223633 8.20121955871582 8.17155742645264 8.61962413787842
20.6317825317383 23.5959053039551 32.7270622253418 25.5590934753418 33.5348243713379 45.5767974853516 41.6018257141113 21.1700267791748 13.6827068328857 30.5305614471436 5.43290901184082 12.8451175689697 17.4521389007568 7.84042358398438 6.01265811920166 -1.41401290893555 2.4785840511322 7.60865306854248 12.7235536575317 14.612416267395 17.395149230957 1.23378944396973 -0.15848796069622 0.114449217915535 7.40737009048462 1.84087419509888 6.81150388717651 11.2064914703369 5.60135698318481 4.52060890197754 5.64526271820068 14.5678358078003 3.40055584907532 1.4411438703537 2.70006513595581 2.84419798851013 7.49650621414185 17.8904838562012 5.83270978927612 -5.34512996673584 -5.25739288330078 -2.2214024066925 -3.43706512451172 -2.7653660774231 -1.4980982542038 -0.603323817253113 1.28676068782806 -0.938162446022034 2.53515338897705 10.4379873275757 13.5829181671143 20.422887802124 7.54971218109131 12.0170783996582 2.11961507797241 -4.16731977462769 -4.08699369430542 -3.97751307487488 -3.57609868049622 10.8726568222046 2.85417485237122 -3.42496347427368 -3.33080983161926 -2.73007130622864 -2.01772284507751 -1.71443057060242 3.94551181793213 9.45199108123779 -1.06035053730011 -1.68775033950806 -0.68223637342453 -0.547092616558075 0.100929602980614 0.764034330844879 0.338186055421829 -0.455673307180405 -0.884261727333069 -0.782199323177338 -0.669792473316193 -0.781165599822998 -0.772261738777161 -0.755663990974426 -0.735375881195068 -0.695846617221832 -0.653988301753998 -0.365740686655045 -0.344189554452896 -0.320874720811844 -0.307906985282898 -0.209804624319077 -0.18094639480114 -0.143924027681351 0.10096713155508 0.170075371861458 0.256192952394485 0.343929022550583 0.609516680240631 0.929941713809967 1.09344887733459 1.21097719669342 1.36677384376526 1.2144250869751 5.92639350891113 9.33250045776367 0.505375504493713 1.30633294582367 1.37010622024536 1.45875144004822 1.58218574523926 1.70424008369446 1.37812578678131 1.54250681400299 1.72059416770935 1.97150301933289 2.24750185012817 2.65301060676575 3.09540939331055 3.73875021934509 4.65421724319458 6.07942247390747 11.1741180419922 21.3159446716309 0.4688640832901 4.12994384765625 0.122533537447453 1.29049491882324 3.89237284660339 4.24873828887939 5.11566591262817 6.98849582672119 13.9678440093994 14.7498741149902 -0.381407409906387 -0.117755331099033 0.0989257842302322 0.454310953617096 0.512407600879669 0.523812592029572 0.975065171718597 0.999695360660553 0.607623517513275 0.753526329994202 0.948231101036072 0.969542980194092 1.25237345695496 1.94044744968414 2.26316428184509 2.31336569786072 2.54084539413452 2.84124112129211 3.11064124107361 3.16253423690796 3.62192344665527 3.84154391288757 3.92708730697632 4.01682281494141 4.11708879470825 4.20621061325073 4.81631517410278 5.35929012298584 5.47813701629639 5.60158634185791 5.72825002670288 6.30119132995605 6.4543342590332 6.62069511413574 6.79435920715332 7.08676481246948 7.28486347198486 7.49127101898193 8.05822086334229 8.26764106750488 8.50377082824707 8.76427173614502
20.9778861999512 30.5042400360107 49.4933967590332 18.8130149841309 23.4914798736572 34.7719230651855 38.1586036682129 31.455924987793 17.4482936859131 20.420431137085 6.19912195205688 12.6334009170532 7.83892250061035 5.23237895965576 1.49026823043823 0.255826711654663 0.675993382930756 2.69115304946899 3.08137536048889 6.13429260253906 11.522780418396 7.34095907211304 18.8167057037354 -1.3673712015152 -0.0656247958540916 2.13557267189026 5.83097362518311 4.24250316619873 5.40177536010742 5.99223232269287 18.322114944458 -0.401081293821335 13.7644748687744 -0.472113847732544 15.0515146255493 2.72187089920044 3.28428721427917 4.93777942657471 6.1774787902832 1.752445936203 12.1926574707031 -5.35567426681519 -5.08376026153564 -2.24631929397583 1.99340832233429 -4.77016162872314 -4.23960065841675 1.92263770103455 5.1510968208313 6.07046127319336 18.5265846252441 16.2812995910645 31.3398456573486 18.4422550201416 -4.60583353042603 -4.50187158584595 -3.81967449188232 -3.65151262283325 11.0355558395386 3.21906447410583 -3.46732068061829 -3.3074312210083 -3.18802237510681 -2.41621685028076 6.04396820068359 -2.24586081504822 11.6087980270386 -1.70562565326691 -0.998687744140625 -0.886884748935699 -0.810496151447296 -0.785485506057739 -0.269647061824799 0.441522002220154 -0.381474077701569 -0.21444645524025 0.133857801556587 -0.499438107013702 -0.766677141189575 -0.24150039255619 -0.723027050495148 -0.716910302639008 -0.669073760509491 -0.638044059276581 -0.576494097709656 -0.534307897090912 -0.523979842662811 -0.560148954391479 -0.567932188510895 -0.561775028705597 -0.259588807821274 -0.226614475250244 -0.183487176895142 -0.0200552232563496 0.0683771222829819 0.157792821526527 0.268482774496078 0.609430432319641 0.670138299465179 0.743268847465515 1.1304806470871 1.46267366409302 1.60523450374603 1.72717463970184 1.86575543880463 1.98401355743408 1.6956160068512 1.4558173418045 1.57549858093262 1.72430264949799 1.91512703895569 2.13633632659912 2.46756958961487 2.82876133918762 2.06851768493652 2.58300709724426 2.98697638511658 3.60903906822205 4.55599403381348 5.99147844314575 9.52475833892822 18.1356887817383 0.672334134578705 1.31484830379486 0.626257240772247 0.686858892440796 2.95756387710571 3.28039455413818 6.15944766998291 6.3719596862793 4.05778503417969 23.0368957519531 4.61686897277832 -0.276493638753891 -0.164635881781578 0.806863367557526 1.10179698467255 1.12565863132477 1.08682703971863 1.26413118839264 1.29561626911163 1.04720020294189 1.09431612491608 1.11834073066711 1.11643540859222 1.06138944625854 1.30984389781952 2.03282380104065 2.07557415962219 2.83859419822693 2.86026358604431 2.95172953605652 3.25629854202271 3.5802628993988 3.79686331748962 3.87927842140198 3.96770095825195 4.05953025817871 4.32955837249756 4.43603420257568 4.59418535232544 4.92571973800659 5.03663635253906 5.42918872833252 6.0390567779541 6.18966484069824 6.34642887115479 7.01813173294067 7.21542644500732 7.42086219787598 7.6371021270752 7.86028146743774 8.20304584503174 8.50357627868652
20.7582778930664 28.2252635955811 46.7325553894043 22.3080043792725 29.4784412384033 34.0744895935059 41.8818473815918 46.6426658630371 19.4003849029541 17.7761688232422 10.7848587036133 7.57364082336426 8.63242244720459 7.37447452545166 8.78531742095947 -0.779484748840332 4.98994016647339 -0.607548236846924 0.27615886926651 1.4931173324585 7.48505592346191 19.1638431549072 13.0164260864258 15.7400074005127 0.0985677316784859 1.45033121109009 1.65740764141083 16.3123435974121 2.43482279777527 15.6877508163452 19.9825973510742 -0.661265432834625 0.383883684873581 0.7431321144104 3.07704377174377 16.7853240966797 -1.29401338100433 2.26380491256714 4.05342721939087 -2.53585648536682 -5.02312612533569 -4.8851752281189 -3.26183748245239 -4.66595935821533 -4.47533512115479 -4.30004978179932 -4.18169975280762 0.73462176322937 1.56174492835999 6.87631845474243 20.745584487915 15.5450439453125 15.7455549240112 18.7714328765869 -4.33533763885498 -4.02376794815063 -3.86589455604553 -3.57561683654785 -3.32357001304626 0.451231211423874 1.32556867599487 -2.77993941307068 3.04776191711426 6.65281772613525 -2.22682929039001 -2.11085247993469 -1.99517893791199 -0.964122712612152 -0.823459208011627 -0.84304404258728 -0.849115908145905 -0.762160539627075 -0.612631380558014 -0.0776728615164757 0.220327153801918 -0.172598361968994 -0.593112468719482 -0.523546755313873 -0.318099141120911 -0.151254191994667 -0.14258673787117 -0.692384541034698 -0.666582822799683 -0.615637421607971 -0.54680073261261 -0.491171061992645 -0.454839408397675 -0.441471695899963 -0.474828809499741 -0.464217483997345 -0.468097358942032 -0.48441356420517 -0.460345089435577 -0.390822112560272 0.000589920324273407 0.0971351116895676 0.20081801712513 0.252726137638092 0.436782985925674 0.486636251211166 0.548059046268463 0.671840786933899 0.997880220413208 1.07808315753937 1.16213023662567 1.77489852905273 2.09397721290588 2.26512026786804 2.43365430831909 2.62920022010803 2.87245726585388 2.49066734313965 2.45256423950195 2.72866868972778 3.29752135276794 3.85558867454529 4.66087007522583 5.9815149307251 7.62242221832275 5.61461639404297 11.1690692901611 7.55336570739746 1.55322182178497 1.21153116226196 5.36059141159058 2.07061839103699 3.19058632850647 3.75085139274597 4.71604633331299 4.179039478302 1.39201974868774 11.7921991348267 7.32738399505615 -0.0751202180981636 0.772389113903046 0.848572731018066 0.91034734249115 1.26583743095398 1.29705739021301 1.53983414173126 1.72945988178253 1.76254045963287 1.5421416759491 1.57693159580231 1.41058969497681 1.44402635097504 1.19367945194244 1.2328987121582 1.40676021575928 2.56217360496521 2.66301298141479 2.9586935043335 3.021329164505 3.24924159049988 3.31782984733582 3.74782204627991 3.83145833015442 3.91926741600037 4.03523731231689 4.2760648727417 4.4590311050415 4.78842306137085 4.89048337936401 4.9892635345459 5.10426139831543 5.25422382354736 5.55459690093994 6.04494524002075 6.72551536560059 6.91441774368286 7.10960626602173 7.2969856262207 8.12600612640381 8.40829563140869
17.4856948852539 31.1649856567383 50.1410903930664 17.0059680938721 18.609525680542 29.1802806854248 45.801097869873 47.8169174194336 10.2651395797729 22.2865905761719 21.369213104248 25.6995811462402 -1.77429699897766 3.14909410476685 2.54660511016846 -1.4362518787384 7.48880910873413 -0.627502620220184 -0.109750412404537 1.17519998550415 16.0929126739502 2.54195594787598 11.262622833252 23.3146667480469 2.01768684387207 2.12919640541077 4.98639726638794 5.82560348510742 6.44935464859009 6.57782554626465 8.64631366729736 -1.12508261203766 -1.26583790779114 -0.284718185663223 3.33607816696167 5.83233118057251 -2.61778402328491 -4.82793855667114 4.52715587615967 6.28913450241089 -4.65776824951172 -4.32865333557129 -4.13846683502197 -3.51658177375793 -2.61341762542725 -1.01149094104767 0.939528286457062 5.08509302139282 -2.02922105789185 12.9137306213379 30.8590927124023 -3.45389533042908 21.7955112457275 23.5405960083008 -3.83575391769409 -3.40319180488586 -3.25318884849548 -3.18107032775879 -1.7647123336792 -2.779860496521 12.6880493164062 -2.47455096244812 3.34758996963501 1.98214387893677 -2.23592066764832 -2.08938837051392 25.3874988555908 -1.88141083717346 -0.476722538471222 -0.768387675285339 -0.69059818983078 -0.489713072776794 0.109938591718674 0.240790069103241 -0.601754665374756 -0.172830581665039 -0.0161465667188168 -0.0973027795553207 -0.508931338787079 -0.397660881280899 -0.392757058143616 -0.663865745067596 -0.659997045993805 -0.609784126281738 -0.548210740089417 -0.484314620494843 -0.440201729536057 -0.415880590677261 -0.409759938716888 -0.404895961284637 -0.3902707695961 -0.358526110649109 -0.33001908659935 -0.258495002985001 -0.165060579776764 -0.103784896433353 -0.0781368985772133 -0.021476399153471 0.0295207556337118 0.360578656196594 0.413368403911591 0.453794658184052 0.496654450893402 0.723058640956879 0.79380989074707 0.932607591152191 1.28664875030518 1.35288417339325 1.44755208492279 1.55227196216583 2.69725060462952 3.22307252883911 3.61562752723694 4.04926586151123 4.53241300582886 4.11496829986572 5.07190418243408 6.71651554107666 9.41030597686768 18.5793609619141 4.89132261276245 -0.278526067733765 13.2425670623779 6.44227123260498 2.18172860145569 -0.0194185525178909 0.0642215088009834 2.97969651222229 0.728778421878815 0.770868122577667 7.28153228759766 8.31098651885986 0.847124874591827 0.714739918708801 1.349081158638 1.40237438678741 1.46488010883331 1.52002930641174 0.843497335910797 1.61791574954987 1.77402222156525 2.01780200004578 2.06127595901489 1.84302186965942 1.88463187217712 1.92793643474579 1.97674226760864 1.82079899311066 1.76112461090088 2.50770258903503 2.79590010643005 3.02462458610535 3.12432193756104 3.09970450401306 3.28270411491394 4.12653779983521 4.21260166168213 4.27886867523193 4.24623727798462 4.42072725296021 4.54767847061157 4.80845832824707 4.90899419784546 5.01870679855347 5.13064765930176 5.24561786651611 5.43593978881836 5.62026643753052 5.80215406417847 5.99665117263794 6.20328140258789 6.39597368240356 7.01950454711914 7.7899489402771
20.1354751586914 26.3205089569092 44.3567008972168 17.5202465057373 23.0502643585205 19.4684982299805 24.8951778411865 35.218318939209 42.9489135742188 24.0512447357178 18.585807800293 11.2534093856812 24.0035343170166 6.28473472595215 -1.72318255901337 -1.3613795042038 -1.27422118186951 -1.52933979034424 -0.689148902893066 1.39589726924896 2.24155712127686 10.0511770248413 7.63326549530029 11.9348726272583 19.2807922363281 4.63042163848877 2.83969664573669 5.25506734848022 18.4107112884521 38.1639938354492 17.4314098358154 -3.21345925331116 5.09648895263672 8.5633659362793 3.59952044487 -4.67004871368408 -4.45371055603027 -1.38514375686646 -4.24762678146362 -3.10575079917908 -3.98021912574768 3.17614102363586 -3.78911733627319 -2.00824189186096 8.71597576141357 -3.51993322372437 -1.36263084411621 14.8944988250732 8.44798946380615 30.0412731170654 -3.44210052490234 6.73859453201294 2.20140624046326 0.467923134565353 10.5396108627319 -1.10053050518036 -0.0275611765682697 -2.8145227432251 -2.30665397644043 0.95877069234848 27.1848659515381 -2.28553891181946 -2.1383535861969 -1.8217248916626 2.06761932373047 -1.48645889759064 -0.635432243347168 -0.529371500015259 -0.46491613984108 -0.168500274419785 0.0331264138221741 0.0436858832836151 -0.500468492507935 -0.470960527658463 -0.216488644480705 0.0449562966823578 0.0503111593425274 -0.207472920417786 -0.695667207241058 -0.499642997980118 -0.595174908638 -0.628714680671692 -0.619616329669952 -0.597885608673096 -0.550959229469299 -0.503152847290039 -0.454746335744858 -0.419569700956345 -0.387425750494003 -0.381984263658524 -0.37004491686821 -0.328875869512558 -0.270442962646484 -0.183467552065849 -0.107826046645641 -0.0350487641990185 0.00840027071535587 0.0549422390758991 0.102369874715805 0.150402247905731 0.137832045555115 0.113261550664902 0.164296865463257 0.19268599152565 0.576124548912048 0.639826476573944 0.701438128948212 0.957884073257446 1.00983643531799 1.07771468162537 1.29931569099426 1.80052733421326 1.96278142929077 2.13086104393005 4.5300407409668 5.25807094573975 6.30450916290283 7.82814741134644 10.248420715332 20.523229598999 3.61433625221252 6.8030104637146 -0.0697106122970581 3.08225250244141 19.3120212554932 1.41489470005035 -0.278173595666885 1.72763311862946 3.71050620079041 6.91213083267212 0.131542086601257 0.708721280097961 1.45374011993408 1.50348901748657 1.55548286437988 1.6045047044754 1.66489017009735 1.18526721000671 1.57552266120911 1.63311874866486 1.69852936267853 2.04300284385681 2.09260368347168 2.10726141929626 2.15942478179932 2.56652402877808 3.18980932235718 4.05964374542236 3.82456278800964 4.45072460174561 3.09336948394775 3.67003989219666 3.76541566848755 3.5673770904541 3.92393803596497 4.00523519515991 4.28955030441284 4.49679756164551 4.59240341186523 4.59484148025513 4.81249141693115 5.02146148681641 5.12669658660889 5.03860569000244 5.15016078948975 5.26533889770508 5.38869333267212 5.51274728775024 5.69095849990845 5.81261539459229 5.93059349060059 6.07565641403198 6.71043109893799 6.94061326980591
15.8163156509399 30.2847023010254 49.1643714904785 17.0490264892578 30.4083824157715 13.1876564025879 20.3474540710449 44.2405700683594 24.5623016357422 18.3676948547363 16.7981433868408 15.5596590042114 4.33625507354736 13.1601037979126 8.62792491912842 17.814115524292 -2.10511016845703 -0.827931046485901 -0.240114212036133 2.55195498466492 11.0940446853638 33.7161636352539 0.755963444709778 11.0260429382324 14.7554817199707 1.27293372154236 10.9458408355713 5.37239027023315 35.8405113220215 16.2022380828857 24.4384136199951 1.21403288841248 8.92383193969727 3.21167302131653 -2.5426652431488 2.57103037834167 -4.56447792053223 -1.10905134677887 -4.198166847229 -3.88411998748779 0.862582266330719 -3.5422694683075 -3.43513083457947 -2.50934314727783 18.175594329834 -2.19740271568298 2.17266821861267 -2.05309343338013 -1.37309682369232 7.28968715667725 24.86887550354 -2.77807712554932 3.32380342483521 0.014259890653193 0.958586812019348 2.64462113380432 -0.899755120277405 2.5231716632843 11.634934425354 2.24135875701904 11.0034284591675 -2.13485026359558 -2.01231026649475 -1.44389235973358 -1.40960276126862 -0.389179557561874 -0.242047995328903 -0.0245800130069256 0.440955132246017 0.89637553691864 1.03296780586243 -0.457869708538055 -0.36684113740921 -0.196490108966827 0.0380987897515297 0.112656995654106 -0.241322815418243 -0.671822190284729 -0.649049878120422 -0.618088126182556 -0.588642060756683 -0.564987540245056 -0.553758919239044 -0.539767801761627 -0.536965429782867 -0.501822352409363 -0.461299151182175 -0.425923407077789 -0.401016175746918 -0.382824242115021 -0.373759806156158 -0.328569173812866 -0.240220636129379 -0.1697988063097 -0.116757243871689 -0.0637690499424934 -8.6621665104758e-05 0.0537227503955364 0.0948003828525543 0.134443581104279 0.168934479355812 0.185938134789467 0.218670457601547 0.268807619810104 0.258344441652298 0.265450656414032 0.3328777551651 0.389935731887817 0.765229046344757 0.818708181381226 0.89291125535965 0.975147545337677 1.376016497612 1.49477648735046 1.61806690692902 2.05763840675354 2.7144889831543 2.97680187225342 3.99427008628845 13.7675685882568 28.3729000091553 5.11142921447754 -0.499900162220001 -0.348257660865784 11.2195482254028 0.220656156539917 10.3116416931152 0.366602152585983 0.529043197631836 3.09700512886047 5.87949323654175 -0.173943787813187 0.818861067295074 0.851355671882629 0.883812844753265 0.929175138473511 0.894566237926483 1.73949074745178 1.80362045764923 1.9203794002533 2.01513719558716 1.63880181312561 2.04219102859497 2.14415335655212 2.40055966377258 2.4551112651825 2.32833528518677 2.37439680099487 5.71349954605103 12.0658140182495 2.94327616691589 3.02305817604065 3.58965992927551 3.82943987846375 3.94934558868408 4.08875608444214 4.18169832229614 4.51432800292969 4.60640668869019 4.86147928237915 4.96989059448242 5.0871639251709 5.19280433654785 5.25984239578247 5.37818765640259 5.49929618835449 5.6263689994812 5.75458002090454 5.66461133956909 5.79790163040161 5.92700910568237 6.08380699157715 6.28183269500732 6.60144853591919
15.7714977264404 20.1602840423584 36.1301879882812 19.8398551940918 33.5663833618164 15.5424661636353 15.5623950958252 17.2844066619873 22.6937561035156 37.9303970336914 26.8576240539551 15.4701709747314 23.3745918273926 -0.58813613653183 15.4836902618408 21.5308647155762 -1.85533726215363 -1.52684605121613 0.94364470243454 1.34270322322845 28.2329730987549 1.23537302017212 5.73347425460815 8.66899967193604 3.61338090896606 4.6727933883667 6.53219509124756 14.6755218505859 12.5507783889771 15.9708614349365 22.6646366119385 29.2432250976562 13.7316551208496 -3.09338879585266 5.77052211761475 11.8783483505249 -4.75287103652954 -4.3639497756958 -3.84991145133972 -3.63199687004089 1.07783567905426 5.87216711044312 9.96300411224365 0.223903387784958 -3.00808453559875 -1.79934144020081 -0.475993126630783 6.65831089019775 13.3273334503174 -2.85755157470703 -0.887224972248077 5.50984001159668 4.74939966201782 1.67183434963226 -1.43757879734039 -1.91356539726257 6.2727222442627 16.0166988372803 -2.12813091278076 8.16584396362305 -1.83992910385132 -1.81230628490448 -1.46855163574219 -0.889619469642639 -0.719586491584778 0.257466197013855 0.391827434301376 0.635256707668304 1.09754538536072 1.4954035282135 0.776490330696106 0.00647501926869154 -0.261116325855255 -0.26178565621376 0.116126716136932 0.240489542484283 -0.598179876804352 -0.611947596073151 -0.585096895694733 -0.5594881772995 -0.53257954120636 -0.493605047464371 -0.478023827075958 -0.473708003759384 -0.487744122743607 -0.473407357931137 -0.442795932292938 -0.411782681941986 -0.391942471265793 -0.385421961545944 -0.353740781545639 -0.30640584230423 -0.250819027423859 -0.226867094635963 -0.185889884829521 -0.134458854794502 -0.0687530115246773 -0.0220952220261097 0.0271577518433332 0.0683403983712196 0.116262018680573 0.17000424861908 0.209567815065384 0.247720018029213 0.281760454177856 0.298426121473312 0.359421789646149 0.437017798423767 0.501434981822968 0.446133941411972 0.5232794880867 0.616224110126495 0.695286631584167 1.12223386764526 1.20346975326538 1.30880975723267 1.42384934425354 2.0315842628479 2.17891073226929 3.01582503318787 4.10897970199585 4.85775756835938 5.87571620941162 7.35091257095337 14.0587520599365 25.8817577362061 -0.316908270120621 0.613506495952606 10.2819004058838 0.38752406835556 0.392598628997803 0.398611307144165 0.798024654388428 0.829346776008606 0.683089852333069 0.50759619474411 0.975446999073029 1.02060782909393 1.0747492313385 1.11488676071167 1.41364586353302 2.03932070732117 2.2002534866333 2.29379677772522 2.42582058906555 2.5632336139679 2.50084018707275 2.55853414535522 3.269686460495 3.52952218055725 5.49580240249634 11.1284637451172 3.22987294197083 3.55919098854065 7.07384586334229 3.86097025871277 3.9493408203125 4.59796094894409 5.98951721191406 5.03330087661743 9.95594596862793 4.83642148971558 5.20640468597412 5.32199668884277 5.45309591293335 5.57709312438965 5.69124794006348 5.8228759765625 5.91019010543823 6.04450654983521 6.18588066101074 6.37200117111206 6.29693269729614 6.48724317550659
18.4864292144775 22.4462203979492 28.3052959442139 37.0330963134766 25.3452739715576 20.5915126800537 23.6207523345947 13.6290531158447 36.1412506103516 22.0736217498779 11.3718214035034 23.7348880767822 4.83897352218628 15.3832178115845 25.0088176727295 -1.78741097450256 -1.55315208435059 -1.07007718086243 -0.24419541656971 11.0751113891602 24.3774833679199 2.83649182319641 6.80645322799683 2.65028810501099 7.50259685516357 3.79820346832275 10.4669189453125 25.8784427642822 11.1934309005737 18.1253280639648 17.153902053833 24.4652290344238 6.58683347702026 19.01123046875 -2.73832440376282 0.88872754573822 -3.33076691627502 7.79590511322021 -0.0703863352537155 4.01404142379761 11.0956258773804 22.9555797576904 -0.74867045879364 6.73550939559937 15.4024505615234 -3.02591514587402 3.32701635360718 -0.0755047202110291 5.64219903945923 7.4935359954834 -2.4781334400177 -2.35673069953918 4.03221750259399 16.1426372528076 3.04864048957825 -2.24946236610413 -1.78043341636658 -1.51389718055725 1.19601774215698 27.6267719268799 -1.4850926399231 -1.35468482971191 -1.02931213378906 -0.856321334838867 0.390418946743011 0.75235116481781 0.898219227790833 1.1451199054718 1.71458268165588 1.88023591041565 1.09779119491577 0.263493180274963 0.25535175204277 -0.326356559991837 -0.129063040018082 0.208688676357269 -0.541875183582306 -0.533246040344238 -0.500901222229004 -0.480588495731354 -0.460213512182236 -0.447073936462402 -0.428424865007401 -0.415692031383514 -0.421748518943787 -0.419341862201691 -0.399436771869659 -0.377510100603104 -0.364658206701279 -0.360933393239975 -0.32516884803772 -0.29945957660675 -0.290578633546829 -0.290606945753098 -0.264077484607697 -0.211203396320343 -0.157651573419571 -0.104338809847832 -0.0579429790377617 -0.00482717901468277 0.0435449704527855 0.0914182886481285 0.136322781443596 0.172133177518845 0.193094298243523 0.259454935789108 0.311992317438126 0.388640195131302 0.444713920354843 0.529122292995453 0.552368342876434 0.675607740879059 0.764815747737885 0.850756585597992 0.80397355556488 0.939551770687103 1.08662712574005 1.03858017921448 1.59200513362885 1.68968188762665 1.90851998329163 3.00097298622131 3.52725863456726 4.18871402740479 10.4702711105347 20.9611701965332 7.20621156692505 0.259839534759521 0.945078253746033 0.596284449100494 0.798423230648041 0.833280742168427 0.869995713233948 0.912318646907806 0.85067343711853 0.900164306163788 0.928768217563629 0.961681306362152 0.808858811855316 0.790472030639648 0.991441667079926 2.24072861671448 2.31200647354126 2.14779162406921 2.22660279273987 2.39346575737 3.04808974266052 3.0936861038208 3.159428358078 3.29720520973206 3.57541298866272 4.27059507369995 5.35427713394165 7.04543352127075 5.96490526199341 4.10204648971558 3.98798537254333 4.28979110717773 5.19529151916504 8.72071838378906 17.2561054229736 4.67620754241943 4.88232231140137 4.89868211746216 5.24887037277222 5.52378416061401 5.73381757736206 5.87405490875244 6.01464557647705 6.15531158447266 6.26862668991089 6.46864032745361 6.59148740768433 6.7846736907959
15.9385032653809 18.400972366333 25.3185062408447 42.8119430541992 38.0642585754395 10.4884023666382 15.7257766723633 26.8356666564941 13.1435823440552 17.1928863525391 20.2960586547852 31.4404792785645 22.9061641693115 2.24017071723938 4.52338743209839 -1.29944396018982 -1.17372584342957 -0.890717387199402 3.84972357749939 13.5395669937134 30.0847492218018 0.324026137590408 1.75862860679626 7.86001205444336 7.30970907211304 14.2576856613159 16.1920566558838 18.1081447601318 17.1937217712402 13.0327224731445 13.061653137207 15.2632389068604 23.4587516784668 -2.30618596076965 -2.13381433486938 -2.36176013946533 -1.87097489833832 -0.0440187901258469 1.79251074790955 7.63826751708984 15.4300546646118 13.1692953109741 19.7562065124512 13.1841201782227 -3.33786749839783 -2.82916712760925 -2.73109889030457 -2.67709231376648 -1.09204506874084 9.87197780609131 -2.52907919883728 5.33488941192627 -2.09200406074524 -1.35993254184723 1.29520118236542 -1.16808879375458 -0.835740149021149 -0.380333870649338 6.93602275848389 18.3655872344971 4.17757225036621 -0.978944718837738 -0.532548666000366 -0.202244147658348 1.08796679973602 1.46226298809052 1.88669717311859 2.25201654434204 2.25882935523987 1.0903080701828 0.898751854896545 0.666213929653168 0.421565324068069 0.445647209882736 -0.367825478315353 -0.393787741661072 -0.42280450463295 -0.425771504640579 -0.396934062242508 -0.392460972070694 -0.391058534383774 -0.386465340852737 -0.380840361118317 -0.365840703248978 -0.368293076753616 -0.381219297647476 -0.370879977941513 -0.35652431845665 -0.33039391040802 -0.237271800637245 -0.328804045915604 -0.306662529706955 -0.299940347671509 -0.312219381332397 -0.290117383003235 -0.252361088991165 -0.197830468416214 -0.16418930888176 -0.125317066907883 -0.0697034373879433 -0.0250555779784918 0.0098492968827486 0.0435656905174255 0.0778444856405258 0.113319590687752 0.159021228551865 0.225671947002411 0.278136700391769 0.355702877044678 0.437944054603577 0.538930952548981 0.562335133552551 0.70783668756485 0.764952957630157 0.848984003067017 0.980423152446747 1.10108017921448 1.23723125457764 1.28868281841278 1.46198320388794 1.74283707141876 2.27129173278809 2.18506336212158 2.30008125305176 2.61202478408813 3.46867799758911 9.70709896087646 21.6977062225342 0.484564602375031 0.650246262550354 1.32931554317474 1.37721002101898 1.42449402809143 1.4821925163269 1.06794154644012 1.00980687141418 1.05332612991333 1.10256099700928 1.16712844371796 1.08298707008362 1.11888253688812 1.58561551570892 1.80633449554443 2.35268044471741 2.40765905380249 2.48845052719116 2.8410816192627 3.14317178726196 3.30859756469727 3.73497557640076 3.80676507949829 3.98820543289185 4.27305316925049 4.74635362625122 10.9400339126587 21.334379196167 3.83462715148926 4.64700031280518 6.56146001815796 9.69298267364502 7.5090160369873 5.27321481704712 5.38407230377197 5.51077032089233 5.69266080856323 5.9105224609375 5.72013759613037 5.85090017318726 5.93252849578857 6.07227563858032 6.37384414672852 6.5617413520813 6.73491239547729 6.9568886756897
16.3879871368408 18.9235515594482 22.3050899505615 35.6935348510742 33.5608215332031 17.3554382324219 16.7301712036133 18.0425701141357 11.0598773956299 15.6711864471436 22.9218616485596 23.2399482727051 26.6790542602539 -1.68786263465881 -0.540303885936737 17.8834457397461 -0.961742341518402 -0.151045367121696 3.14527225494385 4.9492359161377 19.4019889831543 23.2816162109375 0.423606544733047 17.1987285614014 2.74826288223267 9.0362663269043 17.8712673187256 5.42214965820312 31.120304107666 47.7537841796875 -0.981726944446564 8.40209197998047 25.4724979400635 -0.192334666848183 7.27752304077148 -0.778224408626556 -0.332460075616837 0.43502002954483 4.34746789932251 6.09306240081787 9.11181259155273 26.4022903442383 17.6092662811279 22.8727512359619 -3.51324558258057 -3.31951665878296 -2.95181393623352 2.90365886688232 20.5729160308838 -0.929682016372681 -2.41514658927917 -2.18221426010132 0.902521193027496 -1.98141157627106 -1.13426768779755 1.48530554771423 3.42622780799866 11.8077068328857 -0.657056629657745 17.3438472747803 -0.596133828163147 -0.45584899187088 7.38307428359985 1.17180037498474 1.45481610298157 1.6201251745224 2.40756916999817 3.0041663646698 1.67641484737396 0.953461050987244 0.589895784854889 0.664574921131134 0.630401015281677 0.489794582128525 -0.155659630894661 -0.272678196430206 -0.289126068353653 -0.264608561992645 -0.25068262219429 -0.257436484098434 -0.28524062037468 -0.322566866874695 -0.315170228481293 -0.314786285161972 -0.305797189474106 -0.321316450834274 -0.321371793746948 -0.152963429689407 0.0194113962352276 -0.243591547012329 -0.325630962848663 -0.324108302593231 -0.311589330434799 -0.312691301107407 -0.288923263549805 -0.26166182756424 -0.213146582245827 -0.193451777100563 -0.181117981672287 -0.127427011728287 -0.0784042254090309 -0.0325002707540989 -0.0268565975129604 0.000168888800544664 0.0372367538511753 0.0634548664093018 0.114393346011639 0.173705503344536 0.237646877765656 0.316906929016113 0.425709098577499 0.486531496047974 0.578129410743713 0.645773649215698 0.743447601795197 0.842460870742798 0.948870480060577 1.12880742549896 1.26107144355774 1.50130367279053 1.81405365467072 2.21607875823975 2.44575643539429 1.83670508861542 0.354729801416397 0.372283905744553 0.4470134973526 7.39453554153442 17.8875560760498 -0.133575901389122 1.29774749279022 1.32886576652527 1.389328956604 1.44169747829437 1.54576218128204 1.61081278324127 1.68329155445099 1.75218546390533 1.27527678012848 1.2474228143692 1.47446286678314 1.51599442958832 1.58266806602478 1.67516326904297 1.8954861164093 1.91824591159821 2.55361819267273 3.19371557235718 3.43517541885376 3.4992458820343 3.58159565925598 3.90020036697388 4.25299549102783 5.11766481399536 6.61213493347168 9.07559490203857 12.0924921035767 4.95573043823242 8.93734741210938 12.4315748214722 5.01826763153076 8.20329570770264 27.57080078125 4.7013521194458 5.7103214263916 6.1928768157959 6.34659719467163 6.50795412063599 6.68094730377197 6.54150867462158 6.35295963287354 6.49302244186401 6.81368207931519 7.12643718719482
14.3413152694702 16.9533824920654 20.7139759063721 29.318567276001 36.2413711547852 26.3181076049805 38.6450691223145 16.4947052001953 8.6558837890625 11.9758281707764 7.78422784805298 20.452449798584 37.4651718139648 17.4068965911865 -2.78524899482727 -2.14094638824463 1.1071492433548 2.38535714149475 4.71158456802368 8.39168834686279 10.2390031814575 5.03273439407349 1.62032330036163 4.25098943710327 5.50655364990234 7.88208532333374 10.4965171813965 10.3295488357544 15.5079832077026 11.2725563049316 7.02827548980713 7.37391805648804 5.79694938659668 14.069712638855 9.17966175079346 0.118183679878712 0.726203918457031 3.27438998222351 5.31213283538818 11.0127010345459 15.6552505493164 23.0119113922119 23.0763683319092 1.41660094261169 1.31045746803284 -3.32858157157898 -2.98937344551086 -2.75691294670105 14.7103128433228 -2.37873983383179 4.94014120101929 15.6917591094971 -1.73293781280518 -1.25227022171021 -0.444574445486069 6.89937210083008 20.549991607666 0.171857580542564 0.190899759531021 4.02001619338989 9.68798446655273 10.7394647598267 14.8809585571289 7.21205902099609 12.0296230316162 -0.30152416229248 2.92782545089722 3.28534936904907 2.3085560798645 1.14712727069855 0.469257652759552 0.568553626537323 0.647638261318207 0.419284164905548 -0.117031499743462 -0.144052311778069 -0.166105046868324 -0.144800871610641 -0.128027945756912 -0.138809874653816 -0.157189935445786 -0.0336181856691837 -0.184296756982803 -0.193176850676537 -0.200231418013573 -0.165596321225166 -0.0855946466326714 0.065760150551796 0.15731343626976 0.050537221133709 -0.245198473334312 -0.31331130862236 -0.309049069881439 -0.31577605009079 -0.317377120256424 -0.288736581802368 -0.245745092630386 -0.21845369040966 -0.212155640125275 -0.171219080686569 -0.115853078663349 -0.0372660644352436 0.241237297654152 0.196381241083145 0.0467012487351894 0.00528044020757079 0.00467616552487016 0.070196196436882 0.135250836610794 0.218588471412659 0.282109171152115 0.370040833950043 0.412242263555527 0.493833839893341 0.57537180185318 0.647950708866119 0.744812846183777 0.905412971973419 1.0756653547287 1.26963722705841 1.60152006149292 1.79709577560425 2.19155120849609 2.25288271903992 1.18646645545959 0.0263627860695124 0.127691864967346 0.1958237439394 0.540705561637878 0.710881650447845 0.798993945121765 0.821243762969971 0.838649570941925 0.886140108108521 0.911910176277161 1.55431389808655 1.62672996520996 1.69723224639893 1.86983931064606 1.95227897167206 2.04928278923035 2.17203760147095 2.25999808311462 1.62936413288116 1.79291594028473 1.96820998191833 2.24876809120178 2.46907949447632 2.83107328414917 3.33628296852112 3.59757328033447 3.679194688797 3.81489610671997 4.23133134841919 4.42727470397949 10.4497718811035 16.5542163848877 4.43985557556152 5.13934469223022 5.1535472869873 18.537748336792 31.4267807006836 4.51196432113647 5.5830397605896 5.81484746932983 5.95687532424927 6.11484289169312 6.25302839279175 6.30511856079102 6.92728567123413 7.1088719367981 7.33703899383545 7.53784847259521 7.76451015472412
12.3136615753174 14.6686687469482 16.9451313018799 19.8821353912354 38.1520042419434 49.6543655395508 13.7183904647827 20.4344882965088 18.5756931304932 32.7811050415039 -0.0277865435928106 26.9042701721191 31.7694702148438 16.3720874786377 -2.57222175598145 -2.48702359199524 -2.16024255752563 5.20978212356567 1.33390522003174 31.9850921630859 4.31073760986328 15.1068897247314 -0.665382385253906 1.93292188644409 5.36768674850464 6.52251005172729 11.2190885543823 23.8038787841797 10.2369918823242 8.74997997283936 6.53167295455933 13.3687810897827 20.3767147064209 6.80424976348877 0.948320686817169 -1.02396106719971 -0.458328932523727 2.76787447929382 5.39399433135986 11.8062782287598 26.4498825073242 16.8674221038818 6.94431447982788 7.34795999526978 -1.33774995803833 0.863718569278717 -3.36742949485779 -3.08390283584595 -2.34196925163269 -2.13958144187927 5.82551574707031 16.9674377441406 -1.59100043773651 -0.84418123960495 0.877027571201324 10.1352090835571 13.7040576934814 -0.897382795810699 10.2948360443115 19.9372425079346 38.3206176757812 3.61579370498657 -0.706518650054932 5.85062599182129 14.6912775039673 -0.655365884304047 1.08159947395325 3.34737777709961 3.26747179031372 1.5235652923584 0.826040506362915 0.432411074638367 0.541611015796661 0.552750051021576 -0.00995426997542381 -0.0318430662155151 -0.039116982370615 -0.0322578437626362 -0.00668866652995348 -0.0033591624815017 -0.0338882096111774 0.0118367178365588 0.143064841628075 -0.0748400762677193 -0.0752145946025848 -0.00924197118729353 0.0400513522326946 0.178573727607727 0.297276705503464 0.249073252081871 -0.0115295220166445 -0.260951191186905 -0.275951713323593 -0.262128353118896 -0.284952968358994 -0.272792726755142 -0.131800904870033 -0.23258475959301 -0.0873547419905663 -0.237587869167328 -0.180988982319832 -0.0710533186793327 0.278615683317184 0.43361234664917 0.34169664978981 -0.0762245431542397 -0.0441701672971249 -0.02813477255404 0.0420381054282188 0.116823188960552 0.200799614191055 0.546938061714172 0.544773995876312 0.564124882221222 0.66557639837265 0.612756252288818 0.500755131244659 0.559886813163757 0.708998441696167 0.822543084621429 1.10539746284485 1.264897108078 1.83863604068756 2.3067421913147 0.937305212020874 0.87101423740387 -0.298930466175079 -0.287123054265976 -0.180604591965675 -0.019585782662034 0.407132029533386 0.554299294948578 0.581171214580536 0.879457890987396 0.909720897674561 0.949406981468201 1.00200879573822 1.06198287010193 0.806255102157593 1.89948344230652 1.97604417800903 2.08589053153992 2.18367052078247 2.46000218391418 2.60725235939026 2.77140498161316 2.96581959724426 3.20220613479614 2.92994093894958 3.31932926177979 3.93530797958374 4.86925554275513 6.29458665847778 3.79361891746521 4.19409847259521 4.9670033454895 6.947669506073 9.77903175354004 4.99842023849487 5.21375894546509 5.41158962249756 5.45115423202515 5.68675899505615 5.92586708068848 6.04662227630615 6.08450746536255 6.10312032699585 6.27852773666382 6.4811487197876 6.64446783065796 6.85247373580933 7.06461143493652 7.27460622787476 7.33940362930298
10.7035331726074 13.376106262207 15.4294290542603 18.1858100891113 27.4254474639893 38.2878265380859 24.6509799957275 19.6835327148438 17.6436882019043 21.8145294189453 0.107832819223404 1.85960340499878 12.2906265258789 30.6245498657227 -1.53695476055145 5.79667043685913 -1.25277781486511 1.37327146530151 31.9308624267578 -0.566214561462402 15.3114461898804 5.84896469116211 -1.39176607131958 2.07662582397461 2.97307896614075 2.12013006210327 3.74908447265625 5.19520092010498 10.4646453857422 12.7659502029419 32.2672119140625 12.119402885437 27.0221252441406 -0.823790967464447 -0.361799955368042 1.42100179195404 2.35939574241638 4.65013360977173 9.563307762146 9.94890689849854 24.2291679382324 11.2166519165039 13.9653911590576 2.50279688835144 4.73433017730713 12.8282403945923 -3.35304832458496 -2.08924245834351 -2.22804641723633 -1.42643642425537 0.659842252731323 3.86202454566956 -1.3113899230957 -0.843229115009308 -0.502570807933807 4.26586103439331 7.9592661857605 14.0279941558838 27.3043384552002 20.7641506195068 -0.777292728424072 44.9867134094238 -0.667539298534393 -0.303158700466156 -0.142416134476662 3.04786682128906 3.99061584472656 4.04376602172852 3.19750785827637 2.57999801635742 1.23807954788208 0.669970035552979 0.267249703407288 0.355691194534302 0.402236878871918 0.0637346431612968 0.0531899333000183 0.0686695873737335 1.16127514839172 1.20566725730896 0.109922841191292 0.114299468696117 0.147296950221062 0.124196842312813 0.085849717259407 0.114745080471039 0.0929961204528809 0.196303486824036 0.327704399824142 0.430450439453125 0.228779226541519 -0.133604243397713 -0.154519110918045 -0.162644445896149 -0.182479068636894 -0.172831028699875 -0.108000129461288 -0.105166308581829 0.100249283015728 -0.0238150060176849 -0.117817990481853 -0.189647749066353 0.105212710797787 0.384174853563309 0.317306995391846 -0.0374828204512596 -0.127009481191635 -0.113337159156799 -0.0441193170845509 0.0407208949327469 0.744175851345062 0.912942230701447 1.08414006233215 1.11719226837158 0.952120959758759 0.6432244181633 0.302395522594452 0.341837882995605 0.374003827571869 0.498946696519852 0.646560609340668 0.882994771003723 1.07608592510223 1.42325520515442 1.02402317523956 0.88915091753006 0.237497970461845 -0.295887649059296 -0.260278761386871 -0.183101817965508 -0.092184767127037 -0.0191207323223352 0.0274300370365381 0.20455639064312 0.209252536296844 0.571218550205231 0.668193519115448 1.05874133110046 1.16725468635559 1.22226202487946 1.27575922012329 1.34846365451813 1.42035830020905 1.52136826515198 2.4914722442627 2.65237021446228 2.82526898384094 3.0335431098938 3.56298542022705 3.90184831619263 4.30727434158325 4.88468837738037 6.31414127349854 10.0390958786011 19.0823554992676 3.91169667243958 4.37647247314453 10.9085807800293 18.8869686126709 4.99228382110596 5.17911100387573 5.53377819061279 5.74886322021484 5.85741806030273 6.00631332397461 6.25546503067017 6.41584825515747 6.5779070854187 6.74346685409546 6.78536367416382 6.85399723052979 7.07747888565063 7.32701301574707 7.55281925201416
7.94979619979858 12.5543270111084 14.5435781478882 17.154260635376 20.7851848602295 33.0880928039551 42.2441062927246 20.7842845916748 15.8619346618652 36.2762718200684 1.85702705383301 -1.40263974666595 6.21526098251343 10.7336559295654 5.66385173797607 0.297711610794067 -1.3606550693512 10.5215263366699 18.1260051727295 14.4074506759644 -1.65457570552826 0.0546409711241722 3.77767395973206 4.29482555389404 5.31746006011963 9.35443496704102 24.2895355224609 0.00997649226337671 13.9229650497437 0.662621736526489 7.68689918518066 6.85142850875854 8.62090969085693 17.7154960632324 -0.360295057296753 3.11974430084229 4.24103498458862 8.40263080596924 20.1301040649414 10.549017906189 30.7733421325684 9.30042552947998 2.26612901687622 3.04371762275696 17.1190509796143 -2.54455971717834 -2.83012557029724 -2.20954728126526 -1.7596241235733 14.0360622406006 30.4917240142822 -1.87842440605164 -0.629285097122192 2.86849880218506 14.4097080230713 1.45275676250458 17.9179344177246 35.7475395202637 4.17083644866943 4.79028511047363 1.02304327487946 -0.648760676383972 26.1616554260254 44.4606781005859 -0.598051726818085 -0.396725445985794 0.192708611488342 3.68293452262878 3.66893577575684 2.74261498451233 1.94359040260315 0.943792104721069 0.45953893661499 0.178438112139702 0.195697814226151 0.159386798739433 0.167204886674881 0.161976099014282 1.32767641544342 1.37778162956238 1.25266587734222 1.2790994644165 1.31242096424103 1.35147631168365 1.3796638250351 0.351769119501114 0.218962445855141 0.241055876016617 0.367980659008026 0.43617382645607 0.422165513038635 0.205301508307457 -0.048872847110033 -0.0576443262398243 -0.0249467901885509 -0.0577997155487537 -0.0241968799382448 0.0304026864469051 0.160756275057793 0.231949910521507 0.0532586872577667 -0.09404306858778 -0.0487327948212624 0.149628579616547 0.285566061735153 0.340939968824387 0.36552706360817 0.231406688690186 0.259155362844467 0.262082457542419 0.47239488363266 0.79200291633606 1.01716482639313 1.05258917808533 1.08893442153931 1.10929656028748 1.15738904476166 1.18258357048035 1.21405923366547 1.07153403759003 0.421733438968658 0.543380200862885 0.652243971824646 0.75664085149765 0.853396356105804 0.683655858039856 0.16274930536747 -0.285140544176102 -0.258380979299545 -0.21914142370224 -0.140475153923035 -0.0680003389716148 -0.00845762249082327 0.0848513767123222 0.231869995594025 0.0466911643743515 0.0247606970369816 0.245185062289238 0.309963136911392 0.730598211288452 0.849299490451813 0.889435708522797 1.45810115337372 1.54232740402222 1.64699757099152 1.7667201757431 1.90997934341431 2.04454064369202 2.90996122360229 3.60165858268738 3.96181654930115 4.84600639343262 6.30729198455811 9.89502334594727 18.6849231719971 4.658447265625 5.88872480392456 4.7937479019165 7.08368635177612 6.2854380607605 9.39435291290283 5.35095977783203 5.8368616104126 5.95522308349609 6.11462736129761 6.27141857147217 6.3703088760376 6.53451871871948 6.70193719863892 6.97921085357666 7.1838755607605 7.39264488220215 7.60924291610718 7.83058547973633
6.69218301773071 8.19712162017822 9.52570819854736 11.3258867263794 13.8419065475464 26.5812950134277 39.9381790161133 30.3110046386719 4.25009059906006 15.3553142547607 4.10304594039917 10.5055074691772 14.4343891143799 2.44415855407715 5.12139511108398 -1.25912547111511 -1.20676112174988 2.15085387229919 16.7104015350342 9.44401836395264 -0.329198181629181 0.265414297580719 1.97879958152771 8.06276321411133 11.8908061981201 3.65961217880249 21.730167388916 20.0646591186523 1.50284326076508 -1.60814046859741 17.2666683197021 -1.48015713691711 1.31582581996918 -1.1132630109787 -0.872605383396149 2.37534427642822 5.07861948013306 6.7479248046875 8.15165233612061 19.0933246612549 29.9842319488525 12.6000261306763 2.17673349380493 15.8640775680542 0.642196655273438 -2.28548264503479 1.51657605171204 -1.76247835159302 -1.30553126335144 4.19210529327393 1.09288620948792 -1.16111850738525 4.56571102142334 8.4859561920166 7.53794574737549 16.8453903198242 36.8509826660156 4.03941917419434 0.572802662849426 4.18901109695435 14.9929790496826 50.8309669494629 -0.867012202739716 -0.394423514604568 42.6399345397949 -0.46385258436203 0.105993904173374 4.43071508407593 2.93587756156921 3.10743141174316 2.24244856834412 1.11658084392548 0.934601187705994 0.408506691455841 0.258201062679291 0.28616139292717 2.0803484916687 2.13661670684814 1.35571455955505 1.32011258602142 1.42863464355469 1.46355807781219 1.49277806282043 1.5281378030777 1.5672162771225 1.40680837631226 1.4259797334671 1.45096743106842 1.49750757217407 0.331816703081131 0.374049693346024 0.367505490779877 0.272814333438873 0.122473701834679 0.0131048271432519 0.039102740585804 0.0488973446190357 0.0699964314699173 0.243444666266441 0.31153592467308 0.078149288892746 0.0634877979755402 0.0190156996250153 0.203910544514656 0.397798836231232 0.712111115455627 0.533470094203949 0.370892077684402 0.345099955797195 0.377263337373734 0.407741576433182 0.458201825618744 0.474507331848145 0.807190597057343 1.03759074211121 1.07001292705536 1.10345125198364 1.1193699836731 1.15114367008209 1.2158362865448 1.27540147304535 1.3190952539444 1.36290466785431 1.18365442752838 0.583700180053711 0.725463926792145 -0.165686264634132 -0.287440210580826 -0.257946580648422 -0.22558057308197 -0.179226696491241 -0.104132302105427 -0.0290500354021788 0.0182120800018311 0.0668468922376633 0.0765154361724854 0.0809915885329247 0.0932534411549568 0.11705032736063 0.219507545232773 0.162391260266304 0.190338522195816 0.386894643306732 0.411329030990601 0.952431201934814 1.10436046123505 1.17504835128784 2.10419225692749 2.29732799530029 2.49857497215271 2.77621054649353 3.14797472953796 4.05619812011719 9.71260547637939 14.9569606781006 3.90145397186279 4.57116270065308 12.7172431945801 25.5580883026123 4.25447225570679 4.78860569000244 5.03931951522827 5.65347623825073 5.7752857208252 5.92925119400024 5.99477386474609 6.45621585845947 6.62406539916992 6.78701543807983 6.96426868438721 7.1227502822876 7.32640409469604 7.5390419960022 7.83958864212036
4.83359384536743 7.63778734207153 8.93676376342773 10.6911888122559 13.0485982894897 16.558313369751 27.1172847747803 29.9983768463135 10.1852760314941 28.7605972290039 9.52642822265625 14.3504076004028 14.4223937988281 4.20054578781128 9.11520576477051 -1.41183388233185 0.249191045761108 -1.12446248531342 -0.82756769657135 5.81017208099365 16.556978225708 1.8576648235321 3.84835124015808 13.1794118881226 4.93473434448242 5.40250301361084 15.1965084075928 20.0450687408447 4.8847017288208 15.9510917663574 -0.998166680335999 -1.3460865020752 4.97037935256958 -1.22275161743164 -0.994969844818115 1.21316075325012 8.48667049407959 1.15281057357788 1.67230010032654 8.99330806732178 18.9837970733643 24.9575042724609 7.44230985641479 4.26998853683472 -1.3115576505661 -1.05237221717834 -0.919655621051788 -1.04755997657776 -1.67903673648834 1.3616464138031 26.512170791626 -0.311596810817719 10.6610956192017 5.70994758605957 21.6411666870117 41.5403633117676 0.165866181254387 5.11357021331787 1.99769639968872 24.5657176971436 42.3410911560059 5.35021734237671 7.94572401046753 -0.654796242713928 0.851585388183594 46.3836364746094 -0.573688268661499 4.45036315917969 3.0187292098999 2.25455331802368 2.69210338592529 1.58414542675018 1.2325633764267 0.758735001087189 0.392412036657333 0.39624160528183 0.871485531330109 1.47084283828735 2.21731495857239 2.29612684249878 2.35917067527771 2.41849946975708 2.47291684150696 1.55326974391937 1.48372161388397 1.5880469083786 1.60281562805176 1.62378001213074 1.66165030002594 1.50736486911774 1.54924786090851 1.60163581371307 1.66273200511932 1.71715271472931 0.225067272782326 0.241012126207352 0.271095126867294 0.155111461877823 0.224973559379578 0.316037029027939 0.140807673335075 0.153604552149773 0.937530994415283 0.978735983371735 0.935624241828918 0.721043050289154 0.622323513031006 0.446929454803467 0.440021306276321 0.466661989688873 0.75689822435379 0.881634533405304 0.949524879455566 1.01455175876617 0.919969141483307 0.812990844249725 0.810488402843475 0.829129934310913 0.89631986618042 1.16611540317535 1.2086067199707 1.2623051404953 1.3249728679657 1.38225018978119 1.41441082954407 1.44513499736786 1.46919977664948 1.51722967624664 1.32157611846924 -0.240363910794258 -0.196349278092384 -0.124439507722855 -0.0483825653791428 0.00164228980429471 0.0154654886573553 0.0276518445461988 0.0288123264908791 0.030566144734621 0.170267641544342 0.20729099214077 0.215009450912476 0.245811089873314 0.226417765021324 0.251529395580292 0.288637906312943 0.345568358898163 0.449192881584167 0.546503126621246 1.59343123435974 1.77387034893036 1.97430288791656 3.27077794075012 3.77111077308655 6.2633228302002 12.3185529708862 3.55761408805847 9.57710266113281 4.1987190246582 15.8410053253174 34.7182083129883 4.35818815231323 4.64971685409546 5.15634489059448 5.63335275650024 5.76751375198364 6.1096568107605 6.26867723464966 6.43371438980103 6.60332250595093 6.65855264663696 7.19842624664307 7.40231800079346 7.61187601089478 7.83706760406494
5.10600185394287 5.68710994720459 6.40915441513062 7.29483604431152 8.47591495513916 16.1549644470215 29.955114364624 21.3255214691162 6.27849626541138 23.8917560577393 12.505952835083 9.86347007751465 19.2092971801758 12.855149269104 -1.11250269412994 2.33276891708374 -0.988852620124817 -0.949329197406769 -0.741819322109222 2.79637241363525 11.4483528137207 0.287194043397903 1.26344430446625 1.56498003005981 3.74817132949829 5.15552091598511 30.480318069458 45.6063385009766 8.58822536468506 3.60299825668335 -1.17451775074005 -0.940375626087189 12.2070331573486 -0.520765721797943 2.70707726478577 -0.67117840051651 0.0642802491784096 -0.637729167938232 0.413936406373978 6.85059070587158 8.12383842468262 8.65190315246582 7.94362306594849 0.0990001037716866 5.88012313842773 -0.282745480537415 -0.252348601818085 11.4631462097168 -0.028921477496624 0.136260539293289 0.457707107067108 7.42610311508179 0.706734180450439 24.3507041931152 45.2269744873047 0.261621445417404 2.19923734664917 21.6607513427734 38.1773109436035 18.7290649414062 0.416893899440765 0.783731281757355 1.66272962093353 7.52763080596924 19.9776954650879 -0.836496889591217 21.7318859100342 0.267640143632889 3.39499640464783 1.42014253139496 1.85047423839569 2.6623067855835 1.36739003658295 1.10617566108704 0.569933950901031 0.583438336849213 0.571036338806152 1.20859479904175 1.24850642681122 1.58203530311584 1.62884771823883 1.66681480407715 1.70559692382812 2.51865148544312 2.56769227981567 2.61177682876587 2.66294193267822 1.63473129272461 1.5565927028656 1.67386734485626 1.71836173534393 1.77792835235596 1.84107506275177 1.91152083873749 1.7331178188324 1.79246771335602 1.87021172046661 1.96808731555939 2.06696248054504 0.294928044080734 0.314831763505936 1.11361110210419 1.15265452861786 1.16706383228302 0.966514050960541 0.990786850452423 1.02527046203613 1.06272923946381 1.09083139896393 1.02909815311432 0.916903138160706 0.968067288398743 0.941453635692596 1.00055193901062 1.12259769439697 1.18382322788239 1.11535108089447 1.13154661655426 1.20260238647461 1.06110048294067 0.911915421485901 0.936272382736206 1.05326509475708 1.31992566585541 1.36483383178711 1.39945507049561 1.42919206619263 1.45362365245819 1.546462059021 1.65270519256592 1.79256165027618 1.96832275390625 2.16997122764587 2.00499701499939 0.00741372676566243 0.00932089798152447 0.0308791864663363 0.0350984483957291 0.0858451053500175 0.126527950167656 0.139555260539055 0.151794388890266 0.296577930450439 0.325583428144455 0.382019996643066 0.46423202753067 0.621217727661133 0.705973625183105 1.06531846523285 1.2786386013031 1.72847485542297 1.8550146818161 2.17282509803772 2.22369480133057 3.01861524581909 5.41406917572021 8.46117877960205 16.362340927124 4.10952997207642 4.46063232421875 7.19034004211426 14.0506010055542 5.21711826324463 5.31004953384399 5.72637462615967 5.89517641067505 6.05080986022949 6.2206072807312 6.37557363510132 6.8112211227417 7.00781869888306 7.22408533096313 7.43926382064819 7.66159439086914
2.54714441299438 2.74107384681702 3.20597076416016 7.63846397399902 8.85337924957275 10.5256223678589 12.9423704147339 21.3664302825928 27.3160972595215 7.9802565574646 5.50833559036255 15.5481958389282 17.5368003845215 13.4340963363647 1.91904330253601 11.4418802261353 -0.747001647949219 -0.288090884685516 0.0443864613771439 0.182518392801285 0.967361688613892 2.37923789024353 8.97933197021484 10.4391012191772 2.06374287605286 7.72010898590088 9.49608707427979 23.1233310699463 34.9907455444336 4.64052152633667 8.73804378509521 -0.554533183574677 0.248016282916069 21.2366580963135 3.41143178939819 12.5810499191284 -0.669630348682404 0.557299137115479 0.808705627918243 6.13529062271118 12.6307182312012 0.463117718696594 6.08566999435425 -0.304081469774246 0.805875480175018 2.28320407867432 3.04205203056335 8.94902229309082 12.4343156814575 18.4522476196289 0.296925008296967 17.6492023468018 35.3353080749512 1.99082791805267 7.93144416809082 19.355297088623 34.8192977905273 21.4706745147705 0.430500656366348 2.24799370765686 4.86327028274536 6.7809534072876 8.20477294921875 9.89503860473633 16.0882205963135 3.42273116111755 5.04978609085083 -0.611950933933258 3.46031832695007 2.04451394081116 1.19113707542419 2.16308307647705 3.23409795761108 1.35272705554962 0.842521905899048 0.885641098022461 0.755774617195129 1.21327221393585 1.24179422855377 1.27984595298767 1.30830514431 1.33920788764954 1.3665828704834 1.46989238262177 1.73342144489288 1.74564611911774 1.77159214019775 2.69305372238159 2.76531505584717 2.8293399810791 2.91064238548279 3.00234460830688 1.83732950687408 1.77169811725616 1.94263935089111 2.00920748710632 2.07785606384277 2.16940808296204 2.28809785842896 2.09485721588135 2.19216060638428 2.31349301338196 2.43698740005493 1.14625811576843 1.18503618240356 1.20810842514038 1.25161945819855 1.29657590389252 1.28876996040344 1.05851590633392 1.10377752780914 1.16780495643616 1.25236368179321 1.22838485240936 1.10048627853394 1.15808176994324 1.21338963508606 1.20304489135742 1.24492716789246 1.31300330162048 1.365971326828 1.30402910709381 1.35970115661621 1.18664801120758 1.01579546928406 1.03653490543365 1.05834102630615 1.18579697608948 1.48332607746124 1.57705795764923 1.73480904102325 1.90507614612579 2.08581352233887 2.30835723876953 2.46183896064758 2.60422229766846 2.7738356590271 2.48248887062073 0.0613390766084194 0.0834353566169739 0.105465583503246 0.122493848204613 0.158304691314697 0.185215383768082 0.225856393575668 0.252710372209549 0.387525349855423 0.898396790027618 1.09204232692719 0.681287288665771 1.84017980098724 1.89176881313324 2.20986652374268 2.37713718414307 3.12769818305969 3.88510155677795 4.16785621643066 4.64856624603271 4.66008472442627 9.15279197692871 4.48423528671265 4.82243871688843 5.0407338142395 6.42211866378784 5.26855230331421 5.97707939147949 6.12265872955322 6.28154134750366 6.45036697387695 6.56803226470947 6.7543044090271 6.95964431762695 7.16822481155396 7.38983106613159
2.04034543037415 2.10535264015198 3.05529808998108 3.4966197013855 4.22241735458374 5.20654296875 6.79446029663086 9.11376094818115 24.5221900939941 33.0603256225586 2.83890342712402 16.2559947967529 4.29600524902344 10.0379104614258 0.311691790819168 2.9826283454895 3.80829524993896 16.8700313568115 0.0618277378380299 1.04240560531616 1.30081510543823 1.57942366600037 3.0546407699585 3.79811549186707 5.08514833450317 6.8722996711731 9.26930999755859 18.1759796142578 31.6780586242676 3.74429106712341 12.7848062515259 17.3958721160889 -0.426663190126419 -0.379525125026703 2.42627429962158 2.89513993263245 0.93325412273407 11.1177577972412 13.240195274353 2.5776219367981 31.7031345367432 10.9252071380615 26.0473880767822 1.29286444187164 1.41949033737183 14.3751964569092 6.54121732711792 12.3713636398315 10.7502145767212 25.5697116851807 45.4117050170898 1.14773786067963 1.41515326499939 4.76816606521606 48.0788269042969 1.2931911945343 5.01375913619995 0.952831149101257 9.04778289794922 3.57630181312561 1.63045120239258 9.8769063949585 5.58271026611328 11.9324855804443 14.8654813766479 2.46721029281616 0.591533243656158 11.9463109970093 0.213795274496078 2.66376543045044 1.4943265914917 1.5004278421402 2.73828077316284 3.57789921760559 1.2087436914444 1.24644947052002 1.07539308071136 1.11523008346558 1.3031986951828 1.33275198936462 1.26595973968506 1.2811793088913 1.30553603172302 1.33051729202271 1.36639356613159 1.37920844554901 1.38921892642975 1.42023432254791 1.81782495975494 1.86051893234253 1.91188263893127 1.96309757232666 3.05919218063354 3.18496632575989 3.31902551651001 3.45016622543335 3.57820200920105 2.18053674697876 2.10095238685608 2.31499910354614 2.42041707038879 2.56169843673706 2.69712924957275 2.48908758163452 2.61857461929321 2.7314887046814 2.91035938262939 3.09611225128174 1.25629210472107 1.29652190208435 1.3428019285202 1.41202759742737 1.44570231437683 1.25032484531403 1.34704232215881 1.43176484107971 1.52414739131927 1.61843490600586 1.77080452442169 1.28194522857666 1.39288365840912 1.35363984107971 1.41332364082336 1.4519317150116 1.49442780017853 1.42616593837738 1.48013341426849 1.54463255405426 1.34541726112366 1.17700958251953 1.28493142127991 1.42611479759216 1.73113262653351 2.19547939300537 2.36388826370239 2.54458808898926 2.73324036598206 2.92739319801331 3.1035304069519 3.27456378936768 3.45434832572937 3.64629912376404 3.25314712524414 0.14970825612545 0.1850366294384 0.216264992952347 0.328480690717697 0.527070820331573 0.259886920452118 0.302854537963867 1.14832830429077 2.25787281990051 2.60395336151123 2.65884518623352 2.98914813995361 3.4566056728363 3.72593641281128 4.1201639175415 4.36758661270142 4.60505342483521 4.70195770263672 4.80941772460938 4.92334127426147 5.03153848648071 5.17749500274658 5.4191460609436 5.85881233215332 6.00159597396851 6.15700817108154 6.65497541427612 6.8427882194519 7.03924369812012 7.2527379989624 7.47422552108765
2.61641025543213 2.76285791397095 2.92020678520203 3.09840750694275 2.34941625595093 2.41849732398987 5.04204797744751 11.2397403717041 21.4725608825684 3.17923140525818 8.27132606506348 8.17173671722412 4.79221725463867 3.94127678871155 1.40582621097565 11.6460952758789 25.4446086883545 0.775106132030487 1.68380236625671 1.86227548122406 1.59517180919647 1.67647194862366 2.57972145080566 3.30821061134338 4.48903369903564 6.25072479248047 8.87172222137451 17.8197898864746 32.8638534545898 1.19693624973297 1.37451839447021 7.87681150436401 9.28540992736816 0.888983011245728 1.20052325725555 7.19713926315308 10.4402179718018 12.2845544815063 14.9527187347412 19.3283863067627 20.3737335205078 14.5484962463379 12.1374492645264 14.5277013778687 13.2614440917969 15.0245447158813 31.6962509155273 50.7967834472656 0.42423340678215 0.54229599237442 2.65850853919983 6.46666383743286 50.3316688537598 1.4290828704834 1.4523960351944 1.51379978656769 1.51276838779449 8.36686706542969 1.80431628227234 1.16102111339569 1.3949271440506 6.63876628875732 19.1661758422852 6.80707836151123 1.13375544548035 2.38034391403198 7.25321483612061 0.622924208641052 3.21910262107849 0.725072860717773 5.19728660583496 5.42130661010742 5.74132013320923 4.99916172027588 2.90359330177307 1.5213440656662 1.55152475833893 1.56404960155487 1.76977729797363 1.87461686134338 1.62588262557983 1.28624355792999 1.16740453243256 1.14908313751221 1.29556155204773 1.31870210170746 1.33721435070038 1.35689055919647 1.4021714925766 1.44545769691467 1.49072933197021 1.52552270889282 1.58083736896515 2.07206058502197 2.16838073730469 2.27036213874817 2.35749626159668 3.69054484367371 3.8266806602478 3.99314951896667 4.20306539535522 2.58325505256653 2.49205470085144 2.76163601875305 2.88371276855469 3.0038902759552 3.1784360408783 3.3650484085083 3.15634226799011 3.36850881576538 3.61030554771423 3.94250845909119 4.34635829925537 1.49843466281891 1.59304940700531 1.68988811969757 1.80970239639282 1.89311814308167 1.72261941432953 1.66033148765564 1.78975164890289 1.96290493011475 1.98777425289154 1.85346746444702 1.52470898628235 1.57126593589783 1.53795397281647 1.60156166553497 1.6635023355484 1.75655591487885 1.78551042079926 1.94155824184418 2.08302855491638 1.93544971942902 1.84729957580566 1.94634783267975 2.39101982116699 2.87047529220581 3.06263184547424 3.24717307090759 3.40917301177979 3.62859296798706 3.91173911094666 4.1574387550354 4.44022464752197 4.75347137451172 5.11740350723267 4.54352331161499 0.210650384426117 0.246115013957024 1.0045211315155 1.72393548488617 2.11068987846375 3.02722907066345 3.23270225524902 3.29788494110107 3.62020897865295 3.92103147506714 4.02755737304688 4.31861734390259 4.58369779586792 4.68019008636475 4.86877012252808 4.97530174255371 5.19860696792603 5.33514785766602 5.46907377243042 5.61655569076538 5.78183174133301 6.03292608261108 6.52538537979126 6.70527601242065 6.89626789093018 7.09687614440918
1.78893196582794 1.84102284908295 1.8300404548645 2.05922293663025 3.37323784828186 3.59111833572388 3.83862447738647 4.13138628005981 4.45042705535889 3.31726360321045 4.81515741348267 15.747540473938 24.2826080322266 2.73507761955261 5.91859483718872 13.5571031570435 23.1997928619385 2.63025212287903 4.26952648162842 2.35507440567017 2.07757139205933 2.19749617576599 2.35051965713501 2.55854606628418 2.85489726066589 2.6786150932312 2.99195504188538 16.3563385009766 30.9400825500488 1.35678541660309 4.18232297897339 4.63867330551147 5.19775199890137 5.87891626358032 5.57195425033569 7.59360074996948 8.7349853515625 10.5785779953003 13.3133554458618 17.1115169525146 31.7161293029785 50.7122917175293 3.79783797264099 0.503593742847443 1.78797781467438 8.47433376312256 1.1867835521698 5.72410726547241 1.25426948070526 5.52611780166626 50.2904968261719 0.999622046947479 1.93453633785248 6.46188497543335 7.46039819717407 1.01829946041107 4.66713285446167 1.16376709938049 1.58704268932343 1.60614478588104 1.88417017459869 1.97664308547974 4.34761428833008 1.41121077537537 1.46509563922882 1.4782133102417 1.63286447525024 1.63484513759613 3.19827318191528 5.55224895477295 0.878268957138062 2.99003195762634 3.01713085174561 6.32220220565796 6.7699294090271 7.18677997589111 7.80599451065063 6.7405800819397 2.11267948150635 2.24750661849976 2.42856192588806 2.18906164169312 1.29687345027924 1.11260807514191 1.1075564622879 1.12147188186646 1.14739537239075 1.16675055027008 1.34338760375977 1.39206850528717 1.43211603164673 1.47432553768158 1.5284126996994 1.61355447769165 1.69631445407867 1.77950727939606 1.85817790031433 1.92662751674652 2.49841856956482 2.59265279769897 2.71679043769836 4.38736438751221 4.61869096755981 4.8624153137207 5.11022710800171 5.35533618927002 3.22072315216064 3.06762933731079 3.48711466789246 3.71099805831909 3.96626043319702 4.27999687194824 4.69378423690796 4.71552896499634 5.2873330116272 5.97835922241211 6.9557785987854 1.82865023612976 2.11515426635742 1.94135439395905 2.02317643165588 2.09569787979126 2.21319794654846 2.4312481880188 1.88199710845947 2.08627510070801 2.24229097366333 2.15412449836731 1.73046398162842 1.83363878726959 1.98814988136292 1.94768500328064 2.09654450416565 2.2609441280365 2.4462366104126 2.65142107009888 2.82975363731384 2.63300347328186 2.9354145526886 3.22734045982361 2.66614246368408 3.30537271499634 3.86661672592163 4.13168573379517 4.40189266204834 4.69268941879272 5.05676460266113 5.61512279510498 6.1485915184021 6.77769994735718 7.57775592803955 6.75633192062378 2.53557658195496 2.34904718399048 2.70356702804565 3.17047739028931 3.38397693634033 3.53079342842102 3.79272031784058 4.11197710037231 4.22278690338135 4.31556081771851 4.80338907241821 4.91295957565308 5.03863382339478 5.15413475036621 5.27509880065918 5.50485038757324 5.79765701293945 5.95425367355347 6.1262354850769 6.30273342132568 6.48679828643799 6.71907091140747
