NCOLS 171
NROWS 32
XLLCORNER 354048
YLLCORNER 6700496
CELLSIZE 16 
NODATA_value -3.4e+38 
1.72338926792145 1.47529220581055 1.29946112632751 1.20921766757965 1.15811955928802 1.08063626289368 1.03820753097534 0.953016817569733 0.873981595039368 0.587248742580414 0.2969910800457 0.195379868149757 0.0887979939579964 0.0331931598484516 -0.206299424171448 0.191869810223579 0.932405173778534 1.42401683330536 1.92790353298187 2.46336770057678 2.91565799713135 3.24370884895325 3.49243068695068 3.61546468734741 3.65341281890869 3.64776611328125 3.84766340255737 3.93651556968689 3.82885408401489 3.82882905006409 3.84277486801147 3.87485361099243 3.88790059089661 3.89861345291138 3.81605625152588 3.70840787887573 3.51134252548218 3.3128547668457 3.21695303916931 3.23323917388916 3.34366011619568 3.4897186756134 3.57071137428284 3.66083550453186 3.8027663230896 3.77544903755188 3.82036900520325 3.84105801582336 3.77875280380249 3.76587128639221 3.73706936836243 3.69897198677063 3.71680355072021 3.62273406982422 3.56386208534241 3.65025591850281 3.58458685874939 3.46084380149841 3.40439200401306 3.38117527961731 3.2900083065033 3.12352895736694 2.93205666542053 2.74346804618835 2.56460094451904 2.42065215110779 2.27366733551025 2.02859711647034 1.88327777385712 1.84581875801086 1.92653226852417 1.85598003864288 1.81669771671295 1.73868775367737 1.66505193710327 1.62570655345917 1.51390182971954 1.44065618515015 1.28544104099274 0.897835373878479 0.708932280540466 0.463634133338928 0.229076072573662 0.0030242376960814 -0.205045849084854 -0.35526230931282 -0.494777649641037 -0.509742140769958 -0.531315922737122 -0.573670327663422 -0.614492416381836 -0.604181110858917 -0.571435511112213 -0.556124866008759 -0.565308451652527 -0.564474940299988 -0.558285057544708 -0.548926591873169 -0.495927423238754 -0.0481808073818684 -0.011774742975831 0.0391686409711838 0.633974969387054 0.658854305744171 0.628083467483521 0.534123837947845 0.0560362637042999 -0.123509466648102 -0.44734787940979 -0.225969567894936 0.111913040280342 0.362331748008728 0.511074066162109 0.336354285478592 0.136279091238976 0.0463675372302532 -0.218689203262329 -0.679400563240051 -0.987277686595917 -1.29389131069183 -1.43850553035736 -0.989057421684265 -1.03089833259583 -1.65664625167847 -1.78487062454224 -1.92582333087921 -2.04938912391663 -2.20042896270752 -2.42578339576721 -2.74872350692749 -3.34206938743591 -3.7462944984436 -4.08220767974854 -3.22143173217773 -2.24509263038635 -2.32764506340027 -3.9611759185791 -0.270691514015198 5.12626695632935 9.94047927856445 14.5594053268433 17.8916893005371 14.0332899093628 7.91860580444336 5.66173934936523 3.60794758796692 3.2347137928009 1.37638092041016 -0.757339775562286 -1.07951307296753 -1.16211032867432 -1.16939556598663 1.23316311836243 2.5979151725769 8.15571308135986 6.80860996246338 3.79292321205139 1.03867638111115 0.0535876229405403 0.337406724691391 0.351277053356171 0.0272393543273211 -0.0339188612997532 -0.0391310229897499 -0.0301298778504133 -0.0467571169137955 -0.0495928451418877 -0.0685674771666527 -0.0672876015305519 -0.0792033895850182 -0.07441096752882
1.36864864826202 1.2586852312088 1.06175518035889 0.981909513473511 0.978650331497192 0.911925852298737 0.899008274078369 0.826289236545563 0.687299191951752 0.484107911586761 0.257548451423645 0.153303638100624 0.0598006136715412 0.209944948554039 -0.316477417945862 -0.359083145856857 0.186203226447105 0.800894677639008 1.27110314369202 1.77169692516327 2.30423712730408 2.74709987640381 3.09346652030945 3.18765139579773 3.33112335205078 3.35686326026917 3.45012950897217 3.66309952735901 3.81288528442383 3.73685574531555 3.7078902721405 3.71776461601257 3.75892543792725 3.77050638198853 3.81525874137878 3.71085739135742 3.49558568000793 3.22856116294861 3.07795882225037 3.12741255760193 3.14692807197571 3.15675163269043 3.2752161026001 3.41778755187988 3.52838277816772 3.66253781318665 3.64154386520386 3.69245195388794 3.70689988136292 3.65862560272217 3.65036058425903 3.62113952636719 3.59826040267944 3.58849120140076 3.52423787117004 3.47829437255859 3.40704226493835 3.37039113044739 3.1731743812561 3.06042504310608 2.97765612602234 2.85642337799072 2.57753872871399 2.39409232139587 2.25080275535583 2.13224411010742 2.01733613014221 1.90736508369446 1.82157695293427 1.73551654815674 1.67965829372406 1.74223816394806 1.69475543498993 1.50866377353668 1.42004036903381 1.46362900733948 1.44018089771271 1.29550909996033 0.92795717716217 0.627328991889954 0.422237187623978 0.217862173914909 -0.0199324879795313 -0.217434704303741 -0.418874949216843 -0.568868398666382 -0.635747671127319 -0.653170764446259 -0.659244060516357 -0.688881754875183 -0.735992252826691 -0.68649822473526 -0.63907253742218 -0.636035084724426 -0.615798234939575 -0.612082242965698 -0.605427622795105 -0.602044880390167 -0.44564425945282 -0.0935410261154175 -0.103007160127163 0.131308928132057 0.704005360603333 0.627310812473297 0.714252352714539 0.3582484126091 0.100653201341629 0.0184872690588236 -0.227437555789948 -0.422550082206726 -0.328945428133011 -0.176325976848602 0.1334378272295 -0.0629653856158257 0.0446369647979736 -0.115727633237839 -0.105564512312412 -0.339519828557968 -0.746276319026947 -1.00032675266266 -0.666001260280609 -0.771503329277039 -1.14070498943329 -1.54999995231628 -1.74727857112885 -1.88020193576813 -2.02098178863525 -2.17215132713318 -2.39453387260437 -2.74430584907532 -3.21596550941467 -3.65163445472717 -3.94748544692993 -2.91597390174866 1.7546124458313 4.89116764068604 7.07362222671509 9.7978572845459 11.2612714767456 11.6599826812744 12.9986667633057 15.2558336257935 14.1318511962891 10.2040185928345 6.01700592041016 5.00079011917114 4.05267572402954 1.26721549034119 -0.265874475240707 -1.2338969707489 -1.36609256267548 -1.39203798770905 -1.33720993995667 -1.19082546234131 2.39604711532593 5.24738216400146 5.07791757583618 3.01576972007751 1.68850421905518 1.04639256000519 0.465135604143143 0.142011418938637 -0.0546821169555187 -0.0396098345518112 -0.0532272644340992 -0.0462204813957214 -0.0512006469070911 -0.0695164427161217 -0.0770706310868263 -0.0838913321495056 -0.0882421731948853
0.895893514156342 0.936934173107147 0.836846351623535 0.770304322242737 0.741336762905121 0.681328773498535 0.601325392723083 0.586320996284485 0.549050986766815 0.43863120675087 0.219780847430229 0.102396219968796 0.0326153300702572 0.535382628440857 -0.393391877412796 -0.452061325311661 1.34672844409943 0.120777741074562 0.670637488365173 1.12410318851471 1.60598123073578 2.06233167648315 2.48112916946411 2.77630209922791 2.93987441062927 3.07955074310303 3.18947505950928 3.31023812294006 3.49154567718506 3.64825105667114 3.64468026161194 3.6298611164093 3.62481808662415 3.66195297241211 3.72144865989685 3.67345714569092 3.39040446281433 3.10918855667114 3.00519418716431 2.99604797363281 3.04561305046082 3.05301403999329 3.06096291542053 3.17459082603455 3.30181932449341 3.39318799972534 3.54000544548035 3.52555823326111 3.5566565990448 3.56624150276184 3.54592871665955 3.55869507789612 3.53668236732483 3.49669551849365 3.50490093231201 3.41374540328979 3.3446319103241 3.26463294029236 3.01117610931396 2.89731979370117 2.68297648429871 2.54043412208557 2.3283064365387 2.14270615577698 2.04128909111023 1.94511592388153 1.85172355175018 1.7905992269516 1.72216463088989 1.62827587127686 1.53259515762329 1.47787892818451 1.34104180335999 1.10220313072205 0.995058536529541 0.911269247531891 0.836040318012238 0.699413359165192 0.556474506855011 0.362912029027939 0.160896003246307 -0.0474637299776077 -0.26864305138588 -0.460770815610886 -0.634665608406067 -0.728791892528534 -0.763305962085724 -0.772422850131989 -0.767150163650513 -0.783640921115875 -0.814278602600098 0.192268565297127 0.592657029628754 -0.480183839797974 -0.239260613918304 -0.3491230905056 -0.493986040353775 -0.458133012056351 -0.185255959630013 -0.0689483806490898 -0.130304351449013 0.0641476884484291 0.345230519771576 0.491972208023071 0.715015292167664 0.330529510974884 0.108210742473602 0.0659927055239677 -0.100450128316879 -0.2739277780056 -0.52500182390213 -0.601494371891022 -0.535202980041504 -0.564749240875244 -0.261193960905075 -0.120812192559242 -0.27639377117157 -0.238318681716919 -0.405529826879501 -0.769505798816681 -0.667739689350128 -0.974311947822571 -1.23497343063354 -1.51210606098175 -1.71447896957397 -1.83790743350983 -1.95350897312164 -2.12132430076599 -2.3663341999054 -2.66724109649658 -3.09931969642639 -3.49003767967224 -3.79163956642151 -1.96666216850281 4.99783945083618 8.50251579284668 11.7631540298462 14.0012149810791 14.905198097229 15.4549112319946 16.337532043457 17.5786933898926 15.9814968109131 11.8801326751709 9.74997520446777 7.71942663192749 4.94983339309692 1.77665042877197 -0.308866381645203 -1.47866678237915 -1.61731541156769 -1.82788693904877 -2.0324113368988 -1.83960032463074 -1.43440163135529 -0.811458826065063 2.6804792881012 3.85566926002502 3.68366003036499 2.48327136039734 0.962869882583618 0.25586149096489 0.0486251376569271 0.142919391393661 -0.0523972772061825 -0.057238046079874 -0.0557645075023174 -0.0553983487188816 -0.0752260312438011 -0.0896526724100113 -0.0921734422445297
0.478203594684601 0.475140392780304 0.680079340934753 0.60159033536911 0.494397163391113 0.467983990907669 0.414614647626877 0.406896144151688 0.442477017641068 0.352961450815201 0.209849879145622 0.106505244970322 1.09526538848877 1.78111171722412 -0.407722532749176 -0.494101941585541 2.19939541816711 0.39726322889328 0.0175355598330498 0.526262104511261 0.949971556663513 1.35196006298065 1.75577509403229 2.22114849090576 2.51885175704956 2.6798267364502 2.92558932304382 3.06700110435486 3.16135096549988 3.35793852806091 3.49482846260071 3.49400663375854 3.53678679466248 3.54815983772278 3.61259651184082 3.53379940986633 3.25213408470154 2.95551323890686 2.9833710193634 2.92900323867798 2.90897083282471 2.95162796974182 2.96191120147705 2.95282912254333 3.03433465957642 3.18933701515198 3.28308963775635 3.41665959358215 3.3946738243103 3.4286892414093 3.44598984718323 3.4357750415802 3.45906662940979 3.44538378715515 3.40892171859741 3.38219094276428 3.27000880241394 3.00094318389893 2.99401330947876 2.90514540672302 2.79804062843323 2.58876514434814 2.45460820198059 2.24884605407715 2.07033038139343 1.93448042869568 1.82980108261108 1.73835968971252 1.67630803585052 1.5277898311615 1.34280896186829 1.19831323623657 1.00141417980194 0.848991096019745 0.648827850818634 0.493938356637955 0.347858250141144 0.263920277357101 0.169938385486603 0.061377976089716 -0.114903599023819 -0.30087822675705 -0.498738050460815 -0.690788090229034 -0.803723633289337 -0.862127006053925 -0.886679589748383 -0.876106917858124 -0.870793581008911 -0.876908659934998 -0.884299993515015 0.979642331600189 0.259921550750732 0.0929421484470367 0.021443746984005 -0.273951470851898 -0.445542842149734 -0.477266907691956 -0.294230759143829 -0.216774016618729 -0.152182638645172 -0.0185652617365122 0.194693028926849 0.291434437036514 0.48188054561615 0.370961040258408 0.162239789962769 0.0581010803580284 -0.101273931562901 -0.204121962189674 -0.373167484998703 -0.592695116996765 -0.769989490509033 -0.723178565502167 -0.640232801437378 -0.389268338680267 -0.245447754859924 -0.363648116588593 -0.308590024709702 -0.452233076095581 -0.797765135765076 -1.04200720787048 -1.29969131946564 -1.49796569347382 -1.70819127559662 -1.79451513290405 -1.92252886295319 -2.07655358314514 -2.27400231361389 -2.56354475021362 -2.95458102226257 -3.27102971076965 -2.72944188117981 0.922484457492828 7.1063060760498 10.3858337402344 13.0805158615112 11.6334733963013 12.1571912765503 13.3440341949463 14.2472133636475 15.594820022583 16.5130195617676 13.2155685424805 12.2053070068359 10.7615528106689 6.17516756057739 2.35519099235535 0.105340130627155 -1.72763526439667 -1.93701922893524 -2.28908848762512 -2.49606394767761 -2.26501679420471 -1.92009246349335 -1.60571479797363 -1.24339187145233 1.70099186897278 4.19678449630737 3.38673615455627 2.18375492095947 0.842510879039764 0.244135439395905 0.00961967743933201 -0.0296373479068279 -0.0563253872096539 -0.068115159869194 -0.0564698949456215 -0.0751891061663628 -0.086923249065876 -0.094155877828598
0.0917369574308395 0.0128533700481057 0.272406339645386 0.432329326868057 0.330158770084381 0.324646830558777 0.3293237388134 0.33055454492569 0.310214221477509 0.251771718263626 0.196925520896912 0.367484778165817 2.83835434913635 2.44239211082458 0.443142652511597 -0.47460725903511 2.39759469032288 1.36635005474091 -0.188404873013496 -0.129143342375755 0.301162660121918 0.747262954711914 1.14183747768402 3.22398352622986 4.94103717803955 2.3666729927063 2.55946230888367 2.82583975791931 2.94365072250366 3.04525375366211 3.233562707901 3.35444235801697 3.33431053161621 3.4007465839386 3.47801327705383 3.33935332298279 3.0896999835968 2.75320553779602 2.8047411441803 2.90855479240417 2.84507703781128 2.81960725784302 2.86567974090576 2.82859420776367 2.75071930885315 2.93979215621948 3.09177160263062 3.1666157245636 3.28059697151184 3.28314733505249 3.3159294128418 3.34202980995178 3.3319935798645 3.34591841697693 3.31139707565308 3.22572636604309 3.0152895450592 2.8557403087616 2.87476992607117 2.88532948493958 2.80331563949585 2.70865535736084 2.50799417495728 2.3803551197052 2.17637729644775 2.00682902336121 1.88544106483459 1.76829993724823 1.66890740394592 1.50456416606903 1.28686189651489 1.14676403999329 0.925884008407593 0.541704654693604 0.234197810292244 -0.131593436002731 -0.331139534711838 -0.387546747922897 -0.316546231508255 -0.344817996025085 -0.474178373813629 -0.561044871807098 -0.713121294975281 -0.859810173511505 -0.947163224220276 -0.985270917415619 -0.978167414665222 -0.979672610759735 -0.974797606468201 -0.986584305763245 -0.975119292736053 -0.669140100479126 0.246881693601608 -0.211793079972267 -0.135964706540108 -0.201256483793259 -0.310242295265198 -0.39792001247406 -0.497131526470184 -0.393940567970276 -0.29476523399353 -0.19406196475029 0.149555310606956 0.50129759311676 0.573668718338013 0.383046329021454 0.195145770907402 0.071624182164669 -0.0818032771348953 -0.182037174701691 -0.316069036722183 -0.451727837324142 -0.623600244522095 -0.784280478954315 -0.816473066806793 -0.730785727500916 -0.503191888332367 -0.337582588195801 -0.42467126250267 -0.363601505756378 -0.539734721183777 -0.892176687717438 -1.04928922653198 -1.27290105819702 -1.49017453193665 -1.77587831020355 -1.87977981567383 -2.06553816795349 -2.26521015167236 -2.53080058097839 -2.80370855331421 -3.09568953514099 -3.36409521102905 1.94047725200653 7.26598644256592 9.65742301940918 10.4570484161377 10.8166532516479 11.1189756393433 12.3365001678467 12.9485483169556 14.3682537078857 14.7461557388306 13.8866539001465 13.3298597335815 11.8722248077393 7.44615507125854 3.39713573455811 0.728598892688751 -1.37927961349487 -2.25335884094238 -2.64854502677917 -2.80137324333191 -1.97227728366852 3.25665283203125 5.48165130615234 6.71183586120605 11.1410236358643 12.6495580673218 3.72548246383667 2.94029307365417 1.96883153915405 0.717397034168243 0.20050998032093 0.0392062999308109 -0.0636618956923485 -0.0668699070811272 -0.078042134642601 -0.0773857831954956 -0.0827233195304871 0.0823168903589249
-0.239396452903748 -0.429201871156693 -0.325517296791077 0.0419809855520725 1.54303586483002 0.959054529666901 0.252579122781754 0.230349808931351 0.206969127058983 0.214910283684731 1.2006162405014 2.8618745803833 3.45753264427185 2.33276081085205 0.748228371143341 -0.0643666386604309 2.8546769618988 1.9491605758667 0.795756578445435 -0.531039416790009 -0.344453930854797 0.18751248717308 1.47080492973328 4.32161664962769 6.908362865448 2.99406933784485 2.25344824790955 2.46514344215393 2.72275328636169 2.84409666061401 2.93414783477783 3.10579180717468 3.21377944946289 3.20321416854858 3.25439238548279 3.15326285362244 2.97035598754883 2.64584255218506 2.61521697044373 2.73316431045532 2.82961773872375 2.76355600357056 2.74143385887146 2.7115592956543 2.57114553451538 2.6206202507019 2.84516501426697 2.98427677154541 3.05297183990479 3.17422366142273 3.1908438205719 3.2199432849884 3.23455953598022 3.21401619911194 3.19488406181335 3.12954783439636 2.93770408630371 2.59275507926941 2.74349665641785 2.76707005500793 2.78337693214417 2.71261525154114 2.6259298324585 2.43419194221497 2.30226850509644 2.10850191116333 1.96000063419342 1.82758212089539 1.7189005613327 1.5574038028717 1.3257120847702 1.12325537204742 0.876339316368103 0.417598098516464 -0.295136660337448 -0.731765866279602 -0.966909289360046 -0.955064296722412 -0.881669819355011 -0.696713626384735 -0.376824975013733 -0.837244927883148 -0.982452869415283 -1.05744743347168 -1.10887503623962 -1.12790048122406 -1.09320390224457 -1.06253898143768 -1.05165243148804 -1.09532070159912 -1.11180782318115 -1.11953949928284 -1.0598863363266 -0.784392952919006 -0.597365438938141 -0.4544458091259 -0.222470536828041 -0.256261259317398 -0.395063400268555 -0.249161258339882 -0.160112902522087 -0.0563622675836086 0.628295958042145 1.12887692451477 1.04185819625854 0.433337211608887 0.240086495876312 0.0862534567713737 -0.0440929792821407 -0.156719133257866 -0.273332685232162 -0.377988576889038 -0.508418500423431 -0.675813794136047 -0.736345291137695 -0.902503132820129 -0.81160444021225 -0.553611099720001 -0.423247963190079 -0.502771615982056 -0.484297126531601 -0.65381520986557 -0.974333345890045 -1.09407079219818 -1.08955883979797 -1.52934503555298 -1.86153638362885 -2.07001638412476 -2.27657890319824 -2.44844913482666 -2.62412905693054 -3.02189326286316 -3.26829051971436 0.635867953300476 3.49446892738342 5.97879314422607 8.75000953674316 9.34823036193848 9.61108589172363 10.5391445159912 11.8682737350464 12.9370565414429 13.271032333374 12.9595527648926 12.6577053070068 11.5008602142334 8.16421127319336 5.38684797286987 2.01559495925903 -0.514292538166046 -2.43361330032349 -2.74575304985046 -2.86987352371216 2.21530961990356 7.80438184738159 11.1393966674805 15.9076156616211 20.2773113250732 18.2597389221191 7.47290086746216 3.23929357528687 2.60265159606934 1.67306661605835 0.603569209575653 0.138960331678391 -0.0101420721039176 -0.07259751111269 -0.0783970504999161 -0.0767241418361664 -0.0894446969032288 -0.0896195918321609
-0.487971812486649 -0.576990902423859 -0.733793079853058 0.646627128124237 3.35120224952698 1.88882851600647 0.897757947444916 0.72332102060318 0.974244356155396 2.23706817626953 2.93084931373596 3.27843141555786 2.63096833229065 2.14893054962158 1.43555808067322 1.00017201900482 3.30144119262695 2.58392810821533 1.53428757190704 0.160366460680962 -0.64416891336441 1.6750328540802 3.31476521492004 5.25530338287354 7.04452991485596 4.38976907730103 1.93281507492065 2.15910387039185 2.36910343170166 2.62319350242615 2.75151658058167 2.82668781280518 2.99180245399475 3.09245133399963 3.07959246635437 2.94126844406128 2.72296237945557 2.53803491592407 2.4261839389801 2.54601311683655 2.65338516235352 2.74953365325928 2.66491317749023 2.42518424987793 2.33997488021851 2.40309476852417 2.52785682678223 2.74260187149048 2.88524031639099 2.95790600776672 3.08252835273743 3.07421946525574 3.11277985572815 3.1162748336792 3.04714369773865 2.93332386016846 2.65328311920166 2.31905245780945 2.49089646339417 2.64074468612671 2.67681527137756 2.69414782524109 2.62992525100708 2.55134248733521 2.35885119438171 2.23566174507141 2.05906176567078 1.9039717912674 1.77626883983612 1.6609423160553 1.41324877738953 1.066237449646 0.752580583095551 0.354017108678818 -0.416909128427505 -1.08751308917999 -1.3614661693573 -1.38074958324432 -1.35761427879333 0.702469706535339 -0.246166914701462 -0.751357436180115 -0.950402140617371 -0.804000854492188 -1.12087273597717 -1.07403206825256 -0.883644223213196 -1.13035714626312 -1.15895628929138 -1.22770416736603 -1.29939460754395 -1.33246493339539 -1.33363950252533 -1.28428375720978 -1.20467567443848 -1.11538171768188 -0.801621854305267 -0.504614233970642 -0.42570835351944 -0.338400572538376 -0.352415055036545 -0.23319947719574 0.589382827281952 1.1553909778595 0.924604117870331 0.471794277429581 0.240009546279907 0.0793288871645927 -0.0444289110600948 -0.118998415768147 -0.2385573387146 -0.336837321519852 -0.453307896852493 -0.592043995857239 -0.677430987358093 -0.82507336139679 -0.94514000415802 -0.554873466491699 -0.568571507930756 -0.471343487501144 -0.624527454376221 -0.615848183631897 -0.825500845909119 -0.821901619434357 -1.11286950111389 -1.36984550952911 -1.74951863288879 -2.08108353614807 -2.24600672721863 -2.34443140029907 -2.51501107215881 -2.8904013633728 -3.13171219825745 1.56788063049316 3.14229583740234 1.51954817771912 6.66758632659912 10.0930318832397 12.8103246688843 17.1075077056885 15.9981718063354 12.322395324707 12.0706796646118 11.9089317321777 11.6567239761353 10.648286819458 8.50664043426514 6.36551856994629 3.99623823165894 0.812006413936615 -1.6670538187027 -2.61395215988159 4.02183103561401 8.07599258422852 9.47943592071533 13.3481588363647 19.2991714477539 15.7064924240112 15.8750429153442 11.7562379837036 5.59200572967529 2.88715243339539 2.2221348285675 1.44475317001343 0.535274684429169 0.0798059850931168 -0.0592322647571564 -0.0855768322944641 -0.0840045586228371 -0.0858751535415649 -0.0952540934085846
0.673447549343109 0.469849050045013 -0.830122113227844 3.90420389175415 8.17519092559814 5.00117540359497 1.99259555339813 1.46705961227417 1.66874027252197 2.52741765975952 2.64716148376465 2.4176459312439 2.17977690696716 1.98071920871735 1.86286306381226 2.39077758789062 2.70140600204468 2.93559408187866 2.29240393638611 1.30406665802002 0.327525556087494 3.16854739189148 4.89436101913452 8.43646144866943 7.77737760543823 4.75123357772827 2.87670540809631 1.83093130588531 2.07621669769287 2.28816723823547 2.53883481025696 2.65403866767883 2.73569989204407 2.89124345779419 2.99301028251648 2.88649249076843 2.56060886383057 2.38313388824463 2.25623750686646 2.32987785339355 2.49576997756958 2.57493615150452 2.50550842285156 2.1216344833374 2.19997978210449 2.26647520065308 2.31330394744873 2.43882846832275 2.64806795120239 2.79510855674744 2.87137222290039 2.98255348205566 2.95461916923523 2.97401976585388 2.85292196273804 2.68102288246155 2.37213802337646 2.00807523727417 2.19442200660706 2.40298819541931 2.5522825717926 2.58813190460205 2.61082911491394 2.55173063278198 2.47662711143494 2.29294300079346 2.18155264854431 2.0067195892334 1.85082256793976 1.71946692466736 1.41229939460754 1.03503131866455 0.757266044616699 0.319606691598892 -0.331831991672516 -1.05264008045197 -1.53186976909637 0.124895147979259 -0.479556024074554 3.16259622573853 2.57815408706665 0.463725417852402 -0.920083105564117 -1.18732142448425 -0.620830178260803 -1.12113344669342 -1.16966593265533 -1.18369436264038 -1.24533700942993 -1.35543811321259 -1.46482014656067 -1.54486525058746 -1.63405930995941 -1.66460013389587 -1.44367730617523 -1.3172858953476 -1.22448837757111 -1.12968349456787 -0.940090954303741 -0.750441312789917 -0.509957194328308 -0.382028222084045 0.244099855422974 0.755394399166107 0.590416312217712 0.448641687631607 0.277723163366318 0.087246909737587 -0.047756802290678 -0.137182042002678 -0.199527114629745 -0.317750215530396 -0.437700480222702 -0.569176971912384 -0.705853700637817 -0.768861830234528 -0.851003527641296 -0.969758927822113 -0.895892262458801 -0.779609858989716 -0.724282920360565 -0.839312553405762 -0.894708931446075 -1.05257594585419 -1.20918405056 -1.46997761726379 -1.75408434867859 -2.07948040962219 -2.19485855102539 -1.34083950519562 -2.41292190551758 -2.64889717102051 -1.63853168487549 1.8803471326828 4.44970941543579 4.12716293334961 15.2665681838989 14.1453905105591 11.4247550964355 12.0535612106323 13.0247640609741 11.627329826355 10.8042678833008 10.7291164398193 10.2104272842407 9.66569042205811 8.1954517364502 6.84688758850098 5.14743900299072 2.86020183563232 -0.00449707917869091 0.107566349208355 5.75754547119141 7.69845008850098 11.0467510223389 17.701488494873 18.7928447723389 15.3244724273682 13.1925868988037 12.4286088943481 9.15798187255859 5.10861921310425 2.49558615684509 2.02362775802612 1.31595730781555 0.461554616689682 0.0364308692514896 -0.0896734297275543 -0.0893493145704269 -0.0962774828076363 -0.105915606021881
0.983640134334564 2.78750467300415 1.96680688858032 2.27289724349976 5.67992877960205 6.80922412872314 3.69333338737488 1.94000363349915 1.34728348255157 1.82858860492706 2.48046636581421 2.12354230880737 1.97885715961456 1.8605375289917 2.21261882781982 2.15082097053528 2.00024604797363 2.19619798660278 2.54421448707581 2.02875661849976 1.2390912771225 1.92939126491547 5.03288412094116 8.20126247406006 8.76626682281494 5.40817880630493 3.54591083526611 2.05056834220886 1.75228762626648 2.00099492073059 2.21545076370239 2.46513938903809 2.57548880577087 2.65368461608887 2.70913767814636 2.645672082901 2.36000657081604 2.28182482719421 2.28220558166504 2.12432384490967 2.18756484985352 2.41016626358032 2.35084629058838 2.03506565093994 2.08134126663208 2.13138771057129 2.1899938583374 2.23642420768738 2.35834693908691 2.56821084022522 2.63862466812134 2.75856924057007 2.78029012680054 2.67823147773743 2.5261070728302 2.32094931602478 2.04114151000977 1.7871595621109 1.90688157081604 2.13183307647705 2.33915853500366 2.48648262023926 2.51981163024902 2.53770780563354 2.48465299606323 2.41169834136963 2.24163413047791 2.13824057579041 1.95050120353699 1.7161740064621 1.45000982284546 1.12844610214233 0.812922179698944 0.365191280841827 -0.27171128988266 -0.948549807071686 -1.42455995082855 2.19505500793457 2.94414401054382 3.80758571624756 3.51952791213989 2.26031136512756 0.0671275928616524 -0.494344681501389 -0.150666132569313 -1.04596841335297 -1.20158088207245 -1.27446520328522 -1.37880265712738 -1.50799453258514 -1.6313681602478 -1.85097253322601 -1.99815881252289 -1.9996086359024 -1.881920337677 -1.61777186393738 -1.4338253736496 -1.33885300159454 -1.27983033657074 -1.07304382324219 -0.752275109291077 0.0918989405035973 0.182590007781982 0.335455596446991 0.27353772521019 0.126696184277534 0.0255481116473675 -0.130495429039001 -0.222310647368431 -0.26527801156044 -0.329411566257477 -0.44341567158699 -0.51862359046936 -0.591032385826111 -0.660707592964172 -0.49142649769783 0.287952333688736 0.221362128853798 -0.158692985773087 -0.562822341918945 -0.573939144611359 0.073353037238121 -0.0325616523623466 -0.395543932914734 -1.15372097492218 -1.41498565673828 -1.7363646030426 -1.93219316005707 -2.13374638557434 -2.25874066352844 -2.37302947044373 -2.53609609603882 -2.42895126342773 1.59363222122192 4.8010950088501 5.99582815170288 10.3659820556641 10.9145841598511 8.2564697265625 7.94662761688232 7.88231468200684 8.89988803863525 9.36496353149414 9.59998321533203 9.24600124359131 8.6226863861084 7.81678915023804 6.72656011581421 5.70548105239868 4.29409408569336 2.29943895339966 2.2223117351532 5.6460485458374 7.41480159759521 11.4232892990112 17.7617015838623 19.1240425109863 15.8868608474731 12.8151617050171 11.0912094116211 9.9759578704834 8.5199728012085 6.749596118927 3.02058601379395 1.8221777677536 1.18021464347839 0.408455371856689 0.0119425384327769 -0.107403092086315 -0.115072682499886 -0.0317309498786926
3.26338291168213 3.96637678146362 4.78937339782715 4.37164306640625 5.87615823745728 6.95143508911133 6.00282144546509 3.37197852134705 2.60249662399292 2.17726922035217 2.2858202457428 2.1866991519928 1.94118630886078 1.89822161197662 2.29533886909485 1.97703945636749 1.78692877292633 1.68915545940399 1.98610591888428 2.26617026329041 1.864586353302 1.88090670108795 4.94089317321777 6.52412176132202 7.46870851516724 6.237135887146 4.10326623916626 2.92901086807251 2.1713559627533 1.6908905506134 1.94333755970001 2.15003180503845 2.33232259750366 2.42739319801331 2.46622705459595 2.36975383758545 2.07439351081848 2.0035412311554 2.21259188652039 2.21130919456482 2.05835390090942 2.09722661972046 2.07347846031189 2.12761378288269 1.98238790035248 2.02016401290894 2.06762409210205 2.11611223220825 2.16673445701599 2.29191637039185 2.38239789009094 2.46487855911255 2.50431990623474 2.29348611831665 2.13768577575684 1.94327747821808 1.77768516540527 1.62511360645294 1.65258765220642 1.85973644256592 2.071453332901 2.27145552635193 2.41765856742859 2.45981931686401 2.47864484786987 2.42693376541138 2.31117963790894 2.08179259300232 1.86061525344849 1.68316256999969 1.52691447734833 1.22061336040497 0.851181268692017 0.422371417284012 -0.113879583775997 -0.773104548454285 -1.29341781139374 -1.24813783168793 2.84191942214966 2.8722996711731 4.45733261108398 3.38736701011658 1.84666836261749 1.21795451641083 0.0569222345948219 -0.786976516246796 -1.20806503295898 -1.35931074619293 -1.44920635223389 -1.56779062747955 -1.71312022209167 -2.06154322624207 -2.26083326339722 -2.28209400177002 -2.14317393302917 -1.97315621376038 -0.780291676521301 -0.956978321075439 -1.43253600597382 0.648732602596283 2.12096691131592 0.50935286283493 -0.513768494129181 0.000453989283414558 0.366470605134964 0.209669545292854 0.231164842844009 0.0183910727500916 -0.133410975337029 0.018584581092 0.194239050149918 0.0553093999624252 0.146174564957619 -0.29980406165123 -0.4760402739048 -0.233532711863518 -0.511680603027344 -0.342086523771286 -0.629841268062592 -0.755167424678802 -0.921450674533844 -0.84991180896759 -0.860335469245911 -1.18425536155701 -1.54902040958405 -1.62471401691437 -1.69541776180267 -1.85350894927979 -2.0181040763855 -2.25767874717712 -2.36362671852112 -2.48068642616272 -2.57681202888489 -0.407173216342926 1.67875814437866 3.85371494293213 4.32435417175293 4.00564432144165 3.41724395751953 3.7709481716156 5.25481271743774 6.80778694152832 7.86871337890625 8.53229999542236 8.4286060333252 7.89609050750732 7.37503242492676 6.67673921585083 5.70539045333862 4.91376304626465 3.84410929679871 3.41160368919373 6.60901355743408 8.57045459747314 11.2870979309082 13.1122303009033 15.7285060882568 15.6696338653564 12.511402130127 11.9297161102295 10.7372617721558 9.04110431671143 7.47519636154175 5.83284759521484 2.55172395706177 1.68522167205811 1.0707790851593 0.35409688949585 -0.0239451993256807 -0.130944803357124 -0.000685813603922725
3.64979434013367 3.22914457321167 5.4637622833252 5.59947824478149 6.54701375961304 10.8164386749268 10.1130847930908 6.11969566345215 5.1112494468689 3.62602162361145 2.90100193023682 2.28168296813965 2.14219284057617 2.2013726234436 2.07056427001953 1.87322616577148 1.68818712234497 1.54952347278595 1.61474788188934 1.8066018819809 2.01691699028015 1.61685812473297 3.53208565711975 4.81587505340576 5.31335210800171 5.95668601989746 4.82550954818726 3.82428383827209 2.53979969024658 1.83013188838959 1.64273262023926 1.8903671503067 2.08516407012939 2.12542152404785 2.15359711647034 2.08096623420715 1.88279819488525 1.79640209674835 1.94824051856995 2.16329169273376 2.06822752952576 1.87771153450012 1.8446638584137 1.89362835884094 1.8471006155014 1.89275586605072 1.9716409444809 2.00347757339478 2.06433868408203 2.10588812828064 2.13985800743103 2.16084861755371 2.11617159843445 1.99726152420044 1.83106863498688 1.67390942573547 1.54618644714355 1.44596993923187 1.3693550825119 1.6151225566864 1.81251800060272 2.02383947372437 2.21653199195862 2.36517834663391 2.40768480300903 2.42863750457764 2.28101181983948 1.95766472816467 1.72377693653107 1.53531289100647 1.30387556552887 1.01720213890076 0.694407522678375 0.310418158769608 -0.149441197514534 -0.703855574131012 -1.08874082565308 -1.58796560764313 0.207713663578033 2.55598211288452 4.96365356445312 4.38575983047485 3.46421194076538 2.48071885108948 1.51993191242218 -0.129473641514778 -1.00395941734314 -1.36702656745911 -1.46566879749298 -1.58348274230957 -1.76465702056885 -2.11506152153015 -2.38997888565063 -2.44635725021362 -0.545118391513824 1.73666274547577 5.83483552932739 2.06786322593689 -0.762637615203857 0.966036260128021 3.35283875465393 1.53240370750427 0.167680934071541 0.653967261314392 -0.044194720685482 -0.00413121422752738 0.105216413736343 -0.0127871744334698 -0.140767827630043 -0.203497037291527 -0.232612043619156 -0.211384177207947 -0.347475975751877 -0.350837558507919 -0.381437122821808 -0.247760683298111 -0.492855995893478 -0.697395384311676 -0.679477393627167 -0.853876233100891 -1.02007961273193 -1.11181831359863 -1.24118530750275 -1.70932936668396 -1.80242812633514 -1.96557021141052 -1.87400829792023 -1.847491979599 -2.07884955406189 -2.23235654830933 -2.37679767608643 -2.45079231262207 -2.52866005897522 -2.46794247627258 -1.28565561771393 0.496967345476151 1.65894913673401 1.42812824249268 0.638807892799377 2.86778092384338 4.15155076980591 8.8212366104126 7.40881729125977 7.44025659561157 7.44825315475464 7.12572431564331 6.7009334564209 6.38227605819702 5.78527307510376 4.99188280105591 4.50414133071899 4.5849461555481 6.42273855209351 7.53450679779053 9.37353324890137 11.2412204742432 12.0859594345093 12.8609848022461 12.9621324539185 12.6180324554443 10.9647884368896 9.17379856109619 7.83089256286621 6.51155138015747 5.04511308670044 2.19464945793152 1.53456544876099 0.958152711391449 0.599598169326782 0.270685642957687 -0.0580159537494183
4.59063720703125 3.88166689872742 6.25433921813965 5.55588579177856 5.0437388420105 6.97633266448975 10.186692237854 8.12722587585449 6.67599153518677 5.74454784393311 3.6380467414856 3.05167651176453 2.78170347213745 2.35687351226807 2.02570486068726 1.78233456611633 1.62409675121307 1.4689302444458 1.49136364459991 1.53612852096558 1.64366245269775 1.56462407112122 2.37957286834717 3.20118689537048 4.03170871734619 4.66674184799194 4.74505758285522 4.13925981521606 3.1072371006012 2.13527965545654 1.59565794467926 1.59864151477814 1.83060944080353 1.91684317588806 1.94258081912994 1.87528502941132 1.67995703220367 1.55361700057983 1.63293826580048 1.77864265441895 1.86258542537689 1.74261045455933 1.56741213798523 1.54133033752441 1.50284695625305 1.55571401119232 1.82636904716492 1.93097043037415 1.96376073360443 1.94450569152832 1.9694197177887 1.94991588592529 1.9626579284668 1.81209897994995 1.60377049446106 1.43365144729614 1.27504801750183 1.19349884986877 1.13059270381927 1.3163548707962 1.58700633049011 1.78564119338989 1.98956000804901 2.18813300132751 2.34325242042542 2.17351722717285 2.08851671218872 1.75095844268799 1.5456622838974 1.31349658966064 1.07665193080902 0.75102162361145 0.381598502397537 0.0319009684026241 -0.331038445234299 -0.68358987569809 -1.11296558380127 -1.41961085796356 0.313925594091415 2.80212306976318 3.72879815101624 4.84254741668701 4.3675332069397 3.41132473945618 2.82855916023254 1.09013819694519 -0.410003870725632 -1.28610742092133 -1.51328670978546 -1.60428142547607 -1.76255106925964 -2.11859941482544 -2.4128270149231 -2.50737977027893 3.29839897155762 5.05937576293945 6.71739959716797 4.83389663696289 1.67962670326233 1.85857880115509 4.23235177993774 1.76204800605774 0.749413073062897 0.0121643366292119 -0.318098306655884 -0.312816560268402 -0.135436058044434 -0.0544735938310623 -0.233510866761208 -0.231299698352814 -0.221376001834869 -0.237351477146149 -0.283669203519821 -0.359598189592361 -0.385883003473282 -0.407137811183929 -0.512459695339203 -0.649720728397369 -0.759061396121979 -0.842168390750885 -0.98487913608551 -1.24723744392395 -1.55200219154358 -1.79645562171936 -1.89131581783295 -2.07099628448486 -2.19350957870483 -2.12899351119995 -2.13330721855164 -2.26178574562073 -2.42689776420593 -2.49112319946289 -2.52921223640442 -2.60554814338684 -2.71765685081482 -2.48373007774353 -1.18278312683105 -0.863688766956329 -0.513225972652435 3.48746299743652 8.96707534790039 13.3842372894287 6.92503118515015 6.04989194869995 5.92275857925415 5.50256872177124 5.78785276412964 5.85668230056763 5.57614135742188 5.12847089767456 4.58819961547852 4.38905477523804 3.76957416534424 4.73250722885132 6.86354064941406 9.02479267120361 10.2146596908569 10.5867118835449 11.1411266326904 10.8829851150513 10.8057470321655 8.96409130096436 8.36107063293457 6.97080945968628 5.73947286605835 4.42965650558472 1.88896024227142 1.3797904253006 1.32520890235901 0.814140141010284 0.231178179383278
3.95336031913757 3.78142738342285 5.43844366073608 5.51688098907471 4.98633289337158 5.00265789031982 6.67500972747803 8.37409687042236 7.08354091644287 6.65336179733276 5.31241512298584 3.49298620223999 2.77069211006165 2.29151201248169 2.00935077667236 1.82706344127655 1.63844335079193 1.51889503002167 1.44155657291412 1.46564400196075 1.35731029510498 1.36620616912842 2.41094946861267 2.37667036056519 3.07400274276733 3.92519211769104 4.24788570404053 3.82771229743958 3.31416130065918 2.65911245346069 1.87368738651276 1.4262033700943 1.55315160751343 1.70782279968262 1.74813675880432 1.60834980010986 1.42947387695312 1.32128882408142 1.27620565891266 1.34386122226715 1.80393373966217 1.40440845489502 1.2480696439743 1.18061184883118 1.15655171871185 1.20238697528839 1.51744520664215 1.76830840110779 1.8462016582489 1.81915032863617 1.74282574653625 1.72086560726166 1.68968272209167 1.57050204277039 1.3094596862793 1.18309724330902 1.05183351039886 0.951337933540344 0.903902471065521 1.02940905094147 1.19341218471527 1.42134499549866 1.6204422712326 2.40702509880066 3.58913493156433 2.85459995269775 1.89274108409882 1.51065230369568 1.29932987689972 1.07815825939178 0.867814123630524 0.602300047874451 0.235367566347122 -0.144160702824593 -0.433297991752625 -0.815839231014252 -1.07867228984833 -1.29316031932831 -1.27677345275879 1.5523020029068 2.32151174545288 3.67812514305115 4.41424083709717 3.7908034324646 3.50266003608704 2.18462181091309 0.664790987968445 -0.779194891452789 -1.54412090778351 -1.63662481307983 -1.75494110584259 -2.15383100509644 -2.41007828712463 -1.74009823799133 7.45358991622925 6.96709156036377 6.44311189651489 5.78507375717163 3.93743705749512 1.54232156276703 1.2659410238266 1.49236953258514 0.952172517776489 0.344516724348068 0.0618702434003353 -0.216410219669342 -0.293789356946945 -0.216539651155472 -0.300545901060104 -0.123262725770473 0.369387596845627 0.125310495495796 -0.250613242387772 -0.280627936124802 -0.315112888813019 -0.393260180950165 -0.471925139427185 -0.611068069934845 -0.764993250370026 -0.873887419700623 -0.990834593772888 -1.28908085823059 -1.5955353975296 -1.77980315685272 -1.88987815380096 -2.04404449462891 -2.21266627311707 -2.29279446601868 -2.31597638130188 -2.37457370758057 -2.61538743972778 -2.72373843193054 -2.67510151863098 -2.63825368881226 -2.70063805580139 -2.79493641853333 -2.86409687995911 -2.31327605247498 0.818226218223572 7.69939851760864 13.3719501495361 9.38077354431152 6.00191402435303 4.04182815551758 4.29640960693359 4.01267147064209 4.66496896743774 5.06480407714844 5.07592344284058 4.88887453079224 4.69753646850586 4.27990245819092 3.77278280258179 3.47219634056091 4.45492267608643 6.03983736038208 7.30870199203491 8.00946140289307 8.4690113067627 8.92363739013672 9.32623291015625 9.06416416168213 8.29673862457275 7.50360345840454 6.16476058959961 5.10914897918701 3.93611860275269 1.66387796401978 1.53752028942108 1.22418034076691 0.74280321598053
3.13749027252197 3.7470281124115 4.52165365219116 4.60909748077393 4.70301246643066 4.66193914413452 4.72472667694092 5.76728677749634 7.23199939727783 6.60110998153687 6.05061197280884 4.88884162902832 3.31539630889893 2.63829445838928 2.19723701477051 1.79865562915802 1.7136025428772 1.6019561290741 1.50948190689087 1.41981029510498 1.4466780424118 1.76368367671967 2.4051833152771 2.40692853927612 3.12817764282227 3.49954056739807 3.67757487297058 3.31290912628174 3.03604650497437 2.81117343902588 2.37156581878662 1.67809915542603 1.3206582069397 1.38763546943665 1.40653645992279 1.30146634578705 1.17439258098602 1.07595837116241 1.18882727622986 1.6986198425293 1.13329923152924 0.994163513183594 0.889394342899323 0.846632480621338 0.867030501365662 0.916668236255646 1.11463308334351 1.42473089694977 1.64047145843506 1.68087542057037 1.57292473316193 1.44146907329559 1.24306738376617 1.14967966079712 1.2238461971283 1.51759195327759 1.52598965167999 1.86848843097687 2.14857363700867 2.35052847862244 2.38167500495911 2.34731721878052 2.55209708213806 2.67017841339111 2.28990936279297 1.83361601829529 1.38361263275146 1.19498729705811 1.03997588157654 0.867480933666229 0.741564571857452 0.431617885828018 0.218973740935326 -0.197291925549507 -0.643918931484222 -0.815538763999939 -0.992573261260986 -1.17189478874207 -1.31770300865173 -0.573813617229462 1.18758177757263 2.18451595306396 3.83993530273438 3.73182082176208 3.25329875946045 2.7183985710144 1.63732492923737 0.263606250286102 -1.12017464637756 -1.64848649501801 -1.85539638996124 -2.14819383621216 -2.39853048324585 -0.38534414768219 7.08208847045898 5.77991056442261 5.76523351669312 5.42642068862915 4.7943868637085 3.44719624519348 2.763512134552 3.229731798172 1.27460443973541 0.770926892757416 0.407610327005386 -0.0229105725884438 -0.444999068975449 -0.536248862743378 -0.352456659078598 0.194461211562157 0.910152614116669 0.372265964746475 -0.0898318439722061 -0.221434056758881 -0.281330198049545 -0.339918285608292 -0.41731995344162 -0.571804523468018 -0.788758039474487 -0.962284505367279 -1.18025612831116 -1.40587937831879 -1.64163732528687 -1.75823271274567 -1.87894773483276 -2.03638005256653 -2.26833558082581 -2.42093205451965 -2.5098397731781 -2.62749075889587 -2.74462270736694 -2.87421607971191 -2.91184186935425 -2.81829762458801 -2.70788788795471 -2.20385146141052 -1.55079627037048 1.4801778793335 8.84707927703857 9.90021419525146 9.30226135253906 7.52935171127319 3.43292617797852 2.35023856163025 3.16262149810791 3.47599458694458 3.81157374382019 4.08945178985596 4.22506618499756 4.26568841934204 4.48696565628052 4.33327436447144 3.75252962112427 3.50422430038452 3.87434411048889 4.40940380096436 5.60153532028198 6.58478736877441 6.98556184768677 7.09532976150513 7.5904712677002 8.19892978668213 8.53886890411377 7.73087358474731 6.76777362823486 5.50090646743774 4.61258411407471 3.51084423065186 1.66840529441833 1.40266823768616 1.12156677246094
3.98373770713806 3.06904268264771 3.91589498519897 3.98758268356323 4.07034873962402 4.29832744598389 4.31557559967041 4.38417339324951 5.32228708267212 6.2532205581665 5.92761659622192 5.47847938537598 4.53679037094116 3.05384159088135 2.39765071868896 1.97003614902496 1.74297416210175 1.70013451576233 1.58805811405182 1.50014448165894 1.61783874034882 2.05321931838989 1.98609304428101 2.2521378993988 2.40050029754639 2.9277036190033 2.93904590606689 2.70995473861694 2.55355024337769 2.66987943649292 2.55961465835571 2.19323658943176 1.58177077770233 1.25754499435425 1.04412353038788 1.02986335754395 0.945199847221375 1.22485995292664 1.35626661777496 1.20554995536804 0.860499322414398 0.692983567714691 0.604920148849487 0.551288068294525 0.562310695648193 0.594006240367889 0.731843590736389 0.935503780841827 1.1859450340271 1.22375679016113 1.22080051898956 1.14397192001343 1.04416728019714 2.320720911026 2.4342930316925 2.93499183654785 2.52874803543091 2.13575410842896 2.52887344360352 2.58975052833557 2.22567796707153 2.20471954345703 2.13832473754883 2.03823256492615 1.54430675506592 1.39192128181458 1.16992712020874 0.984480261802673 0.868159055709839 0.74141001701355 0.566888511180878 0.25831550359726 -0.0276911165565252 -0.360320508480072 -0.641121447086334 -0.815128982067108 -0.97238028049469 -1.12187802791595 -1.2435564994812 -1.33351576328278 0.33558115363121 1.04357695579529 2.34616017341614 3.22449374198914 3.04217529296875 2.78516936302185 2.3393452167511 1.31488513946533 -0.0271956119686365 -1.39907348155975 -1.86780691146851 -2.21337485313416 -2.38184666633606 -0.0595401898026466 4.91738367080688 5.34553718566895 5.57839107513428 5.28352975845337 5.02421426773071 4.25622367858887 4.02126884460449 3.26467251777649 1.66927266120911 0.5638068318367 0.30014169216156 -0.274789541959763 -0.610117793083191 -0.672660410404205 -0.54445081949234 -0.234730452299118 1.21742558479309 0.542013227939606 0.0636325255036354 -0.178845763206482 -0.247898146510124 -0.328880846500397 -0.401680141687393 -0.558980286121368 -0.815746784210205 -1.14308214187622 -1.42782473564148 -1.56854021549225 -1.66404521465302 -1.75770783424377 -1.87517106533051 -2.04730486869812 -2.32755303382874 -2.52161502838135 -2.68978023529053 -2.91732025146484 -2.98456454277039 -3.01502537727356 -3.04788851737976 -2.95014095306396 0.790683209896088 1.99234473705292 2.31667065620422 7.24477052688599 7.90398693084717 7.60127210617065 6.69187498092651 5.15469264984131 3.31458711624146 1.58230030536652 3.05020260810852 2.98000454902649 3.87312841415405 3.35236835479736 3.54780125617981 3.64644432067871 4.05925035476685 4.27449893951416 4.08821392059326 3.62739062309265 3.30165362358093 3.66722106933594 4.12034225463867 4.85869359970093 5.49073314666748 5.97950315475464 6.32040643692017 6.82539939880371 7.58110809326172 7.84879302978516 7.00828218460083 6.03334522247314 4.91168642044067 4.09577226638794 3.07325530052185 1.47698414325714 1.2756929397583
3.37564778327942 3.73107767105103 5.40807819366455 3.71954321861267 3.68862748146057 3.78889226913452 3.96900296211243 3.77524924278259 3.78861522674561 4.43188524246216 4.51592874526978 5.41810512542725 5.02734613418579 4.1233286857605 2.83166360855103 2.25824952125549 2.11696362495422 2.56885147094727 2.16184592247009 1.75571262836456 1.54086399078369 1.60232841968536 1.79409575462341 1.9160281419754 2.17630457878113 2.37462854385376 2.49586009979248 2.28966236114502 2.19993472099304 2.48611879348755 2.53819680213928 2.40815162658691 2.08224511146545 1.52812075614929 1.25358963012695 1.01684856414795 1.11627626419067 1.17206573486328 1.0951544046402 1.06644248962402 0.704278945922852 0.539394736289978 0.410862684249878 0.307349354028702 0.276987940073013 0.309066385030746 0.395184338092804 0.51449054479599 0.73698502779007 0.854270458221436 0.891605496406555 0.808917045593262 0.725275993347168 0.595055222511292 1.4371155500412 1.63573276996613 1.12640190124512 1.28721642494202 1.51477015018463 1.65969061851501 1.68566501140594 1.58004224300385 1.51823544502258 1.32745563983917 1.20204198360443 1.08955633640289 1.0190018415451 0.942701876163483 0.809820413589478 0.697928607463837 0.506007611751556 0.293928921222687 -0.157207533717155 -0.509260773658752 -1.02625966072083 -1.05574870109558 -1.1294150352478 -1.18837022781372 -1.23718321323395 -1.29417872428894 -1.3227379322052 -0.19090661406517 0.830346167087555 2.10816240310669 2.56684255599976 2.38051176071167 2.4372889995575 2.01110601425171 1.02914547920227 -0.398360937833786 -1.76214754581451 -2.14814901351929 -2.36822390556335 -1.16707396507263 1.0024219751358 3.15146398544312 4.62539434432983 5.27529764175415 5.05994129180908 4.81904649734497 4.38069248199463 3.41677117347717 2.38127565383911 0.644750773906708 -0.31560617685318 -0.777861773967743 -1.61651825904846 -1.66212201118469 -1.53220391273499 -1.07549393177032 0.65952068567276 0.45355960726738 0.0991080105304718 -0.177045404911041 -0.253409653902054 -0.341736048460007 -0.432345628738403 -0.573356628417969 -0.923445880413055 -1.32602262496948 -1.52538406848907 -1.61953508853912 -1.68536031246185 -1.78099894523621 -1.9287805557251 -2.13477301597595 -2.40610456466675 -2.66693425178528 -2.88448095321655 -3.11778283119202 -3.19625329971313 -3.21314835548401 -3.13821935653687 1.89837110042572 8.63300704956055 7.24933338165283 5.24376153945923 4.31619024276733 5.22862672805786 4.7772011756897 4.37257146835327 3.79877662658691 4.0301308631897 3.38988900184631 6.81017684936523 7.19773149490356 5.5201153755188 3.34672617912292 3.23643231391907 3.46687293052673 4.71807813644409 3.90683317184448 3.81687498092651 3.37211894989014 3.12387490272522 3.63373804092407 6.17914438247681 3.74913668632507 4.31311464309692 4.93305540084839 5.32669925689697 5.63943815231323 6.11699724197388 7.01325368881226 7.04820346832275 6.2337532043457 5.38571357727051 4.4153299331665 3.61260342597961 2.70565867424011 1.35344064235687
3.64104318618774 5.54216384887695 4.22253370285034 3.85525321960449 3.20959544181824 3.218670129776 3.36517763137817 3.17976665496826 3.2132089138031 3.52854371070862 3.69272971153259 4.17110919952393 5.07179117202759 4.78490781784058 4.13094902038574 4.06036329269409 2.50728797912598 1.87021470069885 1.73786401748657 1.52788019180298 1.42120313644409 1.36369824409485 1.35198616981506 1.41879725456238 1.5394161939621 1.76350033283234 1.95254707336426 1.88068866729736 1.80320954322815 2.07415366172791 2.33098864555359 2.38624596595764 2.25370407104492 1.96384692192078 1.45670974254608 1.20050227642059 0.970183730125427 1.00506782531738 1.04229271411896 0.992591679096222 0.588252782821655 0.445098131895065 0.297452539205551 0.140605598688126 0.0486899577081203 0.055828120559454 0.0790097787976265 0.168263390660286 0.325719773769379 0.418975204229355 0.445025831460953 0.446763813495636 0.414963454008102 0.346912324428558 0.420160502195358 0.81518417596817 0.887552082538605 0.950976729393005 0.926612734794617 1.18055760860443 1.21976935863495 1.22802674770355 1.14918971061707 1.10491394996643 0.994953632354736 0.946549117565155 0.884376227855682 0.828097939491272 0.73029637336731 0.680408477783203 0.532251536846161 0.366727620363235 -0.146201342344284 -0.740656077861786 -1.45753955841064 -1.50834798812866 -1.42244899272919 -1.42286384105682 -1.39897274971008 -1.36239778995514 -1.38886702060699 -1.44532859325409 -1.2006596326828 0.37053507566452 1.46017694473267 1.7653956413269 2.08557415008545 2.12230229377747 1.66559100151062 0.659369170665741 -0.669905185699463 -1.97543561458588 -2.31902623176575 -2.45334267616272 -1.59592926502228 0.804039478302002 3.07860350608826 5.05044317245483 4.95224094390869 4.85843229293823 4.19210481643677 3.48069977760315 2.44055032730103 1.56189167499542 -0.161770671606064 -1.59696960449219 -1.82074248790741 -1.97791922092438 -2.15559196472168 -1.972207903862 5.33720636367798 -0.221723705530167 -0.16653873026371 -0.28511655330658 -0.321132510900497 -0.416127592325211 -0.507133364677429 -0.685086369514465 -1.02549946308136 -1.33371376991272 -1.54018127918243 -1.6579327583313 -1.75628697872162 -1.88860595226288 -2.02093696594238 -2.22897553443909 -2.47615766525269 -2.73444962501526 -2.9941291809082 -3.21901035308838 -3.33428573608398 -3.31751251220703 0.894981563091278 7.07396459579468 8.095458984375 7.7026424407959 6.71342706680298 4.22482967376709 3.35980820655823 3.15838479995728 1.72510135173798 2.41420364379883 3.42056941986084 5.97261095046997 7.90857362747192 8.33766841888428 5.79208183288574 3.49520993232727 2.96579837799072 3.04575061798096 3.99039912223816 3.5964572429657 3.51119470596313 3.29824995994568 3.17281270027161 7.49586582183838 9.84010696411133 5.99462461471558 3.70361828804016 3.97498035430908 4.53045129776001 4.85531759262085 5.16359806060791 5.57583427429199 6.09607839584351 6.32601594924927 5.73928022384644 4.87351751327515 4.01019620895386 3.50347852706909 2.65720891952515
4.46364259719849 4.86082649230957 3.92895102500916 3.39751625061035 3.09278655052185 2.87641549110413 2.90167331695557 2.76380920410156 2.91015529632568 3.07745337486267 3.36268448829651 3.67219972610474 4.15547037124634 4.94062566757202 4.38791513442993 3.53871870040894 2.49176239967346 1.86944925785065 1.6732759475708 1.52710342407227 1.40310192108154 1.33822047710419 1.29031336307526 1.26121151447296 1.32074391841888 1.32040452957153 1.45807063579559 1.47010600566864 1.67522418498993 1.70779454708099 1.75876021385193 1.95988428592682 2.17044496536255 2.09354257583618 1.86134004592896 1.41022324562073 1.18722498416901 1.05621671676636 0.988610029220581 0.896937072277069 0.563757300376892 0.450159132480621 0.275974035263062 0.0446313358843327 -0.0887807086110115 -0.146805837750435 -0.118324756622314 -0.0420141145586967 0.0776248425245285 0.185577347874641 0.230149045586586 0.23211582005024 0.231243044137955 0.225302681326866 0.231693252921104 0.305686414241791 0.470592767000198 0.603178799152374 0.788361549377441 1.12432909011841 1.05656242370605 1.00298976898193 0.987041175365448 0.934877991676331 0.884466946125031 0.798950016498566 0.754125118255615 0.716304183006287 0.697541236877441 0.645421206951141 0.575268745422363 0.443802744150162 -0.0988427028059959 -0.893003582954407 -1.51302814483643 -1.70504653453827 -1.6970043182373 -1.67271649837494 -1.64318037033081 -1.58685171604156 -1.59686005115509 -1.64485895633698 -1.67406117916107 -1.65901839733124 -0.630080819129944 0.675160884857178 1.28000009059906 1.81102681159973 1.80601823329926 1.30165386199951 0.257025003433228 -0.910655558109283 -2.19170713424683 -2.43573522567749 -2.18272852897644 2.13764476776123 6.19163227081299 6.90295600891113 4.44785451889038 4.2486367225647 3.97724556922913 3.33320903778076 2.49879240989685 1.43993389606476 0.263508707284927 -1.76751554012299 -2.13411092758179 -2.19342136383057 -2.40137505531311 -2.45015549659729 4.72316312789917 2.87564325332642 -0.366448730230331 -0.460750371217728 -0.462516874074936 -0.509956538677216 -0.60585343837738 -0.818484723567963 -1.13531911373138 -1.47831189632416 -1.65937435626984 -1.78593909740448 -1.90674698352814 -2.00134706497192 -2.12977361679077 -2.33175253868103 -2.58184027671814 -2.78989243507385 -3.01521182060242 -3.1972758769989 -3.29365134239197 3.51808428764343 9.66055870056152 11.7978296279907 8.47082328796387 7.58218622207642 6.79076719284058 5.17912435531616 3.76009559631348 2.75372791290283 2.39680409431458 4.20101308822632 8.1523904800415 9.61802864074707 8.97421932220459 6.48571348190308 5.82027912139893 3.99520540237427 2.66598558425903 2.60197186470032 2.87495565414429 3.14483761787415 3.28542542457581 3.31824922561646 3.76459670066833 9.13040637969971 9.57962036132812 7.8400092124939 4.82107067108154 4.56543684005737 3.82430291175842 4.23688507080078 4.50845241546631 4.64284372329712 4.74780654907227 5.78663158416748 5.9807505607605 5.36582708358765 4.77900886535645 4.36598253250122 3.63976073265076
5.34010791778564 4.43903779983521 3.77120876312256 3.22414541244507 2.92504191398621 2.77346873283386 2.65506744384766 2.620685338974 2.63083982467651 4.40305423736572 4.58958148956299 5.72014570236206 3.37325763702393 3.52936244010925 4.05941820144653 3.84422612190247 3.26398086547852 2.4694664478302 2.02256917953491 1.74812495708466 1.37503957748413 1.33441126346588 1.27261006832123 1.22399914264679 1.19022583961487 1.2488819360733 1.24287557601929 1.2006744146347 1.31931722164154 1.52640998363495 1.56229019165039 1.57208347320557 1.81948351860046 2.06507015228271 2.02043390274048 1.81140995025635 1.49271595478058 1.36700034141541 1.13940143585205 0.848732829093933 0.549933791160583 0.404148012399673 0.2756687104702 -0.021088432520628 -0.150553643703461 -0.237493053078651 -0.209607928991318 0.270121604204178 0.530292630195618 0.160286769270897 0.651900470256805 0.194329500198364 0.397031396627426 0.122070021927357 0.153119653463364 0.153273403644562 0.16303625702858 0.351541697978973 0.333757549524307 0.367697268724442 0.623132824897766 0.807529628276825 0.841727018356323 0.830631613731384 0.812628507614136 0.767210960388184 0.713839769363403 0.693138003349304 0.64145290851593 0.629131078720093 0.554007887840271 0.459762930870056 0.0657599866390228 -0.914269864559174 -1.50314021110535 -1.74043107032776 -1.8577516078949 -1.88658630847931 -1.85143721103668 -1.81728768348694 -1.80835437774658 -1.83073055744171 -1.89400267601013 -1.90981328487396 -1.78629326820374 -1.17249643802643 0.0904323607683182 1.0020352602005 1.56142830848694 1.50627851486206 0.863512635231018 -0.151386588811874 -1.30061995983124 -2.00731754302979 -2.51347160339355 1.4849271774292 7.45377969741821 6.40173435211182 5.1335301399231 3.76806735992432 3.54244589805603 3.15997838973999 2.26749920845032 1.26644909381866 -0.254583567380905 -1.83581268787384 -2.52473950386047 -2.40899848937988 -2.52484273910522 -2.65242218971252 1.79307770729065 13.4120063781738 2.21498489379883 -0.541659116744995 -0.62245774269104 -0.653101921081543 -0.76235419511795 -1.00066292285919 -1.26893258094788 -1.57213950157166 -1.81913733482361 -1.94123721122742 -2.01976823806763 -2.16408944129944 -2.28410768508911 -2.45935273170471 -2.66930556297302 -2.87591099739075 -3.00514602661133 -3.08054375648499 1.2301025390625 9.00558090209961 11.8733530044556 11.5702514648438 10.2013397216797 8.29983043670654 7.12805461883545 5.99800634384155 4.64513731002808 4.17261266708374 4.80439424514771 9.74006938934326 11.0114822387695 12.3227825164795 9.3113489151001 6.3253321647644 4.80910682678223 4.43137550354004 2.74597573280334 2.02628469467163 2.25755906105042 2.85578036308289 4.85810279846191 6.7326807975769 8.20972156524658 10.6216077804565 9.30224323272705 8.16410350799561 7.10889005661011 8.30774688720703 7.27464532852173 5.50829648971558 4.91984748840332 5.20899868011475 4.64290142059326 9.01654815673828 6.04846525192261 5.68367004394531 5.35410594940186 4.92592859268188 4.17805290222168
4.16021966934204 3.92161893844604 4.00609397888184 3.44780564308167 3.03237771987915 2.87216019630432 4.13717603683472 4.99976634979248 5.18056488037109 2.47413516044617 2.67184829711914 2.62327790260315 2.80512571334839 2.85268521308899 3.18453311920166 3.75640153884888 3.62960433959961 3.12721633911133 2.8839123249054 2.27487826347351 1.60415577888489 1.35580551624298 1.25899994373322 1.20416963100433 1.1587986946106 1.11278998851776 1.08869326114655 1.13398373126984 1.11197900772095 1.23056578636169 1.41489398479462 1.36833322048187 1.49694108963013 1.7576345205307 1.98192167282104 1.92308259010315 1.81969833374023 1.67357325553894 1.28502988815308 1.04022836685181 0.782715499401093 0.486718028783798 0.258616805076599 -0.0738274827599525 -0.201187178492546 -0.222522750496864 -0.181092813611031 1.00044238567352 1.24255728721619 1.72707974910736 2.68814420700073 1.01859629154205 0.225612178444862 0.201572328805923 0.164417326450348 0.145881488919258 0.140563100576401 0.135978251695633 0.116963416337967 0.189233437180519 0.729395806789398 0.579182624816895 0.65093469619751 0.693212509155273 0.705416202545166 0.727950096130371 0.732962369918823 0.709383487701416 0.733191311359406 0.620301604270935 0.55991393327713 0.454038381576538 0.176583305001259 -0.776072382926941 -1.46148097515106 -1.76494944095612 -1.92809116840363 -2.03734517097473 -2.05914330482483 -2.05252051353455 -2.05236172676086 -2.12448000907898 -2.3631956577301 -2.31253957748413 -2.02613830566406 -0.523348152637482 0.0790327191352844 0.0706716030836105 0.858155250549316 1.33492290973663 1.15317058563232 0.346218973398209 -0.457113236188889 -1.31351399421692 -1.97463142871857 3.19554877281189 7.93840360641479 6.74436950683594 5.10651397705078 3.54034495353699 2.92241907119751 2.37021541595459 1.90363276004791 0.974683523178101 -1.14979493618011 -2.00802111625671 -2.66755628585815 -2.66883850097656 -2.67415380477905 -2.79312992095947 -2.72845196723938 19.0095500946045 11.9034414291382 0.819829344749451 -0.760022819042206 -0.845264554023743 -1.00369763374329 -1.17629325389862 -1.39413404464722 -1.67119669914246 -1.91225612163544 -2.06251335144043 -2.17734718322754 -2.28156328201294 -2.40280032157898 -2.55554342269897 -2.73415970802307 -2.90463185310364 -2.94940638542175 0.709133684635162 2.56728029251099 6.51181221008301 8.25738716125488 9.7653169631958 9.59050846099854 9.2781343460083 7.58218908309937 6.43098926544189 5.20303821563721 5.38125324249268 5.07380962371826 7.7454195022583 9.53619575500488 10.2248229980469 10.1817836761475 7.51127243041992 4.88727474212646 3.88409519195557 2.88053011894226 1.81533646583557 1.78319120407104 9.9094934463501 8.73315620422363 7.21514892578125 8.80499362945557 10.1551313400269 10.1618795394897 10.0498828887939 11.4101753234863 13.2444610595703 10.3121366500854 7.79651260375977 7.38852739334106 6.83573627471924 6.7701268196106 9.57730007171631 8.18794250488281 5.63306474685669 5.57228183746338 5.37461233139038 4.72946405410767
4.00327968597412 3.396399974823 3.81949257850647 4.11218166351318 4.97395944595337 4.56576919555664 2.54952430725098 1.86544561386108 1.70399439334869 1.68847858905792 1.85234355926514 2.05661392211914 2.28011465072632 2.50111198425293 2.66608953475952 2.99935126304626 3.53797888755798 3.44965839385986 3.39174342155457 2.93447732925415 2.13397789001465 1.53548741340637 1.31453251838684 1.21314823627472 1.15492701530457 1.10337233543396 1.04957783222198 1.03332376480103 1.07373511791229 1.08452761173248 1.18112480640411 1.19920110702515 1.27775311470032 1.3857274055481 1.64805746078491 1.86325895786285 1.80336546897888 1.73663878440857 1.52288746833801 1.10252058506012 0.918906986713409 0.643628001213074 0.220683291554451 -0.120837695896626 -0.232882604002953 -0.338245779275894 0.0609214715659618 1.31536209583282 1.50766909122467 2.08505344390869 4.02801132202148 2.43843412399292 0.697691202163696 0.338949739933014 0.176870316267014 0.128421097993851 0.142684876918793 0.125469833612442 0.121724151074886 0.217382535338402 0.568820178508759 0.617932736873627 0.507696390151978 0.566392421722412 0.603290557861328 0.611011028289795 0.625118970870972 0.609911501407623 0.622867107391357 0.588534295558929 0.56433767080307 0.529397964477539 0.262847751379013 -0.514349460601807 -1.27326154708862 -1.74217224121094 -1.96562027931213 -2.11611294746399 -2.24592447280884 -2.30309557914734 -2.37104344367981 -2.45225405693054 -2.57345700263977 -2.55921864509583 1.43490493297577 1.45006048679352 1.9485045671463 1.82166028022766 0.185806527733803 0.682818055152893 1.06356978416443 0.612434387207031 0.103218503296375 -0.609758675098419 2.17771291732788 9.13963413238525 9.12251567840576 7.26183271408081 5.06820583343506 3.63780760765076 2.36050772666931 1.56209707260132 1.16661858558655 0.406613498926163 -1.25835680961609 -2.1382577419281 -2.76895523071289 -2.83791446685791 -2.82129740715027 -2.84460401535034 0.750893890857697 29.9697742462158 17.6966915130615 6.97728776931763 1.90322971343994 -0.665770649909973 -1.40341413021088 -1.4918999671936 -1.61580646038055 -1.80557942390442 -1.96539807319641 -2.077791929245 -2.22234892845154 -2.36924266815186 -2.51677417755127 -2.68922233581543 -2.81914329528809 -2.90812921524048 -1.73998248577118 0.216175138950348 0.313577890396118 2.07177019119263 4.25140142440796 5.79600811004639 8.23712253570557 8.88282299041748 8.48451995849609 7.04717683792114 7.00623464584351 8.10835361480713 9.2875862121582 6.19119310379028 6.53510570526123 8.41549015045166 8.53076362609863 7.75064516067505 5.39816951751709 3.49312829971313 2.88160061836243 2.27696180343628 9.5081901550293 13.6301355361938 9.01352405548096 8.61044025421143 10.5456418991089 9.964524269104 10.2622013092041 11.5777606964111 12.6281204223633 10.9450206756592 9.52473926544189 7.76526641845703 5.95283555984497 5.80496501922607 6.28025150299072 6.35598468780518 7.04158544540405 6.58040475845337 5.23688650131226 5.31450271606445 5.07846117019653
3.40827345848083 3.84604454040527 5.02004957199097 3.66435122489929 3.35096144676208 2.73279094696045 2.02849173545837 1.62477433681488 1.56380212306976 1.45359742641449 1.55573463439941 1.69086408615112 1.88660645484924 2.10712814331055 2.36342096328735 2.53992176055908 2.85355234146118 3.35843014717102 3.23929381370544 3.22388792037964 2.81631302833557 2.00674152374268 1.47397458553314 1.26099705696106 1.16605997085571 1.11595988273621 1.07510209083557 1.03742790222168 1.0244255065918 1.06926965713501 1.06506717205048 1.01601123809814 1.01679444313049 1.20762097835541 1.29586148262024 1.53186297416687 1.64491832256317 1.67194962501526 1.61147165298462 1.4431893825531 1.04849231243134 0.716040253639221 0.179855078458786 -0.130092412233353 -0.279328018426895 -0.40333691239357 1.27199447154999 1.47970497608185 2.56599807739258 3.76954030990601 5.50448751449585 3.13821744918823 1.72150492668152 0.971887707710266 0.438159018754959 0.0989067405462265 0.131695300340652 0.124323487281799 0.113531142473221 0.121260523796082 0.274960845708847 0.390130132436752 0.382053673267365 0.449649512767792 0.504495859146118 0.531944096088409 0.545926511287689 0.551834464073181 0.559840083122253 0.537165641784668 0.505774140357971 0.449167013168335 0.265171408653259 -0.275697469711304 -0.894225239753723 -1.56991720199585 -1.918785572052 -2.07170939445496 -2.22777724266052 -2.42455267906189 -2.56935930252075 -2.63570785522461 -2.6991126537323 -2.64292287826538 3.02402234077454 -0.523193597793579 0.237715139985085 1.18174993991852 0.824513137340546 -0.0179494265466928 0.503970623016357 0.723034203052521 0.396794259548187 0.689817845821381 7.71700382232666 9.77296257019043 7.38555383682251 6.53547763824463 5.21618032455444 3.72006440162659 2.40103960037231 1.10568130016327 0.458235234022141 -0.326583474874496 -1.00479853153229 -1.87055659294128 -2.5076756477356 -2.90170359611511 -2.91158199310303 -2.86775517463684 9.64901161193848 29.1413154602051 20.7227458953857 11.550763130188 5.0209174156189 2.92206263542175 -1.65454351902008 -1.75292003154755 -1.77594876289368 -1.87368106842041 -2.00537967681885 -2.14802598953247 -2.29312109947205 -2.46590518951416 -2.6596086025238 -2.83135581016541 -2.92260789871216 -2.98133993148804 -2.99410319328308 -1.84793567657471 -0.644502341747284 -0.427894651889801 0.701787233352661 2.16514158248901 6.90575456619263 8.22652149200439 8.28965473175049 8.78742599487305 8.6580638885498 9.38647174835205 9.24810695648193 7.99575757980347 6.04220867156982 5.57393836975098 6.96812915802002 6.73944473266602 5.677001953125 4.19711828231812 3.02975606918335 6.68763494491577 11.2934894561768 10.6651220321655 11.969708442688 9.9218282699585 9.75475311279297 10.2338314056396 10.19615650177 10.0350971221924 10.1316947937012 9.89775466918945 9.63866233825684 8.80567932128906 7.70515918731689 6.06268835067749 5.33520269393921 5.13447570800781 5.08943557739258 5.48382711410522 5.38823366165161 4.80407571792603 5.0257716178894
3.54091906547546 5.18847799301147 3.16454148292542 2.80590510368347 2.83242797851562 2.73200988769531 2.16730690002441 1.62272620201111 1.47130882740021 1.40795087814331 1.32182848453522 1.45720899105072 1.54903256893158 1.75881862640381 2.01963996887207 2.25997471809387 2.41542625427246 2.72184276580811 3.17837142944336 3.12165951728821 3.13273572921753 2.61602592468262 1.92949652671814 1.43989014625549 1.24487054347992 1.15516221523285 1.0919554233551 1.02780210971832 0.963829278945923 0.954044938087463 1.02104687690735 0.945582628250122 0.960707664489746 0.969751954078674 1.14600825309753 1.21003639698029 1.3956264257431 1.37514865398407 1.57927477359772 1.5299791097641 1.31454575061798 0.83265882730484 0.350221425294876 -0.0407496690750122 -0.190454557538033 1.26513004302979 2.23489832878113 2.05579495429993 3.4724018573761 4.00903749465942 5.28967809677124 4.0045919418335 2.26654171943665 1.69943487644196 1.09191107749939 0.485290616750717 0.265388637781143 0.1162950694561 0.116682901978493 0.106889590620995 0.265543192625046 0.187554851174355 0.253752589225769 0.329331636428833 0.408627271652222 0.452114343643188 0.481398344039917 0.497741281986237 0.509986042976379 0.507469654083252 0.461072236299515 0.407128036022186 0.283873677253723 -0.145888343453407 -0.499632656574249 -1.11176311969757 -1.65806770324707 -1.9792366027832 -2.22474884986877 -2.35235190391541 -2.17269730567932 -1.18221342563629 -0.161426559090614 3.0011157989502 2.75482654571533 0.985870778560638 2.49243116378784 2.5111346244812 0.590062141418457 0.932237803936005 0.751705169677734 0.365135431289673 0.501996099948883 1.50264966487885 4.40041351318359 5.43445205688477 5.51613426208496 5.21209287643433 4.83490705490112 3.81024956703186 1.64476823806763 0.321232885122299 -0.527007818222046 -1.1208758354187 -1.61238646507263 -1.93226003646851 -2.12907195091248 -1.88526797294617 -3.0067777633667 -0.324550569057465 11.9900245666504 21.0883808135986 19.7502479553223 14.5674533843994 8.08558368682861 4.83984088897705 0.445522129535675 -1.76687705516815 -1.82850241661072 -1.91084730625153 -2.06736135482788 -2.30209016799927 -2.41362571716309 -2.55288147926331 -2.71798658370972 -2.84202742576599 -2.95124888420105 -2.99350643157959 -0.463348746299744 1.146160364151 -0.299031317234039 0.218705847859383 2.18334579467773 6.98863744735718 15.1026678085327 12.2706279754639 8.25395488739014 10.9590749740601 9.62670421600342 8.39850044250488 7.77473211288452 7.32253932952881 6.64726305007935 5.60734891891479 5.3539924621582 5.91924476623535 5.68309640884399 5.31666564941406 10.0901851654053 12.4733591079712 9.65053272247314 10.6594915390015 9.8777904510498 10.7380313873291 9.42043399810791 9.38744449615479 9.60556125640869 9.57769203186035 9.73602771759033 9.86009311676025 9.57750225067139 8.97933101654053 7.98447895050049 6.99423694610596 5.84589433670044 4.93191719055176 4.45839977264404 4.40796279907227 4.44137334823608 4.48613405227661 4.53591108322144
4.15392398834229 3.37572240829468 2.74854683876038 2.51799893379211 2.40113830566406 2.44074988365173 2.28625822067261 1.79705274105072 1.46044898033142 1.29202663898468 1.24332070350647 1.22730243206024 1.34285461902618 1.45830726623535 1.67706167697906 1.83585727214813 2.0235059261322 2.15508699417114 2.47389912605286 2.81852269172668 3.02488040924072 2.99784374237061 2.56262850761414 1.89337730407715 1.3894579410553 1.15222263336182 1.05389893054962 0.997192025184631 0.954612851142883 0.911934554576874 0.920806109905243 0.93272078037262 0.891003906726837 0.916401624679565 0.918666779994965 1.08525276184082 1.15866255760193 1.13362789154053 1.30447709560394 1.47634553909302 1.39836323261261 1.14872264862061 0.636552453041077 0.230817511677742 -0.0653867647051811 1.43760788440704 1.92625558376312 2.18649005889893 2.96019387245178 3.64724516868591 5.58330869674683 4.11401224136353 2.87601566314697 2.21728610992432 1.71058905124664 1.16172111034393 0.404567897319794 0.157993912696838 0.106817692518234 0.111036099493504 0.105334892868996 0.11503803730011 0.127795353531837 0.191338866949081 0.303529590368271 0.378964006900787 0.412346333265305 0.431162506341934 0.446526229381561 0.469433099031448 0.420777171850204 0.364159643650055 0.312616020441055 0.0979374274611473 -0.312992691993713 -0.738304078578949 -1.2647066116333 -1.74256134033203 -2.06626057624817 3.75636386871338 4.23650169372559 4.5703763961792 7.49037742614746 7.33697652816772 6.87580394744873 6.66766262054443 9.00122737884521 10.9635066986084 5.00554656982422 6.52329254150391 3.30171084403992 1.84022581577301 0.276915311813354 0.28160747885704 1.32097125053406 2.40165424346924 3.22452592849731 3.21326661109924 3.47911930084229 2.91837859153748 1.3304477930069 -0.906295299530029 -1.77279853820801 -1.91659355163574 -2.03183698654175 -2.07629251480103 -0.639093816280365 2.86517930030823 1.58218502998352 10.4694337844849 19.7458000183105 21.2423877716064 15.8937139511108 14.3751430511475 10.6274347305298 6.16058301925659 3.53512859344482 0.351369619369507 0.0726962015032768 -1.88168752193451 -2.14756011962891 -2.32931303977966 -2.4519407749176 -2.54289841651917 -2.65681576728821 -2.77696490287781 -2.19490075111389 0.191582754254341 2.12392830848694 2.09224987030029 1.50436782836914 2.69411015510559 5.88417720794678 10.0822639465332 12.9208574295044 12.6398010253906 10.5532503128052 10.3182516098022 9.20926856994629 8.48775959014893 7.85923051834106 6.80445098876953 6.30309820175171 5.70232582092285 5.14273071289062 5.30707597732544 4.98786020278931 5.03579664230347 5.12072849273682 7.94038867950439 9.59082412719727 8.65100193023682 9.13046360015869 8.58480072021484 9.01712512969971 8.14462471008301 8.32958221435547 8.616042137146 8.5423469543457 8.76543521881104 8.64299392700195 8.61857128143311 8.10483455657959 7.19327974319458 6.34113788604736 5.16978597640991 4.39115285873413 3.97270107269287 4.05046939849854 4.17975759506226 4.25672054290771
4.37254619598389 2.83189129829407 2.49862194061279 2.38837218284607 2.19779205322266 2.08673191070557 2.09176015853882 1.87758851051331 1.5075775384903 1.24161398410797 1.12026798725128 1.13051855564117 1.15501058101654 1.17396879196167 1.31049180030823 1.45503449440002 1.64670181274414 1.86355412006378 2.07514262199402 2.25161957740784 2.46463775634766 2.91219139099121 2.84496402740479 2.41459345817566 1.76537835597992 1.29370439052582 1.08529698848724 0.995728433132172 0.940262496471405 0.903375446796417 0.875327408313751 0.859947621822357 0.860673427581787 0.848356068134308 0.88191682100296 0.885338425636292 1.0457866191864 1.09942436218262 1.06784641742706 1.19540107250214 1.33876407146454 1.2477000951767 0.954778611660004 0.489116251468658 0.155748441815376 1.53853785991669 3.44287490844727 3.81926035881042 4.08396673202515 5.12076663970947 4.87746477127075 3.94002628326416 3.12237048149109 2.67722964286804 2.08528256416321 1.44389724731445 0.947201073169708 0.328785479068756 0.149623185396194 0.101163312792778 0.101860530674458 0.102514736354351 0.110019609332085 0.10195629298687 0.165353551506996 0.277490615844727 0.312656372785568 0.345441490411758 0.373894900083542 0.354016095399857 0.360800623893738 0.323596835136414 0.275515854358673 0.200013786554337 -0.136427745223045 -0.484539955854416 -0.979550182819366 -1.37172091007233 2.29292774200439 8.73453426361084 7.85553646087646 8.83572387695312 9.96268749237061 9.71829891204834 11.3960943222046 11.8937206268311 12.4521589279175 12.428412437439 9.38900089263916 8.42487335205078 5.43678283691406 2.40303802490234 0.656488001346588 0.189586862921715 0.0529496930539608 0.659659087657928 1.05706334114075 2.01733183860779 1.91400194168091 2.13106632232666 0.89377635717392 -0.945647239685059 -2.12207722663879 -2.12102365493774 -1.95597898960114 1.07911109924316 4.44266176223755 6.97270679473877 8.6602725982666 13.5087385177612 18.7224082946777 18.5829238891602 15.5591926574707 12.284215927124 10.8538179397583 7.82120084762573 6.63861846923828 3.33159947395325 0.262367486953735 -1.85417413711548 -2.13706302642822 -2.27562928199768 -1.36136376857758 0.368962615728378 0.295940428972244 -0.0828384980559349 0.276776760816574 1.59179830551147 2.32081747055054 2.82515335083008 1.54528474807739 4.00629806518555 6.64936637878418 8.77399444580078 11.659538269043 11.9166011810303 12.0997247695923 10.6029996871948 8.35507678985596 8.3765172958374 7.90339946746826 7.29305124282837 6.36622190475464 5.79470157623291 5.5478835105896 5.15855836868286 4.66033697128296 4.72239542007446 5.73635530471802 6.4655818939209 7.58060121536255 8.58038711547852 7.32021474838257 7.67696523666382 7.55588245391846 8.0529670715332 8.15037059783936 7.74713754653931 7.70514011383057 7.85088777542114 7.89046716690063 7.85701608657837 7.79188776016235 7.37321329116821 6.605628490448 5.84184885025024 4.72844171524048 4.00293827056885 3.72011113166809 3.84905600547791 3.96182084083557
3.76601052284241 2.53369092941284 2.33235144615173 2.23459362983704 2.12631893157959 1.93205308914185 1.86229038238525 1.78184163570404 1.6747088432312 1.37389469146729 1.18606066703796 1.00931560993195 0.973766028881073 0.996398270130157 1.0958663225174 1.26022005081177 1.37928080558777 1.47940075397491 1.72096192836761 1.99122178554535 2.15266609191895 2.39299082756042 2.75864791870117 2.71024894714355 2.29176950454712 1.6888256072998 1.2434378862381 1.02463984489441 0.941639244556427 0.904576122760773 0.884179294109344 0.837761163711548 0.805932581424713 0.847557485103607 0.83250904083252 0.853987097740173 0.858485519886017 0.992302060127258 1.0199693441391 0.982225358486176 1.0875107049942 1.22946846485138 1.1090008020401 0.797306716442108 0.397270143032074 0.659366130828857 2.57504987716675 3.54920411109924 3.98268032073975 4.2156834602356 3.87079191207886 3.11367869377136 2.73823356628418 2.61768865585327 2.23562502861023 1.69279932975769 1.23326182365417 0.791919350624084 0.287672698497772 0.143681272864342 0.094481460750103 0.0999855026602745 0.0978667587041855 0.097560778260231 0.0894927680492401 0.128236636519432 0.223660439252853 0.236699983477592 0.216109976172447 0.21956792473793 0.251118034124374 0.292401254177094 0.253653228282928 0.223634585738182 0.0412207394838333 -0.313263148069382 -0.692254066467285 -1.10442233085632 0.783469021320343 7.52544021606445 8.20020198822021 9.34851932525635 10.7549285888672 10.9401922225952 10.869930267334 11.2938795089722 11.1866731643677 11.5148668289185 10.9079246520996 8.79562282562256 6.58365869522095 4.4106240272522 1.92849659919739 0.435082852840424 -0.142352476716042 -0.0937131270766258 0.268648147583008 0.358863204717636 1.20819354057312 0.930924475193024 0.0951442569494247 -1.28472971916199 -1.74728667736053 1.07828068733215 4.3409309387207 4.77404499053955 6.76741218566895 9.44522666931152 11.1467609405518 11.6140775680542 15.1090240478516 17.3754768371582 15.0577716827393 12.2780427932739 9.71987152099609 8.69713115692139 7.46881723403931 5.88211441040039 2.78072071075439 -0.670311272144318 -2.02835321426392 1.05450761318207 4.70140361785889 3.27704501152039 1.3703418970108 0.0889914855360985 -0.429465800523758 0.680642783641815 1.93532502651215 2.49694323539734 2.50267958641052 5.14138746261597 5.41720151901245 8.89946937561035 12.3257703781128 12.2839822769165 12.2475309371948 11.5318288803101 9.68300628662109 9.06590557098389 7.69382810592651 7.32699584960938 6.83426952362061 6.14230871200562 5.68759059906006 5.37785530090332 5.05111217498779 4.56842660903931 4.64767360687256 5.33831739425659 5.94917726516724 6.94629812240601 7.29295015335083 6.34101343154907 6.88687086105347 6.7792911529541 7.09491395950317 7.6335301399231 7.27478122711182 7.21637344360352 7.23057651519775 7.24611806869507 7.21244525909424 7.12606811523438 6.8056902885437 6.14818716049194 5.43094873428345 4.42263507843018 3.66358852386475 3.52835822105408 3.64991068840027
3.38009977340698 2.53065490722656 2.26951551437378 2.09497904777527 2.0037317276001 1.89569914340973 1.69927370548248 1.60907125473022 1.56717562675476 1.44126057624817 1.29269587993622 1.04092752933502 0.916955351829529 0.903541564941406 1.25807249546051 1.05790042877197 1.19077861309052 1.28180682659149 1.44112479686737 1.94380581378937 1.92217624187469 2.07928562164307 2.31370162963867 2.60516691207886 2.57765984535217 2.18698930740356 1.61335551738739 1.29085540771484 0.997192323207855 0.925899624824524 0.889139413833618 0.863267183303833 0.809069812297821 0.780849039554596 0.819796502590179 0.806030452251434 0.823226392269135 0.80445784330368 0.917191565036774 0.956444799900055 0.931794404983521 1.01575469970703 1.1456561088562 1.01381409168243 0.740327417850494 0.852200567722321 2.28554058074951 2.57073616981506 3.07825040817261 3.2614574432373 2.99616456031799 2.36640763282776 1.91831755638123 1.94138383865356 2.00894689559937 1.89773428440094 1.46746206283569 1.0807728767395 0.683378219604492 0.257299602031708 0.131472706794739 0.0873552337288857 0.0894185975193977 0.0823667123913765 0.0680477693676949 0.0628244802355766 0.0254843011498451 0.0829404145479202 0.114426396787167 0.124115914106369 0.141919732093811 0.216672405600548 0.23100645840168 0.210735127329826 0.13834322988987 -0.214386731386185 -0.472494542598724 -0.780091643333435 3.35638117790222 8.37837314605713 9.11013317108154 11.3863105773926 11.4025087356567 10.594539642334 11.0720205307007 11.8434429168701 11.1247129440308 10.8737182617188 10.9701318740845 9.95317649841309 8.06572818756104 6.21808338165283 3.68147754669189 1.26806163787842 -0.143843486905098 -0.4370296895504 -0.197692722082138 0.155223622918129 0.0543958991765976 -0.26496297121048 -0.445791780948639 -1.30856263637543 -1.55137729644775 2.18951869010925 6.20242023468018 7.56894540786743 8.51653575897217 10.6323375701904 10.360767364502 10.3238143920898 11.7644872665405 13.7114753723145 13.6200819015503 13.0917186737061 10.3379030227661 9.50249862670898 7.45970296859741 6.49596118927002 4.9043755531311 1.72055971622467 -0.710755705833435 6.03067874908447 4.78833770751953 3.82417440414429 2.17593812942505 0.1816466152668 -0.527288794517517 0.454037725925446 1.52264988422394 3.23753094673157 5.09918642044067 4.76293706893921 7.08539867401123 11.0619354248047 12.3712863922119 12.2488222122192 12.1583080291748 11.2609930038452 10.7372360229492 10.5168371200562 8.55425262451172 7.36023998260498 7.13717365264893 6.71146488189697 6.06192874908447 5.59401035308838 5.24606657028198 4.93831062316895 4.52615690231323 4.62688493728638 5.16762733459473 5.40417528152466 6.16281604766846 6.37434720993042 5.8278021812439 5.68682193756104 6.44534206390381 6.79937028884888 7.20780563354492 6.87309408187866 6.80447864532471 6.74725818634033 6.67135429382324 6.64737749099731 6.53844690322876 6.28758573532104 5.71356248855591 5.04580926895142 4.13618135452271 3.7750723361969 3.35601234436035
2.31992053985596 2.47662353515625 2.08450198173523 2.0471019744873 1.87579751014709 1.79823088645935 1.66689956188202 1.47169506549835 1.31999862194061 1.30349886417389 1.19591987133026 1.13424277305603 0.942782163619995 0.81740140914917 0.862034142017365 0.976434171199799 1.0196887254715 1.16556072235107 1.27700054645538 2.34987258911133 1.69205343723297 1.85656368732452 2.01847863197327 2.20394039154053 2.47201156616211 2.47345495223999 2.10067749023438 1.68778347969055 1.38932609558105 1.14553952217102 0.938146591186523 0.837187588214874 0.79725968837738 0.77846086025238 0.772651016712189 0.783623337745667 0.772111058235168 0.747225165367126 0.760166049003601 0.868120610713959 0.912454843521118 0.878139317035675 0.963955044746399 1.08524203300476 0.973801493644714 1.04608750343323 2.55253100395203 2.64139747619629 2.49501180648804 2.77198243141174 2.526202917099 1.83317852020264 1.55239582061768 1.53496468067169 1.58714163303375 1.78365015983582 1.66633927822113 1.28501498699188 0.965034246444702 0.581590890884399 0.196328818798065 0.0816685259342194 0.0516833700239658 0.0543486960232258 0.0260555688291788 0.01431839261204 0.0024087936617434 -0.00981265679001808 -0.00700197694823146 0.0279256161302328 0.0738259702920914 0.134160593152046 0.197067201137543 0.191068947315216 0.153301194310188 -0.187544420361519 -0.379701197147369 -0.527417778968811 3.8278477191925 8.30698108673096 9.22575664520264 10.1163520812988 10.6356925964355 9.90610027313232 10.0248537063599 10.8263883590698 10.8693647384644 10.5443229675293 10.1370468139648 9.88722610473633 8.71017551422119 7.64661550521851 5.67965078353882 2.49196982383728 0.351352095603943 -0.500543355941772 -0.581468939781189 -0.358895361423492 -0.0164363011717796 -0.123670682311058 -0.500984966754913 -1.06160449981689 -0.444050580263138 5.5190052986145 8.79248523712158 10.236665725708 10.2758550643921 10.9849920272827 9.48336410522461 8.84370231628418 9.40936183929443 9.98899745941162 12.2550210952759 12.5409107208252 11.3725271224976 10.3829584121704 8.49438762664795 6.72385120391846 5.65982961654663 3.94190526008606 1.68657910823822 5.50107049942017 5.42470693588257 4.69235610961914 2.92506217956543 1.10486650466919 0.169327840209007 3.47718501091003 5.32221984863281 8.82414150238037 8.07754516601562 7.93393135070801 11.3144435882568 13.0744667053223 12.8670902252197 14.0822134017944 11.8816347122192 10.703275680542 10.4596643447876 10.2482442855835 9.69903564453125 8.11030292510986 7.19327783584595 6.9982385635376 6.58269166946411 5.94183826446533 5.49639463424683 5.15435171127319 4.8224081993103 4.46243953704834 4.56452226638794 4.95090484619141 4.81641864776611 4.8327260017395 4.92620134353638 5.56912136077881 5.60317754745483 6.30902624130249 6.56638622283936 6.84504127502441 6.50978326797485 6.40314817428589 6.23872470855713 6.17985868453979 6.15533494949341 6.05537414550781 5.8375186920166 5.32803392410278 4.70411157608032 4.23569059371948 3.57441163063049
2.04137849807739 2.77158498764038 2.11694002151489 1.86105310916901 1.85639202594757 1.69097924232483 1.61253035068512 1.47828578948975 1.26604926586151 1.08910048007965 1.02651798725128 1.06574845314026 1.03170156478882 0.883482754230499 0.799425721168518 0.834973394870758 0.938568353652954 1.01323795318604 1.15616106987 1.16671419143677 1.39967751502991 1.63901853561401 1.78637552261353 1.96395492553711 2.08267140388489 2.37345600128174 2.39319801330566 2.11372947692871 1.9196742773056 1.45714867115021 1.08167779445648 0.888972222805023 0.815401971340179 0.788224756717682 0.775820910930634 0.734300494194031 0.722746551036835 0.73839008808136 0.705626428127289 0.714038848876953 0.827205777168274 0.796306729316711 0.847388505935669 0.922470152378082 1.05039703845978 1.27633905410767 2.5316789150238 2.49716019630432 2.27095866203308 2.12775278091431 2.14798903465271 1.77756440639496 1.37987148761749 1.47280180454254 1.45195889472961 1.58196461200714 1.71744084358215 1.49225234985352 1.15661954879761 0.829105615615845 0.433750361204147 0.0209150016307831 -0.0185394790023565 -0.0314101316034794 -0.0236371010541916 -0.00455493573099375 -0.0165444444864988 -0.0196470580995083 -0.0276119131594896 -0.0220602955669165 0.00881170574575663 0.0622292794287205 0.200894251465797 0.162269458174706 0.140809044241905 -0.12698931992054 -0.373570591211319 -0.420373618602753 2.28680396080017 5.68715000152588 7.75128984451294 7.95307350158691 8.10770702362061 8.9150972366333 8.69434928894043 9.20681667327881 9.7502326965332 9.49797630310059 9.38256740570068 9.02884960174561 8.39248275756836 7.24301290512085 6.27544975280762 4.11265420913696 1.30200970172882 -0.0727348253130913 -0.984634816646576 -0.885293841362 -0.63718044757843 -0.271440386772156 -0.324607580900192 -0.66414350271225 2.51730465888977 7.36705732345581 9.40510559082031 11.0068845748901 10.4763078689575 9.57445430755615 8.95874404907227 7.74363660812378 8.24241638183594 8.49449825286865 10.0842113494873 11.2606439590454 10.7637968063354 9.99149417877197 9.25995635986328 7.50967216491699 5.9973521232605 4.57389354705811 3.46376729011536 2.33238959312439 5.78936672210693 8.44657421112061 6.19697856903076 4.81325674057007 7.26165246963501 8.63438510894775 9.23052883148193 10.9416637420654 10.9639530181885 11.4554138183594 13.387674331665 13.9461297988892 16.2768669128418 15.916522026062 11.5908069610596 9.95891666412354 9.94980239868164 9.84448432922363 9.50610637664795 9.14938449859619 7.78145933151245 7.01799154281616 6.80251979827881 6.37679624557495 5.80169820785522 5.39115190505981 5.06600856781006 4.93921184539795 4.49881649017334 4.44840812683105 4.72357940673828 4.5582160949707 4.64298582077026 4.79603099822998 5.45092391967773 5.55627918243408 6.12961053848267 6.32695579528809 6.53016567230225 6.21037101745605 6.00564622879028 5.79309177398682 5.7515697479248 5.72573614120483 5.626540184021 5.45622444152832 5.00794649124146 4.41856575012207 4.2547287940979
2.12338614463806 2.61800360679626 1.88310015201569 1.87789618968964 1.67389011383057 1.67614114284515 1.53174233436584 1.32994115352631 1.26309049129486 1.11218881607056 0.931966006755829 0.889346718788147 0.983826279640198 0.977222144603729 0.84561014175415 0.760502457618713 0.801987051963806 0.916352152824402 1.00323736667633 1.07495558261871 3.34353971481323 1.83023869991302 1.57616281509399 1.73699700832367 1.85636687278748 2.00737929344177 2.26372504234314 2.26218819618225 2.20952820777893 1.87020087242126 1.40082800388336 1.05471742153168 0.877972424030304 0.80705589056015 0.765696108341217 0.729945600032806 0.690518796443939 0.69896674156189 0.712799489498138 0.662555754184723 0.686948418617249 0.701135873794556 0.768536567687988 0.815217733383179 0.886784851551056 1.02872169017792 1.10329413414001 1.45786988735199 1.77378737926483 1.80894923210144 1.71389889717102 1.28839755058289 1.23577165603638 1.28790950775146 1.45347952842712 2.3883957862854 2.17924642562866 1.56737864017487 1.31111085414886 1.00534081459045 0.626154124736786 0.168150991201401 0.0299091339111328 -0.0886084511876106 -0.105874992907047 -0.0817341580986977 -0.0308357663452625 -0.0335296019911766 -0.0377415604889393 -0.0417972095310688 -0.0308555103838444 -0.000945158477406949 0.0608389265835285 0.11528979241848 0.0998694598674774 0.0799728631973267 -0.231046885251999 1.69704675674438 4.08969449996948 4.45551776885986 5.33506631851196 6.21484661102295 6.18944120407104 6.60984468460083 7.18034505844116 7.40952062606812 7.7866587638855 8.0813627243042 7.82503700256348 7.32315826416016 7.07416915893555 6.63449239730835 5.96940231323242 4.91133069992065 2.75707960128784 0.416281819343567 -1.54644536972046 -1.95533871650696 -1.57184052467346 -1.12187695503235 -0.515307486057281 -0.396567404270172 2.42482447624207 3.68841791152954 7.68900156021118 9.62003803253174 10.4170904159546 9.54772281646729 9.16270732879639 8.10275840759277 7.90209150314331 7.98448133468628 10.4074201583862 9.17014217376709 9.10665798187256 9.3128547668457 9.020263671875 8.32435703277588 6.76962232589722 5.23940277099609 4.15209817886353 3.44559097290039 8.26109600067139 10.5697355270386 8.4749813079834 7.87237024307251 10.1833744049072 9.542724609375 9.86637115478516 11.2903118133545 14.3516645431519 14.8470010757446 15.5108547210693 15.5104055404663 16.1184520721436 13.6761064529419 11.4497299194336 10.1923294067383 9.95020198822021 9.70175838470459 9.30537796020508 8.97742748260498 8.67516136169434 7.34786748886108 6.74311208724976 6.53812217712402 6.14367818832397 5.73330640792847 5.57766103744507 5.14842653274536 4.82834148406982 4.39784669876099 4.29024457931519 4.54665613174438 4.4414963722229 4.59498023986816 4.78257131576538 5.4031810760498 5.45611095428467 5.91471290588379 6.10277986526489 6.21308660507202 5.86866140365601 5.6262993812561 5.4145359992981 5.41445922851562 5.3880820274353 5.26297044754028 5.11581134796143 4.71196937561035 4.58432722091675
2.20820379257202 2.10254740715027 1.99236476421356 1.61682736873627 1.68887424468994 1.56290543079376 1.37835252285004 1.36409664154053 1.1624938249588 1.08763313293457 0.937377512454987 0.805409491062164 0.810821712017059 0.927918195724487 0.935575842857361 0.803289175033569 0.757034122943878 0.903238236904144 0.909480452537537 0.960457861423492 2.45391392707825 1.92911624908447 1.37427604198456 1.51567053794861 1.66411924362183 1.80027949810028 1.90041279792786 2.14605522155762 2.11313605308533 2.13939118385315 1.8257155418396 1.3633109331131 1.01487076282501 0.830264925956726 0.750492453575134 0.723376631736755 0.693257689476013 0.654462516307831 0.654975950717926 0.691832661628723 0.840409100055695 0.664134919643402 0.638337314128876 0.729479372501373 0.792036235332489 0.85429060459137 0.860745668411255 0.878614664077759 0.909411430358887 1.35012185573578 1.41322529315948 0.992802202701569 0.925347983837128 1.14861118793488 1.65510308742523 3.36980962753296 2.30816507339478 1.49980664253235 1.40309035778046 1.14377021789551 0.783700346946716 0.34514182806015 0.0171362776309252 -0.261625707149506 -0.262274384498596 -0.224516898393631 0.215943321585655 -0.0463181547820568 -0.0483319126069546 -0.0474291630089283 -0.0493749417364597 -0.0384793989360332 -0.00558147765696049 0.182367846369743 0.0720999836921692 0.0698632597923279 0.0270322002470493 3.45246076583862 5.41006946563721 3.63645577430725 3.95077919960022 4.1927285194397 4.89263725280762 5.21320390701294 5.4776029586792 6.01963758468628 5.97691106796265 5.83944368362427 6.00047636032104 6.24195528030396 6.17126655578613 6.02619743347168 5.47202062606812 4.59968662261963 3.38076424598694 1.54210543632507 -1.43798160552979 -2.50948977470398 -2.47268128395081 -1.84910011291504 -0.84596198797226 3.25852084159851 3.31990599632263 2.50791454315186 5.33116388320923 7.79820013046265 9.1017541885376 9.24075412750244 8.84840393066406 7.87513303756714 8.03905010223389 9.01389122009277 9.78320598602295 7.90840721130371 7.80852746963501 7.91704845428467 8.45518398284912 8.23051166534424 7.46309900283813 6.01431274414062 4.82943296432495 7.46270656585693 11.2398262023926 9.75746440887451 8.68586349487305 7.42210912704468 7.68130779266357 9.35372924804688 8.39772510528564 9.76189231872559 13.7325963973999 14.3453092575073 14.1890048980713 14.2654428482056 13.3678417205811 12.6858196258545 11.8598413467407 10.8231687545776 10.3675088882446 9.70787906646729 9.15389060974121 8.83115291595459 8.43136119842529 8.10759544372559 6.87545919418335 6.43613433837891 6.28268480300903 6.2279257774353 5.89793014526367 5.40875053405762 4.98438787460327 4.68272590637207 4.28058528900146 4.15164279937744 4.42829036712646 4.37713241577148 4.57997751235962 4.74380302429199 5.25385856628418 5.28323221206665 5.68110752105713 5.79885387420654 5.84150123596191 5.57122421264648 5.35335254669189 5.17179775238037 5.1536693572998 5.06197690963745 4.92489290237427 4.80450344085693 4.66495084762573
1.91163146495819 2.12853217124939 2.05211162567139 1.80885362625122 1.53122544288635 1.29412984848022 1.40533769130707 1.20796084403992 1.18474543094635 0.992989718914032 0.913585424423218 0.803020834922791 0.72173660993576 0.761339962482452 0.894558012485504 0.887962341308594 0.797845065593719 0.745859682559967 0.81211793422699 0.890519857406616 0.958007276058197 1.00915229320526 1.41639292240143 1.3128148317337 1.43643355369568 1.58420777320862 1.68165683746338 1.80615282058716 2.04981780052185 2.03674268722534 2.04500341415405 1.73141765594482 1.28982090950012 0.963143467903137 0.797178208827972 0.722752332687378 0.688826680183411 0.664413094520569 0.63072407245636 0.630953550338745 0.659642219543457 0.741559743881226 0.635929763317108 0.590839684009552 0.663106858730316 0.707271754741669 0.705634534358978 0.677865982055664 0.810735523700714 0.800591289997101 1.0318775177002 0.794281601905823 0.665386378765106 0.843824148178101 1.71670532226562 2.52887344360352 2.39579153060913 1.67757749557495 1.33867359161377 1.19612777233124 0.90091997385025 0.594461679458618 0.248445570468903 -0.123584054410458 -0.347899436950684 -0.315073192119598 3.85926294326782 0.773927330970764 -0.057162944227457 -0.0576025061309338 -0.0610280744731426 -0.0544314309954643 0.137645423412323 0.379384607076645 0.0388236008584499 0.0362421907484531 0.0156455915421247 -0.0410595051944256 1.35121750831604 2.72377038002014 2.36963438987732 1.6048378944397 1.97921800613403 3.28022599220276 3.44056677818298 3.44986510276794 4.36456489562988 5.05837631225586 4.89465188980103 5.07108402252197 5.23857688903809 5.30629301071167 5.11958980560303 4.1658091545105 3.0659487247467 2.15393877029419 -0.189459219574928 -1.97149085998535 -2.07025551795959 0.464585036039352 5.53098678588867 7.39211797714233 5.4709792137146 5.12055587768555 7.60075950622559 9.92482757568359 7.61222982406616 8.04061412811279 8.0681791305542 7.30266094207764 6.93819570541382 7.35866212844849 7.39207363128662 6.9191255569458 6.91174459457397 7.03952026367188 7.27616119384766 7.69765853881836 7.55053567886353 6.53144836425781 5.36634206771851 5.02287721633911 8.31589889526367 8.82977199554443 7.93238353729248 7.48934555053711 6.5901837348938 6.31944799423218 7.39850807189941 7.98852062225342 11.8156366348267 12.4263124465942 12.3298263549805 11.8264818191528 11.8834781646729 11.5959205627441 11.1507558822632 10.9006767272949 10.3934125900269 9.74270915985107 9.15160751342773 8.66553688049316 8.3802433013916 7.87593173980713 7.60129690170288 6.51903963088989 6.28669881820679 6.1555118560791 6.05568599700928 5.69750499725342 5.21842432022095 4.82884645462036 4.54514026641846 4.14702081680298 4.03996753692627 4.30586385726929 4.29233312606812 4.23803424835205 4.59789800643921 5.05275201797485 5.08813238143921 5.40191650390625 5.48764371871948 5.55278062820435 5.32554769515991 5.12314891815186 4.90593099594116 4.85949325561523 4.75174283981323 4.62092399597168 4.47759819030762
