NCOLS 173
NROWS 32
XLLCORNER 353824
YLLCORNER 6699728
CELLSIZE 16 
NODATA_value -3.4e+38 
3.98248648643494 2.69290399551392 1.73434948921204 0.859731376171112 0.118669055402279 -0.158983990550041 -0.272018134593964 -0.213715627789497 0.703952193260193 1.10756838321686 1.22483515739441 1.31253266334534 1.07448136806488 0.384713172912598 0.320978462696075 0.3133564889431 0.337831944227219 0.32849970459938 0.328370243310928 0.370264381170273 0.427891731262207 0.452768474817276 0.510101079940796 0.619821846485138 0.729189336299896 0.782500088214874 0.867893099784851 0.951639950275421 0.953737378120422 0.816992461681366 0.534887075424194 5.47763204574585 5.5115647315979 3.28026390075684 2.64732623100281 3.31051015853882 0.713867485523224 1.49189519882202 1.13829243183136 1.88828682899475 0.956642985343933 0.844097673892975 1.0236531496048 1.2439626455307 1.2918438911438 3.0927996635437 5.92705249786377 6.15343427658081 4.99943542480469 3.73514819145203 2.75475597381592 1.94554352760315 1.88595342636108 1.83543598651886 2.24626302719116 3.26689314842224 3.29096794128418 3.38402652740479 3.27672791481018 3.30920314788818 3.72416400909424 4.06446886062622 4.48347330093384 4.3941593170166 4.29435396194458 4.31375122070312 4.13004159927368 3.54337644577026 4.93187046051025 4.48168659210205 2.0315682888031 1.96100497245789 1.92478668689728 2.61355662345886 3.63542723655701 4.11449718475342 4.15540742874146 4.202223777771 4.22215223312378 4.11105394363403 3.9046642780304 3.32754731178284 1.87261354923248 1.85845863819122 2.1601619720459 2.35527110099792 2.4858410358429 2.67031908035278 2.80331802368164 2.83477854728699 2.99425911903381 3.33934092521667 3.72224879264832 3.93297386169434 3.97139263153076 3.94446158409119 3.87344098091125 3.63863229751587 3.21688413619995 2.65572834014893 2.41392040252686 2.26098322868347 2.08756828308105 1.80313539505005 1.90677571296692 2.12874388694763 2.91448307037354 3.87790727615356 4.48948526382446 4.85833263397217 5.38418102264404 5.57189273834229 5.87702226638794 6.26811456680298 6.43389797210693 6.69033718109131 6.76607942581177 6.6432785987854 6.90326261520386 7.72579669952393 7.72167205810547 7.62650918960571 7.53154754638672 7.19051456451416 7.04952144622803 6.90034341812134 6.44499731063843 6.06570482254028 5.6961612701416 4.97792625427246 4.68706321716309 4.91464900970459 5.35738563537598 5.37612533569336 5.48833131790161 5.50964069366455 5.56710529327393 5.59823179244995 5.53878355026245 5.47032690048218 5.34428977966309 5.15995836257935 5.09277391433716 5.0320839881897 5.22091150283813 5.72084808349609 6.29435920715332 6.63082599639893 6.82012414932251 7.06668472290039 7.20116758346558 7.05025720596313 7.09905385971069 7.04260396957397 8.1212215423584 8.90644645690918 9.40057754516602 11.0493106842041 11.7851972579956 11.8222360610962 12.1850709915161 12.3470077514648 12.59410572052 13.5263862609863 14.7463903427124 14.6526689529419 14.8336334228516 15.3929843902588 15.0631074905396 15.6287422180176 16.8401718139648 19.1120185852051 20.6816329956055
4.2736291885376 3.43279671669006 2.20796370506287 0.968355774879456 0.235854208469391 -0.0540935657918453 -0.237395256757736 -0.382039070129395 -0.33076873421669 0.819676041603088 1.57523202896118 1.68916261196136 1.69830715656281 0.502710461616516 0.371833443641663 0.334272503852844 0.3460853099823 0.363651841878891 0.350212872028351 0.388834148645401 0.459978938102722 0.481239378452301 0.533599615097046 0.640835583209991 0.736077666282654 0.814320623874664 0.903433799743652 0.976277410984039 0.979753851890564 0.894864559173584 0.652093887329102 0.571328401565552 5.52938890457153 4.08481311798096 1.81170463562012 1.13961696624756 1.42881155014038 0.752645015716553 0.783429682254791 0.831858277320862 0.888188540935516 0.981757283210754 1.04982817173004 1.39054465293884 1.57677447795868 3.60673880577087 7.63632011413574 7.41363954544067 5.99519205093384 4.65911054611206 3.15602898597717 1.97857236862183 1.68119966983795 1.90952587127686 2.54070734977722 3.91674852371216 3.8703236579895 3.65800666809082 3.5651593208313 3.5376284122467 3.99832916259766 4.44366645812988 5.02589464187622 4.97905826568604 5.0807933807373 4.36238718032837 5.06919145584106 2.66737771034241 2.46934056282043 2.44123959541321 2.27595114707947 2.19610571861267 2.21726536750793 2.66987633705139 3.70212411880493 4.26875305175781 4.35298728942871 4.40449285507202 4.43446016311646 4.29841661453247 4.08226728439331 3.4630880355835 1.953005194664 2.09668612480164 2.55091857910156 2.60101675987244 2.65203881263733 2.74246764183044 2.8841769695282 2.92589020729065 3.16512989997864 3.49209785461426 3.82874321937561 4.01659870147705 4.04786586761475 4.01367712020874 3.94835114479065 3.71824097633362 3.3310215473175 2.93234014511108 2.8030698299408 2.62777948379517 2.44696378707886 2.06553745269775 2.12740206718445 2.31314301490784 3.08627247810364 4.00598621368408 4.62832641601562 5.01259708404541 5.55932664871216 5.82944440841675 6.08995485305786 6.49528789520264 6.6564884185791 6.92129182815552 7.01800966262817 7.50922393798828 8.12353420257568 8.71177673339844 8.57554054260254 8.5038890838623 8.40957832336426 8.06418514251709 7.80395936965942 7.36481237411499 6.7786717414856 6.34262323379517 5.92200469970703 5.19591474533081 4.88552474975586 5.07928514480591 5.53967428207397 5.55830144882202 5.69161462783813 5.71117973327637 5.77631950378418 5.80639266967773 5.73283767700195 5.66986227035522 5.5311803817749 5.31930160522461 5.24850130081177 5.23259449005127 5.41453504562378 5.92509508132935 6.5297532081604 6.88582277297974 7.10426568984985 7.35931968688965 7.50782918930054 7.3768572807312 7.44002532958984 7.40002202987671 8.68963527679443 9.58324241638184 10.5012741088867 12.3259229660034 13.1112003326416 13.0256271362305 13.3653936386108 13.5131053924561 13.8939008712769 14.9625911712646 16.3258419036865 16.209753036499 16.4328594207764 17.2304515838623 16.8908176422119 17.8430061340332 19.5378112792969 25.8501682281494 27.1868324279785
2.61645078659058 3.76546239852905 2.98699688911438 1.32595372200012 0.631977260112762 0.25464728474617 -0.103955365717411 -0.333736419677734 -0.344735264778137 -0.0663211047649384 1.10756838321686 1.46150732040405 1.84389674663544 0.975038290023804 0.510061144828796 0.361558109521866 0.366891115903854 0.417800784111023 0.433544814586639 0.429033070802689 0.491606742143631 0.967295110225677 1.21115362644196 0.6418337225914 0.75224781036377 0.849260866641998 0.946059107780457 1.01376342773438 0.999660968780518 0.973565816879272 0.878494620323181 0.665241003036499 0.722586691379547 2.14475631713867 1.26792693138123 0.884486615657806 0.896390914916992 0.866552948951721 0.888681650161743 0.961465239524841 1.06564676761627 1.13884365558624 1.19804489612579 1.25440311431885 1.2923321723938 4.0135760307312 11.3346529006958 10.6649522781372 8.19100093841553 5.64753007888794 3.6404812335968 2.16749596595764 1.9982123374939 2.08816242218018 3.0349440574646 4.91455888748169 4.68590354919434 4.14267492294312 3.97789144515991 3.79747891426086 4.24913549423218 4.91176557540894 5.65788888931274 6.02978897094727 5.95354318618774 4.95714426040649 5.18698596954346 2.83186602592468 2.63542747497559 2.6162736415863 2.44685435295105 2.42677283287048 2.39478135108948 2.86602234840393 3.89346837997437 4.45790433883667 4.59209871292114 4.63517761230469 4.66661882400513 4.50195503234863 4.27359676361084 3.63594102859497 2.12758755683899 2.16749691963196 2.6201012134552 2.74458527565002 2.74670672416687 2.82176089286804 2.9688401222229 2.99222183227539 3.336674451828 3.56560349464417 3.91383194923401 4.10621643066406 4.13620901107788 4.09694242477417 4.02989721298218 3.79085183143616 3.39986133575439 3.02123785018921 3.03600645065308 2.94639730453491 2.70546960830688 2.21496057510376 2.24169778823853 2.37769174575806 3.1873836517334 4.13339948654175 4.77142238616943 5.17756700515747 5.73973798751831 6.11793756484985 6.30917072296143 6.73045539855957 6.89494848251343 7.17075395584106 7.37422704696655 7.91053628921509 8.72372722625732 9.3598747253418 9.42841243743896 9.38770580291748 9.29753875732422 8.9202356338501 8.63599681854248 7.91461515426636 7.18286657333374 6.6619439125061 6.166832447052 5.3928804397583 5.07396411895752 5.25807094573975 5.72694158554077 5.74699258804321 5.95388126373291 5.94762897491455 5.99818563461304 6.03278970718384 5.9541597366333 5.86432504653931 5.70235204696655 5.4998197555542 5.40953063964844 5.43377876281738 5.62627029418945 6.13358211517334 6.7846941947937 7.1553692817688 7.37904071807861 7.63917589187622 7.7937798500061 7.666090965271 7.76251649856567 7.78429460525513 9.28169822692871 10.2580680847168 11.8177061080933 13.9367580413818 14.6541528701782 14.5487823486328 14.8044815063477 15.2656574249268 15.6063671112061 16.7343997955322 18.2530479431152 18.1031036376953 18.5868854522705 19.3785800933838 18.9335784912109 20.2035102844238 24.2302131652832 27.9216785430908 33.4311714172363
0.357200592756271 3.70629191398621 4.06163930892944 2.16476321220398 1.11073648929596 0.480062276124954 0.0486924052238464 -0.223054066300392 -0.267470866441727 -0.224255472421646 -0.0980131179094315 0.694282054901123 0.531264185905457 0.780778884887695 0.8144770860672 0.391298592090607 0.412671148777008 0.477775484323502 0.488462954759598 0.496764063835144 0.911193370819092 1.66383063793182 0.550309717655182 0.643503308296204 0.769825279712677 0.872922778129578 0.984140574932098 1.06140530109406 1.03788697719574 1.02248704433441 0.984380781650543 0.847283482551575 0.799975633621216 0.879799008369446 0.915870130062103 0.970625817775726 1.00654768943787 1.02381920814514 1.0616112947464 1.14606392383575 1.22792363166809 1.28584098815918 1.33802151679993 1.35526418685913 1.37792873382568 3.33927750587463 7.58973741531372 12.121901512146 10.322416305542 6.76870346069336 4.13894701004028 2.21400618553162 2.29380130767822 2.40090084075928 3.88802123069763 6.49935817718506 5.87649250030518 4.81579494476318 4.13197135925293 3.61858749389648 4.4691276550293 5.70694255828857 7.1433482170105 5.30268430709839 3.93141555786133 4.37030696868896 3.89994311332703 2.92182636260986 2.85927844047546 2.81119012832642 2.60950493812561 2.67191052436829 2.6736056804657 3.20129156112671 4.19718027114868 4.71960735321045 4.84498929977417 4.88866806030273 4.92356967926025 4.72061967849731 4.48706912994385 3.82123494148254 2.25643754005432 2.29061007499695 2.67952752113342 2.8007173538208 2.8037691116333 2.909583568573 3.05749940872192 3.08341097831726 3.44392871856689 3.64262366294861 3.99978685379028 4.20087814331055 4.23148012161255 4.18976449966431 4.11707925796509 3.87238240242004 3.46858644485474 3.08533000946045 3.11876344680786 3.03850984573364 2.80476331710815 2.27100086212158 2.29607605934143 2.43181490898132 3.2877345085144 4.2633056640625 4.92115259170532 5.34940528869629 5.92951488494873 6.44087553024292 6.54203224182129 6.98076581954956 7.15183401107788 7.43538522720337 7.78725719451904 8.35957431793213 9.21791553497314 9.85885143280029 9.9865608215332 10.2221612930298 10.1391448974609 9.69082260131836 9.43863487243652 8.62760162353516 7.63123083114624 7.04165840148926 6.46648979187012 5.62137031555176 5.24134063720703 5.44011449813843 5.92434406280518 5.95231914520264 6.24202823638916 6.20378494262695 6.22946739196777 6.26299715042114 6.16586828231812 6.06986951828003 5.89349937438965 5.67436838150024 5.58843421936035 5.64340353012085 5.84397220611572 6.38045644760132 7.05901527404785 7.42359828948975 7.6408953666687 7.90730571746826 8.04779052734375 7.90567922592163 8.04024219512939 8.10104084014893 9.86441707611084 10.9652042388916 13.3330249786377 15.8217658996582 16.3168659210205 16.3003025054932 16.6566562652588 17.5521335601807 17.8877601623535 19.1132678985596 20.7542591094971 20.644416809082 21.4280071258545 21.9689407348633 21.1309108734131 22.1825561523438 21.5385265350342 17.2428226470947 21.5936889648438
-0.322542726993561 1.53283405303955 3.55371856689453 3.23984408378601 1.8019654750824 0.74521815776825 0.219714730978012 -0.0413558110594749 -0.141117230057716 -0.138700529932976 -0.0819671526551247 0.0184505209326744 0.15782056748867 0.925666213035583 1.43552827835083 0.400816291570663 0.461180120706558 0.52060854434967 0.543524920940399 0.549642443656921 1.27579140663147 0.549731373786926 0.562125146389008 0.652874350547791 0.784040927886963 0.893837809562683 1.01515662670135 1.11488962173462 1.09469485282898 1.06197774410248 1.02181732654572 0.944838523864746 0.909352600574493 0.937826216220856 0.928243517875671 1.01233386993408 1.08972036838531 1.16840517520905 1.23898446559906 1.31035840511322 1.37471425533295 1.43971180915833 1.53261423110962 1.60428941249847 1.64305806159973 1.5888044834137 1.51903033256531 2.30580115318298 11.8394346237183 7.9045934677124 5.02829074859619 2.38178944587708 2.523770570755 2.6464695930481 5.10180711746216 8.33499050140381 7.30627965927124 4.56776809692383 3.8521900177002 3.62914085388184 5.08740043640137 6.6785683631897 5.83965587615967 4.66600131988525 4.62697172164917 4.47309255599976 4.00490093231201 3.00774598121643 2.98760986328125 2.96836876869202 2.86471843719482 2.96461176872253 3.05297327041626 3.62943577766418 4.5949010848999 5.02615118026733 5.15048789978027 5.18709087371826 5.20633220672607 4.96255540847778 4.7194356918335 4.02249097824097 2.30465149879456 2.34478354454041 2.74053812026978 2.86087822914124 2.86351227760315 3.00002074241638 3.15217709541321 3.17906641960144 3.51739764213562 3.72224307060242 4.08314228057861 4.29710960388184 4.33057594299316 4.2881965637207 4.21593236923218 3.95966792106628 3.54139518737793 3.14758324623108 3.1995747089386 3.12332963943481 2.88325595855713 2.3275294303894 2.34682464599609 2.48621869087219 3.39192271232605 4.40195608139038 5.08052539825439 5.5347728729248 6.1349835395813 6.79756498336792 6.79458045959473 7.24902486801147 7.42589235305786 7.72306776046753 8.24934959411621 8.85808181762695 9.77108669281006 10.4203433990479 10.5369892120361 10.8556842803955 10.9777917861938 10.4381036758423 10.1806592941284 9.35025024414062 8.1338529586792 7.47664642333984 6.81753158569336 5.88011121749878 5.45416164398193 5.59713459014893 6.13456010818481 6.22915363311768 6.53102016448975 6.49085474014282 6.47535705566406 6.50838041305542 6.38913345336914 6.28681373596191 6.09027338027954 5.863205909729 5.75959444046021 5.86922883987427 6.0679783821106 6.6227855682373 7.31878805160522 7.66469097137451 7.88164186477661 8.18451404571533 8.29396915435791 8.0952730178833 8.25168609619141 8.37066078186035 10.4425773620605 11.6430921554565 15.0754795074463 18.0585670471191 18.006217956543 18.0443058013916 19.0648651123047 20.1773948669434 20.5920639038086 21.9399070739746 23.5583362579346 23.9224739074707 24.9799842834473 24.3772869110107 22.2608528137207 22.5197067260742 21.248556137085 15.5549259185791 14.7444801330566
-0.320586204528809 -0.381836920976639 1.882528424263 3.47969937324524 2.54133439064026 1.14655375480652 0.427660256624222 0.102917179465294 -0.0292971488088369 -0.0440247766673565 -0.0011808960698545 0.102724775671959 0.222435176372528 1.7980033159256 0.923457205295563 0.823677718639374 0.678096830844879 0.55200868844986 0.693763077259064 0.58603709936142 0.57147604227066 0.565280079841614 0.581164956092834 0.663859009742737 0.797930479049683 0.913622796535492 1.04497981071472 1.16589200496674 1.16499519348145 1.11707627773285 1.11247408390045 0.996599793434143 0.979443073272705 1.02318775653839 0.994246661663055 1.09045481681824 1.20522034168243 1.29112601280212 1.39958274364471 1.50145840644836 1.60037505626678 1.72946786880493 1.83299744129181 1.89962363243103 1.94131124019623 1.99657773971558 1.96559929847717 2.05299258232117 2.04757952690125 7.98709964752197 6.81159019470215 2.61841368675232 2.67825675010681 2.78396654129028 2.80327391624451 3.33700394630432 3.36830163002014 3.76672053337097 3.13655066490173 3.94792795181274 5.43092966079712 4.52566003799438 3.03986954689026 3.06799101829529 3.32763481140137 4.53815174102783 4.35747861862183 3.35403776168823 3.10651969909668 3.09175086021423 3.06193685531616 3.2522509098053 3.36621856689453 4.06164932250977 5.02304935455322 5.38583612442017 5.49451351165771 5.53511476516724 5.52262544631958 5.23093414306641 4.97355222702026 4.23841667175293 2.41314673423767 2.39859938621521 2.80873560905457 2.92968678474426 2.93322396278381 3.10023283958435 3.25347828865051 3.2798752784729 3.59482431411743 3.80866241455078 4.17685270309448 4.39545822143555 4.4399266242981 4.39735126495361 4.31966304779053 4.05505657196045 3.62489032745361 3.22047877311707 3.27843570709229 3.20187091827393 2.96119618415833 2.38628840446472 2.39353513717651 2.54015755653381 3.50307774543762 4.54665374755859 5.25077056884766 5.73780107498169 6.47549247741699 7.19299697875977 7.17147302627563 7.53849411010742 7.72467708587646 8.03214836120605 8.76530838012695 9.41209983825684 10.3757953643799 11.0307817459106 11.1506042480469 11.5447578430176 11.6942338943481 11.0464239120483 10.7804536819458 9.89799118041992 8.59036636352539 7.90072679519653 7.18287801742554 6.18256998062134 5.70546293258667 5.82363319396973 6.30700159072876 6.52107715606689 6.84852695465088 6.80492401123047 6.73297071456909 6.75951242446899 6.63371610641479 6.51911687850952 6.28780937194824 6.0310845375061 5.92648792266846 6.04257249832153 6.25869464874268 6.81370258331299 7.54153394699097 7.89768314361572 8.10610866546631 8.42469120025635 8.54053974151611 8.27588081359863 8.39059829711914 8.6840181350708 10.9604053497314 12.4487247467041 17.3919677734375 20.82568359375 21.3353385925293 20.6602458953857 22.2407417297363 22.947057723999 23.8126106262207 25.6343669891357 26.2432098388672 30.1146602630615 32.5680885314941 27.5656147003174 22.6424407958984 22.6227207183838 18.8915233612061 16.6302509307861 14.1605529785156
-0.152749985456467 -0.360340535640717 -0.308243453502655 1.33957946300507 2.3383412361145 0.882349729537964 0.722028911113739 0.430881202220917 0.133443921804428 0.116243846714497 0.148762926459312 0.229541376233101 0.808046579360962 1.61612677574158 0.57033383846283 0.478075683116913 0.533882975578308 1.01950299739838 1.07136785984039 0.6587735414505 0.649747252464294 0.61982536315918 0.616211891174316 0.689469218254089 0.818493187427521 0.940851390361786 1.07829558849335 1.21152675151825 1.23203730583191 1.19568228721619 1.21238923072815 1.10677480697632 1.12221956253052 1.15779745578766 1.16641855239868 1.22660839557648 1.31828188896179 1.43967258930206 1.61226832866669 1.83849692344666 1.97730076313019 2.07279300689697 2.14814472198486 2.19331312179565 2.28207302093506 2.41125178337097 2.45835065841675 2.45213770866394 2.34839797019958 2.37840127944946 2.56142163276672 2.70723056793213 2.79033780097961 2.87350487709045 2.88020944595337 2.84935617446899 2.99707984924316 4.74598693847656 3.2220618724823 3.22862434387207 3.45019173622131 3.08216190338135 3.0923182964325 3.17524099349976 3.37277913093567 4.78547954559326 4.77770900726318 3.70769453048706 3.29220414161682 3.18219208717346 3.18693017959595 3.36166477203369 3.48117685317993 4.4369912147522 5.4794020652771 5.79816389083862 5.8683500289917 5.92060041427612 5.89302539825439 5.53650522232056 5.26154136657715 4.48211240768433 2.5626118183136 2.45374894142151 2.87196564674377 3.00166583061218 3.00171113014221 3.20152115821838 3.35738682746887 3.38516998291016 3.6737015247345 3.89671611785889 4.2764458656311 4.50426054000854 4.54698514938354 4.50553703308105 4.43254375457764 4.15567874908447 3.7163565158844 3.30113697052002 3.37777853012085 3.29312109947205 3.0381932258606 2.44145822525024 2.44387483596802 2.59473538398743 3.61159491539001 4.69978284835815 5.42808532714844 5.95661449432373 6.90898942947388 7.64152002334595 7.59163522720337 7.85036325454712 8.04384994506836 8.36626625061035 9.34258079528809 10.0220317840576 11.0509328842163 11.7037878036499 11.8654489517212 12.3470869064331 12.4991579055786 11.7110929489136 11.4296798706055 10.4478244781494 9.08204746246338 8.23015975952148 7.4882640838623 6.4610595703125 5.96199798583984 6.06328010559082 6.55931997299194 6.80419588088989 7.19769191741943 7.08906507492065 6.99372053146362 7.01423072814941 6.89313459396362 6.74213027954102 6.46852207183838 6.2062087059021 6.06339550018311 6.16043663024902 6.37387561798096 6.97607660293579 7.73030757904053 8.09271144866943 8.32417678833008 8.67463493347168 8.78489875793457 8.4800386428833 8.5381031036377 8.94028949737549 11.3111591339111 14.0305156707764 21.5339546203613 25.5604934692383 26.3597507476807 29.7711524963379 30.9599857330322 28.2398147583008 28.5174922943115 29.333309173584 26.4203853607178 24.7179889678955 24.44850730896 25.5507869720459 24.8751678466797 20.2559585571289 17.5183506011963 16.0929927825928 11.4871072769165
0.0741837844252586 -0.274715900421143 -0.135333701968193 0.0156847294420004 0.190439790487289 0.457264631986618 0.762340724468231 0.295713186264038 0.291530013084412 0.304371863603592 0.415746331214905 0.949150085449219 2.42963910102844 1.52822017669678 0.668877363204956 0.774564564228058 0.585316121578217 0.621026754379272 0.641840040683746 0.703257322311401 0.708810746669769 0.674083590507507 0.658807814121246 0.73466432094574 0.851022303104401 0.978133261203766 1.10894763469696 1.24822521209717 1.28604030609131 1.27431285381317 1.31310415267944 1.24439775943756 1.21664297580719 1.25310409069061 1.31762850284576 1.36958587169647 1.47206079959869 1.66137385368347 1.96087169647217 2.15998554229736 2.28950476646423 2.40444374084473 2.47603178024292 2.52635169029236 2.65577006340027 2.891108751297 2.88977479934692 2.81408190727234 2.71561217308044 2.69814848899841 2.75941586494446 2.88389658927917 2.92370891571045 2.97456407546997 2.99097752571106 2.98058128356934 3.05945110321045 3.16878318786621 3.26900029182434 3.25582718849182 3.15502500534058 3.10160779953003 3.09588313102722 3.18463277816772 3.51177716255188 5.37019538879395 5.2701096534729 4.11790084838867 3.31985068321228 3.19828724861145 3.25597763061523 3.48326706886292 3.75842356681824 4.80642652511597 5.95781135559082 6.27825307846069 6.32594060897827 6.36574363708496 6.30694103240967 5.87787294387817 5.58612298965454 4.75914096832275 2.73128342628479 2.50705027580261 2.93512153625488 3.06619811058044 3.08303236961365 3.30728054046631 3.46999073028564 3.49759292602539 3.75355672836304 3.98669815063477 4.38179016113281 4.61796569824219 4.6597752571106 4.61518526077271 4.54535055160522 4.26151895523071 3.81133770942688 3.38356399536133 3.47762942314148 3.38952159881592 3.13299870491028 2.50946664810181 2.50915265083313 2.65382170677185 3.73292970657349 4.85491180419922 5.61283683776855 6.18910121917725 7.38819932937622 8.13197135925293 8.08282375335693 8.18690490722656 8.39021587371826 8.7329216003418 9.99776935577393 10.7221012115479 11.8185119628906 12.4618167877197 12.6914300918579 13.2636556625366 13.4332542419434 12.5181951522827 12.1605157852173 11.0946979522705 9.6424560546875 8.57816410064697 7.79191160202026 6.73219680786133 6.21773242950439 6.28964900970459 6.7988429069519 7.14894914627075 7.48800468444824 7.30109786987305 7.26585388183594 7.27049255371094 7.12262153625488 6.95408344268799 6.64352369308472 6.38016986846924 6.21630144119263 6.31082487106323 6.48410892486572 7.09659481048584 7.90037822723389 8.26664638519287 8.5162935256958 8.93169689178467 9.05930042266846 8.73289680480957 8.73305797576904 9.25498008728027 11.6507587432861 16.6874237060547 30.3940601348877 36.5339088439941 30.0604763031006 23.416446685791 26.1047325134277 33.0025367736816 32.4934272766113 28.2848968505859 27.5315418243408 22.1266345977783 23.5487461090088 24.4028472900391 20.9467315673828 14.1816129684448 14.2404842376709 10.7263507843018 4.10693883895874
0.282449632883072 -0.164689064025879 -0.01436897367239 0.132292687892914 0.344838440418243 0.680063664913177 0.496736735105515 2.4398250579834 1.2720502614975 0.42522057890892 0.860839605331421 2.68921375274658 0.650138974189758 0.621935784816742 0.767462432384491 0.6257364153862 0.63575291633606 0.670726776123047 0.70291006565094 0.725080609321594 0.725309014320374 0.71190071105957 0.69504052400589 0.761498510837555 0.889244556427002 1.01369762420654 1.14102518558502 1.2853010892868 1.33342409133911 1.35088634490967 1.41917562484741 1.3557140827179 1.31648683547974 1.37825226783752 1.46080327033997 1.55267953872681 1.74776697158813 1.97913086414337 2.35557699203491 2.53473591804504 2.61911940574646 2.71649622917175 2.90342783927917 3.0262439250946 3.05959939956665 3.11593222618103 3.13095808029175 3.07040214538574 3.01086449623108 2.98987579345703 3.01957225799561 3.06078267097473 3.07548570632935 3.0884165763855 3.09585499763489 3.12187504768372 3.13912200927734 3.28773188591003 3.40982604026794 3.32646822929382 3.24366354942322 3.19949460029602 3.15536332130432 3.2076301574707 3.7349956035614 6.08656215667725 5.86348867416382 4.69872665405273 3.40881991386414 3.21968698501587 3.30167603492737 3.60301446914673 4.1488471031189 5.24144792556763 6.50216341018677 6.85564708709717 6.85951089859009 6.88259077072144 6.78224849700928 6.30030822753906 5.95411348342896 5.07275056838989 2.93887162208557 2.56354951858521 2.9969482421875 3.12679314613342 3.17979860305786 3.42120957374573 3.59164261817932 3.61904501914978 3.84097743034363 4.08368158340454 4.48456811904907 4.74172163009644 4.78555870056152 4.7349066734314 4.66009902954102 4.36961269378662 3.90995240211487 3.47182202339172 3.58887004852295 3.49286794662476 3.23597121238708 2.58029723167419 2.57056045532227 2.71698641777039 3.86872482299805 5.0291576385498 5.81234741210938 6.43655061721802 7.94572067260742 8.70284175872803 8.64303112030029 8.54474639892578 8.75724315643311 9.37725067138672 10.7387790679932 11.5191764831543 12.6867761611938 13.3091449737549 13.621750831604 14.3046751022339 14.4879846572876 13.4270420074463 12.9988241195679 11.8151655197144 10.2715377807617 8.96327590942383 8.12882804870605 7.01737928390503 6.47894287109375 6.515305519104 7.01713752746582 7.45515394210815 7.78981304168701 7.68377780914307 7.51374816894531 7.46430110931396 7.29610967636108 7.11548900604248 6.8126745223999 6.53422212600708 6.36724710464478 6.47427368164062 6.64142751693726 7.24800109863281 8.10753726959229 8.47809028625488 8.731125831604 9.23240756988525 9.37285614013672 9.06344127655029 8.98741912841797 9.6037130355835 11.5391693115234 13.8185520172119 23.9928569793701 27.4673767089844 28.6161003112793 20.9650535583496 20.6092720031738 22.6988220214844 21.5005168914795 21.2562217712402 25.2758502960205 23.1336441040039 16.3515529632568 12.2971029281616 13.1392955780029 10.1233367919922 3.67775130271912 1.38685858249664 -0.689151585102081
0.651567399501801 0.0899034291505814 0.0943405255675316 0.168722629547119 0.350389271974564 0.516970813274384 0.624882876873016 0.515683114528656 1.24984931945801 0.532998323440552 0.902978718280792 1.01771414279938 0.863637864589691 0.833117127418518 0.739674210548401 0.709534049034119 0.715627372264862 0.713029682636261 0.730251550674438 0.757071673870087 0.766615390777588 0.756053984165192 0.747977733612061 0.799548506736755 0.927053928375244 1.05092203617096 1.17890906333923 1.32678139209747 1.3795028924942 1.40828454494476 1.50207269191742 1.46856987476349 1.43279647827148 1.50063681602478 1.63363921642303 1.86786818504333 2.08035230636597 2.33181166648865 2.61912560462952 2.77752923965454 2.90961098670959 2.99028086662292 3.07834601402283 3.15333032608032 3.20620942115784 3.2389874458313 3.25811052322388 3.20963311195374 3.11710500717163 3.06966853141785 3.1014039516449 3.13177371025085 3.1490478515625 3.14164924621582 3.19496774673462 3.22148036956787 3.25067949295044 3.95679211616516 3.58349847793579 3.36790323257446 3.30334830284119 3.26757431030273 3.23021936416626 3.29775619506836 4.49038934707642 7.06656551361084 6.74421691894531 5.46694326400757 3.61550402641296 3.38861489295959 3.4404571056366 3.75069046020508 4.56919050216675 5.6430549621582 7.12873125076294 7.60400152206421 7.5196704864502 7.50815725326538 7.36323499679565 6.80791330337524 6.37076330184937 5.42326402664185 3.41074299812317 2.6268846988678 3.07288980484009 3.20383977890015 3.2895872592926 3.54276323318481 3.72477197647095 3.75290441513062 3.93403720855713 4.18516111373901 4.5963020324707 4.86322784423828 4.92058658599854 4.86834001541138 4.78399085998535 4.48499441146851 4.01449394226074 3.56376075744629 3.70983099937439 3.6142852306366 3.349036693573 2.65679216384888 2.63657879829407 2.78234696388245 4.00478839874268 5.21355390548706 6.02436017990112 6.7069845199585 8.57360076904297 9.35173511505127 9.28537368774414 9.06934452056885 9.16245365142822 10.1372728347778 11.5459213256836 12.3169937133789 13.6760625839233 14.262303352356 14.6834897994995 15.5256013870239 15.7211904525757 14.4928941726685 13.9410848617554 12.632435798645 10.9725828170776 9.36564159393311 8.48661422729492 7.32744741439819 6.75143909454346 6.74242496490479 7.24678134918213 7.79377269744873 8.08804893493652 7.87985277175903 7.71769332885742 7.62109708786011 7.41625452041626 7.23494148254395 6.92431497573853 6.66058969497681 6.50494289398193 6.64648151397705 6.81920099258423 7.44014549255371 8.34401321411133 8.75237464904785 9.0191707611084 9.54334259033203 9.70657730102539 9.37933540344238 9.89768409729004 10.0489282608032 11.7786684036255 12.7287044525146 9.52809238433838 11.8464879989624 17.784423828125 21.5550117492676 17.0018062591553 13.3394985198975 13.0332050323486 11.1031866073608 9.95350456237793 12.9471864700317 12.8750791549683 9.89086246490479 8.64322662353516 5.65751028060913 -0.16203898191452 -0.867771744728088 -0.603929460048676
1.05308973789215 0.374226957559586 0.296103805303574 0.271925240755081 0.416927456855774 0.537299811840057 0.617124140262604 0.581988513469696 0.577028870582581 0.641767382621765 1.34652876853943 0.820877909660339 0.874442219734192 1.00235819816589 0.92582505941391 0.82317852973938 0.77855384349823 0.770029544830322 0.763176739215851 0.805465459823608 0.811978399753571 0.797223746776581 0.796225249767303 0.845547735691071 0.9677814245224 1.09235596656799 1.22755312919617 1.37464797496796 1.42533338069916 1.45409488677979 1.5621509552002 1.55089509487152 1.60438811779022 1.76196455955505 2.18339157104492 2.41252946853638 2.54665684700012 2.63918519020081 2.8013379573822 2.96158289909363 3.06265902519226 3.1066734790802 3.15280628204346 3.22979378700256 3.28253269195557 3.31987500190735 3.35681176185608 3.34609413146973 3.27411413192749 3.2103271484375 3.20345735549927 3.20197463035583 3.20050835609436 3.20369267463684 3.24877953529358 3.29133439064026 3.33543086051941 5.07874011993408 4.19652128219604 3.79568362236023 3.36553120613098 3.33785223960876 3.30923223495483 3.85236501693726 5.32837772369385 8.33890342712402 7.97732543945312 6.59866905212402 4.56718444824219 3.60265970230103 3.56870460510254 3.89284539222717 4.89811706542969 5.99069547653198 7.78433227539062 8.46374320983887 8.32769012451172 8.23234272003174 8.0737190246582 7.43258953094482 6.84819364547729 5.81496906280518 4.23650074005127 3.24081540107727 3.15734457969666 3.29369521141052 3.43570017814636 3.68194651603699 3.86293148994446 3.8890426158905 4.07460165023804 4.2919774055481 4.71577072143555 4.9937424659729 5.05659008026123 5.00485277175903 4.91593885421753 4.59797048568726 4.12450122833252 3.68342089653015 3.83487772941589 3.73929238319397 3.46785759925842 2.74013304710388 2.71179986000061 2.85697460174561 4.17159509658813 5.42079496383667 6.26173734664917 6.99800968170166 9.33427906036377 10.1078577041626 10.0368347167969 9.74299144744873 9.83425998687744 11.0291719436646 12.0446186065674 12.9547739028931 14.8372058868408 15.4691257476807 15.9399785995483 16.9769954681396 17.1894664764404 15.7420196533203 15.0393409729004 13.6356115341187 11.77476978302 9.81240653991699 8.8939380645752 7.66215181350708 7.03393316268921 6.98356294631958 7.47734355926514 8.16861915588379 8.46548271179199 8.16088962554932 7.89664888381958 7.7883243560791 7.56580686569214 7.37268543243408 7.05953598022461 6.76659107208252 6.64667701721191 6.80884599685669 7.00820827484131 7.64240550994873 8.60860157012939 9.07524013519287 9.38709259033203 9.9021520614624 9.9157018661499 9.50387382507324 11.0357322692871 11.9399194717407 13.2014999389648 13.8088388442993 11.6240062713623 6.28516101837158 7.21957874298096 13.3513832092285 14.5849761962891 13.442364692688 12.4744148254395 10.1573553085327 6.26532030105591 8.49178314208984 8.60038948059082 6.82297039031982 2.62420725822449 -0.517741560935974 -0.578890442848206 -0.656401038169861 -0.317877054214478
1.36596441268921 0.59911322593689 0.425760209560394 0.443286120891571 0.452884078025818 0.555111587047577 0.629343092441559 0.634998798370361 0.714084029197693 0.860813438892365 0.785555064678192 0.767124772071838 0.906683564186096 1.03644371032715 1.01077854633331 0.91145920753479 0.824360907077789 0.808780491352081 0.787773430347443 0.817937433719635 0.848563671112061 0.837001919746399 0.817739605903625 0.883219659328461 1.00706279277802 1.13509452342987 1.26771509647369 1.42640292644501 1.47465479373932 1.50026845932007 1.61402833461761 1.63679420948029 1.86185586452484 2.1687433719635 2.46972966194153 2.64666748046875 2.78580904006958 2.91079258918762 2.98457431793213 3.03459334373474 3.13082599639893 3.17640447616577 3.22508502006531 3.30291604995728 3.35670709609985 3.39434838294983 3.44535326957703 3.45549583435059 3.4097912311554 3.3626115322113 3.31082701683044 3.2982816696167 3.29434514045715 3.28977346420288 3.32941627502441 3.3616144657135 4.1285195350647 6.83231210708618 5.56132173538208 4.63621044158936 3.50953435897827 3.39970135688782 3.37951827049255 4.37502193450928 6.41977548599243 10.2016916275024 9.79293537139893 8.13108921051025 5.53747653961182 3.83724498748779 4.09201812744141 4.2428297996521 5.17609930038452 6.39082670211792 8.54935550689697 9.19049167633057 8.92105388641357 8.91637992858887 8.46685123443604 7.94271183013916 7.43376350402832 6.37748193740845 5.42387628555298 4.68753623962402 3.23419308662415 3.37952208518982 3.56198501586914 3.82160496711731 4.01542043685913 4.04883670806885 4.23946094512939 4.40042161941528 4.84938478469849 5.13443803787231 5.20234155654907 5.15236711502075 5.05301427841187 4.72670555114746 4.23427057266235 3.8076159954071 3.97271633148193 3.87298011779785 3.59493160247803 2.82869672775269 2.78838753700256 2.93479919433594 4.34355592727661 5.64433479309082 6.51750373840332 7.47974061965942 10.2379131317139 11.080114364624 10.9216194152832 10.540114402771 10.6365365982056 12.0056734085083 12.9099073410034 13.9306573867798 16.1736660003662 16.930269241333 17.4328651428223 18.7918128967285 18.9582233428955 17.3696441650391 16.326696395874 14.8146371841431 12.7149724960327 10.3131732940674 9.3533239364624 8.03241062164307 7.31588172912598 7.19869089126587 7.69113445281982 8.53516960144043 8.8420352935791 8.46181583404541 8.10195159912109 7.93620109558105 7.76722145080566 7.56646537780762 7.22032642364502 6.94133424758911 6.79428005218506 6.9848165512085 7.20935964584351 7.87775850296021 8.94182968139648 9.46861362457275 9.81088256835938 10.4577436447144 10.3065338134766 9.53740978240967 9.2225341796875 11.2998600006104 14.6348876953125 14.7907810211182 12.4489393234253 7.89973497390747 4.62775897979736 7.05861663818359 5.92809629440308 6.69383573532104 7.63889646530151 6.51358509063721 3.63427019119263 2.17352509498596 1.70084571838379 2.12793636322021 -0.782936811447144 -0.722661554813385 -0.401610165834427 -0.115679137408733 1.39794421195984
1.63573634624481 0.770586729049683 0.587591171264648 0.522097110748291 0.491005420684814 0.585172355175018 0.649670362472534 0.669789254665375 0.813493549823761 1.01401793956757 0.975237905979156 1.04793465137482 0.957976996898651 1.04114651679993 1.02584683895111 0.92247074842453 0.829950094223022 0.810557544231415 0.790912687778473 0.844387054443359 0.899744272232056 0.867200672626495 0.843814373016357 0.911575257778168 1.04911661148071 1.16965270042419 1.31422865390778 1.47483956813812 1.52827513217926 1.55004274845123 1.66707646846771 1.81054353713989 2.13947534561157 2.35853505134583 2.54620695114136 2.7316586971283 2.86784934997559 2.99742937088013 3.0800940990448 3.12221264839172 3.21124649047852 3.25349998474121 3.30500602722168 3.37231373786926 3.42828464508057 3.47182941436768 3.52768039703369 3.54368019104004 3.52257227897644 3.46467971801758 3.41502451896667 3.39009380340576 3.38037610054016 3.3698878288269 3.40048480033875 3.60148763656616 5.74548053741455 10.4257831573486 7.84999942779541 5.81560468673706 4.08103132247925 3.60571694374084 3.76991820335388 4.9438648223877 8.21578884124756 13.0649147033691 12.4534330368042 10.2942361831665 6.48617839813232 4.51777267456055 4.25174379348755 4.36880588531494 5.43442487716675 6.81998825073242 9.52125453948975 9.93413925170898 9.12068939208984 8.67623519897461 8.46848297119141 7.90242528915405 7.70852994918823 6.86638593673706 5.77689361572266 4.74015331268311 3.28998231887817 3.46879768371582 3.70498156547546 3.97812271118164 4.18115329742432 4.21309089660645 4.41903781890869 4.52851724624634 5.07253265380859 5.28105354309082 5.35723686218262 5.30821943283081 5.20892190933228 4.86562013626099 4.35283422470093 3.93854475021362 4.11033535003662 4.01492500305176 3.73299551010132 2.92233347892761 2.87003684043884 3.01648664474487 4.52983808517456 5.89284324645996 6.80192804336548 8.31236457824707 11.3440046310425 12.2726907730103 11.9754819869995 11.4712963104248 11.5736112594604 12.9460115432739 14.0199527740479 15.7654218673706 17.940544128418 18.6725902557373 20.0983371734619 21.636568069458 21.1177177429199 19.3626384735107 17.8749008178711 16.2068824768066 13.815484046936 10.8700695037842 9.85198593139648 8.40912914276123 7.60155630111694 7.4376974105835 7.89613914489746 8.92882823944092 9.22888469696045 8.79647922515869 8.43904113769531 8.26299667358398 7.99507331848145 7.80304956436157 7.45315647125244 7.18570232391357 7.00166416168213 7.19703912734985 7.46992349624634 8.19253349304199 9.37694072723389 9.92264080047607 10.269232749939 11.0537672042847 10.8299694061279 9.78151988983154 9.29797744750977 8.41324901580811 11.973690032959 19.754415512085 13.8386964797974 8.89724731445312 5.19060325622559 1.46350049972534 0.0825086310505867 -0.151575207710266 -0.419311493635178 -0.0128680765628815 -1.19702017307281 -1.30535173416138 -1.35251975059509 -1.32558393478394 -1.17957901954651 -0.561433851718903 0.17354092001915 1.20946729183197 3.84381318092346
1.91982114315033 0.904738187789917 0.731381297111511 0.549022257328033 0.550491094589233 0.615451812744141 0.681915283203125 0.745567262172699 0.918082535266876 1.06559383869171 1.09836733341217 0.991059243679047 0.963196098804474 1.05787181854248 1.03328192234039 0.931138575077057 0.839890420436859 0.813405990600586 0.812483608722687 0.890357911586761 0.900633096694946 0.906534790992737 0.868359208106995 0.94105738401413 1.08891332149506 1.21997094154358 1.36706817150116 1.52621352672577 1.58788883686066 1.61329364776611 1.73538064956665 1.95975661277771 2.24943280220032 2.43456315994263 2.61645245552063 2.80959558486938 2.94984793663025 3.08035922050476 3.16538238525391 3.21468114852905 3.30703163146973 3.33977246284485 3.38875842094421 3.45455765724182 3.5071849822998 3.55003809928894 3.60879755020142 3.62977480888367 3.61519455909729 3.55791425704956 3.51182103157043 3.4778094291687 3.4593186378479 3.4402322769165 3.7937343120575 3.95485711097717 3.37575936317444 7.80057430267334 9.62064456939697 7.23444795608521 4.71697998046875 4.03571557998657 4.32263231277466 5.59436655044556 10.1111431121826 16.2727718353271 15.0511236190796 12.9583120346069 7.59459590911865 4.36388778686523 4.31032371520996 4.44276285171509 5.63922548294067 7.30629348754883 10.860520362854 10.9803380966187 9.39293479919434 8.75608730316162 8.62514591217041 7.927414894104 7.2007474899292 6.15627288818359 5.42758560180664 2.64435839653015 3.3135621547699 3.56166791915894 3.86342430114746 4.13465118408203 4.35016441345215 4.38770151138306 4.61568689346313 4.65730285644531 5.33281373977661 5.44574022293091 5.51642465591431 5.4666690826416 5.36847400665283 5.01562738418579 4.48830986022949 4.08995866775513 4.25900650024414 4.1548547744751 3.87831234931946 3.02431583404541 2.95403861999512 3.10537600517273 4.73495960235596 6.15684270858765 7.10692834854126 9.33866405487061 12.7568187713623 13.734751701355 13.2598524093628 12.5708246231079 12.6043748855591 13.9707221984863 15.5555982589722 18.2177314758301 20.2992401123047 20.8325252532959 23.6343326568604 25.3983821868896 23.9601020812988 21.871301651001 19.9282341003418 17.8808345794678 15.1221714019775 11.4768905639648 10.3646593093872 8.76520442962646 7.91164779663086 7.70882797241211 8.1492395401001 9.36738681793213 9.66257476806641 9.15156269073486 8.82219123840332 8.61611557006836 8.3549165725708 8.10796546936035 7.79555654525757 7.50961637496948 7.28866958618164 7.51038694381714 7.81815338134766 8.57602882385254 9.89165306091309 10.4592418670654 10.7960453033447 11.6797847747803 11.3106851577759 10.3796195983887 9.75051116943359 8.38894939422607 12.5147924423218 12.5544033050537 13.7944364547729 8.8265380859375 3.68400907516479 -0.775950968265533 -0.81888747215271 -0.85533744096756 -0.979157209396362 -1.09553396701813 -1.16941845417023 -1.20854735374451 -1.19154560565948 -1.11414480209351 -0.972429633140564 0.140453904867172 1.07680642604828 4.22465848922729 6.24175214767456
2.40201592445374 1.10963034629822 0.869800686836243 0.597589373588562 0.604810535907745 0.654099404811859 0.730462491512299 0.880083203315735 0.973739504814148 1.07677459716797 1.10863864421844 1.0608274936676 1.00222277641296 1.07648372650146 1.04696297645569 0.942637383937836 0.847655296325684 0.823037087917328 0.857366740703583 0.910091042518616 1.00784528255463 0.99057924747467 1.2596937417984 0.978849470615387 1.12960684299469 1.26997780799866 1.41727519035339 1.58978366851807 1.65865898132324 1.68336200714111 1.79918825626373 2.07996273040771 2.31368517875671 2.50641775131226 2.69463872909546 2.89280271530151 3.0352463722229 3.16437697410583 3.24330806732178 3.29783225059509 3.38256168365479 3.40870904922485 3.4569091796875 3.53481078147888 3.58425831794739 3.62756562232971 3.68947815895081 3.71095132827759 3.69650769233704 3.64860224723816 3.58143901824951 3.54958772659302 3.52583646774292 3.50935482978821 4.31538867950439 4.46944570541382 3.4173595905304 3.20554280281067 4.58510112762451 9.35111045837402 5.99243211746216 4.87655687332153 5.15581321716309 6.28520154953003 12.0529766082764 19.423152923584 15.9994659423828 15.4501695632935 9.36817264556885 4.48248100280762 4.34697008132935 4.88682270050049 5.83081912994385 7.84060335159302 12.3516283035278 12.1881875991821 10.0997438430786 9.04273223876953 9.07566928863525 8.25779342651367 7.35723066329956 6.1663818359375 3.09672594070435 2.68297219276428 3.45499563217163 3.65508103370667 4.03242969512939 4.31742000579834 4.54540872573853 4.59677314758301 4.83553171157837 4.87665033340454 5.63379669189453 5.62405586242676 5.6899094581604 5.64905500411987 5.53552913665771 5.16414356231689 4.62160205841064 4.2566065788269 4.42803812026978 4.31446218490601 4.02597618103027 3.13619351387024 3.04604363441467 3.20108890533447 4.95270013809204 6.43751764297485 7.43068790435791 10.6291017532349 14.7920389175415 15.5914688110352 15.0089092254639 13.7534341812134 13.8433275222778 15.4064245223999 17.5283050537109 20.9068393707275 23.3744983673096 24.3724021911621 28.517915725708 30.5407867431641 27.9794616699219 25.024206161499 22.4575080871582 19.9356327056885 16.7887229919434 12.0921249389648 10.9015226364136 9.18076515197754 8.31112766265869 8.05066871643066 8.42809963226318 9.9248571395874 10.191463470459 9.57967281341553 9.2457914352417 9.0343656539917 8.79251480102539 8.53575038909912 8.10495185852051 7.85648679733276 7.62169408798218 7.88307523727417 8.22189521789551 9.0537691116333 10.5034799575806 11.102198600769 11.4577159881592 12.6347513198853 12.0197620391846 11.098560333252 10.3986520767212 8.72187995910645 13.8820123672485 8.61379718780518 7.69637584686279 7.48675203323364 0.741607844829559 -0.754465401172638 -0.785592496395111 -0.769320249557495 -0.830722868442535 -0.883685350418091 -0.90748929977417 -0.853370487689972 -0.80154687166214 -0.713658571243286 -0.202729672193527 1.13109624385834 1.6341518163681 7.51532602310181 9.32218074798584
2.80640482902527 1.33364045619965 0.941349864006042 0.621624827384949 0.628036320209503 0.681339085102081 0.754395008087158 0.907981872558594 0.992346227169037 1.09391891956329 1.14505410194397 1.09724974632263 1.02762889862061 1.10026407241821 1.06698155403137 0.954206228256226 0.850578486919403 0.881649792194366 0.919535458087921 0.941099464893341 1.28863942623138 0.958863198757172 0.995249688625336 1.76118314266205 2.2377564907074 2.00628542900085 2.86379241943359 2.2607524394989 1.71318066120148 1.72124671936035 1.83682680130005 2.1206316947937 2.36593866348267 2.56161141395569 2.74958777427673 2.95123028755188 3.10446310043335 3.22842264175415 3.30527377128601 3.36226081848145 3.45084285736084 3.48069000244141 3.52528858184814 3.6083710193634 3.65925025939941 3.70413208007812 3.77281546592712 3.79145193099976 3.77108073234558 3.71251201629639 3.6538999080658 3.61420893669128 3.58887434005737 3.87404727935791 4.98667621612549 4.83251905441284 3.42724704742432 3.94119787216187 3.33337020874023 3.37409710884094 5.38277101516724 6.14960622787476 6.1465950012207 6.74467086791992 5.46279668807983 2.98959851264954 6.07939147949219 3.42061233520508 6.24806976318359 5.24614763259888 4.34824895858765 4.50068807601929 6.08865547180176 8.52940845489502 14.4818325042725 12.3708009719849 9.54580783843994 9.35940551757812 9.45104503631592 8.64364337921143 7.75316715240479 6.47643899917603 2.98686242103577 2.77906227111816 3.58464097976685 3.78341722488403 4.23421096801758 4.54246711730957 4.76819849014282 4.82739877700806 5.07760286331177 5.12847185134888 5.95993423461914 5.91362237930298 5.87973785400391 5.84168195724487 5.71221590042114 5.32499551773071 4.75857830047607 4.42221355438232 4.61677503585815 4.50182580947876 4.20748710632324 3.25472187995911 3.14307618141174 3.303795337677 5.18913650512695 6.76325988769531 7.79065752029419 12.3382358551025 17.3652191162109 17.7437858581543 16.6216926574707 14.5435276031494 14.7421131134033 16.5510787963867 19.3140087127686 23.870044708252 26.8504753112793 29.2084789276123 35.0373191833496 37.3306541442871 34.4863586425781 29.1998710632324 25.6835479736328 22.5953063964844 18.7902851104736 12.8514595031738 11.463418006897 9.62244987487793 8.78976726531982 8.49570465087891 8.73408603668213 10.5978298187256 10.9180040359497 10.2029762268066 9.80089092254639 9.51619148254395 9.25158786773682 8.98930072784424 8.44171714782715 8.16694259643555 7.96854305267334 8.26599311828613 8.67816734313965 9.60207557678223 11.2425737380981 11.8512344360352 12.2160587310791 13.930871963501 13.1637516021729 12.0253114700317 11.2388181686401 9.62409687042236 4.65815782546997 4.15435218811035 5.56412744522095 2.06335473060608 -0.735922455787659 -0.714308500289917 -0.694396317005157 -0.588569581508636 -0.552521586418152 -0.516694784164429 -0.497351318597794 -0.447252810001373 -0.418045490980148 -0.384147346019745 0.812091529369354 1.81354701519012 2.14160513877869 7.36024618148804 11.9486665725708
3.26344132423401 1.59379589557648 1.11171960830688 0.660841584205627 0.647298872470856 0.708671629428864 0.784300625324249 0.936426639556885 1.02234041690826 1.1308182477951 1.18598759174347 1.10216403007507 1.0674010515213 1.13501727581024 1.09333860874176 0.96233206987381 0.854753971099854 0.943350553512573 0.932488918304443 0.959448039531708 1.08204650878906 1.07621562480927 1.07347083091736 1.01737701892853 1.21827125549316 1.37920105457306 1.51689004898071 1.69314157962799 1.75677275657654 1.77546322345734 1.8878870010376 2.15835547447205 2.40429306030273 2.60393905639648 2.80180597305298 3.00890421867371 3.16243934631348 3.29404425621033 3.3730833530426 3.4320216178894 3.52176547050476 3.5580940246582 3.60390138626099 3.68015456199646 3.73680543899536 3.77922749519348 3.85171723365784 3.8712170124054 3.83989191055298 3.75666761398315 3.70038414001465 3.67367362976074 3.62012314796448 4.71445608139038 6.07223272323608 5.44513988494873 3.439453125 3.28237962722778 3.41368675231934 3.43658208847046 3.42104482650757 5.21081733703613 5.67634010314941 7.02200508117676 3.2334611415863 2.99354863166809 3.04417204856873 3.45411515235901 3.55331945419312 4.0550708770752 4.40227508544922 4.52024745941162 6.34106063842773 8.10229110717773 12.0178670883179 11.3406410217285 10.1523962020874 10.5543851852417 10.6165075302124 9.40861892700195 8.12052631378174 6.98152923583984 3.66736674308777 2.85690951347351 3.68601441383362 3.97163534164429 4.43503713607788 4.76641273498535 5.00358295440674 5.07907915115356 5.3501992225647 5.40882349014282 6.32633686065674 6.25877952575684 6.08742332458496 6.04375171661377 5.89838266372681 5.4996280670166 4.90334415435791 4.60378742218018 4.80398416519165 4.6897406578064 4.39276266098022 3.37972354888916 3.24385070800781 3.41208028793335 5.45381450653076 7.1222095489502 8.34399032592773 14.3861503601074 19.3342723846436 19.0436038970947 17.5417823791504 14.8528089523315 15.3303575515747 17.6322574615479 22.0314559936523 27.5649166107178 30.4442119598389 33.6741523742676 45.1094627380371 49.5954360961914 45.0734519958496 34.5744705200195 29.6364192962646 25.9993057250977 21.2572326660156 13.801513671875 12.0981607437134 10.0781993865967 9.30840969085693 8.99704551696777 9.24102020263672 11.4937191009521 11.8138694763184 10.9645051956177 10.48619556427 10.0717058181763 9.78457260131836 9.35830020904541 8.68544960021973 8.27041053771973 8.1414852142334 8.65529823303223 9.0864429473877 10.1862735748291 12.0902452468872 12.6187181472778 13.2841663360596 15.7236099243164 14.7380561828613 13.2908782958984 11.7269887924194 9.06099891662598 6.03861045837402 4.19591808319092 0.761002242565155 -0.857088804244995 -0.709204435348511 -0.644618451595306 -0.514355361461639 -0.303650856018066 -0.186746880412102 -0.147950023412704 -0.135995969176292 -0.162846237421036 -0.204797849059105 0.539140999317169 1.71666860580444 2.22710394859314 2.10727381706238 0.486625611782074 -0.272190600633621
2.85914587974548 1.98089408874512 1.35967636108398 0.806026637554169 0.662780821323395 0.736451923847198 0.813902676105499 0.95790684223175 1.05073416233063 1.17487597465515 1.22958934307098 1.16792166233063 1.10134470462799 1.1698215007782 1.1206841468811 0.976284325122833 0.861381530761719 0.947301864624023 1.01921629905701 1.03209722042084 1.00039124488831 0.961003839969635 1.10767769813538 1.01906490325928 1.22567713260651 1.39395177364349 1.54985725879669 1.73201286792755 1.81352913379669 1.83159101009369 1.94269967079163 2.20243549346924 2.4518563747406 2.65204834938049 2.85839200019836 3.07013821601868 3.22720265388489 3.36063146591187 3.44104480743408 3.49844336509705 3.58995842933655 3.62619543075562 3.68183994293213 3.75381731987 3.81086897850037 3.85145616531372 3.92615604400635 3.94767284393311 3.91282391548157 3.82339715957642 3.76234602928162 3.7247154712677 3.66376805305481 6.81809520721436 8.53699684143066 6.34469509124756 3.51511073112488 3.39212799072266 3.45130372047424 3.47321939468384 3.44074606895447 3.42497515678406 3.38375568389893 3.32146191596985 3.28770637512207 3.20239758491516 3.21589541435242 3.55242586135864 3.60157084465027 4.09911155700684 4.41547632217407 4.55620956420898 6.78197717666626 8.49662017822266 8.23264503479004 9.65698432922363 11.7278108596802 12.550407409668 12.4089317321777 11.0590581893921 8.4441089630127 7.16069030761719 4.28006839752197 3.42463660240173 3.79573512077332 4.17930698394775 4.6573314666748 5.0076699256897 5.26206254959106 5.34935092926025 5.66249942779541 5.72361612319946 6.74334859848022 6.64373207092285 6.30927276611328 6.25598859786987 6.09914207458496 5.69119453430176 5.06489133834839 4.80404853820801 5.00210857391357 4.89103603363037 4.58414793014526 3.50154304504395 3.34329628944397 3.55331826210022 5.75557422637939 7.55195140838623 10.3451051712036 15.8104190826416 21.166690826416 20.9328498840332 18.0359001159668 15.3764657974243 15.8042573928833 17.7912940979004 20.8249855041504 27.2884922027588 32.1965942382812 35.2132606506348 36.1820220947266 40.6874618530273 38.4068260192871 33.4413566589355 33.1944160461426 29.4372100830078 24.1018142700195 15.195426940918 12.7913570404053 10.7525968551636 9.93375968933105 9.55817604064941 10.2562189102173 12.8143482208252 12.9520502090454 11.8638563156128 11.355860710144 10.8010358810425 10.3749542236328 9.89172554016113 8.97729015350342 8.50306701660156 8.37283515930176 8.94511127471924 9.53850650787354 10.6250381469727 12.921236038208 13.6087942123413 14.7715196609497 17.8081207275391 16.6330909729004 15.3045787811279 12.3963050842285 9.71241569519043 7.04268646240234 1.51381862163544 -0.866642355918884 -0.794564366340637 -0.611114859580994 -0.447823822498322 -0.205055713653564 0.0112197240814567 0.0547667741775513 0.0738359689712524 0.295462250709534 0.112304978072643 -0.135528907179832 1.48591589927673 2.71224856376648 3.00258612632751 3.05776977539062 1.07025551795959 -0.0518970042467117
0.289529263973236 1.6490079164505 1.63292920589447 1.03028106689453 0.684235394001007 0.768168091773987 0.84834349155426 0.980048000812531 1.08203637599945 1.22113513946533 1.27139461040497 1.21619522571564 1.13367140293121 1.20580661296844 1.15445852279663 1.0001482963562 0.866586208343506 0.974014103412628 1.30947434902191 1.06135368347168 1.08988475799561 1.03624260425568 0.994147300720215 1.03868961334229 1.24016928672791 1.43179619312286 1.59174787998199 1.78087866306305 1.8695113658905 1.88815081119537 1.99909162521362 2.24438214302063 2.49281334877014 2.69305777549744 2.91032934188843 3.12443947792053 3.28440189361572 3.42024731636047 3.50115776062012 3.56262683868408 3.65240955352783 3.6853814125061 3.74933505058289 3.82669258117676 3.87903499603271 3.92368984222412 3.99895286560059 4.02201414108276 3.99783253669739 3.94158792495728 3.8858904838562 3.83217120170593 3.68585777282715 3.53491473197937 5.3516001701355 9.11538696289062 4.01286888122559 3.45688915252686 3.50024390220642 3.50999331474304 3.47708177566528 3.44886541366577 3.41928052902222 3.39691615104675 3.46331644058228 3.52750778198242 3.55962586402893 3.70747804641724 3.67210483551025 4.14125394821167 4.45426321029663 4.60734558105469 7.43860578536987 9.0073356628418 7.32701587677002 6.59598922729492 10.3725118637085 14.2089080810547 14.4015607833862 13.5541276931763 9.74371433258057 7.61158466339111 4.26646995544434 3.78345656394958 3.91046166419983 4.41369390487671 4.91452217102051 5.27856779098511 5.55161619186401 5.65718650817871 6.01084184646606 6.07526540756226 7.21825265884399 7.08150100708008 6.71991443634033 6.48713302612305 6.32172441482544 5.89479398727417 5.24241065979004 5.0355486869812 5.22860336303711 5.12230634689331 4.79583883285522 3.64442110061646 3.44927263259888 3.74696397781372 6.07980012893677 8.18241786956787 12.298041343689 16.795747756958 22.0989074707031 20.7292995452881 16.4588069915771 16.0679454803467 15.7334089279175 18.0817699432373 20.4444885253906 27.567943572998 31.6519470214844 22.8859786987305 17.4429721832275 18.5046367645264 29.6807136535645 36.3804206848145 36.4463081359863 32.470344543457 26.8245754241943 16.6466884613037 13.756175994873 11.6822080612183 10.7514200210571 10.2210216522217 11.4823303222656 14.4368715286255 14.3462610244751 12.9392518997192 12.3601865768433 11.6803112030029 11.0520391464233 10.4973459243774 9.6686954498291 9.0062952041626 8.8498649597168 9.34798431396484 9.88707542419434 11.1550674438477 13.6959972381592 14.6453943252563 16.2749557495117 20.404483795166 20.2780418395996 17.9946632385254 13.3434562683105 9.79814147949219 5.0355429649353 -0.725505530834198 -0.801911354064941 -0.741734027862549 -0.519260346889496 -0.249086976051331 0.0280897337943316 0.196434810757637 0.181640759110451 0.164386495947838 0.547819137573242 0.270769447088242 -0.00474356627091765 3.15418767929077 4.34589195251465 3.72076559066772 4.30911016464233 1.26625835895538 0.376641243696213
0.236617043614388 0.888809502124786 1.97367644309998 1.39795327186584 0.878515481948853 0.798189699649811 0.875892758369446 1.00724148750305 1.11359596252441 1.27417290210724 1.30989396572113 1.24774074554443 1.167311668396 1.23939979076385 1.18705010414124 1.02180480957031 0.875008463859558 0.829470992088318 0.91974937915802 1.15803742408752 1.23541021347046 1.03851926326752 0.998741805553436 1.02266001701355 1.24914109706879 1.46157681941986 1.62548315525055 1.83295893669128 1.91389405727386 1.95122337341309 2.05221891403198 2.28585767745972 2.53339552879333 2.73739361763 2.96239995956421 3.18185687065125 3.3434009552002 3.48396253585815 3.56703853607178 3.63420820236206 3.72546792030334 3.75370192527771 3.81088662147522 3.89388108253479 3.94553422927856 3.99376463890076 4.07513523101807 4.10062265396118 4.09381008148193 4.05330896377563 4.01441240310669 3.95786905288696 3.77326107025146 3.54935050010681 3.40912389755249 3.3841404914856 3.53959345817566 3.53541922569275 3.61545419692993 3.59589171409607 3.55082535743713 3.53133010864258 3.5076425075531 3.60463738441467 3.72863030433655 3.82276678085327 3.87983918190002 3.97393798828125 3.84559512138367 4.19739484786987 4.53257036209106 4.64061546325684 7.02437782287598 6.8074688911438 4.96972131729126 5.20699644088745 6.93270587921143 9.29239559173584 13.7163343429565 13.017333984375 10.3170146942139 8.78023433685303 3.6459641456604 3.51710438728333 3.94945049285889 4.65762424468994 5.20210409164429 5.58081817626953 5.86457109451294 6.01037740707397 6.40591526031494 6.51607751846313 7.76384735107422 7.58080005645752 7.19783306121826 6.86791706085205 6.55986452102661 6.11676597595215 5.43215370178223 5.28983211517334 5.48975610733032 5.38972139358521 5.04524898529053 3.80740666389465 3.57835173606873 4.00576496124268 6.43788146972656 9.21728992462158 11.8313083648682 18.2050113677979 21.6773738861084 16.3801383972168 14.4061737060547 13.895432472229 13.6142082214355 19.2906246185303 23.1161994934082 18.4774856567383 20.3948440551758 21.840970993042 17.6258163452148 21.9365234375 22.7824783325195 33.7905502319336 45.9156341552734 39.7842292785645 30.8930149078369 18.0553188323975 14.837254524231 12.4342470169067 11.5625896453857 10.9399757385254 13.0231475830078 16.5620956420898 16.0665225982666 14.4043712615967 13.4398403167725 12.5786533355713 11.8153343200684 11.2755565643311 10.3981504440308 9.69441604614258 9.66038799285889 10.1645421981812 10.3058023452759 11.5606994628906 14.3895235061646 15.6651000976562 18.6350231170654 24.4868946075439 22.5364437103271 18.4425792694092 13.5148096084595 7.47880220413208 2.19428586959839 -0.691009700298309 -0.675094664096832 -0.588354468345642 -0.360628545284271 -0.0864228159189224 0.40709975361824 0.272590786218643 0.231612905859947 0.213010758161545 0.707437753677368 0.434101134538651 0.0599573291838169 0.0416948832571507 1.21097958087921 2.10489892959595 1.66995143890381 1.28151524066925 0.761578917503357
0.276804208755493 0.423153400421143 1.78285503387451 1.81709516048431 1.18321216106415 0.823371708393097 0.905023753643036 1.03569972515106 1.14316201210022 1.31980133056641 1.35265064239502 1.2852623462677 1.19869387149811 1.26834762096405 1.20819926261902 1.03976118564606 0.887277781963348 0.835930287837982 0.946687340736389 1.08229231834412 1.43152821063995 1.16988980770111 1.02294433116913 1.03061056137085 1.26630663871765 1.48769056797028 1.67145812511444 1.88017344474792 1.9712860584259 2.00411701202393 2.10557532310486 2.32897615432739 2.58650517463684 2.79357767105103 3.0220308303833 3.25003337860107 3.41574144363403 3.55883145332336 3.63352918624878 3.70468592643738 3.79960513114929 3.82879304885864 3.88615202903748 3.9648609161377 4.01709365844727 4.06606006622314 4.15648984909058 4.18226051330566 4.18268299102783 4.14959049224854 4.1175651550293 4.06607294082642 3.87558078765869 3.67476963996887 3.42233443260193 3.40743041038513 3.53524136543274 3.63819241523743 3.75120806694031 3.72072315216064 3.64497256278992 3.61289048194885 3.61031293869019 3.78522801399231 3.95954775810242 4.06074476242065 4.12718963623047 4.17127132415771 4.03314733505249 4.3945517539978 4.63539361953735 4.6422905921936 7.04707908630371 6.53925848007202 5.2365837097168 5.05855846405029 4.3484320640564 4.92928028106689 6.87648439407349 7.09157657623291 8.73070621490479 7.98141479492188 3.6485059261322 3.53924083709717 4.00936937332153 4.94421911239624 5.5279746055603 5.92755651473999 6.22285079956055 6.4106297492981 6.85112285614014 7.0530743598938 8.39835166931152 8.15128326416016 7.7490029335022 7.40794467926025 6.82088232040405 6.36357831954956 5.63877201080322 5.57793569564819 5.77273225784302 5.68397426605225 5.31835699081421 3.9788179397583 3.71599054336548 4.28947114944458 6.735267162323 8.5887565612793 8.96762847900391 18.6426753997803 12.4154853820801 18.575611114502 16.8624877929688 14.142614364624 12.6640815734863 14.0766839981079 15.4395847320557 12.3878870010376 17.3207149505615 20.2927398681641 18.0154933929443 11.1294393539429 9.92312812805176 15.836615562439 27.6539669036865 43.260440826416 37.024772644043 19.9634761810303 16.0722026824951 13.6245536804199 12.329873085022 12.2045269012451 15.1577672958374 18.9847793579102 17.8177280426025 15.7683782577515 14.366605758667 13.4177799224854 12.6296691894531 12.1081943511963 11.3604345321655 10.8240833282471 10.3194398880005 10.6806793212891 10.8213472366333 12.3006038665771 15.7464942932129 17.8078460693359 20.9250926971436 24.0932292938232 17.1061096191406 14.5915012359619 12.4863958358765 6.66957998275757 0.434637576341629 -0.647195041179657 -0.517530560493469 -0.331826001405716 -0.111300528049469 0.374179750680923 0.935577630996704 0.34537798166275 0.259076654911041 0.32108536362648 0.845549404621124 0.589036643505096 0.29754313826561 0.312987387180328 1.28450036048889 2.35602712631226 2.12848210334778 1.60069930553436 1.29650378227234
0.316020429134369 0.424078106880188 0.546948909759521 1.47808015346527 1.42441558837891 0.871114373207092 0.937112092971802 1.06965339183807 1.17548716068268 1.36573886871338 1.40054512023926 1.31760728359222 1.23185408115387 1.29125118255615 1.23200607299805 1.06004583835602 0.908537268638611 0.847900152206421 0.824815988540649 0.903047621250153 0.957461774349213 1.04017603397369 1.00325965881348 1.05765283107758 1.30606174468994 1.51281106472015 1.70730841159821 1.92435562610626 2.02714776992798 2.05817103385925 2.17483258247375 2.37767672538757 2.64438939094543 2.85488224029541 3.09293460845947 3.31906318664551 3.48191809654236 3.62521147727966 3.70099210739136 3.76439499855042 3.86249566078186 3.89124011993408 3.95828342437744 4.03714466094971 4.08493280410767 4.1402473449707 4.23902225494385 4.26985120773315 4.26609086990356 4.24027490615845 4.20954990386963 4.16128349304199 4.02088260650635 3.86050152778625 3.71173715591431 3.64625334739685 3.72056746482849 3.79949545860291 3.91889309883118 3.88385438919067 3.78383541107178 3.7261335849762 3.75447630882263 3.98698544502258 4.1623272895813 4.25675678253174 4.31863975524902 4.34226131439209 4.17744970321655 4.54377937316895 4.72578954696655 4.65832233428955 7.98393821716309 5.88879299163818 5.60802173614502 5.66495037078857 4.68026304244995 4.26115846633911 3.92994046211243 6.059157371521 9.75896644592285 11.1745414733887 3.69988465309143 3.5986213684082 4.14358568191528 5.26929330825806 5.89180421829224 6.30738115310669 6.63684129714966 6.86777877807617 7.37652111053467 7.6779580116272 9.14930725097656 8.81919288635254 8.39030647277832 8.01797962188721 7.10721111297607 6.62256526947021 5.85838174819946 5.90521907806396 6.08027267456055 6.00654983520508 5.6234884262085 4.17527961730957 3.85877561569214 4.61402320861816 7.05657052993774 7.92099714279175 9.73725891113281 7.17800664901733 6.18438482284546 10.1512403488159 18.1337623596191 15.3933238983154 12.7018432617188 8.70784759521484 7.05868816375732 7.33339881896973 5.48108100891113 14.3927946090698 11.2357692718506 7.43816232681274 8.47753810882568 11.6816787719727 17.6176528930664 21.1257591247559 39.5519561767578 24.3855113983154 17.6753940582275 15.0704412460327 13.0691690444946 13.8419418334961 17.2442054748535 21.9335689544678 19.6413192749023 16.7807083129883 15.1645221710205 14.2609901428223 13.1984968185425 12.7248277664185 12.0765676498413 11.6103162765503 10.9857292175293 11.2067356109619 11.6908226013184 14.145037651062 17.3437271118164 19.2248592376709 17.7622261047363 11.2480688095093 12.6099910736084 8.75767135620117 3.30579924583435 1.330491065979 0.713854432106018 -0.576266407966614 -0.394878149032593 -0.162068396806717 0.315051972866058 1.04899072647095 1.39293193817139 0.529664158821106 0.280961453914642 0.432574987411499 1.06300723552704 0.751150250434875 0.773485600948334 1.19909679889679 2.39804887771606 3.74000859260559 3.97442030906677 3.69842004776001 2.59751582145691
0.378418862819672 0.462807267904282 0.55976676940918 0.629238784313202 1.50706148147583 1.15650129318237 0.971376419067383 1.10617625713348 1.20782935619354 1.41154360771179 1.43999314308167 1.34876155853271 1.26431930065155 1.31991302967072 1.25135576725006 1.07572841644287 0.91669100522995 0.856123268604279 0.833395838737488 0.906704008579254 0.96055543422699 1.04100131988525 1.00853145122528 1.08327913284302 1.34631609916687 1.5260237455368 1.72503519058228 1.97031712532043 2.0800666809082 2.12794995307922 2.24517273902893 2.42886853218079 2.70498561859131 2.91780877113342 3.16947960853577 3.39435434341431 3.542813539505 3.69220662117004 3.76805782318115 3.82429051399231 3.91360878944397 3.94298052787781 4.01697969436646 4.10447978973389 4.15131044387817 4.20163536071777 4.30967330932617 4.35720014572144 4.52145767211914 4.32915067672729 4.29710483551025 4.26889133453369 4.16333866119385 4.05587577819824 3.92209815979004 3.84121775627136 3.88756132125854 3.95745658874512 4.08825254440308 4.06800508499146 3.97174048423767 3.9409294128418 3.97922277450562 4.15063285827637 4.30484437942505 4.41247177124023 4.503258228302 4.51634168624878 4.34822034835815 4.6700119972229 4.82266616821289 4.6935830116272 5.72065019607544 3.96184206008911 3.67551422119141 3.50995182991028 3.43308568000793 4.03430557250977 4.48950672149658 7.25848388671875 10.182183265686 8.59913444519043 3.68635582923889 3.67701768875122 4.28873825073242 5.63611555099487 6.31174039840698 6.77154493331909 7.11862421035767 7.38720273971558 7.97976732254028 8.43367195129395 10.0433835983276 9.60612773895264 9.14130878448486 8.74653148651123 7.67346858978271 6.91645574569702 6.10927963256836 6.27180242538452 6.46026372909546 6.38132619857788 5.96796321868896 4.39838933944702 4.00291395187378 4.98409032821655 7.53635215759277 8.15618133544922 8.13002872467041 7.99695920944214 6.4398775100708 5.61291170120239 7.64995384216309 14.6026048660278 14.2625560760498 9.46626758575439 7.67022943496704 6.44158029556274 5.52270793914795 5.03551912307739 5.59464406967163 5.55521678924561 5.12667846679688 6.10046195983887 6.6984395980835 12.2746706008911 15.6591291427612 23.680196762085 19.2868537902832 16.6133003234863 13.6928682327271 11.1104078292847 16.0016613006592 24.1292819976807 22.3295269012451 18.3178672790527 16.1911506652832 15.5619344711304 13.8952465057373 13.3573770523071 12.4824371337891 12.0115423202515 11.9793109893799 12.7704906463623 13.2105121612549 12.8747282028198 18.4864177703857 20.0800075531006 12.6931982040405 7.78800964355469 1.26537358760834 0.0817482024431229 -0.162790283560753 1.75584697723389 1.70600473880768 0.59109091758728 0.0226898863911629 0.0763536617159843 1.05562746524811 1.86784827709198 1.81116795539856 0.679553747177124 0.302921384572983 0.564604163169861 1.302889585495 0.933068215847015 1.36287105083466 2.5794050693512 4.58905935287476 6.54278039932251 6.49488925933838 6.36801195144653 4.75923728942871
0.463153630495071 0.526378333568573 0.597989618778229 0.633543133735657 0.838250279426575 1.20464050769806 0.994482159614563 1.1344438791275 1.24336433410645 1.4540753364563 1.48446667194366 1.39037191867828 1.28872966766357 1.37070453166962 1.2730325460434 1.08971476554871 0.933498859405518 0.876215279102325 0.845385670661926 0.921080589294434 0.979388833045959 1.04852771759033 1.01798689365387 1.12310194969177 1.41047012805939 1.58911836147308 1.7543717622757 2.01118040084839 2.14152336120605 2.19679164886475 2.30628108978271 2.47996163368225 2.75888776779175 2.98489308357239 3.24365186691284 3.4735996723175 3.61878228187561 3.76154398918152 3.83402228355408 3.89925312995911 3.98463678359985 4.19701862335205 4.07077598571777 4.41168403625488 4.36733388900757 4.23635721206665 4.39016056060791 4.59678268432617 4.89416980743408 4.4266300201416 4.4009108543396 4.36556386947632 4.27525424957275 4.18652105331421 4.13604116439819 4.03812122344971 4.0470232963562 4.09591341018677 4.21165323257446 4.21575975418091 4.14554643630981 4.15570783615112 4.1877703666687 4.2954363822937 4.45701503753662 4.57738065719604 4.6923656463623 4.73618841171265 4.56493282318115 4.78854703903198 4.92995595932007 4.75021457672119 4.26496362686157 3.99120855331421 3.81689047813416 3.68043446540833 3.5807900428772 3.48226809501648 3.43684506416321 3.37140107154846 3.40424466133118 3.52736592292786 3.82583618164062 3.8818895816803 4.71972894668579 6.06945562362671 6.79009580612183 7.30013132095337 7.70063161849976 7.98881530761719 8.6948938369751 9.34167766571045 11.1175518035889 10.5903434753418 10.029613494873 9.60340309143066 8.43814945220947 7.23067998886108 6.51874113082886 6.68694639205933 6.88161897659302 6.79716157913208 6.34677171707153 4.65116596221924 4.18757057189941 5.41178131103516 7.99848413467407 9.05116081237793 8.94011211395264 8.64156246185303 7.65158748626709 6.19296264648438 6.79819250106812 8.68419742584229 9.17718124389648 9.7396068572998 9.52348613739014 9.54534149169922 8.80669975280762 5.77249526977539 5.81982278823853 6.07386541366577 5.91568517684937 6.76997232437134 7.72946643829346 7.96510648727417 8.40887928009033 15.7725715637207 18.0729694366455 17.8116321563721 14.2615041732788 10.9212732315063 13.6025943756104 25.1673374176025 24.8931083679199 20.6535301208496 18.3224773406982 17.5740604400635 15.1151933670044 14.5977697372437 12.9762468338013 13.1051559448242 13.6668691635132 15.7766189575195 13.9813833236694 13.9768295288086 18.9427680969238 13.8481483459473 11.1006345748901 0.200568303465843 0.571613252162933 0.277353197336197 1.77257871627808 2.63955640792847 0.989568710327148 0.195506572723389 0.628488779067993 0.597173690795898 2.08151960372925 2.72522377967834 2.37272906303406 0.913845539093018 0.317603677511215 0.711350440979004 1.60830104351044 1.18687152862549 2.20762610435486 4.34082126617432 7.21694374084473 9.30996227264404 9.52308750152588 8.97861003875732 7.20142793655396
0.57327538728714 0.611928820610046 0.651777148246765 0.65898460149765 0.691660404205322 0.846652925014496 1.00465881824493 1.16480803489685 1.27278983592987 1.51032590866089 1.53961956501007 1.436394572258 1.32052373886108 1.41538965702057 1.2945054769516 1.10896635055542 0.948941111564636 0.892439067363739 0.86504203081131 0.944017946720123 0.99197119474411 1.07492530345917 1.03717255592346 1.1625314950943 1.46607899665833 1.67114186286926 1.83244752883911 2.04139518737793 2.18172383308411 2.26079535484314 2.36635565757751 2.53036451339722 2.81374621391296 3.0513482093811 3.31935334205627 3.5538318157196 3.70534443855286 3.84721660614014 3.9074125289917 3.97062826156616 4.00512838363647 4.00720310211182 4.07893848419189 5.11188983917236 4.87590599060059 4.33944749832153 4.53412246704102 4.98022556304932 5.37523698806763 4.67233324050903 4.49479103088379 4.47770595550537 4.38944339752197 4.33565044403076 4.30806303024292 4.24062871932983 4.23465824127197 4.28551197052002 4.37330770492554 4.35525417327881 4.30559349060059 4.34009790420532 4.3772087097168 4.45701169967651 4.62464332580566 4.76001071929932 4.88479804992676 4.95702123641968 4.76595067977905 4.9053840637207 5.03582286834717 4.8725209236145 4.41281795501709 4.17143821716309 4.09206008911133 3.90820598602295 3.79037308692932 3.72830677032471 3.63345170021057 3.53911161422729 3.61377596855164 3.73547911643982 4.11586618423462 4.17761945724487 5.33779525756836 6.55628824234009 7.35278129577637 7.95613765716553 8.38175392150879 8.70471096038818 9.54331970214844 10.4713516235352 12.454008102417 11.8600740432739 11.1144914627075 10.6496849060059 9.35244178771973 7.90898084640503 7.00562524795532 7.15915441513062 7.3626914024353 7.26943826675415 6.79627895355225 4.9485969543457 4.37775707244873 6.88483238220215 9.19806957244873 9.87374401092529 11.9385919570923 10.1162872314453 8.64796733856201 7.64539527893066 7.78286504745483 9.6566743850708 9.94834995269775 10.1637773513794 10.6928043365479 12.0477180480957 11.7054672241211 7.00739574432373 6.72816228866577 7.64032363891602 8.81674098968506 9.09598636627197 9.68562698364258 10.4821748733521 9.86286735534668 14.5054960250854 16.8984870910645 13.7209501266479 13.7244567871094 11.2260303497314 9.04940319061279 11.0953998565674 19.4351692199707 21.7488021850586 21.0835762023926 19.4078197479248 16.7690601348877 16.6521701812744 15.0187549591064 13.7530717849731 11.3782863616943 11.9856634140015 10.5500679016113 10.9341688156128 8.95172023773193 8.78038024902344 0.216242760419846 0.459175586700439 1.19146132469177 0.564524173736572 -0.789411842823029 -0.817312896251678 -0.746284365653992 -0.580634236335754 -0.337799042463303 0.884930908679962 3.45008754730225 3.97372245788574 2.98819351196289 1.20692765712738 0.329501569271088 0.886061728000641 1.92439496517181 1.56547212600708 3.91023898124695 6.58419370651245 10.4741611480713 12.8706254959106 14.1682968139648 13.1252393722534 10.1078996658325
0.701585590839386 0.721768200397491 0.723035454750061 0.710456490516663 0.724430680274963 0.863037526607513 1.0176876783371 1.18794643878937 1.30773627758026 1.55429339408875 1.58197438716888 1.47134435176849 1.35790109634399 1.45777595043182 1.33698129653931 1.1290271282196 0.961870968341827 0.905346512794495 0.885116994380951 0.965930461883545 1.0121294260025 1.09059178829193 1.06413042545319 1.19483065605164 1.53120970726013 1.7573481798172 1.91589343547821 2.10396456718445 2.24491858482361 2.31839108467102 2.42690181732178 2.57919669151306 2.87208795547485 3.12333488464355 3.38776779174805 3.6337296962738 3.79166579246521 3.93358469009399 3.97996234893799 4.0501856803894 4.02568006515503 4.03338146209717 4.08025932312012 4.32397699356079 5.65063810348511 4.80074310302734 4.74810695648193 5.22056007385254 5.83178997039795 5.23081302642822 4.59167194366455 4.58960819244385 4.52754402160645 4.47090673446655 4.44132423400879 4.43593168258667 4.40755081176758 4.45912408828735 4.55469655990601 4.51481819152832 4.48367929458618 4.53080081939697 4.54205846786499 4.58680868148804 4.76269912719727 4.887779712677 5.00964879989624 5.0502405166626 4.88497829437256 5.06673097610474 5.14737129211426 5.03460597991943 4.71360921859741 4.60091972351074 4.46735239028931 4.27531766891479 4.07309198379517 3.93576788902283 3.93796062469482 3.92450165748596 3.99233508110046 4.12485504150391 4.33401012420654 4.37666130065918 5.82952117919922 7.16908359527588 8.01822948455811 8.736083984375 9.20770645141602 9.55175018310547 10.575159072876 11.9432687759399 14.1652202606201 13.4821929931641 12.4460229873657 11.9460458755493 10.5006446838379 8.75272464752197 7.57210636138916 7.73988199234009 7.90262889862061 7.7932653427124 7.29738569259644 5.28063154220581 4.55073404312134 7.06753635406494 8.1454029083252 9.99316787719727 15.572564125061 12.2109279632568 9.71060562133789 8.67558002471924 9.60255718231201 11.7134780883789 11.9399328231812 12.6028289794922 12.8429050445557 15.2539777755737 16.0871677398682 9.54177570343018 8.3865327835083 9.91217041015625 12.3751153945923 12.407693862915 12.8040723800659 11.5772171020508 12.6591310501099 13.8581676483154 12.983998298645 12.4578485488892 12.0322284698486 11.4384384155273 9.36192226409912 5.98627424240112 5.62122678756714 13.2387714385986 17.5127105712891 20.6647834777832 16.7875423431396 15.8882112503052 13.6870908737183 9.68790149688721 8.03481292724609 6.87012910842896 6.77114152908325 8.39899826049805 5.21507120132446 1.62026250362396 -0.304301798343658 1.17148125171661 1.90229153633118 1.07930028438568 -0.703328430652618 -0.796739220619202 -0.686468660831451 -0.469185262918472 -0.24532251060009 1.44846332073212 4.84739780426025 5.5226354598999 3.93855595588684 1.64181935787201 0.345648914575577 1.10515832901001 2.37357997894287 1.45021069049835 3.1892147064209 7.31566047668457 12.3754806518555 14.0502824783325 17.3938159942627 18.8569107055664 13.2709465026855
0.987658262252808 0.893211781978607 0.852595269680023 0.809101998806 0.784087598323822 0.899392426013947 1.0403538942337 1.21779894828796 1.35970604419708 1.59150958061218 1.62166082859039 1.51079320907593 1.3961855173111 1.47978734970093 1.40782749652863 1.1536865234375 0.979217171669006 0.921733498573303 0.896612942218781 0.976324796676636 1.01390647888184 1.09099745750427 1.3384462594986 1.45027208328247 1.56302511692047 1.8201664686203 1.98772799968719 2.19313812255859 2.33398056030273 2.38600659370422 2.49572372436523 2.62520170211792 2.95102143287659 3.20173764228821 3.47800922393799 3.73094391822815 3.89765763282776 4.03101444244385 4.08375358581543 4.13176202774048 4.17398262023926 4.06711006164551 4.08467674255371 4.4780478477478 5.23340034484863 5.08227777481079 5.11852550506592 5.36888122558594 6.14066123962402 5.68102025985718 4.65011548995972 4.69936180114746 4.65495586395264 4.6007661819458 4.5586838722229 4.56729793548584 4.60436534881592 4.61721086502075 4.71003341674805 4.67500829696655 4.6437554359436 4.68997144699097 4.66301584243774 4.63705158233643 4.83264303207397 4.95962905883789 5.25959873199463 5.09464311599731 4.92532062530518 5.17608308792114 5.21078586578369 5.15847158432007 5.02541828155518 4.99255132675171 4.82625150680542 4.56206083297729 4.33115530014038 4.274827003479 4.22175073623657 4.18813514709473 4.29346227645874 4.43463897705078 4.54952812194824 4.65790748596191 6.35579586029053 7.85518217086792 8.83194828033447 9.68838405609131 10.2025575637817 10.6561651229858 11.8482637405396 13.8469123840332 16.4016494750977 15.6148147583008 14.1417751312256 13.5637674331665 11.9229536056519 9.80053901672363 8.23362159729004 8.41806602478027 8.5374059677124 8.42376899719238 7.91350746154785 5.65251350402832 4.65023183822632 5.51823377609253 8.20822620391846 10.0640239715576 9.71921062469482 10.5527210235596 10.2692136764526 10.2369022369385 11.8633728027344 14.1957750320435 15.1529903411865 15.9309816360474 17.4366340637207 20.2383193969727 21.0309906005859 14.4441509246826 11.242431640625 10.6056528091431 11.7911806106567 14.3660564422607 12.2235326766968 12.1547517776489 13.1065168380737 13.355806350708 13.5804929733276 10.492467880249 12.0403165817261 11.6281538009644 10.4509916305542 7.13621091842651 5.77839469909668 5.77132940292358 7.26351165771484 10.5389776229858 14.9372444152832 12.4749097824097 9.16702461242676 6.91469383239746 6.48038387298584 4.83264112472534 4.77661991119385 6.1147780418396 3.90838980674744 -0.602045357227325 0.16822025179863 1.72518038749695 2.3806746006012 1.30639219284058 -0.27347868680954 -0.619132161140442 -0.535510957241058 -0.33850023150444 0.379170149564743 2.14200520515442 4.82713460922241 5.46917200088501 5.53090476989746 2.44013857841492 0.431646138429642 1.48795449733734 2.97265124320984 1.70119142532349 -0.141709998250008 0.631029307842255 5.7903208732605 10.2956066131592 7.59034109115601 10.2874603271484 12.5150918960571
1.11297476291656 1.17164397239685 1.11058259010315 1.00318944454193 0.902671813964844 0.975688338279724 1.09037184715271 1.26118719577789 1.42993223667145 1.61800503730774 1.66894233226776 1.55879163742065 1.43678212165833 1.52682602405548 1.46359694004059 1.19506168365479 1.00338435173035 0.944503605365753 0.900164246559143 1.05316483974457 1.01898837089539 1.09398746490479 1.0481413602829 1.20398020744324 1.57952010631561 1.8610634803772 2.06539726257324 2.27810263633728 2.41865730285645 2.47949743270874 2.58407497406006 2.68213987350464 3.02323770523071 3.28841614723206 3.57886219024658 3.82944416999817 4.00087738037109 4.1350302696228 4.20304298400879 4.21442127227783 4.23833751678467 4.09055185317993 4.09317255020142 4.12394428253174 4.17303037643433 5.09530210494995 6.35581350326538 6.12696313858032 6.32436943054199 5.06230306625366 4.77828168869019 4.78694677352905 4.7698826789856 4.72495269775391 4.68892049789429 4.70378875732422 4.74475908279419 4.78102731704712 4.85664319992065 4.83398151397705 4.80970764160156 4.83166551589966 4.69788408279419 4.71006011962891 4.85591411590576 5.1432204246521 6.10190725326538 5.46167278289795 4.97390747070312 5.26040744781494 5.3626537322998 5.39281797409058 5.3492317199707 5.25429916381836 5.07363128662109 4.7961745262146 4.68790340423584 4.58056497573853 4.57620096206665 4.53170490264893 4.63087701797485 4.75124311447144 4.76562738418579 5.28568744659424 7.10718679428101 8.71280384063721 9.90572357177734 10.8731679916382 11.4479465484619 12.1198997497559 13.5195560455322 16.8949203491211 19.4434070587158 18.5386066436768 16.6179752349854 15.8827905654907 13.8591527938843 11.1962842941284 9.13908863067627 9.25847148895264 9.32355976104736 9.24740886688232 8.63838291168213 6.07822275161743 4.91660737991333 6.16021394729614 9.15527820587158 11.202600479126 10.7159004211426 12.1300954818726 12.4806394577026 12.5854015350342 14.5910406112671 17.2244052886963 18.5988922119141 18.5060634613037 21.0977020263672 23.0386905670166 11.6650409698486 10.3506088256836 13.2829027175903 12.6486749649048 9.30314445495605 8.73274326324463 8.4606990814209 10.3755912780762 9.98043155670166 12.3589010238647 14.724292755127 10.5872764587402 9.63687038421631 11.7822265625 11.2911901473999 8.05740928649902 6.95282983779907 6.01888179779053 7.0614013671875 7.1954174041748 6.82272815704346 6.71657085418701 6.52296352386475 6.00594329833984 6.07928371429443 5.1303334236145 4.40252447128296 1.36136734485626 -0.205412179231644 -0.52439558506012 0.403485774993896 2.17071509361267 2.75193119049072 1.47652781009674 -0.467123836278915 -0.502671957015991 -0.358595609664917 -0.180841282010078 2.3602020740509 2.6473400592804 1.22250032424927 0.0118944635614753 7.28198003768921 3.89199161529541 0.656079292297363 2.04162168502808 4.14633512496948 2.65133380889893 -0.106770247220993 -0.288083136081696 -0.596602320671082 0.211434379220009 3.47162842750549 1.85303962230682 5.20572328567505
1.16934037208557 1.22470808029175 1.28705477714539 1.26976811885834 1.18020641803741 1.20755469799042 1.22156095504761 1.35163903236389 1.49024951457977 1.66175734996796 1.71555173397064 1.6146993637085 1.48993420600891 1.58603143692017 1.49176907539368 1.24977827072144 1.02699565887451 0.957969963550568 0.90522712469101 0.977884769439697 1.02374041080475 1.10537433624268 1.05763649940491 1.22404527664185 1.59489524364471 1.86965942382812 2.15634918212891 2.37730741500854 2.51317620277405 2.59506034851074 2.67524933815002 2.7304310798645 3.09511017799377 3.39006423950195 3.69155287742615 3.93798804283142 4.10879850387573 4.2547025680542 4.3279595375061 4.34623765945435 4.27479219436646 4.16329669952393 4.09594869613647 4.13273668289185 4.19930267333984 4.26401519775391 6.73222208023071 6.95503711700439 6.8040566444397 5.29000234603882 5.26220369338989 4.84767961502075 4.85399007797241 4.86767911911011 4.85945987701416 4.85670232772827 4.89177322387695 4.93162679672241 4.98277902603149 4.97861480712891 4.94018793106079 4.97405338287354 4.84502553939819 4.83999824523926 4.93908500671387 4.97137212753296 6.44438600540161 5.70327043533325 4.99236392974854 5.44953107833862 5.57575559616089 5.66770362854004 5.66973066329956 5.51795101165771 5.35109281539917 5.14919376373291 5.05175971984863 5.01694107055664 5.07378339767456 5.05037641525269 4.98816680908203 5.06612777709961 4.99492931365967 6.25755453109741 8.17446708679199 9.78770065307617 11.2857351303101 12.3813896179199 13.026478767395 14.0567121505737 15.9745960235596 21.8712635040283 24.7374267578125 22.7496356964111 20.4579334259033 19.569953918457 16.4960765838623 13.0157470703125 10.630880355835 10.284520149231 10.3631935119629 10.265736579895 9.48067665100098 6.56975317001343 5.31445550918579 7.53956174850464 10.748571395874 14.8192195892334 14.4429206848145 16.1052913665771 16.0089359283447 15.1409673690796 18.6472129821777 20.8312149047852 19.4209537506104 19.5513648986816 12.7523374557495 5.77049779891968 5.49706935882568 7.46642017364502 9.00820255279541 9.37111186981201 6.71528673171997 3.77604413032532 2.56013488769531 3.29802513122559 9.37705612182617 12.1536293029785 15.8468179702759 10.5905542373657 9.13150024414062 9.41350078582764 9.79803562164307 9.00575065612793 8.35910129547119 8.08372020721436 9.01987457275391 8.73565292358398 6.60324144363403 6.78011274337769 6.64451313018799 6.13529634475708 5.73266649246216 4.87450885772705 4.41667461395264 1.40885508060455 -0.117092043161392 -0.236323207616806 0.45714396238327 1.94901645183563 3.21976351737976 2.0303795337677 -0.0118207801133394 -0.383030414581299 -0.184918582439423 -0.0701758861541748 4.86269664764404 2.78610372543335 -0.00788952969014645 0.0364245399832726 0.0574837327003479 0.309400141239166 0.356620520353317 2.17734456062317 5.36321830749512 3.85843181610107 0.319267064332962 -0.204939141869545 -0.464778333902359 -0.814274668693542 -0.717529594898224 -0.482383489608765 -0.134748518466949
1.24751734733582 1.32604849338531 1.37938344478607 1.33967363834381 1.26102101802826 1.38658046722412 1.43826293945312 1.48529314994812 1.55064153671265 1.72697353363037 1.76711618900299 1.68155992031097 1.55550980567932 1.64686548709869 1.54199922084808 1.30982744693756 1.05758082866669 0.980264961719513 0.920013427734375 0.987117350101471 1.0331449508667 1.1184823513031 1.06689035892487 1.26475918292999 1.66133522987366 1.93319416046143 2.25818371772766 2.47441124916077 2.61605620384216 2.70574522018433 2.76485466957092 2.788658618927 3.17218685150146 3.48773288726807 3.81075739860535 4.06349515914917 4.22443914413452 4.37761354446411 4.44047069549561 4.47987604141235 4.40722513198853 4.26982450485229 4.27856492996216 4.19302654266357 4.23007535934448 4.28113508224487 4.40342473983765 6.19718217849731 8.18286418914795 6.88088750839233 5.64081001281738 4.86776256561279 4.90592193603516 4.93209981918335 4.99319934844971 5.02105522155762 5.0403938293457 5.07594442367554 5.13084125518799 5.11437845230103 5.08457469940186 5.15262985229492 5.03740930557251 4.89123153686523 4.99428606033325 5.00882625579834 5.04571151733398 5.13086557388306 5.11474800109863 5.67839813232422 5.74517393112183 5.91872406005859 6.00043630599976 5.94188642501831 5.88820123672485 5.72392082214355 5.50264549255371 5.51182699203491 5.60067462921143 5.56830883026123 5.42480373382568 5.40237236022949 6.01638841629028 7.65204000473022 9.37628269195557 11.1689033508301 13.0809650421143 14.5162172317505 15.0163593292236 15.4310255050659 16.7754955291748 24.4823913574219 31.3417816162109 29.9530181884766 26.3330860137939 25.3309688568115 20.3140163421631 15.5178127288818 12.7038993835449 11.5373792648315 11.6340675354004 11.5174169540405 10.5921411514282 7.15678644180298 6.04373836517334 9.03505897521973 12.6341581344604 18.7684898376465 18.2620315551758 22.1669254302979 20.0736217498779 17.873025894165 16.8843784332275 17.1764869689941 12.1988430023193 10.1160554885864 7.43507289886475 5.70953273773193 6.03800249099731 7.56953620910645 8.40921211242676 7.67896223068237 5.12003469467163 3.65873217582703 1.78598022460938 3.57813048362732 10.0339260101318 15.6409406661987 20.2045783996582 11.8080921173096 8.40407848358154 7.92592144012451 9.66411399841309 8.05829524993896 7.65974855422974 6.06385803222656 3.81548571586609 3.36025619506836 7.47176504135132 7.53522348403931 7.04518890380859 6.54586505889893 6.12798595428467 4.91035079956055 4.96323156356812 1.99695301055908 0.810574650764465 0.311688512563705 0.860768556594849 3.22276854515076 4.2446117401123 3.41574692726135 1.42434740066528 0.0553791560232639 -0.00431759003549814 -0.0109186079353094 -0.177499741315842 -0.110676251351833 0.133047297596931 0.119044296443462 0.152691707015038 0.315220981836319 0.377176433801651 0.188427746295929 -0.076280452311039 0.978151977062225 -0.0987535119056702 -0.0902556553483009 -0.246170550584793 -0.581032454967499 -0.661830306053162 -0.416545778512955 -0.0369630269706249
1.30040645599365 1.39904999732971 1.45751976966858 1.42385029792786 1.34563982486725 1.45707166194916 1.49498736858368 1.54414594173431 1.61076509952545 1.80252361297607 1.8580127954483 1.76398837566376 1.63279509544373 1.71749556064606 1.60449540615082 1.35511493682861 1.10941827297211 1.01693177223206 0.93756777048111 1.00764989852905 1.05676329135895 1.13422334194183 1.08049988746643 1.3124520778656 1.7560441493988 2.04098773002625 2.36525392532349 2.55204010009766 2.70857262611389 2.79033708572388 2.89706420898438 2.9024829864502 3.24814343452454 3.57439804077148 3.93172740936279 4.1915922164917 4.35254812240601 4.50215196609497 4.54997587203979 4.57397842407227 4.60163593292236 4.52658033370972 4.32411766052246 4.19826745986938 4.26953029632568 4.33580875396729 4.44350910186768 6.24902820587158 9.60373973846436 8.26254749298096 5.97539377212524 4.87074851989746 4.96935033798218 5.00693655014038 5.08044195175171 5.16877603530884 5.19887161254883 5.2425274848938 5.2930908203125 5.26573657989502 5.28897428512573 5.37776279449463 5.22072887420654 4.94319105148315 5.04046392440796 5.01123762130737 5.08380270004272 5.14235830307007 5.242262840271 5.91841983795166 5.96057271957397 6.18011379241943 6.30992984771729 6.34013319015503 6.34973096847534 6.22445106506348 6.0008716583252 6.01992750167847 6.01326417922974 5.94115734100342 5.83976173400879 6.1570873260498 7.49828481674194 9.01916313171387 10.8053102493286 12.804970741272 15.2833938598633 16.6742515563965 16.6673030853271 16.6841259002686 16.4183883666992 25.9540004730225 28.3882274627686 33.6833572387695 32.5252723693848 33.1790237426758 25.755672454834 19.7336311340332 15.4201889038086 13.1029472351074 13.4498205184937 13.0821828842163 11.9930620193481 7.70586013793945 6.62380409240723 10.4640302658081 14.3904619216919 22.5278377532959 23.0656623840332 29.9574584960938 25.3926868438721 18.030933380127 3.9903576374054 1.73843252658844 3.61470508575439 0.683205127716064 1.74733078479767 3.35440230369568 3.54816651344299 2.09538698196411 3.37939620018005 2.31384754180908 0.194441080093384 -0.770945250988007 0.417180567979813 0.741198122501373 0.740515172481537 4.20154285430908 8.26130294799805 10.1009883880615 7.01889657974243 7.87933540344238 10.2692623138428 8.27518939971924 6.98867177963257 4.41050910949707 4.0807900428772 3.70299983024597 2.47246789932251 4.38973188400269 7.40820837020874 7.43867254257202 7.17448091506958 4.59976005554199 3.10147929191589 2.20953583717346 1.62784254550934 0.966871738433838 2.34141659736633 5.12447929382324 6.46816492080688 5.88147354125977 3.91890692710876 2.13248586654663 0.199210852384567 0.164781957864761 0.083468496799469 0.0388091281056404 0.225333839654922 0.285805523395538 0.469202786684036 0.58732670545578 0.577687561511993 0.354874521493912 0.00327653926797211 -0.142297923564911 -0.0346813425421715 0.0340491086244583 -0.0562724620103836 -0.245236232876778 -0.380122929811478 -0.283596992492676 0.435131430625916
1.34398758411407 1.44844508171082 1.51713120937347 1.49231731891632 1.43014311790466 1.53571927547455 1.57820391654968 1.60278701782227 1.68096852302551 1.90482699871063 2.00905299186707 1.88330340385437 1.73463344573975 1.80586993694305 1.67172527313232 1.38432931900024 1.17736339569092 1.05763840675354 0.964958250522614 1.02409303188324 1.06396770477295 1.13964474201202 1.08892571926117 1.3904777765274 1.85994732379913 2.18799233436584 2.47718143463135 2.61045265197754 2.77489948272705 2.91681599617004 3.04753804206848 3.03115177154541 3.33445930480957 3.67510533332825 4.04599285125732 4.32711362838745 4.49386167526245 4.63092374801636 4.68800401687622 4.73974800109863 4.72222375869751 4.56445503234863 4.39034652709961 4.28924608230591 4.37409687042236 4.42342233657837 4.50388097763062 4.38825178146362 4.29274320602417 4.7318229675293 4.69814538955688 4.95938730239868 5.08229446411133 5.11734771728516 5.20375776290894 5.31242322921753 5.34871625900269 5.4037299156189 5.48023557662964 5.47369146347046 5.48421382904053 5.61056089401245 5.32065010070801 5.09742879867554 5.23910236358643 5.06124639511108 5.08709478378296 5.24410438537598 5.52728509902954 6.17355823516846 6.17625999450684 6.46698141098022 6.59999656677246 6.65238857269287 6.66714715957642 6.62187767028809 6.47772741317749 6.41494512557983 6.36257839202881 6.23826837539673 6.64997529983521 7.96191930770874 9.26406192779541 10.4450778961182 12.535457611084 14.3228340148926 17.1354598999023 18.681827545166 16.0770263671875 15.5493640899658 16.8887825012207 14.7415161132812 20.9099788665771 26.2533206939697 35.9230155944824 40.7646751403809 29.3189086914062 23.3955535888672 16.6249332427979 13.9197044372559 15.7174024581909 14.8475513458252 13.5032377243042 8.31584739685059 7.90583276748657 12.3563270568848 18.5709342956543 29.3631076812744 19.9516410827637 12.0767917633057 10.3049955368042 5.73788022994995 4.87479400634766 0.119391530752182 -1.46344339847565 -1.85716080665588 -2.04493689537048 -0.898041665554047 -1.54267609119415 -2.58346557617188 -2.65584850311279 -2.51601767539978 -2.33547496795654 -2.11748957633972 -1.87391114234924 -1.74615252017975 -0.233268797397614 0.333268493413925 1.10616195201874 2.82697081565857 2.44077110290527 6.7858510017395 10.8082733154297 8.56502246856689 2.76844143867493 3.23112940788269 2.58088421821594 1.1575049161911 -0.268998205661774 0.0548873841762543 2.85930943489075 5.07642269134521 5.84331941604614 5.07829284667969 2.70863652229309 1.82686603069305 2.65373301506042 2.88305950164795 4.15027570724487 7.36818218231201 9.64105224609375 8.67980766296387 6.32334518432617 4.57753658294678 0.436632841825485 0.412984699010849 0.486455112695694 0.529190957546234 0.573120594024658 0.577015578746796 1.02168023586273 1.05641293525696 0.800451159477234 0.691561043262482 0.483625620603561 0.275785148143768 0.210801959037781 0.181543260812759 0.152090027928352 0.0346819870173931 -0.10012324154377 0.248816013336182 1.20770156383514
