NCOLS 175
NROWS 32
XLLCORNER 353696
YLLCORNER 6700272
CELLSIZE 16 
NODATA_value -3.4e+38 
0.191067725419998 0.177649199962616 0.295219987630844 0.501590669155121 0.389965772628784 1.04139029979706 2.00632667541504 3.34723973274231 4.06260681152344 3.10247993469238 3.89543342590332 3.2162458896637 2.53608560562134 0.848661839962006 -0.565484881401062 -0.493322163820267 -0.408067613840103 -0.38945284485817 -0.268544107675552 -0.0550934746861458 0.0759685859084129 1.87163901329041 2.6289279460907 3.02094483375549 3.34043192863464 7.35196208953857 5.89144659042358 4.30839395523071 8.30652523040771 2.01507353782654 3.62354683876038 3.57557702064514 2.80910086631775 3.02226161956787 3.37528419494629 2.89264631271362 2.35580682754517 2.66849327087402 2.2061595916748 2.97199487686157 2.81727528572083 0.960982799530029 0.926149010658264 0.90056973695755 0.908151090145111 0.966159582138062 0.936819970607758 0.920675992965698 10.3329401016235 -0.525104880332947 5.91942501068115 0.513155698776245 0.788733720779419 0.911876976490021 10.881760597229 8.40639400482178 1.685267329216 8.07891845703125 1.11016428470612 19.983419418335 1.34577548503876 2.83605456352234 1.65529227256775 3.2816047668457 11.7101221084595 7.93546772003174 0.220335856080055 5.79817056655884 7.74559116363525 1.65255665779114 0.563399791717529 11.5208759307861 0.554861843585968 -0.0496356263756752 3.44647097587585 1.04924952983856 0.0823400989174843 0.191754370927811 1.12628948688507 3.7790744304657 2.80086636543274 5.30267095565796 3.7198326587677 10.7226371765137 13.4649419784546 14.4934492111206 8.13990306854248 4.24223375320435 11.4015645980835 2.76398491859436 24.4034099578857 19.144250869751 6.63544464111328 9.33296298980713 15.6348056793213 38.1267967224121 25.4471263885498 34.1687355041504 16.1668338775635 17.7375431060791 18.2304096221924 15.7802724838257 13.4297561645508 14.6575450897217 10.6269216537476 4.67203235626221 2.04786252975464 7.38047790527344 2.22891736030579 25.9754123687744 6.56907272338867 18.9992694854736 8.70370101928711 4.50570631027222 -0.887838661670685 4.23688936233521 -1.95441246032715 7.23950815200806 10.4706745147705 8.36794757843018 11.1022062301636 48.5060539245605 46.4946060180664 10.4712419509888 13.7388200759888 32.9799919128418 30.1083564758301 37.4718551635742 33.3838195800781 26.5325527191162 36.7031784057617 38.2397499084473 25.1246109008789 13.6108551025391 16.1302680969238 19.2942218780518 19.8087978363037 21.5750122070312 29.3894424438477 34.305419921875 7.94308471679688 9.80607128143311 9.30949592590332 10.408447265625 24.829761505127 27.133171081543 33.9784469604492 22.2196731567383 19.5331783294678 6.78502988815308 4.6563515663147 11.5567760467529 14.6395568847656 11.8398675918579 9.14612579345703 0.27911251783371 15.941933631897 39.1172676086426 12.3341188430786 4.35024785995483 0.60359001159668 14.3315029144287 21.832218170166 0.624395430088043 21.9075145721436 3.40936207771301 0.22109155356884 7.71143817901611 0.303567230701447 8.71743965148926 18.3852138519287 9.47321701049805 13.4022665023804 24.5452995300293 6.11698198318481
0.56545627117157 0.14766289293766 0.369678318500519 0.40675887465477 0.935144901275635 0.687918245792389 1.53262305259705 3.2264883518219 4.12374925613403 4.14647102355957 2.00939607620239 1.9124391078949 1.19317293167114 0.928745746612549 -0.478820621967316 -0.412901610136032 -0.320808857679367 -0.256676137447357 -0.14456444978714 -0.0429449193179607 0.114256039261818 1.73977506160736 2.24771118164062 10.6821489334106 4.38860654830933 5.07011747360229 9.87325000762939 6.92630195617676 5.35068273544312 12.8471202850342 9.20384311676025 6.04398059844971 2.90389084815979 3.12807536125183 3.46791744232178 3.03442120552063 2.97731804847717 2.47789692878723 2.82135629653931 2.92955803871155 3.14464068412781 2.37508320808411 1.0041366815567 0.967797160148621 0.975598692893982 1.03301596641541 1.0634218454361 2.24387764930725 1.12171709537506 0.951715290546417 0.639900803565979 0.786339044570923 1.02416491508484 1.02089166641235 0.688566267490387 0.888075530529022 0.908861100673676 0.652700424194336 1.22224187850952 0.95951896905899 2.34113955497742 3.99345922470093 2.5430223941803 4.09886312484741 1.65323674678802 1.14014685153961 22.4282970428467 17.579402923584 5.65371179580688 11.3061494827271 0.950675427913666 0.240174636244774 1.43885135650635 0.407771348953247 0.622367680072784 13.0645875930786 1.50444030761719 1.25319039821625 3.50811719894409 1.93956613540649 2.9491868019104 8.03393840789795 4.60751676559448 3.10550284385681 19.9875354766846 11.7850885391235 33.4298057556152 11.5185098648071 2.1590211391449 4.1120080947876 2.18662118911743 9.04386806488037 5.58260011672974 9.89990329742432 25.5518531799316 34.3151435852051 37.1955223083496 26.8598594665527 38.3859176635742 22.3478527069092 21.8978519439697 21.5863456726074 21.9359645843506 23.8289451599121 16.111946105957 6.65811491012573 5.47373962402344 9.91981887817383 3.85596084594727 2.68106603622437 19.5445461273193 4.37237405776978 2.20834445953369 1.34032487869263 0.252575099468231 -1.37585735321045 5.64371728897095 -2.28500247001648 23.7216815948486 8.34882259368896 11.0125246047974 6.4822883605957 8.84615039825439 12.1002130508423 29.0972023010254 19.1226406097412 14.1142768859863 13.9838190078735 14.0222129821777 11.5613536834717 15.5943746566772 36.6088447570801 41.2979125976562 29.2174644470215 16.0084266662598 22.561315536499 23.6127471923828 26.3685531616211 38.0264282226562 35.9951171875 9.77583885192871 9.72793292999268 8.72660446166992 10.5391798019409 21.4614486694336 20.5347003936768 14.0253753662109 19.2378273010254 7.42082023620605 7.66622066497803 6.11802053451538 9.11422920227051 29.5414142608643 13.1567678451538 21.8914260864258 12.3735666275024 9.96417045593262 8.19793128967285 31.065990447998 18.4395503997803 1.73523247241974 0.509241044521332 2.47534775733948 22.9713478088379 0.538826406002045 0.2320526689291 2.85467934608459 6.39074945449829 12.446063041687 10.5448570251465 13.099814414978 39.7937927246094 17.3737754821777 14.2302007675171 12.3813714981079
0.835700154304504 0.12824521958828 0.393695205450058 1.19093704223633 1.00244450569153 1.1183009147644 1.33168601989746 1.76698136329651 3.05369687080383 5.29132080078125 1.68605077266693 1.54459917545319 1.6728835105896 1.40283989906311 1.123370885849 -0.32565712928772 -0.277005195617676 -0.193829461932182 -0.0804191008210182 0.00638632010668516 0.167722836136818 0.300286054611206 2.20129585266113 2.52141046524048 3.52056312561035 6.05832147598267 12.3589649200439 11.9803705215454 8.46865272521973 18.8432941436768 13.7224550247192 9.38554096221924 4.72233533859253 3.24327826499939 3.63186502456665 3.4462423324585 3.25780248641968 4.97853851318359 3.56016874313354 2.61169528961182 3.23910784721375 2.41198229789734 1.05214595794678 1.02160310745239 1.00591766834259 2.41915106773376 2.03646326065063 2.2950701713562 1.57677054405212 1.45406019687653 1.47985506057739 8.73582649230957 7.90979194641113 1.09433436393738 1.16656458377838 1.36405730247498 1.14238297939301 1.29108440876007 1.62372589111328 1.81392824649811 2.13536858558655 5.04012632369995 17.0134658813477 13.6383962631226 13.695276260376 1.69057297706604 1.00774908065796 0.670484185218811 8.40250396728516 3.16840839385986 0.83000785112381 0.855700254440308 7.53042364120483 0.563387095928192 0.681375443935394 1.04679262638092 11.0160465240479 14.8783588409424 5.06570959091187 3.12391996383667 14.5405025482178 6.75742673873901 11.245099067688 18.7413635253906 19.4192752838135 38.5711402893066 1.22369003295898 2.40285921096802 19.6593914031982 10.2090320587158 10.1289625167847 2.03385591506958 24.6050605773926 10.2642335891724 26.0483779907227 34.2050971984863 5.81854391098022 33.2920417785645 43.0457191467285 17.7970905303955 33.8555145263672 34.5397529602051 23.2838230133057 29.3199405670166 25.0717544555664 20.0143547058105 19.2998008728027 8.66725444793701 14.7433786392212 11.0710859298706 10.0143089294434 20.1505756378174 2.54338431358337 3.02124357223511 4.76711702346802 -0.657576501369476 -1.44253325462341 -1.72369277477264 -1.92813456058502 8.37332725524902 9.79074287414551 7.14226102828979 8.90546226501465 13.2131385803223 32.7621574401855 16.0871620178223 17.2088508605957 14.5914602279663 27.1169738769531 20.920051574707 15.5483703613281 19.1308155059814 36.7111167907715 12.9772920608521 26.8491611480713 28.3846549987793 30.7907638549805 34.0409126281738 36.558032989502 58.371898651123 10.2583723068237 11.4213676452637 11.3885917663574 11.7243299484253 10.5518293380737 9.65536117553711 15.6613330841064 15.5002555847168 21.2055702209473 9.68698787689209 31.2048568725586 6.04366016387939 5.27291917800903 10.8334665298462 4.08171939849854 1.1132298707962 0.374963343143463 7.99650621414185 15.8724098205566 40.1127815246582 9.32422256469727 1.08279764652252 -0.104657359421253 0.231790587306023 0.751085996627808 0.791942775249481 9.70312881469727 7.49950456619263 1.7519611120224 17.543212890625 11.6296138763428 -2.33241724967957 12.353009223938 -2.7488009929657 -2.31603240966797
0.90376204252243 0.909043788909912 1.20534670352936 1.23267471790314 1.29843997955322 1.14875316619873 0.826938092708588 1.14451146125793 0.769702017307281 0.908170700073242 1.06278038024902 1.64904463291168 1.85304033756256 1.51859617233276 1.17038190364838 -0.284040480852127 -0.209487020969391 -0.135056897997856 -0.0509595684707165 0.0475259348750114 0.26685357093811 0.307585686445236 2.06544899940491 2.67029905319214 3.36706519126892 7.72827339172363 8.65645980834961 17.6985340118408 12.8172597885132 9.62571716308594 38.1210784912109 30.6815605163574 22.664529800415 10.4461431503296 3.60747313499451 6.1677680015564 3.89354181289673 3.18902349472046 2.61454772949219 2.96074771881104 3.26883101463318 3.12399220466614 1.20393455028534 1.06205856800079 2.35373759269714 2.47089219093323 2.5755820274353 1.7944210767746 2.37010836601257 2.03032088279724 2.07101225852966 16.5412502288818 0.91195273399353 1.19676637649536 1.50935888290405 1.43345785140991 1.75691509246826 1.72681248188019 1.55006313323975 2.31441402435303 2.6824107170105 6.91723012924194 14.8096542358398 23.0919132232666 13.2993850708008 2.46632122993469 5.5228009223938 0.542410731315613 4.66770315170288 0.365384727716446 3.93695688247681 1.00006794929504 21.1529102325439 14.3246755599976 1.76383352279663 1.1063768863678 18.4748649597168 16.0682849884033 2.17994427680969 6.22009754180908 6.57850360870361 4.69343233108521 26.164192199707 13.603102684021 19.7598361968994 0.282197028398514 11.6141300201416 16.6857433319092 0.621855914592743 2.95252013206482 2.9746618270874 1.74338603019714 5.62942266464233 11.1019830703735 18.9670639038086 11.9613103866577 3.57272338867188 3.04505848884583 2.16277623176575 29.126012802124 16.8637504577637 19.9698162078857 25.2223854064941 42.644889831543 33.3782806396484 17.3774089813232 4.68787813186646 11.3704061508179 20.1661167144775 14.0195560455322 13.0827732086182 7.35264539718628 4.54369831085205 4.10579919815063 4.32059526443481 5.61828279495239 -0.309667676687241 -0.979637801647186 -0.911302089691162 8.36448383331299 12.5666990280151 22.2579917907715 11.8018569946289 28.8639450073242 11.2230262756348 12.3709077835083 20.1222972869873 18.5796985626221 19.1144313812256 23.6107425689697 18.1684494018555 8.08147525787354 17.0641918182373 25.6833667755127 17.9022235870361 37.3121147155762 48.5165939331055 51.2324066162109 54.7817878723145 5.34385681152344 12.5490980148315 13.0283212661743 13.2969179153442 13.7447128295898 13.4784517288208 14.6273431777954 11.7572755813599 9.84848499298096 7.81574726104736 12.19850730896 8.21804904937744 27.4439144134521 1.16638052463531 -0.0362830832600594 -0.225090309977531 0.0408755242824554 0.557576656341553 13.1302585601807 27.1024360656738 11.8215618133545 49.4437675476074 3.52342128753662 1.15197706222534 0.803480625152588 1.21115744113922 1.54234385490417 3.45503163337708 9.02513408660889 11.3475303649902 4.80475902557373 0.417327702045441 3.25818276405334 -2.83637094497681 -2.49629855155945 -2.3081681728363
1.24254417419434 1.23612642288208 1.51742780208588 1.36350929737091 1.43044996261597 1.31382071971893 1.27132606506348 1.17957973480225 0.980195283889771 0.964499652385712 1.08999633789062 1.70381689071655 1.88382256031036 1.97776353359222 1.62130057811737 1.31682705879211 -0.164578497409821 -0.104468122124672 -0.0122996894642711 0.0737678706645966 0.111686311662197 0.387771040201187 0.634303867816925 2.59876656532288 3.28717184066772 3.88693809509277 12.6120977401733 24.755672454834 35.7070007324219 26.7936096191406 1.57190775871277 3.1600170135498 3.28671264648438 3.04681158065796 3.69143629074097 3.90861225128174 3.59791207313538 3.32794284820557 2.64758133888245 3.01446390151978 3.11953926086426 3.42162561416626 2.72304916381836 2.2021119594574 2.6720290184021 2.43355011940002 2.6364471912384 2.14458799362183 2.42051267623901 1.65447652339935 2.14059233665466 2.62439513206482 1.92738306522369 1.72796511650085 2.21638631820679 2.01048588752747 2.13482904434204 2.1273090839386 2.5477147102356 2.70811629295349 3.07079410552979 3.05309796333313 9.72238254547119 7.29328727722168 2.31147789955139 6.55243110656738 1.88910746574402 4.18932819366455 0.539628803730011 1.37758016586304 5.43372917175293 6.4404468536377 0.71469908952713 1.40872728824615 2.49635124206543 2.59505105018616 0.00813500955700874 -0.166927948594093 5.62016344070435 8.13714408874512 4.38691282272339 22.6562938690186 3.57863092422485 30.4414176940918 4.89540433883667 4.1302661895752 12.3060350418091 1.86916565895081 3.56351280212402 3.96704602241516 3.80816531181335 2.71642017364502 5.29217529296875 23.8992938995361 16.1329669952393 3.17523670196533 7.62977695465088 7.43143510818481 4.25142621994019 19.7999229431152 14.6190395355225 42.5016784667969 40.1241798400879 16.5801811218262 19.1130599975586 25.6876316070557 9.32804107666016 25.033561706543 22.1902828216553 40.5902061462402 28.5690670013428 27.8767604827881 13.6146640777588 17.2190647125244 5.67229986190796 2.70834422111511 10.5267925262451 -1.12673270702362 14.4786510467529 14.4316520690918 13.1624269485474 13.0154132843018 18.9420204162598 21.7049121856689 11.4443464279175 13.767144203186 16.2063827514648 19.7980079650879 15.7784719467163 36.704231262207 31.071928024292 26.0002517700195 24.7862854003906 26.5978660583496 17.3220157623291 20.6663722991943 8.77964210510254 24.8996429443359 13.0480709075928 7.31841135025024 8.06221389770508 13.1184053421021 10.1180648803711 18.4252815246582 17.3059616088867 14.3167400360107 15.7573585510254 12.2945051193237 29.9959983825684 10.019721031189 5.15438604354858 0.0399999804794788 5.9958291053772 0.135899364948273 0.0595297887921333 0.120212607085705 2.74585580825806 0.712209582328796 0.108895875513554 16.3765544891357 1.51984679698944 34.1069793701172 2.31368803977966 1.71066844463348 1.30349814891815 2.33228230476379 1.41837918758392 13.6686325073242 0.808266758918762 -0.906184375286102 -0.193572282791138 -1.79073238372803 -2.02530813217163 -2.45397591590881 -2.45795822143555
1.58014130592346 1.15457510948181 1.55954527854919 1.52549302577972 1.47277104854584 1.38695275783539 1.36776864528656 1.08875513076782 1.20046281814575 1.19321513175964 1.29625034332275 1.32166695594788 1.89951479434967 2.05871677398682 1.72663760185242 1.43842101097107 -0.134953767061234 -0.0777734220027924 0.0123156914487481 0.0603530891239643 0.165938094258308 0.405934065580368 0.591692745685577 2.35108828544617 2.96234345436096 3.74844861030579 16.7032890319824 29.3051986694336 17.4664058685303 12.7789535522461 6.5951943397522 5.48845863342285 5.18633031845093 7.04667806625366 3.57472705841064 3.73727130889893 4.08837795257568 3.41961669921875 3.40413069725037 3.08118724822998 2.76181292533875 3.50045228004456 3.31090044975281 2.2518310546875 2.72822046279907 2.58284425735474 2.60785269737244 2.71650409698486 1.93143773078918 2.49391627311707 2.54050016403198 2.68441390991211 2.01475238800049 1.99938952922821 2.66778087615967 2.8028359413147 3.03572630882263 3.04212641716003 2.98261475563049 2.96933889389038 3.17920351028442 3.05538249015808 22.2529468536377 11.7032699584961 4.40102243423462 1.76435673236847 10.6482992172241 0.605758309364319 1.06893134117126 23.0645771026611 1.38739454746246 5.28631210327148 4.45228004455566 15.2050247192383 6.67018890380859 2.64332413673401 0.669088304042816 0.363808184862137 19.3530960083008 6.88902854919434 16.1459712982178 2.329505443573 6.50035619735718 2.09854292869568 1.19020760059357 6.37910509109497 0.969280958175659 1.56792008876801 5.03411340713501 5.33785057067871 4.34387254714966 5.26331758499146 2.75114822387695 19.3888282775879 3.71286177635193 4.46444749832153 1.69838535785675 1.62485980987549 1.49453115463257 6.01086378097534 17.11252784729 3.54083967208862 11.9513711929321 30.5206851959229 -1.95432090759277 -1.10679447650909 8.17816162109375 4.10632419586182 9.69586563110352 0.335076630115509 4.01387548446655 4.31210041046143 22.8357524871826 12.6937494277954 11.8785362243652 22.2500019073486 2.98500180244446 1.8220762014389 -0.630912601947784 -0.440682739019394 9.86304759979248 18.3351726531982 7.61693859100342 11.9294414520264 12.0685806274414 15.8576993942261 12.3055286407471 12.0500011444092 27.5414791107178 8.11292457580566 10.1693162918091 9.68265247344971 -1.37085723876953 23.7369518280029 41.810733795166 12.3546209335327 26.09401512146 8.49244689941406 22.0571804046631 22.9399700164795 11.4158763885498 12.8579196929932 11.6891918182373 16.8333148956299 20.2762641906738 20.2310409545898 23.126522064209 35.2798843383789 14.5963926315308 31.8181419372559 10.0321569442749 12.7810583114624 -0.518491327762604 8.66922092437744 1.22639489173889 17.8938980102539 1.80717122554779 0.732208967208862 0.363473027944565 -0.148036181926727 0.684134244918823 11.3523626327515 23.7624740600586 2.37794065475464 2.13341093063354 1.7353572845459 11.454213142395 0.639727592468262 29.2384567260742 7.62626504898071 -0.930137157440186 -1.23131239414215 -1.74497044086456 -2.30104088783264 -2.09702587127686
1.68655180931091 1.17867791652679 1.50762748718262 1.57799315452576 1.4975700378418 1.51975202560425 1.42828679084778 1.36132204532623 1.32408726215363 1.27879118919373 1.43427217006683 1.51496911048889 1.94245874881744 2.0855724811554 2.25777435302734 1.86504089832306 1.55291759967804 -8.23811860755086e-05 0.0331523343920708 0.0862927809357643 0.225300624966621 0.385146886110306 0.574363768100739 0.795399010181427 2.96629500389099 4.0488224029541 4.92233180999756 7.27598810195923 0.520908832550049 3.00816249847412 31.81760597229 14.3187131881714 13.0881586074829 7.44485950469971 3.48567485809326 3.85406184196472 4.23677587509155 3.63689661026001 3.49491620063782 2.83947944641113 3.21984028816223 3.35756921768188 3.63282656669617 2.87674355506897 2.86276364326477 2.81696343421936 2.56290221214294 2.78108501434326 2.26949310302734 2.55936121940613 2.60037732124329 2.62018704414368 2.98140573501587 3.41324877738953 3.39375400543213 3.46517157554626 3.12056088447571 3.11691236495972 3.10625147819519 3.04162001609802 3.2355682849884 3.18569397926331 3.45019459724426 18.8331298828125 2.98647308349609 2.32963848114014 1.99211049079895 0.99021452665329 1.30587470531464 1.04486608505249 8.86105060577393 1.24517250061035 12.9176225662231 0.672677755355835 8.74859142303467 0.749104559421539 0.874788343906403 15.3427515029907 2.13873910903931 9.9167537689209 17.9061679840088 7.58105039596558 6.92817163467407 5.76877546310425 3.39306116104126 1.55835199356079 2.03610968589783 5.74299764633179 8.13645553588867 7.56717967987061 11.0457468032837 6.46084594726562 5.54102659225464 1.50868463516235 11.7063131332397 3.3789439201355 4.2279372215271 2.16095995903015 1.6338574886322 1.12643003463745 1.55125439167023 12.3207206726074 -0.120984137058258 -1.90201616287231 -1.18334460258484 25.9180355072021 20.8066825866699 20.6013107299805 -0.00283690891228616 1.15093636512756 2.7913920879364 18.0720405578613 14.3819217681885 25.8012161254883 3.76038265228271 3.38976716995239 6.61855745315552 2.70794057846069 0.681419551372528 -0.0714328661561012 5.89025974273682 24.0344543457031 22.3439884185791 50.9779777526855 15.7865009307861 22.3349380493164 14.5581197738647 6.5566668510437 4.43487405776978 9.95580291748047 14.283540725708 5.75462770462036 29.0874710083008 9.39244079589844 6.79780101776123 17.175838470459 44.9500961303711 11.6665382385254 23.2700710296631 16.6118030548096 7.84249544143677 11.6756200790405 13.210732460022 13.0106086730957 12.7422485351562 21.7297973632812 24.1009502410889 17.6628150939941 14.3038234710693 -0.815235316753387 21.4194869995117 13.7478704452515 10.244252204895 11.6457853317261 3.76432108879089 0.257587939500809 4.87153339385986 4.01157236099243 0.828284800052643 0.540373146533966 1.23709905147552 0.716072082519531 1.95725798606873 2.3548264503479 2.66501975059509 2.71325778961182 1.71227848529816 0.844760715961456 -0.015125541947782 0.00461491895839572 -0.253480285406113 -0.184223502874374 0.423442155122757 -0.8446284532547 -1.96862351894379
2.28585290908813 1.83684325218201 1.5487322807312 1.61552667617798 1.59814870357513 1.58466196060181 1.51737189292908 1.4593847990036 1.40681982040405 1.33118641376495 1.50125050544739 1.58839571475983 2.03745007514954 2.09895825386047 2.35460758209229 1.97459650039673 1.64151608943939 0.0541828013956547 0.0548238232731819 0.175357595086098 0.263663709163666 0.380155026912689 0.5722616314888 0.798425257205963 2.80191540718079 4.3480110168457 4.48578500747681 2.48814845085144 3.38479018211365 8.2785120010376 7.27953910827637 19.4538249969482 7.57962942123413 8.9993200302124 9.2265567779541 3.81020617485046 4.11504554748535 4.53154039382935 3.74347805976868 3.69676828384399 3.29720640182495 2.93108129501343 3.75093197822571 3.55415034294128 2.92280054092407 2.88482999801636 2.73047280311584 2.77346014976501 2.88774108886719 2.06143808364868 3.07148838043213 2.74292540550232 3.06757354736328 3.48571062088013 3.72959065437317 3.54186034202576 3.29514169692993 3.26477551460266 3.20292568206787 3.11128330230713 3.33036375045776 3.31991648674011 3.19291520118713 1.48542726039886 3.2074728012085 2.55377459526062 2.28532409667969 26.9644050598145 10.4039535522461 1.69459569454193 1.50076806545258 1.65793681144714 6.13280296325684 15.3544054031372 0.775403141975403 9.2229118347168 1.17339134216309 1.02428066730499 11.6831092834473 21.7806930541992 25.4367904663086 25.1273994445801 5.44723463058472 7.81484651565552 8.32474899291992 2.5555944442749 1.74563360214233 1.93232476711273 6.06053686141968 15.3344984054565 16.8614635467529 19.2066783905029 14.8424339294434 3.06323266029358 4.0045428276062 4.03430271148682 3.81547164916992 4.07472085952759 2.07517266273499 2.96547198295593 8.12334632873535 4.55987501144409 5.99156475067139 -1.28346991539001 -0.818565487861633 -0.943267405033112 -0.752756297588348 -0.827602207660675 11.8064641952515 7.74079751968384 3.99019622802734 1.813267827034 28.4808444976807 0.412902295589447 4.75614595413208 5.87427377700806 8.35928916931152 4.40665674209595 1.94481837749481 0.819200754165649 0.95550400018692 14.0955657958984 41.8283615112305 9.88391590118408 15.2119579315186 6.85878944396973 12.332727432251 7.10917901992798 4.10193824768066 19.2436580657959 26.546968460083 27.5744915008545 -4.09084701538086 29.8736534118652 3.17223525047302 0.375892847776413 21.1787929534912 26.1272315979004 9.75808334350586 2.13370490074158 8.54881381988525 5.96417236328125 8.47999095916748 16.3960723876953 14.0265531539917 6.59007787704468 9.43966865539551 4.17384099960327 3.98287796974182 22.9359149932861 -0.420340955257416 -1.12372219562531 -0.267320573329926 21.0273685455322 17.2501735687256 10.1214723587036 0.340674459934235 0.819723844528198 0.846518456935883 0.858873724937439 1.45737278461456 34.8741264343262 2.38316917419434 3.14773416519165 2.89295959472656 3.10985660552979 3.20233201980591 1.93884122371674 1.32812857627869 0.290959626436234 0.316923826932907 0.0508626289665699 -0.334593623876572 -0.546437084674835 -0.237398862838745
2.68317532539368 1.73373007774353 1.49383366107941 1.60565209388733 1.67619264125824 1.57898414134979 1.63714134693146 1.54616343975067 1.4690488576889 1.50097048282623 1.55914437770844 1.6432694196701 1.67172801494598 3.60566234588623 2.42083811759949 2.04612112045288 1.8977392911911 0.0848227366805077 0.174228861927986 0.252693474292755 0.309419542551041 0.393227994441986 0.584209322929382 2.18228387832642 2.16471314430237 3.28406310081482 4.21297168731689 6.32493925094604 11.2428684234619 7.83045434951782 0.874499082565308 20.8572120666504 29.5185108184814 10.9840259552002 10.7368097305298 3.78433656692505 4.25989103317261 4.71107530593872 4.00763607025146 3.79634642601013 3.04798650741577 3.44748592376709 3.61418890953064 3.87575912475586 3.04508399963379 3.03476691246033 3.00675749778748 2.74191784858704 2.97075843811035 2.86399555206299 3.12235116958618 2.79023170471191 2.96232151985168 3.11974263191223 3.80969905853271 3.60184335708618 3.64900970458984 3.33139038085938 3.30427265167236 3.30406165122986 3.22514152526855 3.4538254737854 3.31598091125488 3.69016432762146 1.9719854593277 4.67411994934082 2.83947968482971 2.54278779029846 1.90248334407806 2.38410592079163 1.73687243461609 7.42911434173584 10.558614730835 1.01629483699799 1.10022020339966 0.801704943180084 2.20675587654114 12.20046043396 11.3190231323242 2.39636254310608 1.43331527709961 1.76859998703003 7.86408519744873 9.61458683013916 10.3570108413696 7.86771249771118 6.29164171218872 10.5927505493164 17.1726913452148 9.02880096435547 8.25233554840088 4.51584053039551 5.87966108322144 10.8746728897095 36.2154350280762 12.1479501724243 6.14991521835327 4.92085981369019 4.33768081665039 3.92243981361389 3.24062919616699 26.9236106872559 0.589751303195953 1.42750525474548 -0.398306638002396 -0.279544442892075 -0.328689187765121 8.95133590698242 0.0114192357286811 0.60968691110611 1.97425580024719 7.16391658782959 12.0402803421021 38.5861015319824 13.7089748382568 24.4467334747314 11.0369291305542 9.8335542678833 7.96621227264404 0.735632419586182 5.42574119567871 10.1066465377808 -0.191764146089554 6.16741132736206 18.746976852417 9.08596515655518 13.2984428405762 8.90377521514893 14.8589391708374 -3.22951245307922 -3.82777333259583 -3.83427047729492 -3.28534531593323 -2.88178777694702 8.7528829574585 14.2289896011353 4.54969453811646 4.62447309494019 3.10615158081055 21.903003692627 15.7039079666138 9.52699565887451 -1.21358072757721 0.0843063294887543 10.2985534667969 13.9906387329102 -0.959764182567596 -1.04842042922974 -0.678249835968018 0.475271910429001 0.531127631664276 -0.974639892578125 20.6778945922852 -0.405853271484375 2.7954797744751 0.269327998161316 0.604560434818268 4.86940717697144 4.16717195510864 1.37059032917023 1.37552797794342 2.07099890708923 2.75668239593506 3.3085765838623 2.85307860374451 3.19376587867737 3.41700553894043 3.39138555526733 2.34471201896667 1.99284899234772 1.87066113948822 2.18123245239258 2.15376424789429 2.51688623428345 2.34419131278992
1.18729305267334 1.28222060203552 1.38208174705505 1.61607587337494 1.74574565887451 1.7195862531662 1.71949994564056 1.63678395748138 1.63383102416992 1.60301220417023 1.8753719329834 1.73875796794891 1.80779123306274 4.82515525817871 2.44049167633057 2.56925415992737 2.14568543434143 1.88356244564056 0.256657928228378 0.301431775093079 0.350037723779678 0.424909651279449 0.636850833892822 1.82958173751831 0.839408755302429 3.23779702186584 3.98877429962158 4.70896768569946 3.52093744277954 17.0600357055664 1.75430703163147 2.41627335548401 1.65041053295135 30.5198535919189 14.5935907363892 19.2911338806152 4.18218946456909 4.5714898109436 5.04692602157593 4.15849351882935 3.46130704879761 3.53354930877686 3.2433500289917 4.03789377212524 3.88709783554077 3.11471128463745 3.15517330169678 3.19557404518127 3.10985445976257 3.04606699943542 2.89222073554993 3.21344923973083 3.02714109420776 3.2004599571228 3.66482210159302 3.92258071899414 3.72743582725525 3.47177243232727 3.44697499275208 3.40633535385132 3.3134982585907 3.53865838050842 3.5114631652832 3.33332419395447 3.7277934551239 5.19116258621216 3.34124231338501 3.52635407447815 14.1351490020752 9.91289806365967 18.1971549987793 3.86559820175171 8.8006010055542 13.241042137146 2.72533464431763 2.08264446258545 2.26408648490906 2.02928042411804 16.760763168335 5.71194553375244 5.71087169647217 3.04276776313782 9.34986019134521 9.99825668334961 13.0212640762329 12.8899345397949 9.64705753326416 11.9395170211792 6.46565198898315 8.18160343170166 13.1170301437378 14.3384628295898 2.85376882553101 3.89847636222839 1.9839950799942 13.5114059448242 10.2372016906738 7.12970733642578 4.63440036773682 4.31696939468384 4.20667457580566 1.67219316959381 1.09072363376617 2.12957262992859 2.88346362113953 0.322825461626053 0.740331947803497 0.490992903709412 1.04537796974182 1.72506785392761 2.29566311836243 16.2423973083496 1.91441559791565 2.85651469230652 10.6326761245728 9.2584285736084 17.1479587554932 13.5260953903198 9.46811485290527 8.98176097869873 3.72344040870667 8.14466190338135 -1.91066658496857 -1.92214584350586 4.38448286056519 3.00794553756714 22.5230178833008 10.539252281189 -2.87606406211853 -3.14603185653687 -3.42551779747009 -3.24869966506958 2.63958382606506 -2.52432799339294 8.66785144805908 1.85279953479767 4.1419939994812 15.7839422225952 2.93339538574219 -0.754761576652527 7.83503866195679 11.2804117202759 19.0911827087402 -0.438445240259171 -0.426961094141006 -0.442680954933167 -0.760734915733337 -0.80929571390152 -1.17264366149902 -1.18260288238525 5.90500164031982 0.925049602985382 -1.01086783409119 -0.262282371520996 -0.39891192317009 0.376331448554993 0.621518313884735 3.77070689201355 0.985135018825531 1.99841737747192 2.094571352005 3.42519497871399 2.82482981681824 3.00930643081665 3.56353354454041 3.34531617164612 3.66957020759583 3.70568656921387 2.83419013023376 2.22962951660156 2.21847462654114 3.16117429733276 3.87528610229492 4.59203147888184 4.29911184310913
4.07010555267334 1.23419415950775 1.2592875957489 1.5047994852066 1.69919407367706 1.76820778846741 1.71015620231628 1.7826669216156 1.721027135849 1.67367506027222 1.95940852165222 1.75317847728729 1.8708336353302 1.95398354530334 7.79266405105591 2.63017201423645 2.3169105052948 2.17039012908936 0.280308067798615 0.33314311504364 0.381828278303146 0.467506468296051 0.669419467449188 0.742171943187714 0.842419624328613 2.90391564369202 3.54860711097717 4.51442432403564 4.41320514678955 4.03927516937256 39.6441497802734 2.56067419052124 2.22882151603699 2.75435900688171 19.4588069915771 12.6941699981689 4.15963172912598 4.69553375244141 5.22325801849365 4.40048551559448 4.12225580215454 3.28151321411133 3.7087562084198 3.90555715560913 4.21558952331543 3.23834228515625 3.19985008239746 3.25039839744568 3.17010450363159 3.11694288253784 2.99457979202271 3.27629208564758 3.08269119262695 3.13878679275513 3.28016448020935 4.00793313980103 3.79165172576904 3.8509578704834 3.54842901229858 3.52449798583984 3.52977895736694 3.41166687011719 3.62593388557434 3.48830628395081 4.25108861923218 3.49853920936584 5.3876371383667 4.54972362518311 4.20548295974731 2.59654808044434 1.95164978504181 2.02804470062256 1.42151939868927 1.38570606708527 3.73237657546997 2.62378430366516 2.94787287712097 3.50593423843384 1.05234253406525 -0.0748385712504387 0.00556127028539777 4.13303756713867 9.15509700775146 14.8841180801392 16.3512516021729 23.7841663360596 19.176441192627 9.56372833251953 19.8848037719727 20.8277816772461 1.46372652053833 3.02017140388489 0.357372432947159 2.78345704078674 12.591326713562 13.8064279556274 8.61884880065918 8.00308513641357 7.11170387268066 4.99865007400513 5.23432493209839 5.84700012207031 5.15599822998047 4.13283443450928 4.21195602416992 2.20036888122559 1.71546900272369 1.65321242809296 1.74925923347473 2.1740620136261 7.68672609329224 7.00719976425171 7.62755727767944 7.38968515396118 13.6700830459595 11.929726600647 10.4444780349731 25.4509334564209 16.2867755889893 11.3296842575073 3.38175535202026 5.94866991043091 11.5493640899658 -1.81728172302246 -2.02335786819458 13.3479852676392 -1.54078507423401 -2.86732578277588 -2.80604648590088 -0.718897044658661 -2.46131038665771 -3.15410804748535 -2.61229276657104 -1.87606585025787 -1.88272953033447 8.39639377593994 8.35999488830566 14.1018314361572 12.5977725982666 4.12665748596191 2.6667115688324 5.1655158996582 13.1616115570068 1.57049012184143 0.305992633104324 0.10711557418108 5.91619634628296 4.14285564422607 -1.04662036895752 3.70223093032837 -1.18320167064667 -0.779343843460083 8.849778175354 -0.0976259261369705 0.0435831882059574 0.165358915925026 0.878138601779938 0.861302852630615 1.04856336116791 2.08327460289001 3.40683126449585 32.4715042114258 3.69369602203369 3.12557411193848 3.69800090789795 3.21596002578735 3.6506233215332 3.9857714176178 4.02192544937134 2.9860622882843 2.47413992881775 3.10416531562805 4.22831439971924 5.22132730484009 4.72218036651611
4.29740047454834 1.72601294517517 1.31404232978821 1.53678703308105 1.68315732479095 1.82246732711792 1.82695591449738 1.85443818569183 1.79267013072968 1.77177381515503 1.80105340480804 2.04204297065735 1.93568193912506 2.01973581314087 10.6966304779053 2.67360234260559 2.9247031211853 2.48554730415344 2.10063600540161 0.340412586927414 0.454922020435333 0.796963393688202 0.65486878156662 0.697663903236389 0.832665264606476 0.927383303642273 3.48871064186096 4.28463363647461 5.08886051177979 4.22223520278931 2.09334754943848 2.67226600646973 3.44214129447937 3.54394364356995 23.4128456115723 18.9419040679932 39.2979431152344 4.82938814163208 5.37617444992065 4.7101092338562 4.42078733444214 3.8419451713562 3.79459142684937 3.57306361198425 4.35641956329346 3.31278324127197 3.26196789741516 3.29882454872131 3.35186123847961 3.25926661491394 3.05811858177185 3.07540154457092 3.39418053627014 3.2101263999939 3.37079524993896 3.8822135925293 4.14828109741211 3.94226479530334 3.68672871589661 3.68775391578674 3.61791253089905 3.48675560951233 3.72674226760864 3.70458745956421 3.5027437210083 4.45938539505005 5.72108221054077 4.93197584152222 5.2743673324585 4.54257106781006 2.31740212440491 13.4345283508301 5.65466928482056 1.92031896114349 6.92991924285889 5.31624126434326 3.22940349578857 3.71794104576111 2.37276935577393 1.03056561946869 1.84573674201965 1.40602123737335 17.1644725799561 15.6721048355103 23.2968597412109 15.1159887313843 31.8068027496338 22.7508525848389 1.54343593120575 0.755864918231964 0.377585500478745 2.42457485198975 7.61018085479736 0.611712634563446 0.369074076414108 5.0507287979126 11.99289894104 14.8960208892822 7.8600902557373 10.0726346969604 7.11738061904907 6.98364543914795 6.02109289169312 6.18685865402222 6.55907106399536 5.80462741851807 2.38055777549744 2.49110245704651 2.54797124862671 2.89564538002014 14.5993585586548 2.90731954574585 1.94265413284302 7.58891725540161 14.7617979049683 16.2961483001709 13.7787294387817 13.9170064926147 20.3958530426025 15.04896068573 14.5026063919067 1.39036560058594 0.636270701885223 10.6243686676025 1.76870131492615 -2.23338842391968 -2.29050540924072 -2.48659873008728 -2.46072173118591 -2.75958466529846 -2.33148860931396 -2.52404928207397 -2.39831113815308 -1.35054314136505 -1.00302469730377 -0.318062871694565 0.429171591997147 0.315025210380554 1.84612381458282 11.1561250686646 0.379654943943024 -0.341594487428665 -0.291498750448227 18.2224063873291 3.01160454750061 4.05858135223389 14.6580505371094 9.61061954498291 4.98392629623413 9.09682178497314 2.78951072692871 -0.927685260772705 -0.6039679646492 7.97574949264526 4.66393041610718 12.4426870346069 2.09173631668091 1.14244151115417 1.29442942142487 2.22332882881165 31.1743507385254 2.34342503547668 3.80524063110352 3.13876390457153 3.37599420547485 4.01907253265381 3.85885882377625 4.21996879577637 4.28052663803101 3.42286777496338 2.75079417228699 2.72828936576843 4.7815728187561 5.54085111618042 5.98343324661255
4.53182077407837 0.937082052230835 1.30554687976837 1.49494779109955 1.78909873962402 1.90094101428986 1.88276767730713 1.93059432506561 1.86616182327271 1.84887719154358 1.80210876464844 2.07887434959412 1.88605308532715 2.0317587852478 2.09895968437195 26.8849830627441 3.00493836402893 2.55804800987244 2.16739869117737 0.351420104503632 0.386778682470322 0.466184258460999 2.29885911941528 0.723493576049805 0.803840696811676 0.922971308231354 3.14164447784424 3.83054971694946 4.93880987167358 5.28504419326782 4.42425060272217 1.72717380523682 2.72200584411621 3.56718230247498 4.2548508644104 12.3498163223267 2.60276961326599 4.68710470199585 5.19406938552856 5.75057029724121 4.74848318099976 4.47926187515259 3.51698589324951 3.98957014083862 4.48789930343628 4.31485605239868 3.3540620803833 3.37131762504578 3.42281436920166 3.33480644226074 3.31488037109375 3.17296743392944 3.47913670539856 3.25933456420898 3.31103801727295 3.48869657516479 4.25078296661377 4.0176887512207 4.07472276687622 3.79883337020874 3.74577069282532 3.75341510772705 3.61714267730713 3.86153101921082 4.08513784408569 5.30715465545654 3.92134523391724 6.10108995437622 5.8725757598877 6.10742378234863 4.5461688041687 2.63047623634338 2.04614233970642 2.82342767715454 3.81102061271667 4.07807350158691 3.92754745483398 3.21675515174866 4.16878414154053 2.54694414138794 6.48734521865845 1.11448800563812 0.695780277252197 7.18761444091797 2.74147272109985 -0.865509450435638 -1.13737201690674 0.849268436431885 2.6314914226532 2.9316577911377 1.91557013988495 0.102398037910461 0.0615234598517418 4.36541700363159 7.31611728668213 5.09669399261475 11.8970823287964 17.7438430786133 12.9720582962036 11.6491441726685 29.0364933013916 9.45443439483643 8.87801647186279 8.0236234664917 9.33287239074707 20.9744281768799 18.8510932922363 14.3312664031982 17.8517608642578 8.87649631500244 4.86699628829956 15.5131855010986 3.10412907600403 11.4530487060547 15.7681818008423 25.2422924041748 16.7595672607422 25.7325897216797 26.5382423400879 25.1941928863525 26.1320495605469 3.52606701850891 0.126419603824615 -1.16387104988098 -0.71195662021637 -1.598224401474 -2.01767659187317 -2.30527377128601 -2.37510180473328 -2.32582712173462 -2.45129251480103 -2.01606464385986 -2.10729217529297 -1.06635534763336 -0.667204558849335 -0.244245797395706 0.668748915195465 1.03560316562653 0.58404153585434 23.3055000305176 2.07356119155884 0.192393839359283 -0.0545417815446854 0.172254368662834 0.284342378377914 0.562241315841675 6.6394510269165 15.9941720962524 9.79777526855469 -0.998988568782806 -1.06560945510864 -0.939305245876312 -0.529572129249573 2.35803914070129 5.09640502929688 0.0926688015460968 0.598287999629974 1.67649447917938 1.85390961170197 2.42703914642334 23.8755588531494 3.89617085456848 3.16444134712219 4.15193939208984 3.59546947479248 4.25360441207886 3.74024605751038 4.23823118209839 4.60388088226318 4.65851449966431 3.45055365562439 2.94057440757751 4.51129388809204 6.0335054397583 6.74125242233276
1.70959424972534 5.16028499603271 1.30028569698334 1.52140772342682 1.82358753681183 1.83994710445404 1.95654857158661 1.88970518112183 1.98034167289734 1.90651035308838 1.86313593387604 1.91268515586853 2.17005205154419 2.06883955001831 2.1269519329071 1.88409173488617 2.94975090026855 3.1458785533905 2.68510389328003 2.27460598945618 0.413491010665894 0.477539658546448 0.579603731632233 0.762254774570465 0.766928493976593 0.899536550045013 1.065385222435 3.79380321502686 4.64064168930054 5.52917432785034 4.56189966201782 4.55136060714722 2.82621788978577 3.69239950180054 3.81978273391724 2.12409973144531 2.6385977268219 4.72675037384033 5.35944938659668 6.02629089355469 5.26465892791748 4.97957372665405 3.89340353012085 4.08747482299805 4.28209972381592 4.70995903015137 3.56996369361877 3.45454001426697 3.4818434715271 3.53972363471985 3.45866894721985 3.25148391723633 3.24899005889893 3.58183646202087 3.3693790435791 3.59519267082214 4.12993001937866 4.38749027252197 4.18070125579834 3.87490177154541 3.95261812210083 3.89077472686768 3.73392081260681 3.99514150619507 3.9990394115448 6.23002243041992 5.08014965057373 6.5733003616333 7.90617418289185 6.55585813522339 4.87556982040405 4.14412689208984 4.18687868118286 3.1161961555481 3.79333710670471 4.07401561737061 3.17972111701965 3.25366020202637 4.47691106796265 2.65785145759583 1.58851492404938 2.65626859664917 13.0103979110718 11.4729127883911 9.13878154754639 -0.0833558514714241 -1.00662457942963 -0.20243726670742 4.53858804702759 7.48911190032959 6.53073263168335 3.18270111083984 0.568869233131409 0.735024631023407 3.27315592765808 9.39287185668945 32.230785369873 17.0809745788574 26.5144023895264 8.92481231689453 6.93866205215454 10.7541399002075 10.575098991394 9.424072265625 10.0767488479614 7.25865936279297 6.52492237091064 8.06817531585693 7.24681663513184 2.97448968887329 3.53578305244446 3.01629781723022 4.25646305084229 4.96274375915527 16.8193855285645 26.5458812713623 43.8112983703613 33.5405616760254 31.2302265167236 38.8305244445801 12.754020690918 36.7471466064453 1.44658291339874 4.18546485900879 2.02887058258057 -0.651810944080353 -0.910317838191986 -1.56589996814728 -1.71450448036194 -1.99687337875366 -2.03715014457703 -0.427004605531693 -1.07518041133881 -0.441878646612167 0.0495399571955204 3.73266696929932 2.16545510292053 1.97562277317047 9.20917510986328 1.13050889968872 0.222553715109825 7.04483366012573 0.0919439196586609 0.464120954275131 0.402153462171555 0.762776374816895 0.141663163900375 0.0220715552568436 -0.578326642513275 -0.613254487514496 -0.537808418273926 -0.374935835599899 -0.404827684164047 0.690028846263885 -0.0112952617928386 0.218242764472961 1.16568744182587 2.80531764030457 3.9353928565979 3.89261817932129 2.30441117286682 9.70828819274902 3.8478684425354 4.39195966720581 3.69960784912109 4.006676197052 4.67823505401611 4.48151254653931 4.86549854278564 4.93547964096069 3.9102725982666 3.13056397438049 3.08374190330505 6.54759407043457 7.28447771072388
3.93488955497742 5.78790330886841 0.964727938175201 1.33780372142792 1.56269216537476 1.86450791358948 2.00916075706482 2.00685048103333 2.04454588890076 1.97425019741058 1.97326922416687 1.93416523933411 2.22776532173157 2.15756154060364 2.25658369064331 2.24457621574402 3.00828337669373 3.23786187171936 2.75888252258301 2.35353899002075 0.455012321472168 0.517052590847015 0.576602041721344 0.797250211238861 0.755000650882721 0.864259243011475 0.990646600723267 3.42197322845459 4.15906715393066 5.44226551055908 5.75830173492432 4.82774829864502 2.23204827308655 2.92741918563843 3.88546180725098 4.62466144561768 4.99246597290039 5.31015491485596 5.22561168670654 5.90303897857666 6.63415431976318 5.3004903793335 4.85118579864502 4.19240522384644 4.06318664550781 4.85425853729248 4.68599700927734 3.55069160461426 3.57440662384033 3.63187479972839 3.52885603904724 3.52776050567627 3.34048461914062 3.66350412368774 3.42067432403564 3.6758451461792 4.24173831939697 4.52012395858765 4.30204439163208 4.01507997512817 4.09151411056519 4.03525161743164 3.94772529602051 3.89798140525818 4.17151880264282 6.45815658569336 7.3573899269104 6.65010213851929 9.79471683502197 12.1592998504639 7.1984715461731 4.39608764648438 4.41005992889404 3.31047511100769 3.36182808876038 4.62790966033936 4.45474052429199 3.54485058784485 4.81647205352783 2.2890317440033 2.88563179969788 2.72816348075867 1.90554976463318 1.633420586586 -0.940823614597321 -0.0527256764471531 10.7735538482666 0.733779072761536 6.23066902160645 7.81584882736206 11.2910737991333 11.1290445327759 6.31378650665283 0.528640449047089 8.10959815979004 4.3747091293335 0.591533184051514 31.3885974884033 4.8096342086792 32.4679336547852 9.97328281402588 12.9496850967407 10.7790699005127 11.7581214904785 11.7765188217163 9.10055541992188 8.53662300109863 4.18561172485352 15.8952016830444 11.2007732391357 3.62150740623474 3.1716616153717 3.57536864280701 6.68395471572876 17.2170543670654 16.3952083587646 0.32915398478508 28.4518871307373 28.2839813232422 20.5106372833252 42.0209617614746 11.907187461853 7.46049499511719 3.21651434898376 0.941106200218201 12.9254369735718 -0.202054366469383 -0.796187996864319 -1.30329358577728 -1.48449075222015 -0.966171741485596 -0.852348029613495 -0.494035065174103 -0.395841956138611 4.4665412902832 16.438404083252 12.5322971343994 3.0877902507782 3.0368959903717 4.85334587097168 1.1070077419281 0.419098079204559 0.312595993280411 0.238697737455368 0.757214725017548 0.674711763858795 0.673397302627563 0.577648878097534 -0.0241479687392712 0.0166909005492926 -0.285146534442902 -0.135428085923195 -0.360042154788971 -0.372469127178192 -0.00257250294089317 0.847699224948883 4.75417041778564 3.35056710243225 4.28012990951538 4.26904726028442 4.33543252944946 4.59195709228516 4.48222637176514 3.72984099388123 4.84043216705322 4.24256658554077 4.92090892791748 4.72840404510498 5.11906290054321 5.20084190368652 4.32714223861694 3.65410757064819 3.37270283699036 6.09654998779297 8.18739891052246
1.31109917163849 2.73128890991211 7.20697402954102 1.24004781246185 1.60610663890839 1.90830135345459 1.96341264247894 2.0801215171814 2.00655817985535 2.12947678565979 2.04492974281311 2.01164174079895 2.09638333320618 2.33911418914795 2.29404187202454 2.38455128669739 3.00602722167969 3.22049140930176 3.41667413711548 2.9313006401062 2.53521656990051 0.565309107303619 0.611742734909058 0.700979769229889 0.781947374343872 0.812034428119659 2.66436266899109 2.43879771232605 4.15582418441772 5.74191331863403 6.10401487350464 5.11671495437622 3.14718270301819 3.08758664131165 4.0711669921875 4.22727298736572 5.19434404373169 5.52716207504272 5.3194317817688 6.09790277481079 6.91734790802002 5.85311126708984 5.14844655990601 3.89093017578125 4.4076361656189 4.71790266036987 5.0796856880188 3.90292930603027 3.6611225605011 3.66441464424133 3.72013235092163 3.62404727935791 3.41955924034119 3.76406478881836 3.37429904937744 3.5763783454895 3.81423258781433 4.61795425415039 4.36526966094971 4.4578914642334 4.25565958023071 4.16633605957031 4.23210191726685 4.04908561706543 4.32261323928833 4.26405048370361 9.13847637176514 9.96162509918213 9.56364727020264 17.7345390319824 10.5435819625854 8.05150413513184 5.08904886245728 4.02217483520508 3.64588522911072 5.20358943939209 4.64665365219116 3.69245862960815 4.14473009109497 5.70431327819824 3.00054550170898 3.14677119255066 3.28006863594055 0.869351625442505 0.250016212463379 12.6034030914307 4.670814037323 14.1461009979248 4.91892433166504 8.08663845062256 16.1457672119141 6.64105224609375 6.22273731231689 9.90036010742188 5.74880170822144 5.64896059036255 3.33418035507202 7.70757484436035 19.7226676940918 6.14952087402344 27.8549671173096 14.7309970855713 11.3095617294312 12.9755706787109 18.5080299377441 15.0596408843994 8.69814872741699 6.8051929473877 2.90240001678467 2.95746827125549 3.50130558013916 3.98326086997986 4.00650548934937 7.73920583724976 6.30851411819458 40.5305061340332 1.82794690132141 4.02227163314819 5.47912406921387 9.88111019134521 11.9053926467896 8.05625247955322 29.0399780273438 2.23138236999512 7.86335277557373 5.64782285690308 21.3855876922607 -0.0623089373111725 -0.286791563034058 -0.380754560232162 -0.0192130710929632 -0.620786607265472 -0.0727215856313705 0.19833567738533 21.6982555389404 32.4699821472168 20.1578102111816 4.56957721710205 3.25850701332092 2.10657739639282 4.95528125762939 0.768552184104919 0.559476494789124 0.25148132443428 0.980128645896912 1.02852344512939 1.38471019268036 1.01302099227905 1.19729816913605 0.289113909006119 0.411280691623688 0.109375633299351 0.0421447679400444 0.313455015420914 0.5882847905159 1.80302453041077 2.87444925308228 3.61704444885254 4.54798746109009 4.54572629928589 20.4665431976318 4.23036098480225 5.46255683898926 4.49141073226929 5.08169794082642 4.45709466934204 5.14369869232178 4.51726150512695 5.12125968933105 5.54887104034424 5.62706613540649 4.56984949111938 3.55298113822937 5.80577898025513 9.45614624023438
1.77548551559448 1.90721297264099 8.31398296356201 1.58904576301575 1.49750077724457 1.61641907691956 1.95941495895386 2.14786267280579 2.14708828926086 2.21202158927917 2.1517288684845 2.16925883293152 2.13739562034607 2.40811252593994 2.35834121704102 2.46922445297241 2.52462458610535 3.33546376228333 3.55781269073486 3.05085277557373 2.63120222091675 2.09403276443481 2.2750027179718 2.56467366218567 2.42519474029541 2.39685487747192 2.72157883644104 2.50539135932922 3.73264288902283 5.02707624435425 6.43050909042358 5.42688798904419 5.35245847702026 3.26265025138855 4.27842903137207 4.42276096343994 5.14450120925903 5.58549976348877 6.1576623916626 5.95839881896973 6.79336738586426 7.61711549758911 6.43667078018188 5.4268913269043 4.53049802780151 4.54486846923828 5.24175214767456 5.1420521736145 3.73062586784363 3.73352885246277 3.80569887161255 3.72193598747253 3.78610706329346 3.49454569816589 3.89587020874023 3.62046146392822 3.89535140991211 4.4818639755249 4.77221441268921 4.55374670028687 4.27392482757568 4.46783542633057 4.43419122695923 4.19439554214478 4.47147560119629 4.5035924911499 13.235559463501 14.353666305542 11.689564704895 19.5828456878662 35.2638740539551 11.6871662139893 5.93987655639648 6.04514169692993 3.93752264976501 4.66637325286865 6.90110445022583 5.35843276977539 4.59759950637817 6.32993650436401 2.69114971160889 3.28471302986145 3.59120512008667 3.03914570808411 4.50177335739136 4.35928583145142 1.00476813316345 4.74082279205322 9.20013046264648 8.96472549438477 17.7101020812988 13.7604207992554 6.96163511276245 0.859498381614685 1.800577044487 0.214298769831657 0.849226951599121 1.24817109107971 2.08254909515381 10.0569944381714 11.4474906921387 29.367712020874 16.7427616119385 14.6876316070557 12.5313749313354 15.869215965271 19.2605266571045 11.2401876449585 8.87322902679443 7.70455169677734 3.86008954048157 5.63296890258789 4.85308027267456 6.2580714225769 9.26796436309814 2.66975569725037 1.69098138809204 0.763382792472839 -0.524878919124603 -0.954481899738312 -1.38420498371124 -0.378541022539139 0.454490125179291 15.4966173171997 1.69510865211487 5.82482528686523 0.816320776939392 9.59692668914795 0.785019755363464 0.385231047868729 0.351660132408142 -0.193197414278984 0.248309105634689 0.984496712684631 1.49999129772186 28.4442386627197 55.9484825134277 38.5723304748535 3.38422989845276 3.33573412895203 1.41901981830597 1.42804181575775 7.35671520233154 0.770630121231079 1.04387140274048 1.44725799560547 1.09333610534668 1.6262629032135 1.57581436634064 1.03661382198334 0.701732099056244 0.546324491500854 0.639389395713806 0.633507311344147 2.17416715621948 2.70269393920898 3.58608651161194 15.023494720459 4.09362840652466 5.14714097976685 4.2899317741394 5.09849214553833 5.76446008682251 5.15806674957275 5.31753396987915 4.46838617324829 4.81462478637695 5.52306270599365 5.34382009506226 5.79691648483276 5.89957857131958 4.98322010040283 4.29780101776123 4.37533569335938 9.98494052886963
3.15163683891296 1.6799898147583 1.28773975372314 11.768835067749 1.38429534435272 1.65778863430023 1.9973132610321 2.07732152938843 2.19209146499634 2.14174103736877 2.29716444015503 2.29736995697021 2.28112816810608 2.51254367828369 2.31999492645264 2.5388662815094 2.66584229469299 3.48313879966736 3.71576499938965 3.18486380577087 2.86538791656494 2.14658188819885 2.51336288452148 2.61556267738342 2.48898005485535 2.46470832824707 2.41864705085754 2.77243614196777 2.53415203094482 4.80929946899414 6.42879867553711 6.77561473846436 5.6798152923584 2.37031960487366 3.44583606719971 4.5829005241394 5.38691091537476 5.8735146522522 6.5541729927063 6.27447843551636 7.14986419677734 8.02323055267334 7.06890487670898 5.70289945602417 4.19947290420532 4.7656512260437 5.22174549102783 5.52665710449219 4.25369930267334 3.85920810699463 3.88245272636414 3.79979658126831 3.86317372322083 3.61405277252197 3.97283005714417 3.69246125221252 3.75915455818176 4.04260540008545 4.88750648498535 4.62537717819214 4.72514200210571 4.61367845535278 4.55954694747925 4.70272254943848 4.38798379898071 4.64524745941162 4.59097623825073 25.9072952270508 27.9988574981689 11.0007410049438 5.11753940582275 30.788703918457 24.5406436920166 9.14795875549316 6.90226268768311 5.83873748779297 8.42212009429932 5.62790822982788 4.743736743927 5.82835912704468 7.78010654449463 3.38705468177795 3.85685753822327 3.56334519386292 4.85236787796021 4.78578042984009 13.1193857192993 18.4852867126465 13.0893125534058 5.69688510894775 7.0747013092041 1.97837817668915 0.781371474266052 1.19282376766205 0.994682312011719 1.91547107696533 3.84218692779541 1.97572886943817 4.19598817825317 7.37233829498291 12.1595840454102 14.4134845733643 16.6414909362793 31.4080085754395 28.4256839752197 19.7023162841797 18.4366836547852 22.4209537506104 35.4026184082031 23.123514175415 7.10969400405884 10.9663305282593 13.7911357879639 8.04256629943848 10.45032787323 4.49087524414062 2.99840784072876 1.73170721530914 0.529956579208374 -0.456240236759186 0.608330130577087 0.871067881584167 31.6985263824463 1.53941404819489 16.8386383056641 1.31562542915344 1.40910911560059 1.38992941379547 2.20172619819641 1.67731177806854 1.79602432250977 0.794527769088745 13.9963188171387 1.34858632087708 28.120433807373 51.246395111084 1.47977757453918 23.4758548736572 9.37104892730713 4.96350193023682 2.25744581222534 1.57208728790283 0.912630259990692 1.07988393306732 0.901155591011047 1.48501265048981 1.39228141307831 2.55850172042847 1.82890975475311 7.19791030883789 0.986570775508881 1.52329075336456 1.80280828475952 2.02683353424072 8.41181087493896 5.69267129898071 6.02851724624634 3.39119148254395 4.39361429214478 5.336350440979 5.48742437362671 5.37542295455933 6.06907939910889 5.6314582824707 5.02481937408447 5.73175382614136 5.03563499450684 5.76684379577637 5.08157920837402 5.81875991821289 6.29205179214478 6.35614395141602 5.25149440765381 4.70552110671997 9.21884822845459
3.25377464294434 1.91465628147125 1.3365626335144 16.1169128417969 1.08968114852905 1.85350334644318 1.85260224342346 2.05792140960693 2.24679493904114 2.27000403404236 2.39488339424133 2.42205810546875 2.48273348808289 2.56741189956665 2.68152856826782 2.61023640632629 2.692143201828 3.48520064353943 3.73437213897705 3.97166228294373 3.39846134185791 2.92252326011658 2.56495308876038 2.56161141395569 2.74135231971741 2.51712489128113 2.49386048316956 2.83432602882385 2.59727668762207 4.77896165847778 5.87203741073608 7.18191003799438 6.06467437744141 6.03616809844971 3.6622838973999 4.8489875793457 5.01761865615845 5.78140735626221 6.39872407913208 7.35503911972046 7.06649541854858 8.09287261962891 9.12406253814697 7.36454153060913 5.73604440689087 4.88705968856812 5.11336469650269 5.68310451507568 5.59800910949707 3.97506976127625 3.95450973510742 3.9953145980835 3.90619349479675 4.01973724365234 3.75297999382019 4.12253427505493 3.84111142158508 4.14480638504028 4.76884841918945 5.07405042648315 4.85594606399536 4.64320993423462 4.89826536178589 4.86779832839966 4.55960750579834 4.75404691696167 4.76300621032715 3.56281971931458 7.93900632858276 28.3926334381104 5.28028059005737 6.46029663085938 7.74841547012329 8.81389999389648 18.4410305023193 6.23076772689819 8.57249641418457 12.0399150848389 6.21336364746094 6.59645128250122 9.10157299041748 3.40803337097168 3.8953423500061 4.21020030975342 5.26630592346191 2.37088847160339 18.1705436706543 8.85395431518555 7.13323163986206 5.12232732772827 3.75217843055725 -0.583212733268738 3.35119700431824 7.84682130813599 6.28826189041138 0.988459944725037 8.59217834472656 4.15944528579712 9.67637538909912 7.32933473587036 6.99947881698608 15.4793663024902 30.6315841674805 13.4703788757324 23.1734104156494 30.8758087158203 18.8548126220703 30.6086082458496 26.7520141601562 19.4125919342041 40.9665565490723 15.0293378829956 18.7947387695312 9.03092479705811 12.3003692626953 17.7598934173584 6.04076910018921 6.9741792678833 4.49767541885376 1.37312090396881 1.67327189445496 1.48333716392517 0.697617769241333 4.52977609634399 2.18112349510193 5.28308868408203 1.82181060314178 2.52477169036865 2.66354179382324 2.49250864982605 2.12898588180542 1.71153819561005 0.40671706199646 1.44590270519257 38.7443618774414 1.75858950614929 1.91155481338501 1.9909645318985 38.1329612731934 8.04048252105713 3.66258692741394 2.21616268157959 1.72706317901611 1.43838047981262 1.29788160324097 1.40691483020782 1.73186182975769 1.80260181427002 1.88918340206146 1.60242927074432 1.709064245224 2.04079961776733 2.5355236530304 2.43248748779297 4.12204313278198 20.4273338317871 14.4557704925537 19.5670852661133 4.70424509048462 5.82093620300293 5.81934976577759 5.70430183410645 5.88060188293457 6.64954328536987 5.50864553451538 6.09593296051025 5.10916423797607 5.52356386184692 6.28846311569214 6.12398958206177 6.61540365219116 6.68472862243652 5.69750165939331 5.00765228271484 6.49311017990112
3.87944293022156 2.3603343963623 3.40276145935059 1.41903293132782 34.3270645141602 1.89813268184662 1.8938981294632 2.10756921768188 2.21033096313477 2.37837600708008 2.38325357437134 2.62307643890381 2.56830382347107 2.51445722579956 2.74516582489014 2.5712947845459 2.80302667617798 2.966956615448 3.8661253452301 4.14436292648315 3.55979704856873 3.13388347625732 2.40280914306641 2.6661548614502 2.78748178482056 2.58113980293274 2.56687068939209 2.52486634254456 2.88827347755432 4.26749038696289 5.35078573226929 7.31787061691284 7.65941047668457 6.47831249237061 2.47128224372864 3.91880941390991 5.22696113586426 6.07529163360596 6.75228118896484 7.93366479873657 7.57523822784424 8.64828872680664 9.71578788757324 7.91333723068237 6.89852237701416 4.72611093521118 5.34971570968628 5.94398403167725 6.00651025772095 4.56729793548584 4.11774158477783 4.14562749862671 4.00968551635742 4.1379542350769 3.84381222724915 4.24326705932617 3.93520188331604 3.99071955680847 4.32421827316284 5.21375799179077 4.96648788452148 5.07833671569824 5.04133462905884 4.89366769790649 4.98877382278442 4.68297576904297 4.920569896698 5.9103102684021 15.5600996017456 3.96964120864868 7.07669019699097 8.10843467712402 12.4436140060425 10.9408006668091 5.74045658111572 21.8365898132324 11.9355325698853 15.3841876983643 6.28577136993408 5.63013935089111 8.95222949981689 12.1473712921143 4.31795835494995 4.6449670791626 3.93392419815063 5.56863737106323 8.30855846405029 38.068603515625 -0.674856781959534 0.334863215684891 7.09015655517578 0.650980055332184 5.59669160842896 4.85570096969604 18.5640754699707 1.40922522544861 1.23841893672943 4.94332218170166 13.7999114990234 14.1859502792358 7.08666324615479 20.645040512085 23.6929302215576 19.7286949157715 20.9690437316895 29.5959529876709 27.4052982330322 22.6248016357422 12.528862953186 37.6360168457031 6.84652137756348 10.0965042114258 24.8584651947021 31.7627334594727 12.9455680847168 25.7222576141357 10.963436126709 4.25160026550293 8.27062606811523 6.42794466018677 7.50156402587891 4.61333990097046 21.9200801849365 8.67002010345459 5.52195882797241 8.53265380859375 2.36068272590637 24.2335433959961 2.89351344108582 2.70545411109924 2.56692147254944 1.93324327468872 1.3219096660614 1.31690144538879 2.48854064941406 1.81625914573669 2.18661856651306 7.35438251495361 2.78494668006897 31.2799606323242 22.6138668060303 3.49134731292725 3.28516745567322 2.57173991203308 1.79560005664825 1.75757026672363 2.11036205291748 1.92056250572205 2.68139910697937 2.44621396064758 4.05298137664795 3.86666417121887 4.24508810043335 4.4078197479248 10.0456056594849 29.6039047241211 21.8995895385742 3.98307204246521 4.72078418731689 5.29510974884033 6.45661211013794 6.45983600616455 6.3105583190918 7.04289770126343 6.3340220451355 5.54602336883545 6.69792127609253 5.95612192153931 6.73833131790161 5.91904830932617 6.76115655899048 7.21019887924194 7.21268606185913 6.03910493850708 6.81881093978882
10.4745206832886 3.96768951416016 5.09426498413086 1.5241574048996 0.0674503073096275 1.52219951152802 1.99586117267609 2.15521740913391 2.2182092666626 2.51003289222717 2.54615449905396 2.71208024024963 2.68494248390198 2.64656400680542 2.80809736251831 2.94518804550171 2.97619199752808 3.03925204277039 3.86039018630981 4.09429025650024 4.38672304153442 3.77789664268494 3.28731513023376 2.72689890861511 2.7223105430603 2.86896014213562 2.62464690208435 2.62217593193054 2.97646260261536 2.71025061607361 5.33944940567017 6.57685232162476 8.22223091125488 7.03177213668823 6.94791316986084 4.16118812561035 5.5490026473999 5.73722553253174 6.56734132766724 8.62061023712158 8.19092845916748 9.2948522567749 10.4445905685425 9.51528835296631 7.96114778518677 6.65999317169189 5.23033237457275 5.82256937026978 6.47416353225708 4.6757345199585 4.1211462020874 4.15956163406372 4.19334316253662 4.19373178482056 3.89343214035034 4.03141927719116 4.40189790725708 4.09116315841675 4.45373249053955 5.12738084793091 5.43247365951538 5.17164182662964 4.928297996521 5.17387247085571 5.16307544708252 4.82292556762695 4.94640159606934 4.81364440917969 3.77978277206421 29.9479370117188 8.8795108795166 39.3878555297852 9.98760223388672 9.92297267913818 13.7197513580322 4.92135047912598 12.4555578231812 22.3040504455566 29.906925201416 7.96806764602661 11.4434623718262 16.1538734436035 4.30579137802124 4.22584009170532 3.63118147850037 5.83310556411743 3.16768836975098 -0.872327208518982 0.864526331424713 1.11049294471741 7.613525390625 5.64150190353394 6.94820737838745 0.083855539560318 1.968376994133 13.3216724395752 1.11807715892792 1.62465953826904 2.34244155883789 2.30815458297729 8.2417573928833 16.9364414215088 20.8189888000488 14.0686902999878 17.6843338012695 12.602484703064 25.3182888031006 28.1655731201172 27.0810279846191 17.7200965881348 30.7662372589111 28.0158576965332 4.50184679031372 4.34547424316406 13.038537979126 4.95089101791382 32.1248931884766 12.3215885162354 8.68385696411133 8.60243797302246 7.7425217628479 7.65834140777588 5.64347648620605 10.1941356658936 9.8460693359375 12.1158504486084 6.31913948059082 6.52316284179688 18.0440692901611 2.8943042755127 2.69909811019897 2.32191681861877 2.34775567054749 1.9520720243454 2.8382568359375 2.95992803573608 2.93038821220398 2.54061508178711 2.82505011558533 3.21084380149841 3.43643260002136 4.19665336608887 4.34234571456909 2.82020092010498 3.29967308044434 2.46747016906738 2.59459543228149 2.8921320438385 3.4017813205719 3.14245772361755 4.63548517227173 4.33808851242065 4.54856967926025 4.72228622436523 16.4961051940918 4.76198530197144 52.8939666748047 41.4683570861816 5.27596426010132 5.68168354034424 6.8745813369751 6.87182474136353 6.72686386108398 6.84686231613159 7.75466012954712 6.53898763656616 7.23530864715576 6.14652395248413 6.67797994613647 7.43843936920166 7.21569013595581 7.62605285644531 7.57696914672852 6.48498487472534 5.46587562561035
13.1286067962646 4.97289943695068 8.86080551147461 12.5157146453857 0.0496214851737022 1.37234616279602 1.98334360122681 2.17547678947449 2.2363498210907 2.58727049827576 2.64313840866089 2.8335075378418 2.83795094490051 2.86225914955139 2.85153269767761 3.20285081863403 2.99363112449646 3.20016598701477 3.36231422424316 4.24193668365479 4.59605693817139 3.97881770133972 3.41323900222778 2.55401134490967 2.83944177627563 2.9372570514679 2.68138241767883 2.69662857055664 2.65396881103516 3.03491711616516 4.77570390701294 6.09365272521973 8.57301044464111 8.8533992767334 7.52330875396729 2.59317135810852 4.54831552505493 6.06237602233887 6.95869159698486 8.04776859283447 10.1023464202881 9.67479991912842 10.9581184387207 12.2723579406738 10.0376958847046 7.21153163909912 4.83737945556641 6.11917114257812 6.9000358581543 6.36314010620117 4.16182899475098 4.2577543258667 4.25217390060425 4.17680835723877 4.3162727355957 3.97542190551758 4.42067098617554 4.10160493850708 4.30842399597168 4.57525777816772 5.49763774871826 5.17467880249023 5.2990026473999 5.35459852218628 5.22243022918701 5.3316535949707 4.92667531967163 5.11303615570068 6.03323459625244 3.12104463577271 6.82579326629639 7.47673511505127 19.4124221801758 14.1132946014404 16.2054882049561 26.0733947753906 11.6617698669434 2.80737280845642 2.70925092697144 7.02937364578247 6.25059413909912 19.516809463501 29.6145420074463 3.45559692382812 3.69491767883301 2.08795166015625 7.18014097213745 0.918835341930389 6.8586540222168 3.60206604003906 -0.403811752796173 12.0824794769287 5.17362117767334 -0.104836873710155 0.695508778095245 0.715224385261536 3.28727173805237 2.0120108127594 2.360675573349 2.62456512451172 3.41080808639526 9.63553905487061 7.0876088142395 14.3915414810181 10.5770797729492 12.6371622085571 15.8890810012817 28.1256408691406 36.852653503418 21.4057083129883 12.7332468032837 24.8506526947021 5.70107746124268 4.61859607696533 4.84656524658203 4.15660858154297 3.03339505195618 11.9030199050903 29.1958789825439 12.9154491424561 6.83109521865845 11.9880075454712 12.4168014526367 18.1241283416748 13.1999788284302 23.5347537994385 15.2786102294922 6.20106172561646 25.5633335113525 3.15525674819946 3.00119662284851 2.88158249855042 2.33541584014893 2.74080610275269 3.55059337615967 4.02818393707275 3.22253394126892 18.212869644165 8.45040798187256 3.93008494377136 4.45191621780396 4.5044093132019 4.26211309432983 4.79902458190918 3.97505283355713 3.4158411026001 3.52329158782959 3.71103596687317 3.95214223861694 7.55483675003052 14.0568408966064 4.96201467514038 4.97770071029663 10.0812473297119 23.6483039855957 35.3920288085938 2.25965619087219 3.173264503479 25.9339084625244 5.64526414871216 6.29864406585693 7.55026960372925 7.53872299194336 7.38611698150635 8.20189571380615 7.40287399291992 6.74808120727539 7.97691822052002 7.19195604324341 7.94405889511108 6.90105199813843 7.75811910629272 8.13464164733887 8.08779239654541 6.25562047958374
9.22580146789551 30.3432655334473 4.20310640335083 -0.630411446094513 1.82392561435699 0.960685670375824 1.60638153553009 2.31321477890015 2.28349900245667 2.53397941589355 2.82714223861694 2.83550834655762 3.12666630744934 3.13336300849915 3.17861437797546 3.46015954017639 3.32473468780518 3.34577226638794 3.39004468917847 4.34318685531616 4.67763900756836 4.93832635879517 4.23391437530518 3.65050029754639 2.89986228942871 2.87509799003601 2.96521639823914 2.74060654640198 2.74380993843079 3.12174439430237 2.83412504196167 6.09222793579102 7.52482652664185 9.59486293792725 8.32656002044678 8.3294734954834 4.92184162139893 6.53141117095947 6.74250793457031 7.63183498382568 11.3326025009155 10.79714012146 12.1836776733398 13.5811138153076 14.1340618133545 9.0194845199585 6.54709148406982 5.63424205780029 6.8464035987854 7.64058780670166 5.12249135971069 4.34628057479858 4.40537071228027 4.377516746521 4.39245653152466 4.01382732391357 4.18342781066895 4.52993249893188 4.20945119857788 4.61331510543823 5.32439517974854 5.64550447463989 5.37815189361572 5.24155473709106 5.51801729202271 5.46421241760254 5.01351261138916 5.33631134033203 5.45188808441162 10.2947559356689 6.98031663894653 11.7817029953003 7.29532337188721 12.1418991088867 17.7707538604736 4.44632148742676 6.9044508934021 3.56267929077148 4.92370986938477 6.82216930389404 6.34172916412354 3.8547625541687 2.05809760093689 3.64226341247559 2.55209374427795 4.15928888320923 8.31140613555908 1.84832620620728 5.73470973968506 3.91558265686035 0.418375790119171 0.446058571338654 -0.0596698857843876 1.03879618644714 7.03000593185425 2.31506681442261 1.59780693054199 4.29463577270508 2.9324848651886 3.49777674674988 8.01761722564697 11.2751321792603 8.14059829711914 6.51341915130615 7.40935373306274 9.50573635101318 10.6681060791016 9.91237258911133 2.70046257972717 31.798999786377 43.0708808898926 18.3839797973633 25.2921123504639 13.2831411361694 8.11318588256836 4.29127931594849 4.23006248474121 3.38025712966919 5.36676359176636 4.58852243423462 10.0461568832397 15.2203760147095 17.9391479492188 14.9418077468872 26.6282424926758 20.0253925323486 34.6914825439453 26.5717906951904 2.21248149871826 30.6775302886963 3.36116337776184 3.15316915512085 2.77704763412476 3.41523742675781 3.78139543533325 3.7889506816864 4.33395719528198 3.22655153274536 3.27383494377136 4.4383487701416 4.67310571670532 4.6856689453125 4.6022744178772 5.12154150009155 4.49985980987549 4.95442819595337 4.49695110321045 5.06513357162476 4.38080549240112 3.98049092292786 4.91516733169556 5.42016506195068 5.20458459854126 5.50132656097412 25.7888164520264 10.9404449462891 5.11336088180542 3.61338973045349 4.79033231735229 6.01614809036255 6.6649022102356 7.96478986740112 7.97283029556274 7.7923903465271 7.8642315864563 8.94894599914551 7.63830518722534 8.44036769866943 7.12567281723022 7.73946523666382 8.47921466827393 8.15701961517334 8.5305757522583 8.47726821899414 7.2285041809082
10.2006025314331 12.5928201675415 6.2402982711792 1.76965403556824 1.87797844409943 0.740416765213013 1.44724559783936 2.25017714500427 2.52526426315308 2.47263669967651 2.91829562187195 3.04816651344299 3.26616907119751 3.30226254463196 3.33490300178528 3.25969243049622 3.64617037773132 3.44911980628967 3.72530913352966 3.88055539131165 4.9052619934082 5.17543077468872 4.48377084732056 3.9062397480011 2.73209953308105 2.95272707939148 3.03794431686401 2.80193257331848 2.82034134864807 3.21146845817566 2.91364860534668 5.44226408004761 7.13037061691284 10.3670139312744 10.5748014450073 9.20261764526367 2.75046396255493 5.4543514251709 7.25180530548096 8.18538570404053 11.832612991333 14.0633678436279 13.7632751464844 14.9868755340576 18.6912670135498 14.0260000228882 8.63975620269775 5.67579507827759 6.84217500686646 8.09049224853516 7.10359573364258 4.41287517547607 4.44564723968506 4.40263509750366 4.38139390945435 4.51944732666016 4.09797286987305 4.55833435058594 4.19502592086792 4.63366889953613 5.37398862838745 5.69883298873901 5.41870212554932 5.11039924621582 5.61248111724854 5.58310079574585 5.28008460998535 5.18441724777222 5.70120668411255 8.91797065734863 14.3968906402588 8.35945701599121 14.5404109954834 11.3475589752197 13.6315784454346 4.93931102752686 25.0425987243652 5.31218671798706 5.0830078125 3.03090500831604 8.90300846099854 11.704665184021 4.52357482910156 2.92489624023438 3.53681707382202 4.77099895477295 3.04959869384766 13.1186275482178 3.25530052185059 13.3699340820312 1.07186651229858 5.47560977935791 0.127428203821182 0.584203362464905 1.17726504802704 1.58425068855286 2.26103520393372 3.24026322364807 11.8428401947021 5.93388700485229 3.84946465492249 8.40476131439209 10.5552186965942 9.0730152130127 6.06714296340942 6.29768037796021 13.6293153762817 24.3685665130615 22.1930465698242 3.00903344154358 2.89141988754272 3.80163383483887 4.4526195526123 6.45957040786743 10.7764587402344 5.82863855361938 4.45682144165039 3.37265396118164 3.71222448348999 5.65603351593018 10.6572380065918 13.1958093643188 17.3621196746826 12.9966077804565 15.4611787796021 7.36404037475586 6.04101800918579 2.24909710884094 2.56005764007568 2.69631719589233 3.67275333404541 3.50457048416138 3.40902709960938 3.63901329040527 3.57256197929382 4.09425783157349 4.64706230163574 4.48823642730713 4.69408845901489 4.66511058807373 4.94307327270508 4.97601842880249 5.07206583023071 4.96801662445068 5.5998420715332 5.27240085601807 5.11256647109985 5.12696313858032 5.43753004074097 4.60598516464233 5.18031358718872 5.85220193862915 10.558895111084 5.96379470825195 4.02088499069214 3.1299307346344 15.0378570556641 5.66114807128906 6.14513731002808 6.31442737579346 6.61679601669312 7.34971952438354 8.71224594116211 8.70502185821533 8.51034545898438 9.44692134857178 8.46355438232422 7.78266096115112 9.02759742736816 8.13853168487549 8.88804149627686 8.53481388092041 8.93142986297607 8.88038730621338 7.68569374084473
10.7170991897583 11.5570259094238 47.6424255371094 5.82162857055664 -0.245729804039001 2.08552598953247 1.32728087902069 1.84152841567993 2.80330562591553 2.45362854003906 2.83135175704956 3.24089884757996 3.221022605896 3.5452094078064 3.52775955200195 3.55056071281433 3.82697033882141 3.63680815696716 3.91187763214111 3.79405403137207 4.92251920700073 5.26306200027466 5.54038667678833 4.81730031967163 4.08537721633911 3.03452515602112 3.07775282859802 2.86185836791992 2.89113664627075 2.84345126152039 3.26292204856873 2.95197606086731 7.09584188461304 11.4644432067871 11.6943464279175 10.3005514144897 5.8084831237793 5.99277353286743 7.92032814025879 8.20242404937744 10.5321760177612 16.5762195587158 15.6022710800171 18.8566741943359 19.4163932800293 36.7195281982422 12.2177667617798 6.12119340896606 7.37480449676514 8.66320514678955 7.58312177658081 5.56916761398315 4.5315580368042 4.61597394943237 4.54952144622803 4.59136724472046 4.12901639938354 4.58759117126465 4.10490989685059 4.27369070053101 4.69712829589844 5.72770357131958 5.40271425247192 5.5063533782959 5.6837329864502 5.5843677520752 5.79690933227539 5.33329725265503 5.91014719009399 6.90997314453125 19.8448390960693 9.22163391113281 14.3591995239258 9.75161361694336 14.9838333129883 13.4841995239258 6.00755453109741 12.7155828475952 4.99512815475464 5.91026973724365 11.0124235153198 7.28501415252686 3.20192289352417 7.33198976516724 4.63039493560791 3.33807015419006 7.80099773406982 18.371976852417 8.10967826843262 0.894508361816406 2.68755626678467 2.74651002883911 0.976693749427795 0.906551539897919 1.97201180458069 2.02477073669434 2.57063436508179 3.03850984573364 8.38337230682373 7.88429975509644 4.11596727371216 9.98601150512695 3.47038865089417 6.89133930206299 8.37554550170898 8.82394981384277 5.75732755661011 2.57338070869446 3.37151432037354 3.54424810409546 15.2118453979492 3.94827342033386 4.67574453353882 6.90941572189331 9.69720268249512 20.8934555053711 4.62722873687744 5.21309041976929 4.32043218612671 6.1562123298645 11.1791963577271 20.252462387085 24.847131729126 8.4412317276001 3.88649439811707 4.15986108779907 4.09114074707031 40.4697761535645 6.32276153564453 20.8895053863525 3.91853642463684 3.8451132774353 3.66533994674683 3.66860461235046 3.97621035575867 4.36995363235474 4.44332647323608 5.05459928512573 5.0181827545166 5.07994747161865 5.28972434997559 5.3823709487915 5.37857723236084 5.30245113372803 5.86504650115967 5.22209882736206 5.64624404907227 5.11529684066772 5.69091129302979 5.49494981765747 6.07783365249634 6.53644752502441 5.68705606460571 5.93804216384888 6.09076929092407 5.36726093292236 5.17432928085327 6.29556798934937 6.08579683303833 6.88705778121948 6.97574043273926 7.71749258041382 9.16743183135986 9.19669628143311 9.02777004241943 9.01879692077637 10.2066278457642 8.60797595977783 9.46598625183105 8.56359100341797 9.31406402587891 7.87953853607178 9.05219554901123 9.56148433685303 9.52116680145264
17.9636001586914 12.9632873535156 3.76759672164917 7.2961893081665 2.05619478225708 2.28831100463867 0.826438546180725 1.88805365562439 2.77096796035767 3.22936964035034 2.79560089111328 3.34704041481018 3.45952343940735 3.69497013092041 3.74038171768188 3.70766067504883 3.58938884735107 4.09120178222656 4.14359569549561 3.93080997467041 4.37324094772339 5.48900842666626 5.85416126251221 4.98571491241455 4.38461971282959 3.1087019443512 3.05762696266174 3.17180466651917 2.90696454048157 2.93278813362122 3.34782648086548 3.03510880470276 6.29628086090088 9.89946460723877 13.1938371658325 11.9180517196655 11.8822546005249 6.66223239898682 8.75170516967773 8.99978351593018 9.96553325653076 22.5266437530518 22.65647315979 25.2238426208496 23.9942741394043 15.1251001358032 36.6973686218262 12.0416469573975 6.46968984603882 8.75104427337646 9.80376148223877 7.81768655776978 4.56035280227661 4.66218996047974 4.59888315200806 4.61586093902588 4.72475624084473 4.12555551528931 4.68959426879883 4.28419542312622 4.71861505508423 5.49691963195801 5.84235000610352 5.56082344055176 5.50389528274536 5.95236396789551 6.01534032821655 5.52872180938721 6.00233602523804 9.51245975494385 17.3604278564453 38.9924697875977 15.7069673538208 11.4054670333862 14.8601808547974 21.8494415283203 10.7316102981567 7.76346206665039 9.83278560638428 7.55260324478149 7.03706455230713 30.2233963012695 16.0019950866699 8.69461917877197 3.39245772361755 7.85261106491089 12.8983631134033 9.84267330169678 40.4551010131836 1.4325098991394 1.84385108947754 1.23850154876709 1.44878196716309 1.39180612564087 1.61295771598816 2.4850857257843 3.1553966999054 2.93664789199829 3.2613480091095 11.7565040588379 8.8868465423584 4.15258741378784 4.05690622329712 7.25951433181763 7.40022611618042 7.22124576568604 4.58956956863403 6.22321510314941 6.51192903518677 18.0376529693604 3.03232431411743 5.93128824234009 9.05586910247803 5.13506698608398 15.1457529067993 4.92918491363525 11.0278539657593 4.55287265777588 4.35724544525146 10.6647520065308 14.3324365615845 18.6370716094971 12.2905178070068 28.4772777557373 1.81289780139923 5.86781978607178 7.03893518447876 2.59018874168396 37.6684341430664 3.15918970108032 4.61183214187622 4.13750839233398 3.95654368400574 3.62896871566772 4.23496389389038 4.19644975662231 4.75104904174805 5.40439748764038 5.37799406051636 5.44011688232422 5.51376962661743 5.75742435455322 5.77224159240723 5.80689764022827 5.66503095626831 6.29107522964478 5.90416097640991 5.73457956314087 5.68927621841431 5.89263772964478 5.77291059494019 6.90855836868286 6.7530779838562 6.19097375869751 6.97192621231079 5.22455644607544 5.926682472229 6.9399037361145 7.00302982330322 7.22294950485229 7.25685977935791 7.67509698867798 8.53047847747803 10.0834226608276 10.0270128250122 9.7322940826416 10.704966545105 9.45552730560303 9.94723415374756 8.35377502441406 9.10897445678711 9.78321933746338 9.44362640380859 10.0164184570312 10.0356349945068
22.6154518127441 15.0838108062744 16.1425933837891 8.57133293151855 6.66646099090576 0.807534456253052 2.56803917884827 1.41896533966064 2.33642506599426 3.66988396644592 2.76031422615051 3.26733708381653 3.69892024993896 3.63999629020691 4.00878524780273 3.94647860527039 3.98683834075928 4.38651466369629 3.95699310302734 4.66436576843262 4.66313934326172 5.8022575378418 6.08696269989014 5.25069046020508 4.59112596511841 3.06373929977417 3.20257043838501 3.27868413925171 3.00313210487366 2.98314619064331 2.9470522403717 3.4056613445282 3.0800838470459 9.38521289825439 14.8575716018677 14.8223857879639 13.5403938293457 3.01674103736877 7.64446687698364 10.1330194473267 10.919921875 20.2077789306641 42.5401306152344 31.7719497680664 46.5111045837402 23.7497615814209 22.9674072265625 19.4910545349121 5.97455310821533 9.48874378204346 10.6624717712402 8.37994766235352 6.02185726165771 4.67229843139648 4.79257154464722 4.50078630447388 4.81133317947388 4.26485013961792 4.75943088531494 4.30098533630371 4.3704833984375 4.81779146194458 5.92008829116821 5.56918811798096 5.70459890365601 6.11348056793213 6.09402513504028 6.45336961746216 5.90999889373779 6.59960269927979 21.0324668884277 3.82864880561829 12.0686502456665 15.686089515686 15.5062217712402 25.8471546173096 22.0840301513672 9.28661441802979 6.17841243743896 8.43966674804688 6.58838701248169 6.94845056533813 3.77527713775635 12.0376825332642 12.9293899536133 12.3442392349243 6.78410196304321 32.0643653869629 1.66760540008545 2.39895391464233 2.20268225669861 19.8440113067627 1.98168551921844 2.07692050933838 2.45719504356384 3.06665086746216 3.2196946144104 3.70975780487061 3.45680952072144 15.8997611999512 4.23068809509277 4.16376352310181 3.94439458847046 3.48867893218994 8.28334426879883 2.56651186943054 2.21836233139038 2.26816487312317 5.71563005447388 2.67259860038757 15.5059633255005 16.4932651519775 28.3614463806152 5.31571531295776 4.83799648284912 12.1032037734985 5.69932889938354 5.55600166320801 6.65741920471191 14.0205965042114 30.810188293457 24.3074150085449 11.1318140029907 5.69277048110962 16.8238697052002 1.62368321418762 2.30024862289429 2.68072986602783 3.04145765304565 41.7343559265137 24.7995300292969 5.87352848052979 4.17463159561157 4.08356332778931 4.11027908325195 4.51183414459229 5.01760482788086 5.71952962875366 5.58973789215088 5.81070184707642 5.83638000488281 6.13825416564941 6.2252893447876 6.1514720916748 6.03043985366821 6.54228544235229 5.79701089859009 6.21875619888306 5.65790987014771 6.1663613319397 6.05770826339722 6.68626689910889 7.41108417510986 7.25814914703369 6.86495351791382 7.50791120529175 6.99948644638062 7.63571548461914 7.73203563690186 7.31497430801392 8.01310729980469 8.05446243286133 8.9979133605957 10.6319589614868 10.5380802154541 10.2145080566406 11.2353801727295 9.97727394104004 9.34330940246582 10.7224702835083 9.73571968078613 10.5288219451904 10.1785078048706 10.2915916442871 10.9300813674927
4.92394304275513 16.0213890075684 21.4850006103516 16.0721988677979 10.1413068771362 2.44090628623962 2.76532363891602 1.41923761367798 2.05451083183289 4.21034574508667 2.66200923919678 3.49852871894836 3.82860922813416 3.90108418464661 4.18096160888672 4.22302007675171 4.17367744445801 4.65677404403687 4.33975315093994 4.94770908355713 4.26361989974976 5.80241346359253 6.16341733932495 6.44390153884888 5.50525093078613 4.96528244018555 3.28007841110229 3.21480560302734 3.33887887001038 3.04149985313416 3.03403234481812 3.48019361495972 3.15278387069702 9.25938606262207 12.7274475097656 17.9562129974365 16.3252906799316 16.3737964630127 8.72674179077148 11.5055198669434 11.8460206985474 14.5133152008057 7.74039649963379 34.6730880737305 10.4142847061157 23.1570606231689 23.0369281768799 50.0556602478027 18.7632446289062 7.13673257827759 11.2808952331543 12.5491209030151 8.80633068084717 4.6909122467041 4.83011627197266 4.75083112716675 4.85752582550049 4.97964096069336 4.62308692932129 4.9000883102417 4.42919588088989 4.90183448791504 5.76085805892944 6.11295938491821 5.82612943649292 5.97217226028442 6.61787939071655 6.82166862487793 6.24382734298706 6.86686754226685 5.92720937728882 4.49077320098877 16.0360069274902 20.4151973724365 22.27414894104 25.5857734680176 31.4662494659424 14.7673416137695 14.3225498199463 10.6690168380737 12.6447629928589 3.83844113349915 11.4877738952637 17.3278789520264 18.6511116027832 9.78190326690674 30.9942569732666 2.26685118675232 2.47273087501526 3.00953722000122 3.5081000328064 2.10326743125916 2.47217893600464 2.25037837028503 2.63222789764404 3.12281656265259 5.3133692741394 3.81479382514954 3.59900498390198 3.98558855056763 12.8882989883423 4.92098617553711 4.29428958892822 4.15601396560669 2.9507782459259 2.58109760284424 2.61027550697327 3.64631366729736 2.63711476325989 10.3828506469727 2.87939453125 33.0430641174316 4.2032790184021 18.8630409240723 9.36414337158203 18.7072277069092 10.7783660888672 20.4736309051514 28.5954685211182 19.9757385253906 7.82481622695923 24.9945793151855 16.936882019043 8.15188121795654 2.26606607437134 2.10606360435486 4.44527673721313 3.03553128242493 3.06484079360962 2.90965127944946 4.2302713394165 6.40518188476562 4.83540821075439 4.21756887435913 3.89817833900452 4.58065366744995 4.70945024490356 5.3847222328186 6.11714696884155 6.14232158660889 6.21960735321045 6.31461906433105 6.60364866256714 6.62236070632935 6.57375383377075 6.32805252075195 6.89118051528931 6.4473876953125 6.13626527786255 6.29450798034668 6.48456811904907 7.04890584945679 7.85811519622803 7.70211696624756 7.5840859413147 8.06414222717285 7.08320188522339 8.11814022064209 8.54040908813477 8.02758407592773 8.58106803894043 8.50961589813232 9.41288471221924 11.1415033340454 11.0648632049561 10.7356739044189 10.581654548645 12.1241312026978 10.2342081069946 11.3409938812256 9.48978614807129 10.5811805725098 13.3323011398315 12.3689413070679 13.0457544326782
9.64901065826416 20.6428108215332 28.4952945709229 26.6566848754883 12.453423500061 5.19549179077148 0.366762489080429 3.45443677902222 1.96970462799072 4.38109827041626 5.47836399078369 3.94718527793884 3.75736880302429 4.19101619720459 4.18950605392456 4.49816370010376 4.40258407592773 4.45623397827148 5.25154829025269 4.41779232025146 5.25248003005981 5.25642442703247 6.53628206253052 6.82893705368042 6.00590181350708 5.27471208572388 3.06207633018494 3.36325240135193 3.42566537857056 3.11498045921326 3.12189102172852 3.06846451759338 3.54192566871643 8.12423896789551 12.0134611129761 21.1664066314697 20.1057376861572 19.4820384979248 3.19189620018005 10.6367521286011 14.145396232605 14.5223026275635 10.5048217773438 1.14918112754822 3.35795593261719 2.07210659980774 1.42882180213928 4.95292568206787 46.1966133117676 6.6511402130127 12.9293689727783 14.4757423400879 9.54511547088623 6.69010925292969 4.86191034317017 5.02025938034058 4.93362188339233 5.07631254196167 4.43603658676147 4.99386548995972 4.48166942596436 4.58342170715332 5.13305187225342 6.33494138717651 5.99451208114624 6.19604873657227 7.0247106552124 7.07057189941406 7.68056201934814 6.96122980117798 7.80395936965942 6.8860764503479 20.1976642608643 32.6314353942871 25.3686866760254 24.7781429290771 36.581600189209 50.3167343139648 17.1882591247559 12.5895509719849 15.2093324661255 17.681095123291 29.128454208374 21.8277950286865 38.5345191955566 40.8810424804688 2.88111901283264 6.55474996566772 2.65813589096069 19.7921562194824 6.07724905014038 4.61484622955322 6.31826686859131 3.2162811756134 2.59334754943848 3.32248139381409 3.83051776885986 5.04797792434692 3.95507764816284 4.13034772872925 4.57675218582153 6.42820596694946 11.2336378097534 4.22209453582764 3.53557729721069 2.81049990653992 2.97398900985718 2.30240511894226 2.66455984115601 2.9413046836853 6.83930349349976 3.44373178482056 8.55683135986328 5.06578874588013 7.47639083862305 5.49796390533447 35.0216407775879 10.5518264770508 4.98693656921387 17.2885608673096 33.9815902709961 12.9330015182495 8.14419555664062 14.062479019165 1.59112894535065 32.0292015075684 2.40712189674377 10.7812471389771 2.98315262794495 7.04947280883789 44.5212593078613 13.1930236816406 8.76099872589111 4.4919638633728 4.45945978164673 4.45129299163818 4.91534805297852 5.51879453659058 6.33486223220825 6.28437805175781 6.52740240097046 6.55039596557617 6.88680458068848 7.00180149078369 6.86908674240112 6.6941123008728 7.15977239608765 6.71817398071289 6.60438013076782 6.56707668304443 6.83511781692505 6.88194036483765 7.53707408905029 8.46553897857666 8.26350975036621 7.95096778869629 8.66856575012207 8.3695764541626 8.96422958374023 9.33924579620361 9.26900005340576 9.12098979949951 9.51280307769775 10.4389762878418 12.1059083938599 11.9750137329102 11.5958185195923 12.807933807373 11.481743812561 10.8811120986938 12.3704595565796 12.6289520263672 15.1572494506836 19.4561061859131 18.2860908508301
8.04719161987305 28.9679985046387 14.7688274383545 52.5073432922363 27.1606540679932 18.0483837127686 3.2331371307373 3.80752658843994 1.5908590555191 3.64183330535889 6.23541212081909 4.3619213104248 4.93628406524658 4.32648992538452 4.35032987594604 4.68085956573486 4.63282203674316 4.89152002334595 5.57216501235962 4.67275190353394 5.61672973632812 4.92117738723755 6.52757406234741 7.06008148193359 7.3663387298584 6.26877117156982 5.72074365615845 3.4444522857666 3.35255312919617 3.48053479194641 3.17550563812256 3.17924427986145 3.65083384513855 3.28141069412231 11.8297052383423 18.1087379455566 28.1746921539307 25.8995304107666 26.2369499206543 12.7497205734253 16.6604080200195 17.0802612304688 18.2426719665527 8.55959510803223 6.44209098815918 2.38244009017944 2.90353107452393 8.3237476348877 13.1484050750732 44.5116119384766 8.00845432281494 17.2410011291504 19.4572944641113 7.14378356933594 4.93105983734131 5.07706642150879 4.92970085144043 5.12859487533569 4.480299949646 4.9428825378418 5.18952322006226 4.70605659484863 5.31094741821289 6.28932571411133 6.70835018157959 6.49747371673584 7.07792615890503 7.95746088027954 8.33569812774658 7.43703460693359 8.10199737548828 8.74122905731201 6.84756803512573 10.4142999649048 29.2391166687012 25.8573207855225 51.0250434875488 40.9593124389648 22.1632385253906 22.6167297363281 21.0630226135254 25.7356834411621 36.5754127502441 52.9748802185059 7.51341104507446 2.99834990501404 3.35873293876648 8.28975486755371 10.0350942611694 2.83312463760376 6.80654573440552 4.74019193649292 7.59630441665649 4.03307580947876 4.15926313400269 3.42255902290344 4.2654070854187 13.6202278137207 4.20104455947876 4.50284671783447 4.39771604537964 5.83909320831299 4.50735950469971 4.50251340866089 4.27313375473022 5.36988353729248 3.15373802185059 2.76765775680542 2.8338360786438 3.22107839584351 3.30400037765503 3.72602391242981 4.12036418914795 12.7895984649658 20.148998260498 12.0799007415771 4.4323353767395 5.15178680419922 5.15333938598633 4.84255075454712 4.38695240020752 4.41922760009766 3.41699552536011 1.75680530071259 1.27310848236084 1.70648467540741 2.5596752166748 2.4355092048645 3.42113947868347 3.33457159996033 3.25033640861511 34.7343673706055 10.7935495376587 8.00609111785889 4.74764966964722 4.44048738479614 5.03866815567017 5.67391490936279 5.94960975646973 6.71419954299927 6.74834823608398 6.79222536087036 6.89955520629883 7.24199056625366 7.27560043334961 7.1909384727478 7.44333553314209 6.63023900985718 7.12178707122803 6.5566782951355 7.12541484832764 7.11015939712524 7.91922187805176 8.95577049255371 8.75091648101807 8.67696189880371 9.26096630096436 8.4095516204834 9.65011501312256 10.2501955032349 9.92109489440918 10.2808837890625 10.1642198562622 10.947135925293 12.6833467483521 12.6185741424561 12.3754806518555 11.9735317230225 13.9162378311157 11.8180646896362 13.2309236526489 18.3776760101318 20.2099475860596 32.6430702209473 39.1558380126953
23.1239356994629 28.3584461212158 10.8413019180298 5.48689603805542 58.399845123291 24.4954280853271 4.33546876907349 4.34330368041992 1.51138687133789 2.13213348388672 6.260329246521 8.22312164306641 5.69687366485596 4.57761478424072 4.56671667098999 4.90257692337036 5.01098585128784 5.0348162651062 4.77154397964478 5.79659223556519 4.86480522155762 6.16336822509766 6.06961965560913 7.52052450180054 7.84467601776123 6.95372200012207 6.12694072723389 3.20935988426208 3.51946115493774 3.58524966239929 3.26744151115417 3.26400017738342 3.18916487693787 3.71451807022095 10.3146028518677 16.9016132354736 36.7459983825684 33.9537010192871 34.2246704101562 4.5920467376709 16.8567867279053 22.3389053344727 23.051441192627 18.3914184570312 23.6176738739014 7.02699518203735 6.69202184677124 19.1310863494873 9.30390548706055 7.54409980773926 7.48233413696289 22.6198215484619 25.8918209075928 11.6373729705811 4.9573540687561 5.1489200592041 4.97030115127563 5.20478582382202 5.39384126663208 4.6514253616333 5.30474710464478 4.76324987411499 5.28051948547363 5.74707937240601 7.0136194229126 6.78280305862427 7.19344806671143 8.58151054382324 8.57867908477783 9.42796993255615 8.30394554138184 9.24267673492432 9.71662998199463 29.8560886383057 30.0876369476318 40.9097480773926 26.4381675720215 1.04567396640778 52.699405670166 28.7300910949707 23.9438209533691 43.1813850402832 20.5730934143066 2.33939456939697 3.12459135055542 3.62699508666992 3.54707884788513 3.25066137313843 13.2910823822021 7.90888357162476 5.74729251861572 11.2745628356934 8.57727241516113 9.47990608215332 3.24691700935364 6.24552917480469 6.22344446182251 4.43155288696289 4.39126205444336 4.77748012542725 4.23868083953857 5.61590957641602 4.7050518989563 23.5233936309814 4.91381311416626 3.5861759185791 3.45356893539429 3.91984891891479 4.02694368362427 4.0617790222168 3.87591099739075 3.99681711196899 4.87987470626831 4.59509181976318 10.1989812850952 16.274169921875 5.12211656570435 5.53324937820435 5.45929288864136 5.34809637069702 4.73560285568237 5.04364824295044 3.26108002662659 1.90413737297058 1.26059925556183 1.98688197135925 2.62512946128845 2.88066697120667 4.81540727615356 3.38719892501831 3.65975904464722 24.553316116333 41.0558662414551 17.3792591094971 7.82615852355957 5.0489501953125 5.18267345428467 5.37943077087402 6.05599021911621 6.94461965560913 6.86264944076538 7.05895042419434 7.06324529647827 7.42911767959595 7.56931018829346 7.43817758560181 7.20131731033325 7.8298602104187 7.38844060897827 7.26803302764893 7.17291021347046 7.4818696975708 7.67113542556763 8.37723731994629 9.58068466186523 9.37078094482422 9.85825824737549 8.90734672546387 9.8679256439209 10.6932592391968 11.3103723526001 11.0717782974243 10.9019212722778 11.0932245254517 11.9370956420898 13.8105564117432 13.7539005279541 13.3325395584106 14.8602285385132 13.5918445587158 13.0889434814453 21.0455379486084 32.4359588623047 12.0142154693604 18.9743175506592
0.806519865989685 24.1094532012939 4.40669250488281 2.39665293693542 -1.65767824649811 56.7032890319824 46.1194839477539 1.79738914966583 5.3089451789856 2.16079568862915 5.52103233337402 10.2398891448975 6.26831579208374 7.47333288192749 5.02476692199707 4.86069631576538 5.32257556915283 5.26691341400146 5.57403707504272 6.18762063980103 5.23420763015747 6.64737272262573 5.68553829193115 7.49107599258423 8.17879962921143 8.51668071746826 7.22077083587646 6.71666717529297 3.61106705665588 3.50180077552795 3.65602135658264 3.31725597381592 3.30890488624573 3.81683111190796 3.40296149253845 16.5778713226318 31.6001014709473 57.7180595397949 54.7799339294434 55.5864486694336 22.621000289917 29.7843780517578 30.6455707550049 10.059681892395 20.0797672271729 11.9811334609985 10.9605932235718 3.74131894111633 10.724928855896 17.485595703125 42.0943069458008 9.29207324981689 42.3654251098633 46.4438438415527 8.63874912261963 5.23686981201172 5.39744138717651 5.15380907058716 5.54149007797241 4.73569583892822 5.41648960113525 5.58296060562134 5.08399820327759 5.86121129989624 7.05848789215088 7.57675123214722 7.43944978713989 8.577317237854 9.70435523986816 10.2215719223022 8.87251472473145 9.49444675445557 10.5233469009399 7.03396081924438 31.4656677246094 50.3902549743652 14.2616987228394 1.03296494483948 1.73127615451813 47.0888442993164 51.698314666748 8.67066287994385 2.41886901855469 3.48151397705078 4.14963102340698 5.12880420684814 3.76201581954956 12.0247230529785 3.2010817527771 4.91365766525269 9.72476673126221 13.2979278564453 8.84812545776367 16.7567501068115 9.12857055664062 2.804044008255 3.8981511592865 4.35965299606323 4.46275758743286 4.33792924880981 4.71806335449219 4.51439237594604 20.5951251983643 4.68525838851929 8.97859287261963 4.73897933959961 4.30847597122192 4.98880529403687 4.89649057388306 4.67730569839478 4.68532180786133 5.00123071670532 5.19085788726807 6.27881765365601 5.16450929641724 5.1162543296814 5.06482934951782 6.02090501785278 6.79884576797485 9.10937786102295 9.24927139282227 5.73200082778931 4.23247337341309 2.61948990821838 2.15064859390259 1.89793348312378 3.12549066543579 3.02181124687195 2.84444499015808 3.76018762588501 12.1559915542603 2.95597457885742 6.08443975448608 28.3164768218994 16.6853408813477 5.42074584960938 5.09399938583374 5.58133459091187 6.22885942459106 6.53975439071655 7.27344179153442 7.27695417404175 7.29259538650513 7.41966915130615 7.82102632522583 7.69113206863403 7.55642604827881 8.11323928833008 7.27485322952271 7.78972721099854 7.18294239044189 7.74954223632812 7.80946397781372 8.72341251373291 10.0944185256958 9.89705944061279 9.72819423675537 10.6373767852783 10.0607471466064 11.5104494094849 12.203558921814 12.0069169998169 12.0827341079712 11.9480133056641 12.702018737793 14.587742805481 14.4950838088989 14.5215511322021 13.8946781158447 23.7127876281738 15.571816444397 13.9901914596558 9.75716876983643 11.0458183288574 10.7085065841675
