NCOLS 175
NROWS 31
XLLCORNER 353824
YLLCORNER 6701152
CELLSIZE 16 
NODATA_value -3.4e+38 
25.199520111084 33.2874755859375 53.386043548584 25.6118011474609 29.941370010376 36.0275764465332 20.3918476104736 6.85750722885132 11.2486133575439 10.5142021179199 20.615198135376 18.2715091705322 22.2987537384033 7.80897808074951 16.5722923278809 7.74766445159912 11.9946718215942 -0.55143815279007 -0.208541601896286 -0.180401295423508 0.0306946355849504 5.95732879638672 4.38501262664795 5.10980939865112 5.98431205749512 9.83373165130615 10.7696466445923 5.64751386642456 12.3695058822632 7.64138126373291 15.5142288208008 12.0293025970459 12.0394735336304 9.32655048370361 9.71978378295898 18.9352741241455 30.1301803588867 2.98138022422791 9.98150253295898 13.8228435516357 4.46155118942261 7.77495431900024 14.7271699905396 -0.0895785689353943 3.62417101860046 4.72112894058228 -0.904302060604095 5.13689756393433 -0.120859906077385 1.10348892211914 15.0944890975952 22.7613582611084 18.3233585357666 26.6459560394287 4.20297765731812 -0.382150679826736 9.94844245910645 -4.39345359802246 0.548655033111572 -1.23713743686676 -1.19946277141571 -4.31909227371216 -3.43360328674316 36.8156280517578 -3.18137168884277 9.24211978912354 -3.26070427894592 -2.28163886070251 4.91861724853516 -0.404078215360641 -1.94781708717346 -1.3158106803894 -1.20528948307037 17.3344440460205 -1.50510084629059 -0.898549497127533 -0.877201795578003 -0.86180979013443 -0.838156223297119 -0.798810362815857 -0.757175207138062 -0.699458658695221 -0.643276512622833 -0.562211334705353 -0.527043282985687 -0.49045667052269 -0.412891179323196 -0.342522978782654 -0.253910422325134 -0.146262183785439 -0.0548920817673206 1.43794333934784 2.1036205291748 0.0429457202553749 1.60657155513763 2.41996932029724 1.22040998935699 1.45396864414215 1.52532136440277 3.97972512245178 30.8835563659668 -0.721675455570221 9.05734539031982 12.7181234359741 22.452672958374 -0.184941560029984 1.28175044059753 1.36130130290985 1.76286768913269 1.89450466632843 1.57631540298462 1.6986517906189 1.78688299655914 2.0473427772522 2.24068713188171 2.45603609085083 1.87241518497467 2.11169195175171 2.46764922142029 2.63718223571777 2.92913174629211 18.9264640808105 4.11252164840698 4.21874523162842 29.026388168335 6.82649374008179 0.162318423390388 1.04817271232605 2.19432592391968 2.7085747718811 2.87681913375854 17.3141498565674 0.119619898498058 13.3317022323608 -0.0677844807505608 0.212802767753601 0.302884221076965 0.146346464753151 0.158684581518173 0.648614883422852 0.664641082286835 1.23140752315521 2.09132790565491 2.13141417503357 2.15328621864319 2.20046329498291 1.97881424427032 1.8718249797821 1.90096688270569 2.85582661628723 2.90534090995789 3.2125039100647 4.16694831848145 11.3006982803345 8.00247859954834 3.51779389381409 3.72895264625549 3.96281337738037 4.24185705184937 4.54032182693481 4.58704376220703 4.81614685058594 5.02553129196167 5.12284708023071 5.05442380905151 5.15167474746704 5.29013538360596 5.40033292770386 6.33154153823853 7.53786039352417 9.55106735229492 11.4687938690186 10.7614936828613 17.8232688903809 26.4156589508057
28.9182929992676 47.1046485900879 23.5397491455078 26.2614917755127 34.8969497680664 36.8147964477539 11.8555107116699 8.33835792541504 2.09795641899109 15.5744047164917 2.9291045665741 28.3558864593506 10.0079278945923 18.4086322784424 25.6636600494385 3.37480068206787 6.07292985916138 5.53427457809448 1.18681013584137 -0.188192263245583 1.44988977909088 0.424214541912079 8.11627674102783 1.03696751594543 0.962007939815521 6.01421689987183 12.5634202957153 17.5698146820068 4.07554149627686 8.34622001647949 12.1793794631958 11.6989078521729 8.28870582580566 25.1310520172119 30.9073581695557 21.7872009277344 26.9938335418701 4.48960447311401 1.86968553066254 5.01187705993652 12.5277976989746 2.85314393043518 4.42005443572998 -3.05330681800842 -1.4650331735611 5.62833261489868 -1.78028666973114 -3.096036195755 -0.987006366252899 1.20574104785919 7.32066249847412 27.6721706390381 20.3309555053711 0.839657425880432 4.19419574737549 5.59490299224854 12.0812225341797 3.51675820350647 -4.26133632659912 -4.12853908538818 4.27542781829834 -3.95246410369873 -3.65250039100647 -2.8652012348175 -2.6277232170105 -2.44153070449829 6.40509414672852 -2.16806364059448 5.99462080001831 -1.68140685558319 22.1344680786133 4.1725172996521 -1.75292026996613 -0.839989960193634 -0.835620284080505 -0.8303462266922 -0.814658880233765 -0.805148422718048 -0.787835776805878 -0.740073382854462 -0.692936658859253 -0.647911012172699 -0.585509061813354 -0.54717493057251 -0.520704686641693 -0.507452607154846 -0.461423963308334 -0.409838974475861 -0.33964940905571 -0.258088320493698 -0.157605350017548 -0.054890763014555 0.217730090022087 2.6424081325531 3.77856230735779 0.337928652763367 3.44043946266174 5.28963613510132 1.35950267314911 1.53588163852692 1.54176318645477 6.14389657974243 8.83760356903076 5.78834199905396 26.014310836792 -0.448419332504272 1.15749716758728 1.3779718875885 1.49748384952545 1.61347961425781 2.12760806083679 2.32504105567932 2.55305123329163 2.08854031562805 2.29714703559875 2.49878883361816 2.85944581031799 3.22205376625061 2.5683286190033 3.1751720905304 2.95625257492065 3.4226016998291 3.49544596672058 4.67897415161133 7.96234369277954 25.1851654052734 7.9216365814209 -0.0776124745607376 1.02938449382782 2.94875955581665 3.82867836952209 5.97655296325684 1.07275772094727 6.59709739685059 0.283332526683807 0.815356910228729 0.701674938201904 0.739586412906647 0.336332231760025 0.598600268363953 0.9445521235466 1.33913493156433 1.65691637992859 2.09126782417297 2.1954984664917 2.44122529029846 2.48635816574097 2.36789560317993 2.41542196273804 3.02058696746826 3.1730043888092 3.21875691413879 3.29647088050842 3.82895970344543 12.7830715179443 3.71006107330322 3.77656030654907 4.12009477615356 4.51333427429199 4.6008472442627 4.86735200881958 4.9667706489563 5.09040975570679 5.18821096420288 5.2739520072937 5.38067197799683 5.40480184555054 5.43389368057251 5.76995086669922 6.45419406890869 8.82939720153809 10.596697807312 15.9537868499756 21.9576244354248 30.9402637481689
20.9784774780273 32.8012008666992 20.1866207122803 22.3023300170898 37.091724395752 30.9928932189941 9.76306343078613 10.6780033111572 8.71108818054199 7.82328462600708 2.29355335235596 4.25447177886963 6.23024225234985 15.814154624939 24.0484962463379 1.33175075054169 10.3608665466309 6.73587322235107 5.84677457809448 -0.274085193872452 -0.819642961025238 0.57682466506958 1.5339161157608 1.02938437461853 4.63729953765869 1.49536204338074 8.35510921478271 31.9817028045654 1.35208737850189 3.47411036491394 4.81739234924316 13.9890489578247 3.99580764770508 12.6934862136841 24.7901268005371 4.31889295578003 1.7742406129837 4.51500654220581 -0.715103447437286 4.9691104888916 4.19622850418091 8.64847183227539 -0.577856838703156 13.4360322952271 -1.87095856666565 2.55836796760559 0.333008944988251 -3.40335583686829 -1.91667032241821 1.11629068851471 3.51370573043823 11.7408590316772 11.1599054336548 4.49246120452881 0.665482759475708 14.1910581588745 9.81734752655029 -0.527275741100311 -4.35106515884399 -3.87330937385559 4.1327428817749 -3.65379667282104 -3.46826672554016 -2.45620679855347 36.7527847290039 -2.57279992103577 9.63391971588135 -1.54644620418549 8.00735187530518 13.2224817276001 -1.76783347129822 -1.37117803096771 0.234342485666275 -0.0191928315907717 -0.804159164428711 -0.792837142944336 -0.769533157348633 -0.747390866279602 -0.727252185344696 -0.685671508312225 -0.645992517471313 -0.586745977401733 -0.5339435338974 -0.497485727071762 -0.473020553588867 -0.468651980161667 -0.45530766248703 -0.44047537446022 -0.410970479249954 -0.356748402118683 -0.276100426912308 -0.157866701483727 -0.0382330976426601 0.0643972828984261 0.1362384557724 5.35429382324219 8.54204082489014 1.53188681602478 11.6193885803223 0.21684518456459 1.46839261054993 1.73849070072174 3.1987099647522 19.1659832000732 0.557229578495026 0.61750465631485 1.33012270927429 0.985409796237946 1.45228326320648 1.58381021022797 1.81171905994415 1.98382008075714 2.18166661262512 3.01087355613708 3.41400051116943 2.66757917404175 3.07683968544006 3.64550352096558 4.14236354827881 4.83954524993896 4.41282606124878 6.14706945419312 2.61646866798401 3.8598358631134 5.98858547210693 9.27648639678955 23.7679710388184 18.8025875091553 -0.866806268692017 3.16944360733032 6.08635330200195 3.12139892578125 5.74183177947998 0.932630956172943 1.3685028553009 1.42068254947662 0.899048149585724 0.942693710327148 0.779877126216888 0.810966849327087 0.979661643505096 1.47991979122162 2.09996652603149 2.17111754417419 2.21511673927307 2.29427742958069 2.34095120429993 2.55998468399048 2.6138904094696 3.33586120605469 3.55147409439087 3.62746715545654 3.5618212223053 3.48964977264404 3.66978478431702 4.01618051528931 4.12589359283447 4.21216249465942 4.20320606231689 4.35140228271484 4.74288129806519 4.84010982513428 5.11037158966064 5.21846914291382 5.34277629852295 5.45139360427856 5.5454044342041 5.66682529449463 5.80515193939209 5.96988582611084 7.94903469085693 9.56073570251465 14.7889938354492 20.4683876037598 42.2780876159668
24.7366371154785 24.7547950744629 24.8897800445557 28.0280094146729 32.2877311706543 26.2552223205566 24.3614349365234 12.2718925476074 13.911057472229 7.61663579940796 9.81856441497803 5.54855298995972 2.40587377548218 5.14766931533813 10.548921585083 25.4693717956543 1.04495215415955 7.09771060943604 12.6945133209229 -0.801835238933563 10.2023239135742 -1.31538391113281 0.515047252178192 2.10374140739441 0.186232298612595 2.03100609779358 9.92039489746094 10.2910203933716 3.39603638648987 1.00415217876434 2.39242744445801 11.9731092453003 9.43490505218506 2.92698287963867 4.89111614227295 4.28382778167725 9.51236534118652 5.76819372177124 -0.821154356002808 -1.36684882640839 4.15421676635742 4.74798393249512 -1.22611582279205 1.20507574081421 2.18012571334839 2.59652256965637 15.4267492294312 -0.347620218992233 0.629683315753937 1.49607586860657 11.7813997268677 8.45707988739014 3.30715537071228 6.15683078765869 -0.226981356739998 5.62125539779663 24.9881706237793 -1.51553821563721 -4.01724004745483 -3.78354835510254 5.08779096603394 -1.33451962471008 -2.84112596511841 -2.20926594734192 -1.33923232555389 10.3654937744141 -1.36439275741577 12.8713531494141 -1.17452454566956 8.19486045837402 -1.26038253307343 0.320291042327881 1.04972362518311 0.329949140548706 -0.732085049152374 -0.750061571598053 -0.736919283866882 -0.708693981170654 -0.658298492431641 -0.615898430347443 -0.572470009326935 -0.530382454395294 -0.49547490477562 -0.454363495111465 -0.420276403427124 -0.418949782848358 -0.416954815387726 -0.428717494010925 -0.415340662002563 -0.401239395141602 -0.342401653528214 -0.253976732492447 -0.142803534865379 -0.0353327356278896 0.0668463036417961 0.155378192663193 0.227461010217667 18.4557266235352 -0.394897729158401 0.181593701243401 0.276118963956833 0.741773784160614 1.01823079586029 1.7582072019577 9.93415832519531 1.55380463600159 1.28486347198486 1.07615172863007 1.95638120174408 1.39350855350494 1.74237620830536 1.92300009727478 2.14265131950378 2.56020522117615 2.89639139175415 4.21248817443848 5.05506658554077 3.74433302879333 5.16629981994629 7.32289266586304 8.29140186309814 8.33606052398682 9.55119228363037 1.60504019260406 7.80443334579468 4.12532997131348 20.0350494384766 0.53472101688385 18.8384799957275 -0.348939806222916 4.42710208892822 2.73841667175293 6.79254007339478 1.0770845413208 1.5726660490036 0.916819155216217 1.51450026035309 1.58229947090149 0.998365342617035 1.04880940914154 0.867316246032715 1.04369163513184 2.29874634742737 2.34492444992065 2.20402789115906 2.27372527122498 2.44494724273682 3.07950639724731 3.13958644866943 2.75643348693848 2.99885511398315 3.47198057174683 3.7364661693573 3.81383848190308 3.75084185600281 3.82334470748901 3.85250926017761 4.22517728805542 4.4216136932373 5.28234958648682 5.38833475112915 5.27485990524292 5.12895727157593 5.23108911514282 5.38124847412109 5.497398853302 5.62345314025879 5.74491691589355 5.8468542098999 5.97060632705688 6.24367380142212 8.32485389709473 13.3930768966675 18.6603260040283 40.0091972351074
36.7872314453125 23.2929134368896 29.8278942108154 31.7324924468994 37.5963706970215 30.0368423461914 14.6155128479004 22.6779880523682 9.73568439483643 7.36994791030884 9.71767044067383 10.5788621902466 -1.81057322025299 -1.12118256092072 2.73585176467896 2.72105026245117 26.5273971557617 3.16646790504456 19.605411529541 -0.875441133975983 0.56915694475174 4.01225566864014 1.46721398830414 16.8014736175537 0.652278184890747 2.7175977230072 3.29097270965576 9.16294574737549 1.3657351732254 3.6034243106842 0.728186845779419 23.7970066070557 2.44931530952454 9.71449375152588 4.09220504760742 9.24151420593262 9.65086460113525 5.37751770019531 0.931337177753448 -5.2853217124939 -4.89330911636353 -4.64478874206543 -2.43192338943481 1.33840250968933 -4.01475667953491 -1.34219920635223 0.690276145935059 6.13513517379761 7.22677898406982 9.31236839294434 8.0439624786377 13.0724506378174 24.1591720581055 -3.86002516746521 17.1711101531982 -3.59802293777466 47.3949203491211 10.8317213058472 -4.14339685440063 -3.99855780601501 -2.96812629699707 -2.43140983581543 -1.93890583515167 -1.30257022380829 -0.230112940073013 4.83904838562012 5.74550724029541 -1.13045048713684 -0.916524052619934 -0.471252650022507 -0.0119787799194455 0.486393421888351 1.14218413829803 -0.116700448095798 -0.644320726394653 -0.630935847759247 -0.655063033103943 -0.636612057685852 -0.601893723011017 -0.553004145622253 -0.510394752025604 -0.464256256818771 -0.427033662796021 -0.39872533082962 -0.369748920202255 -0.36506849527359 -0.376856088638306 -0.38373652100563 -0.380847930908203 -0.377225041389465 -0.340300679206848 -0.282912760972977 -0.215094208717346 -0.135501816868782 -0.0400470420718193 0.0612343475222588 0.171044051647186 0.271650016307831 0.435626119375229 8.02011394500732 1.74431955814362 0.381904631853104 0.304667174816132 2.28802752494812 0.656872987747192 2.04584050178528 2.40026235580444 2.56364941596985 2.24929809570312 2.17072105407715 2.3949875831604 2.70179510116577 1.99965453147888 2.48725938796997 2.83137011528015 3.58229899406433 4.3007435798645 7.1165919303894 9.99357795715332 7.09791278839111 15.9019269943237 2.44692635536194 2.84266042709351 0.529976844787598 3.11918044090271 4.10547590255737 4.96573400497437 21.970386505127 3.08606386184692 14.0951461791992 -0.0541050434112549 0.0130186909809709 0.0428781099617481 0.427977591753006 1.07419228553772 1.65704131126404 1.73711442947388 1.03300333023071 1.65540826320648 1.72883033752441 1.11209845542908 1.16086840629578 1.63182699680328 1.84368884563446 2.41159415245056 2.46333789825439 2.31818532943726 2.89384818077087 3.19857311248779 3.32563042640686 3.74508023262024 3.81670379638672 4.01078081130981 4.17639064788818 4.25698471069336 4.16529941558838 4.24823760986328 4.33099842071533 4.93592166900635 5.03366994857788 4.84145402908325 5.54607534408569 5.66009902954102 5.54419612884521 5.38508796691895 5.49458408355713 5.67634248733521 5.8077278137207 5.93606233596802 6.04530668258667 6.17959976196289 6.30038547515869 6.77903985977173 24.7858600616455 15.9636487960815
32.7270622253418 22.5217800140381 30.3657035827637 45.5767974853516 41.6018257141113 21.1700267791748 12.4192609786987 30.5305614471436 5.93011236190796 8.06313514709473 17.4521389007568 7.84042358398438 6.01265811920166 -2.43654322624207 -1.01216638088226 8.54114532470703 12.7235536575317 11.7574415206909 17.395149230957 2.26389956474304 -0.312278032302856 -0.074980691075325 7.40737009048462 -0.581215977668762 6.24113273620605 11.2064914703369 5.60135698318481 8.64545726776123 5.64526271820068 14.5678358078003 3.40055584907532 -0.64225047826767 2.04045104980469 1.74979019165039 3.92732524871826 17.8904838562012 5.83270978927612 -2.22927761077881 -5.12128257751465 -2.2214024066925 -3.43706512451172 -1.43717384338379 -1.4980982542038 -2.49209642410278 1.28676068782806 -4.27205991744995 -2.30380034446716 8.12085819244385 11.8359994888306 20.422887802124 13.1871881484985 14.6465978622437 2.11961507797241 -3.64072036743164 -3.54474925994873 -3.42322897911072 -1.66745948791504 10.8726568222046 2.85417485237122 -2.82395124435425 -2.69521045684814 -2.07104849815369 -1.33843588829041 0.419142007827759 -0.828262567520142 9.45199108123779 -1.01962876319885 -1.0168194770813 -0.374463111162186 -0.39633047580719 -0.40808966755867 0.764034330844879 0.338186055421829 -0.455673307180405 -0.549774944782257 -0.541479885578156 -0.567282617092133 -0.57654070854187 -0.545980036258698 -0.516134977340698 -0.450475752353668 -0.384570062160492 -0.351094156503677 -0.327268153429031 -0.30903759598732 -0.308980703353882 -0.323261022567749 -0.33040189743042 -0.330944836139679 -0.324830085039139 -0.284536331892014 -0.246316313743591 -0.210928589105606 -0.156169906258583 -0.0852134898304939 0.00619145575910807 0.119173407554626 0.182701617479324 0.268247187137604 0.373998373746872 2.47777462005615 9.33250045776367 -0.110805876553059 0.416853904724121 0.330000460147858 0.28110134601593 0.824248135089874 2.36094117164612 2.8112370967865 3.10715746879578 2.68763875961304 2.63252592086792 3.1740710735321 3.59620428085327 2.17007565498352 3.4902675151825 4.23188018798828 6.07942247390747 8.53735446929932 21.3159446716309 0.0827162936329842 4.12994384765625 0.148340418934822 0.288173764944077 2.78196144104004 4.14655208587646 5.802574634552 6.98849582672119 13.1804685592651 14.7498741149902 -0.272168934345245 0.236114636063576 0.479382187128067 0.885871291160583 0.869431853294373 1.13707458972931 1.22440385818481 1.83686232566833 1.90531075000763 1.14349603652954 1.81855988502502 1.89478611946106 1.53672254085541 1.62242043018341 1.70612108707428 1.92738223075867 2.53326630592346 2.60368227958679 3.21575236320496 3.4499659538269 3.52761578559875 3.61247229576111 3.92934131622314 4.2616114616394 4.34445095062256 4.38284635543823 4.47147607803345 4.74175930023193 4.87289381027222 5.06994390487671 5.17888307571411 5.29109525680542 5.11625051498413 5.83339071273804 5.96058940887451 5.83856439590454 5.66452026367188 5.78603219985962 5.88752698898315 6.13258171081543 6.2716383934021 6.72253894805908 7.89530181884766 10.7592067718506 7.06133985519409
49.4933967590332 20.0843715667725 24.5305805206299 31.0828323364258 38.1586036682129 31.455924987793 14.376070022583 20.420431137085 5.32959222793579 12.6334009170532 7.83892250061035 6.60203838348389 1.49026823043823 4.09081554412842 -0.692936897277832 1.13323199748993 3.08137536048889 1.09525787830353 11.522780418396 0.793657243251801 18.8167057037354 -1.98048520088196 -0.272913008928299 1.69619965553284 5.83097362518311 3.07974076271057 5.40177536010742 1.42705368995667 18.322114944458 -2.26590871810913 13.7644748687744 -1.37329053878784 15.0515146255493 2.56889271736145 2.87481045722961 3.69342851638794 6.1774787902832 -5.04184007644653 12.1926574707031 -5.08602380752563 -4.7977180480957 -4.57169723510742 1.99340832233429 -4.4646577835083 -4.1806116104126 -3.59758758544922 0.347843587398529 1.85057032108307 18.5265846252441 13.2855701446533 31.3398456573486 18.4422550201416 -4.15556621551514 -4.02428102493286 -3.31262969970703 -3.11593794822693 11.0355558395386 3.21906447410583 -2.91733717918396 -2.72687339782715 -2.56472516059875 -1.76039254665375 6.04396820068359 -1.55299258232117 11.6087980270386 -0.9901482462883 -0.302028864622116 -0.273323893547058 -0.267540752887726 -0.303126752376556 -0.303626358509064 0.441522002220154 -0.369331687688828 -0.417967170476913 0.133857801556587 -0.401033967733383 -0.389683187007904 -0.24150039255619 -0.440228998661041 -0.37718266248703 -0.321620792150497 -0.30311518907547 -0.265802770853043 -0.241257220506668 -0.230382785201073 -0.239241287112236 -0.258473783731461 -0.271097332239151 -0.278393864631653 -0.270982265472412 -0.254778653383255 -0.194010555744171 -0.143243759870529 -0.0847513154149055 -0.0244025513529778 0.0512832030653954 0.0839507207274437 0.136519700288773 0.196388468146324 0.296416491270065 0.368181586265564 0.434679865837097 0.487079560756683 0.507684588432312 0.476012647151947 0.471594393253326 0.473038971424103 0.382134318351746 0.928274869918823 2.91472506523132 3.47862958908081 3.86196780204773 4.31046676635742 3.70933628082275 4.4182767868042 5.36908626556396 3.54578948020935 5.99147844314575 8.41581344604492 18.1356887817383 0.478282481431961 1.31484830379486 0.920321941375732 1.15140306949615 2.5340895652771 3.28039455413818 5.94676494598389 6.3719596862793 0.944208741188049 23.0368957519531 4.61686897277832 -0.410010814666748 -0.135961443185806 0.847312271595001 0.945300221443176 0.985857367515564 0.985167503356934 1.03932535648346 1.38800930976868 2.01280760765076 2.09262657165527 1.52515172958374 2.00220131874084 2.09619641304016 2.20860123634338 1.70227479934692 1.78930282592773 2.27579665184021 2.6204674243927 2.84389281272888 3.37190794944763 3.63224196434021 3.7078070640564 3.84606981277466 4.26676273345947 4.47099828720093 4.65534162521362 4.7452220916748 4.89204931259155 5.30439567565918 5.41042375564575 5.44352436065674 5.45069026947021 5.56926774978638 5.36847972869873 6.15436887741089 6.29738426208496 6.44389247894287 6.31007671356201 6.09445476531982 6.21764802932739 6.52879762649536 6.67497396469116 9.47337436676025 20.7214508056641
46.7325553894043 15.5250024795532 21.2098541259766 34.0744895935059 42.4062614440918 46.6426658630371 19.4003849029541 17.7761688232422 16.1620330810547 8.31290912628174 8.63242244720459 5.95458364486694 8.78531742095947 -3.11949777603149 4.98994016647339 -2.70278286933899 -2.21597719192505 -0.509539246559143 3.67040753364563 19.1638431549072 10.2316904067993 15.7400074005127 -0.742268800735474 0.37038779258728 2.43168497085571 16.3123435974121 2.43482279777527 11.4373950958252 19.9825973510742 -2.95738458633423 0.0246050711721182 0.7431321144104 -0.403788179159164 16.7853240966797 -3.05533146858215 0.469753503799438 4.05342721939087 -2.53585648536682 -4.76104211807251 -4.58254671096802 -3.26183748245239 -4.34098768234253 -4.1518702507019 -3.98136830329895 -3.86333084106445 -3.29033184051514 -1.85873258113861 8.80708885192871 20.745584487915 15.5450439453125 12.6268920898438 18.7714328765869 -3.92530679702759 -3.60248374938965 -3.40831089019775 -3.05064678192139 -2.83065748214722 -0.42331650853157 1.32556867599487 -2.24156594276428 4.56843423843384 6.65281772613525 -1.56971907615662 -1.42867004871368 -1.28362774848938 -0.240295365452766 -0.196298196911812 -0.182954967021942 -0.186696156859398 -0.207250028848648 -0.191689014434814 -0.207453295588493 0.220327153801918 -0.172598361968994 -0.256197959184647 -0.247921377420425 -0.244817331433296 -0.159921631217003 -0.14258673787117 -0.296592950820923 -0.261991679668427 -0.211452290415764 -0.160959973931313 -0.124716036021709 -0.108759932219982 -0.121126241981983 -0.148388043045998 -0.17854879796505 -0.210902273654938 -0.203633338212967 -0.190304547548294 -0.123939290642738 -0.063914567232132 0.00774119049310684 0.0843050703406334 0.10414656996727 0.127832800149918 0.148365348577499 0.197882547974586 0.259390354156494 0.309311360120773 0.384199231863022 0.447497010231018 0.498235404491425 0.522460103034973 0.565491855144501 0.603391528129578 0.556976616382599 0.558409154415131 0.471831411123276 0.51668655872345 1.19012904167175 4.32042598724365 5.00787258148193 5.7299861907959 5.9815149307251 8.58613109588623 10.8336315155029 11.1690692901611 7.55336570739746 1.55322182178497 2.83016014099121 5.36059141159058 2.07061839103699 4.82147455215454 7.31468057632446 4.71604633331299 4.179039478302 1.58971917629242 11.7921991348267 7.32738399505615 0.701939821243286 0.999812364578247 0.790745615959167 0.892087638378143 0.925193428993225 1.05332255363464 1.11207473278046 1.17464470863342 1.15300250053406 1.56185078620911 2.21435260772705 2.30929088592529 2.42064571380615 1.75548470020294 2.36346197128296 2.48263430595398 1.76494455337524 2.42187786102295 2.48409986495972 2.76353859901428 2.98340845108032 3.54657006263733 3.81767892837524 3.90167427062988 4.22292613983154 4.47501659393311 4.77203369140625 4.88350915908813 5.25821590423584 5.3628396987915 5.56996011734009 5.68711471557617 5.71792793273926 5.75011253356934 5.88034152984619 6.01768827438354 6.1064829826355 6.66409921646118 6.80991888046265 6.65835857391357 6.45359086990356 7.06585311889648 9.29676342010498 20.1168937683105
50.1410903930664 12.6419878005981 16.0276908874512 23.1469230651855 43.6281089782715 47.8169174194336 9.4349889755249 22.2865905761719 16.7672119140625 25.6995811462402 -0.45074138045311 3.14909410476685 2.54660511016846 -3.23256707191467 7.48880910873413 -2.87837934494019 -2.68937230110168 -1.35959446430206 16.0929126739502 1.83620023727417 1.57160353660583 23.3146667480469 1.31550908088684 -1.08793902397156 2.31997084617615 3.61665892601013 6.44935464859009 7.93746614456177 8.64631366729736 -1.12508261203766 -1.26583790779114 -1.39631140232086 0.827089369297028 5.83233118057251 -2.61778402328491 -4.75534677505493 2.75655722618103 6.28913450241089 -4.40378189086914 -2.98834013938904 -2.84326481819153 -2.81651830673218 -3.41385197639465 -3.18899631500244 -2.99736571311951 5.08509302139282 8.32082557678223 -2.32306051254272 30.8590927124023 -3.08382630348206 20.006872177124 23.5405960083008 -3.45127010345459 -3.02661609649658 -2.85381555557251 -2.74573683738708 -1.7647123336792 -2.31576824188232 12.6880493164062 -1.98245024681091 3.34758996963501 1.98214387893677 -1.62905740737915 -1.43893706798553 25.3874988555908 -1.17032527923584 -0.0940810143947601 -0.0918128713965416 -0.102153159677982 -0.0856935903429985 -0.0209140386432409 0.240790069103241 -0.131116256117821 -0.164466261863708 -0.0161465667188168 -0.0973027795553207 -0.109085604548454 -0.09896519780159 -0.109259329736233 1.00201272964478 1.03978192806244 -0.103901825845242 -0.0609528720378876 -0.020330373197794 -0.000201211616513319 0.00138418178539723 0.000566296570468694 -0.031182462349534 0.0549480728805065 0.092189684510231 -0.0856050029397011 -0.0284117292612791 0.0206007324159145 0.0842859148979187 0.118822321295738 0.156995937228203 0.185845926403999 0.198099538683891 0.233737394213676 0.256794273853302 0.279093563556671 0.324329227209091 0.383565306663513 0.454584062099457 0.503359913825989 0.549908757209778 0.60160630941391 0.658244371414185 0.711318910121918 0.699674785137177 0.740630865097046 1.05425584316254 1.19363832473755 1.37124121189117 6.05750751495361 7.36354494094849 9.63158702850342 18.5793609619141 4.89132261276245 -0.484890460968018 13.2425670623779 6.44227123260498 2.18172860145569 -0.468879014253616 -0.398990660905838 2.97969651222229 0.100736834108829 0.158338084816933 6.24733018875122 8.31098651885986 0.847124874591827 0.724816143512726 1.43252325057983 1.48982012271881 1.09871637821198 0.858189642429352 0.973753869533539 1.01425909996033 0.849159717559814 1.23483943939209 1.30491411685944 1.30361127853394 1.79928696155548 2.43096351623535 2.95338153839111 2.90869164466858 2.52407836914062 2.58465647697449 2.80787897109985 1.81937515735626 2.55415749549866 2.81971049308777 2.9012234210968 3.35761499404907 3.78735518455505 4.02892017364502 4.35134506225586 4.54064607620239 4.89545392990112 5.02356815338135 5.46359443664551 5.57146310806274 5.64030981063843 5.86032390594482 5.98824310302734 6.02035188674927 6.03891563415527 6.229323387146 6.38216304779053 6.11320066452026 7.06889772415161 7.23760938644409 7.09091472625732 9.97811126708984 13.9007053375244
44.3567008972168 19.1342620849609 23.0502643585205 17.5562629699707 24.8951778411865 31.3152675628662 42.9489135742188 24.0512447357178 18.585807800293 4.15280246734619 24.0035343170166 6.28473472595215 0.0803884640336037 -1.49638366699219 -1.27422118186951 -3.51052570343018 -2.40122008323669 0.165772378444672 1.55020332336426 10.0511770248413 7.63326549530029 9.2789192199707 19.2807922363281 4.63042163848877 -0.731946051120758 1.49636614322662 13.3937101364136 38.1639938354492 17.4314098358154 -1.26225709915161 6.29517221450806 8.5633659362793 3.59952044487 -4.39654588699341 -4.34574365615845 -1.38514375686646 -4.12601900100708 -3.10575079917908 -3.46317434310913 3.17614102363586 -3.28767418861389 -2.39066910743713 8.71597576141357 -2.52982497215271 -2.72961378097534 14.8944988250732 -2.69077491760254 30.0412731170654 -3.08821535110474 6.73859453201294 2.20140624046326 -2.41139960289001 10.5396108627319 -2.17272853851318 -0.0275611765682697 -2.42876029014587 -1.8990193605423 -0.861479222774506 27.1848659515381 -1.81519997119904 -1.65219056606293 -1.30532789230347 2.06761932373047 -0.90522837638855 -0.0468979515135288 -0.0125595750287175 0.0106407701969147 0.0263858772814274 0.0347085520625114 0.0436858832836151 0.0105622755363584 -0.000644825398921967 -0.0301663298159838 0.0396014302968979 0.0503111593425274 -0.000135410547954962 0.037910882383585 0.0626206398010254 0.0464123077690601 1.20440948009491 1.25066447257996 1.15020525455475 1.23448657989502 0.0644857734441757 0.0899367704987526 0.114469692111015 0.137889251112938 0.362904489040375 0.387999445199966 0.31792938709259 0.169457450509071 0.245913624763489 0.108425974845886 0.148297250270844 0.163224428892136 0.200437217950821 0.201377362012863 0.233510583639145 0.249746486544609 0.271842688322067 0.27923572063446 0.302751123905182 0.344282329082489 0.395846754312515 0.45943757891655 0.5175661444664 0.776840686798096 0.799360275268555 0.694971561431885 0.799202740192413 0.900223672389984 0.897946834564209 1.13709425926208 1.32859539985657 1.35930907726288 1.96741449832916 10.1674909591675 20.523229598999 7.51496553421021 6.8030104637146 1.1540607213974 0.369319707155228 19.3120212554932 1.41489470005035 -0.452530324459076 0.413810253143311 2.12253141403198 6.91213083267212 0.170522183179855 0.710495114326477 0.800588190555573 0.827776432037354 0.875164866447449 1.4443142414093 1.55985176563263 1.63363885879517 1.18592739105225 0.91595071554184 1.05522954463959 1.10333490371704 1.17232763767242 1.39319670200348 1.49814414978027 1.52416253089905 2.17551159858704 4.05964374542236 5.5132303237915 5.22641324996948 2.53587889671326 2.87737989425659 3.16346621513367 2.15928506851196 2.79422330856323 3.16070985794067 3.09628224372864 3.92210006713867 4.00025844573975 4.31770467758179 4.65706634521484 5.18358182907104 5.28506660461426 5.3316912651062 5.73473787307739 5.85195207595825 5.93422269821167 6.17958831787109 6.31926393508911 6.46277332305908 6.48408079147339 6.57770299911499 6.78664207458496 6.50594520568848 7.54006004333496 8.66995525360107 7.60198593139648
49.1643714904785 11.3199987411499 30.4083824157715 11.268816947937 14.3891859054565 44.2405700683594 24.5623016357422 18.3676948547363 16.7981433868408 15.5596590042114 -1.15785050392151 13.1601037979126 4.68512105941772 17.814115524292 -4.24372673034668 -3.01243162155151 -2.58707094192505 0.362765610218048 2.05668520927429 33.7161636352539 -0.0345366112887859 7.19968509674072 14.7554817199707 -1.40838360786438 10.9458408355713 2.35144257545471 35.8405113220215 7.22144460678101 24.4384136199951 0.148741751909256 8.92383193969727 3.21167302131653 2.01853942871094 2.57103037834167 -4.42447137832642 -1.10905134677887 -4.10904169082642 -3.40391421318054 0.862582266330719 -2.80182409286499 -2.75175380706787 -1.57767522335052 18.175594329834 -1.75566601753235 2.17266821861267 5.850661277771 -1.37309682369232 -2.08175086975098 24.86887550354 -2.43337297439575 3.32380342483521 -1.75530922412872 -1.68813920021057 2.64462113380432 4.68772077560425 -0.1868035197258 11.634934425354 -1.59995007514954 11.0034284591675 -1.68065631389618 -1.55082082748413 -0.961068868637085 -0.905358672142029 0.0433514639735222 0.0693927854299545 0.120412640273571 0.140757828950882 0.759773015975952 1.03296780586243 0.108109772205353 0.1158686876297 0.0994265899062157 0.0655154660344124 0.112656995654106 0.0878180339932442 0.129417106509209 0.181276634335518 2.00152897834778 2.05764436721802 1.27508985996246 1.23893117904663 1.36402344703674 1.42766916751862 1.33630514144897 1.4182722568512 0.221765205264091 0.24317654967308 1.01743412017822 1.05313956737518 0.454334259033203 0.531637847423553 0.476244270801544 0.313431799411774 0.364754021167755 0.212473645806313 0.237557157874107 0.231328412890434 0.254194736480713 0.263474613428116 0.280822783708572 0.298743814229965 0.327899724245071 0.329562157392502 0.353306531906128 0.400996714830399 0.44594007730484 0.656836748123169 0.677215337753296 0.824491202831268 0.8563432097435 0.861993134021759 0.977792680263519 1.07700395584106 1.07481098175049 1.19602143764496 1.38520503044128 3.99427008628845 1.50131034851074 28.3729000091553 5.11142921447754 -0.799412190914154 -0.207051396369934 11.8259248733521 -0.311480551958084 10.3116416931152 0.120850294828415 0.529043197631836 0.299828916788101 5.87949323654175 -0.342398643493652 0.500989615917206 0.821133077144623 0.861689984798431 0.906229972839355 0.965263247489929 1.57174348831177 1.70316159725189 1.81915199756622 1.34416770935059 1.47832584381104 0.788445770740509 1.25167417526245 1.33663547039032 1.65001726150513 1.75043296813965 1.78566479682922 1.84610283374786 12.0658140182495 2.4643132686615 2.67202830314636 1.88909268379211 3.40131664276123 3.87400889396667 4.50317525863647 3.93167209625244 4.74712657928467 3.73839902877808 5.20730209350586 4.50525808334351 5.00640821456909 5.10347604751587 5.43843173980713 5.55281209945679 5.60096645355225 6.03296566009521 6.15974760055542 6.25284624099731 6.39113473892212 6.6575345993042 6.82457733154297 6.88497638702393 7.03391647338867 7.25673198699951 7.11530351638794 12.1698169708252
36.1301879882812 14.7598743438721 33.5663833618164 15.1031007766724 13.2179975509644 17.2844066619873 23.8907985687256 37.9303970336914 26.8576240539551 6.91707420349121 23.3745918273926 3.05402803421021 9.06251907348633 21.5308647155762 -4.37244462966919 -4.09364032745361 -2.13441300392151 -0.0434432961046696 28.2329730987549 -0.295955568552017 2.76746010780334 8.66899967193604 2.87745714187622 0.675444483757019 3.49025440216064 14.6755218505859 10.9772119522095 15.9708614349365 16.3576183319092 29.2432250976562 13.7316551208496 -3.28003573417664 -0.471266955137253 11.8783483505249 -4.81124639511108 -4.1769118309021 -1.2077910900116 -1.11445462703705 4.91846609115601 1.72046089172363 9.96300411224365 1.16001224517822 -1.31249690055847 -1.01869487762451 -0.0460870936512947 -0.196118548512459 13.3273334503174 -1.93558120727539 -1.4788122177124 5.50984001159668 5.35179138183594 8.13552093505859 -1.43757879734039 -1.5734715461731 -1.48633944988251 16.0166988372803 -1.75989639759064 8.16584396362305 -1.42092883586884 -1.36453413963318 -1.01791822910309 -0.426014840602875 -0.24554131925106 0.211557194590569 0.231139332056046 0.570930302143097 0.699581503868103 1.4954035282135 0.776490330696106 0.204583033919334 0.205725684762001 0.174994885921478 0.161548495292664 0.240489542484283 0.176688700914383 0.237430587410927 0.313515871763229 0.815911829471588 1.43234467506409 2.18144035339355 2.25416612625122 1.42784070968628 1.38793981075287 1.52741730213165 1.60291528701782 1.50398147106171 1.5757611989975 1.64830422401428 0.669044196605682 1.14902603626251 1.22518730163574 0.577877640724182 0.629111647605896 0.551205813884735 0.382209599018097 0.669104337692261 0.714460074901581 0.275141030550003 0.301613599061966 0.320965558290482 0.344748377799988 0.350266814231873 0.336356222629547 1.45994627475739 1.50818347930908 1.46323192119598 1.20750975608826 0.518332540988922 0.693127512931824 0.976820468902588 1.00437784194946 1.2773756980896 1.38035845756531 1.41953039169312 1.45322120189667 1.40452754497528 1.42284429073334 1.4157041311264 1.45917582511902 1.52676975727081 2.5481276512146 7.30659008026123 9.98161220550537 25.8817577362061 -0.634113788604736 0.380645513534546 10.2819004058838 0.229465812444687 0.21199443936348 -0.214678645133972 0.171775355935097 0.231053456664085 0.562874019145966 0.903825879096985 0.948685646057129 0.997218787670135 1.04629802703857 1.71475422382355 1.85560607910156 1.94401466846466 2.10631203651428 1.51996612548828 1.19015276432037 1.44924545288086 1.49743175506592 1.92006719112396 2.01361560821533 2.26894736289978 2.43828439712524 11.1284637451172 3.05066680908203 4.04186868667603 7.07384586334229 2.03293585777283 3.90361738204956 5.65706586837769 5.98951721191406 8.60433101654053 9.95594596862793 4.82328701019287 5.16872978210449 5.24588680267334 5.36218690872192 5.71793699264526 5.83914756774902 5.88758611679077 6.3448371887207 6.47771215438843 6.61647510528564 6.78005409240723 7.0930061340332 7.29580163955688 7.34056997299194 7.57063007354736 7.80861759185791
28.3052959442139 37.0330963134766 25.3452739715576 17.4370746612549 23.6207523345947 10.4048671722412 36.1412506103516 22.0736217498779 10.5985412597656 23.7348880767822 4.83897352218628 4.98618268966675 25.0088176727295 -4.07528018951416 -3.98990702629089 -3.65517544746399 -2.81346440315247 11.5180759429932 24.3774833679199 0.079383559525013 6.80645322799683 0.734987318515778 7.50259685516357 6.97011852264404 13.3500413894653 25.8784427642822 8.33441543579102 18.1253280639648 13.2391080856323 24.4652290344238 1.28647649288177 19.01123046875 -2.76692390441895 0.88872754573822 -2.90179991722107 7.79590511322021 0.647006928920746 5.6452808380127 11.8855981826782 22.9555797576904 9.50833415985107 2.79770278930664 15.4024505615234 -0.940358400344849 3.32701635360718 -0.0755047202110291 6.68331384658813 7.4935359954834 -1.56030809879303 -1.42783069610596 -1.13833963871002 16.1426372528076 3.04864048957825 -1.89322507381439 -1.42542409896851 -1.154820561409 -1.05699098110199 27.6267719268799 -1.07642090320587 -0.914450943470001 -0.589171648025513 -0.414380759000778 0.341670751571655 0.487292438745499 0.898219227790833 0.7607741355896 1.54890072345734 1.88023591041565 1.09779119491577 0.29950276017189 0.299718111753464 0.25397065281868 0.244934633374214 0.217328071594238 0.254493445158005 0.322482049465179 0.409612268209457 0.510866940021515 1.19745779037476 1.24404561519623 1.58117759227753 2.37228465080261 2.44940233230591 1.57634341716766 1.54053628444672 1.68936455249786 1.7630056142807 1.85109722614288 1.75435400009155 1.83337950706482 0.758293926715851 1.23779201507568 1.2933007478714 0.634989202022552 0.698177814483643 1.31560528278351 1.37365579605103 0.727143526077271 0.772894203662872 0.435963571071625 0.464278966188431 0.454491347074509 1.65957570075989 1.70768022537231 1.71740734577179 1.54555928707123 1.5926433801651 1.54452037811279 1.26198995113373 1.06610286235809 1.43137264251709 1.4854279756546 1.51920521259308 1.45470499992371 1.48997461795807 1.55742466449738 1.5871958732605 1.60020649433136 1.9171040058136 1.85375392436981 2.0095911026001 1.55968058109283 3.29693341255188 20.9611701965332 7.20621156692505 -0.64777934551239 0.396628201007843 -0.205396056175232 0.0125733567401767 0.0737647116184235 0.126354455947876 0.479345142841339 0.0233615152537823 0.250931978225708 0.616155862808228 0.980700194835663 1.04721713066101 1.12391328811646 1.16200876235962 1.88749146461487 2.03121376037598 2.23133587837219 2.36986613273621 1.69897782802582 1.37662947177887 1.66079556941986 1.86692726612091 1.45054054260254 2.62344551086426 2.98366451263428 3.44740724563599 7.04543352127075 9.99273777008057 5.02482795715332 5.75311326980591 3.93276309967041 6.73569583892822 8.14025211334229 17.2561054229736 4.14788770675659 4.62978506088257 4.92847585678101 5.2725305557251 5.5167384147644 5.63497352600098 6.02069187164307 6.14993047714233 6.27776718139648 6.4929370880127 6.88592624664307 7.02505207061768 7.2400541305542 7.59715270996094 7.81510925292969 7.85604476928711
23.5117511749268 42.8119430541992 38.0642585754395 9.893723487854 15.2701063156128 26.8356666564941 9.72347450256348 13.7864418029785 18.2076969146729 31.4404792785645 22.9061641693115 -0.0501827523112297 4.52338743209839 -3.71351552009583 -3.53225111961365 -3.20807552337646 0.673506557941437 6.20941352844238 30.0847492218018 -2.5286853313446 -0.646327018737793 7.86001205444336 1.98577761650085 5.62327814102173 9.26694011688232 18.1081447601318 25.6365985870361 13.0037841796875 13.061653137207 6.37931823730469 23.4587516784668 -3.25328683853149 -3.13839077949524 -3.01606822013855 -1.24384462833405 -0.186215072870255 1.46059012413025 6.87989473342896 15.4300546646118 13.1692953109741 19.7562065124512 13.1841201782227 -2.06639456748962 -1.59095799922943 -1.66110718250275 -0.643946707248688 -0.520977377891541 9.87197780609131 -1.16965973377228 5.33488941192627 -0.98539787530899 -0.169701486825943 1.29520118236542 -0.789751350879669 0.0108534395694733 -0.285950034856796 1.50481081008911 18.3655872344971 4.17757225036621 -0.567172765731812 -0.112075507640839 0.241339638829231 0.862696349620819 1.37642657756805 1.61803984642029 2.24520373344421 2.25882935523987 1.0903080701828 0.898751854896545 0.666213929653168 0.397483319044113 0.445647209882736 0.331370085477829 0.300651907920837 0.341512709856033 0.408723413944244 0.495265990495682 0.579226791858673 1.21916222572327 1.25617170333862 1.31104505062103 1.36257910728455 1.72471761703491 2.56330990791321 2.64351582527161 2.7310688495636 1.7998880147934 1.76271045207977 1.91392374038696 1.9934241771698 1.87624728679657 1.95975613594055 0.872994542121887 1.32934701442719 1.41045463085175 1.48820042610168 0.773930549621582 1.40695250034332 1.46494328975677 0.776029109954834 0.812117516994476 1.85197782516479 1.90507161617279 1.0633784532547 1.74853718280792 1.80347216129303 1.82147169113159 1.63731229305267 1.69182324409485 1.61203742027283 1.34891772270203 1.29338479042053 1.48684728145599 1.54777383804321 1.58349549770355 1.50524127483368 1.54028296470642 1.63292872905731 1.90616858005524 2.39070582389832 2.87441349029541 2.10595989227295 1.49657106399536 1.56155824661255 5.02863931655884 21.6977062225342 0.996754884719849 -0.409482091665268 0.0730923712253571 0.0405736267566681 0.0323858112096786 0.368866086006165 0.0306707769632339 0.14403472840786 0.121467903256416 0.270698875188828 0.28600811958313 1.10588920116425 1.14530169963837 1.28658771514893 1.40171408653259 1.49875497817993 2.24492144584656 2.62246298789978 2.70414257049561 2.18114399909973 1.50407981872559 2.05079293251038 2.20908737182617 2.39982461929321 3.72637534141541 4.52916717529297 5.86019563674927 21.334379196167 1.8935546875 5.80028915405273 8.45442199707031 9.69298267364502 7.5090160369873 10.4030914306641 4.24210214614868 4.44649791717529 4.88865089416504 5.58675146102905 5.70493221282959 5.80562305450439 5.93025970458984 6.10239791870117 6.51439189910889 6.68603277206421 6.92901229858398 7.31850671768188 7.53931903839111 7.77602815628052 8.1496114730835
19.2213230133057 35.6935348510742 33.5608215332031 17.3554382324219 17.8045749664307 18.0425701141357 10.6728010177612 12.831413269043 22.9218616485596 19.6141624450684 26.6790542602539 -3.12300992012024 -2.88063597679138 17.8834457397461 -0.961742341518402 -3.00906157493591 2.99181914329529 4.9492359161377 15.3283767700195 23.2816162109375 -2.75481343269348 17.1987285614014 -0.196285635232925 6.47903299331665 17.8712673187256 5.58156538009644 9.41881656646729 47.7537841796875 -2.95954871177673 1.24752068519592 25.4724979400635 -2.09133005142212 7.27752304077148 -1.98656666278839 -1.72260522842407 -0.619294464588165 4.07442998886108 5.98979520797729 9.11181259155273 26.4022903442383 12.406379699707 22.8727512359619 -1.93219447135925 -1.77120935916901 -1.80203688144684 2.20230841636658 20.5729160308838 -0.409569144248962 -0.39623561501503 -0.633142530918121 0.902521193027496 -0.599356710910797 0.167113527655602 2.06022787094116 5.58597373962402 11.8077068328857 1.44348108768463 17.3438472747803 1.24976909160614 3.01673173904419 7.38307428359985 11.4444456100464 1.15817129611969 1.38225495815277 1.81044924259186 3.0041663646698 1.67641484737396 0.953461050987244 0.515214622020721 0.664574921131134 0.630401015281677 0.489794582128525 0.406230360269547 0.380713313817978 0.407249063253403 0.478881627321243 0.55192357301712 0.87921005487442 1.1250331401825 1.15538930892944 1.31442308425903 1.36022126674652 1.43073618412018 1.48488759994507 1.86121189594269 1.92594647407532 2.85439658164978 2.92560625076294 1.91794753074646 1.87052941322327 2.0402147769928 2.13265156745911 2.01911520957947 2.11413955688477 0.946593761444092 0.996446073055267 1.52002656459808 1.60554647445679 0.842763781547546 1.52925837039948 1.57663583755493 1.40202844142914 1.44790935516357 1.93487823009491 1.99698436260223 1.12814009189606 1.84700536727905 1.91521942615509 1.92806077003479 1.72738873958588 1.78870034217834 1.83664548397064 1.78487205505371 1.82531321048737 1.54706966876984 1.60948407649994 1.63737082481384 1.55225741863251 1.73125815391541 2.21607875823975 2.51362752914429 1.95072674751282 1.31296634674072 1.21815955638885 1.53831005096436 1.68031096458435 17.8875560760498 1.33982694149017 1.76257181167603 0.0418229401111603 0.166216120123863 0.11032422631979 0.0374384522438049 0.0340833552181721 0.0879454463720322 0.0768805667757988 0.163295716047287 0.254451364278793 0.32305833697319 0.872742056846619 1.27823948860168 1.55110430717468 1.66901409626007 1.82083857059479 2.55977821350098 2.99584174156189 3.19921875 2.87589144706726 1.76507163047791 1.48950588703156 2.90421938896179 3.27648711204529 6.61213493347168 8.90534019470215 12.0924921035767 2.58442687988281 3.30603957176208 12.4315748214722 11.4858779907227 3.86451292037964 27.57080078125 3.81316208839417 4.83607769012451 5.04009866714478 5.45386457443237 5.87205648422241 6.00960111618042 6.14869117736816 6.3139910697937 6.44438028335571 6.92383432388306 7.1390585899353 7.65244483947754 7.97420024871826 8.24011898040771
15.2124528884888 26.2035961151123 36.2413711547852 16.2431144714355 38.6450691223145 16.4947052001953 7.8445930480957 11.9758281707764 4.87750625610352 15.1375675201416 37.4651718139648 17.4068965911865 -3.23368072509766 -2.79124712944031 -2.0208101272583 1.11684930324554 4.83294153213501 7.03553152084351 10.2390031814575 5.03273439407349 -2.45898795127869 -0.461303353309631 0.373102068901062 6.69876480102539 10.4965171813965 10.6986236572266 15.5079832077026 11.2725563049316 7.01289415359497 7.38770055770874 7.75437784194946 14.069712638855 9.17966175079346 -1.52280533313751 -1.04772663116455 0.425778985023499 3.43081498146057 11.0127010345459 19.037317276001 22.9473934173584 23.0763683319092 1.61705923080444 1.96907413005829 -2.03848886489868 -1.48934018611908 -1.24319648742676 14.7103128433228 -1.27196788787842 1.8556946516037 15.6917591094971 0.359368920326233 0.952666580677032 0.772693932056427 10.0177421569824 20.549991607666 0.729593396186829 0.749685347080231 4.06847476959229 19.3807487487793 14.4708375930786 14.8809585571289 14.6985425949097 12.0296230316162 0.134612455964088 2.57007336616516 3.28534936904907 2.3085560798645 1.14712727069855 0.480329155921936 0.48946675658226 0.647638261318207 0.449007838964462 0.446706503629684 0.448182821273804 0.477186650037766 0.498338937759399 0.608945250511169 0.724482238292694 1.0024505853653 1.0344523191452 1.20364475250244 1.23746836185455 1.41423273086548 1.47405445575714 1.54834234714508 1.60034561157227 1.64608013629913 2.046138048172 3.01897764205933 3.11623668670654 2.04535269737244 1.99370121955872 2.19388771057129 2.29710698127747 2.19583511352539 2.30129408836365 2.4258496761322 1.21113085746765 1.62931680679321 1.71215903759003 1.57290625572205 1.63461291790009 1.6636917591095 1.7034672498703 1.75072681903839 2.03085517883301 2.10257434844971 1.80230021476746 1.95444643497467 2.02692723274231 2.08118057250977 2.08943510055542 1.87044930458069 1.91536784172058 1.85036039352417 1.89070284366608 1.60129058361053 1.65469336509705 1.69643604755402 1.79709577560425 2.13021445274353 2.25288271903992 1.60045123100281 1.60753500461578 1.35480105876923 1.31847512722015 1.7239738702774 1.90027117729187 2.0545597076416 2.11334538459778 2.16931939125061 1.9457300901413 0.0410712175071239 0.0335027761757374 0.0501207895576954 0.0502771101891994 0.15254507958889 0.0620039701461792 0.0575082749128342 0.579917907714844 0.377112418413162 0.967967450618744 1.46678733825684 1.81201732158661 2.01147294044495 2.21438360214233 3.0440833568573 3.56896829605103 3.91081643104553 4.38667154312134 3.08869028091431 2.35730361938477 3.85499501228333 4.90304565429688 16.5542163848877 2.7900710105896 4.36456394195557 3.37589383125305 3.80141019821167 31.4267807006836 3.34901022911072 4.53161525726318 4.86392259597778 4.96696376800537 5.12459421157837 5.32818698883057 5.75797414779663 5.91188335418701 6.38231134414673 6.56412315368652 6.70330476760864 7.04892587661743 7.43244361877441 7.64881086349487 8.49132823944092
13.4155387878418 17.9982795715332 25.0263652801514 49.6543655395508 8.96385288238525 20.4344882965088 10.4112396240234 32.7811050415039 -2.47500157356262 21.5815982818604 31.7694702148438 16.3720874786377 -2.65364384651184 -2.64314985275269 -2.72302484512329 5.20978212356567 -2.01625370979309 31.9850921630859 -2.04754114151001 15.1068897247314 -2.50493454933167 0.675299525260925 2.46173238754272 3.36040592193604 3.81137871742249 23.8038787841797 10.2369918823242 8.74997997283936 6.53167295455933 12.2143144607544 20.3767147064209 6.80424976348877 0.948320686817169 -2.73584651947021 -2.18039560317993 1.51630175113678 4.21933746337891 8.51455402374268 26.4498825073242 16.8674221038818 6.53997564315796 7.34795999526978 -0.855487525463104 0.863718569278717 -1.90030026435852 -1.88612711429596 -0.810189366340637 -0.566966533660889 0.410935908555984 16.9674377441406 -0.428966641426086 1.05854880809784 1.68053019046783 6.48518466949463 13.7040576934814 0.893449544906616 20.3598232269287 13.9840183258057 38.3206176757812 3.61579370498657 -0.267290413379669 0.032868254929781 14.6912775039673 -0.227433666586876 0.885958313941956 3.34737777709961 3.26747179031372 1.5235652923584 0.826040506362915 0.523909628391266 0.530471980571747 0.552750051021576 0.482255756855011 0.480058908462524 0.509019792079926 0.528253734111786 0.581935882568359 0.649632155895233 0.859266877174377 0.891181707382202 1.07643508911133 1.09559440612793 1.28702926635742 1.34201335906982 1.53218126296997 1.58127892017365 1.62401068210602 1.68851721286774 1.73343646526337 2.15694069862366 3.2102518081665 3.34169912338257 2.19466400146484 2.15503454208374 2.38317942619324 2.48391461372375 2.59896039962769 2.48404932022095 2.63098454475403 1.26488363742828 1.71540772914886 1.89062893390656 2.58572459220886 2.67426586151123 2.76074504852295 2.6783492565155 2.48854637145996 2.46581411361694 2.76052308082581 2.84696984291077 2.92610692977905 2.69675445556641 2.18403148651123 2.16743016242981 1.94067525863647 1.99439084529877 1.90909731388092 1.94747817516327 1.64440774917603 1.68575501441956 1.71966195106506 2.3067421913147 1.56400978565216 1.57752799987793 1.64090442657471 1.69586253166199 1.49562430381775 1.55750548839569 1.97912168502808 2.10789775848389 2.1836998462677 2.28898143768311 2.35267615318298 2.09630465507507 0.051855307072401 0.0531419441103935 0.100244961678982 0.301659345626831 0.0710804089903831 0.234164908528328 0.0639900639653206 0.159716725349426 0.474241346120834 1.22008371353149 1.76138615608215 1.89876651763916 2.64769911766052 2.92760229110718 3.67942595481873 4.43390417098999 6.29458665847778 8.76145267486572 4.12502908706665 3.10573053359985 6.947669506073 9.77903175354004 2.91616559028625 3.2469220161438 3.55671238899231 3.58822894096375 4.01666021347046 4.23115682601929 4.53874254226685 4.84635066986084 5.11447143554688 5.25101184844971 5.37488889694214 5.5384202003479 5.79683113098145 6.27900123596191 6.8097767829895 6.97513341903687 7.37596750259399 7.85711765289307 8.21899032592773
10.1955652236938 16.0510368347168 22.1241397857666 38.2878265380859 24.6509799957275 19.6835327148438 13.2707262039185 21.8145294189453 -2.12622094154358 0.628528535366058 3.30654215812683 30.6245498657227 -2.08986139297485 5.79667043685913 -1.97459328174591 1.37327146530151 31.9308624267578 -2.15420937538147 15.3114461898804 5.84896469116211 -2.13847160339355 2.55104064941406 3.25915145874023 3.83971166610718 3.74908447265625 5.02002429962158 10.4646453857422 2.96067643165588 32.2672119140625 0.246967822313309 27.0221252441406 -2.69548177719116 -2.65086936950684 -2.11873912811279 -0.0918892174959183 4.02589750289917 9.53009605407715 9.94890689849854 24.2291679382324 8.41463947296143 13.9653911590576 2.50279688835144 -2.0476291179657 12.8282403945923 -1.59245097637177 -0.747070789337158 -0.713284552097321 9.55947303771973 0.20811539888382 3.86202454566956 0.454291492700577 0.137352272868156 0.240958988666534 4.26586103439331 10.3026342391968 17.980339050293 27.3043384552002 20.7641506195068 1.10745942592621 44.9867134094238 0.858469903469086 2.73176074028015 0.299217075109482 2.54884719848633 3.93745899200439 4.04376602172852 3.19750785827637 2.57999801635742 1.23807954788208 0.669970035552979 0.559831380844116 0.549270153045654 0.534065783023834 0.514384388923645 0.530938565731049 0.560097992420197 0.600852310657501 1.02763116359711 1.29856646060944 1.62797355651855 1.67018902301788 0.949477791786194 1.14423418045044 1.17857658863068 1.38025999069214 1.42776203155518 1.46963489055634 1.66341030597687 1.70336008071899 1.76656293869019 1.82150638103485 2.30482411384583 3.46474361419678 3.60561656951904 3.75760722160339 2.48756504058838 2.42151784896851 2.67289185523987 2.81199979782104 2.66722536087036 2.83981013298035 2.5392746925354 3.03414988517761 3.23970484733582 3.40752005577087 3.50443553924561 3.37851977348328 3.24944353103638 3.33904337882996 3.42017912864685 2.88910984992981 2.96693539619446 3.01154589653015 2.79476952552795 2.25518012046814 2.25476169586182 2.00296902656555 2.08313131332397 1.9967645406723 2.03247141838074 2.06108522415161 1.71976149082184 1.74263727664948 1.75934302806854 1.62753331661224 1.66425573825836 1.79306137561798 1.94457983970642 1.77523159980774 1.67706298828125 1.95257842540741 2.28393149375916 2.35953640937805 2.49882793426514 2.59174346923828 2.31207227706909 0.174795791506767 0.207910045981407 0.144953802227974 0.162579700350761 0.093965619802475 0.12440486997366 0.0980057641863823 0.117957197129726 0.590980470180511 0.648894131183624 2.15191197395325 2.34958600997925 3.75223827362061 4.4381947517395 6.31414127349854 8.88575267791748 19.0823554992676 4.23931741714478 4.76632404327393 4.99787092208862 18.8869686126709 2.43676424026489 2.92315340042114 3.46948337554932 3.712810754776 3.98251152038574 4.32935857772827 4.46175146102905 4.82242965698242 5.07861804962158 5.27755451202393 5.56748962402344 5.71578931808472 5.92572927474976 6.17890405654907 6.6720609664917 7.27033948898315 8.14532279968262 8.77260684967041
7.67165470123291 10.4099702835083 17.22483253479 26.2145690917969 42.2441062927246 20.7842845916748 2.57096290588379 36.2762718200684 1.85702705383301 -1.76570117473602 1.61806774139404 10.7336559295654 5.66385173797607 0.297711610794067 -1.86610662937164 4.7405104637146 18.1260051727295 14.4074506759644 -1.82258200645447 -1.90956819057465 1.07141697406769 1.1973592042923 1.38663697242737 7.56351900100708 24.2895355224609 2.98653435707092 13.9229650497437 0.827741086483002 7.68689918518066 6.85142850875854 -0.929288685321808 17.7154960632324 -2.22983908653259 -2.03503751754761 -1.8805365562439 3.20957493782043 20.1301040649414 8.99331474304199 30.7733421325684 9.30042552947998 2.26612901687622 0.305454909801483 17.1190509796143 -2.35353088378906 -1.78668832778931 -0.398264855146408 0.117221459746361 0.395541161298752 30.4917240142822 -0.330070018768311 0.313926011323929 1.41767597198486 14.4097080230713 0.662860691547394 18.998514175415 35.7475395202637 2.77937769889832 4.79028511047363 5.12665891647339 1.64011347293854 16.2716369628906 44.4606781005859 1.00444173812866 1.0646733045578 0.633906841278076 3.68293452262878 3.66893577575684 2.74261498451233 1.94359040260315 0.943792104721069 0.628611624240875 0.61213892698288 0.592567622661591 0.579801499843597 0.572171568870544 0.594081401824951 0.632615506649017 0.691965699195862 0.717615246772766 1.09262144565582 1.37541794776917 1.72559869289398 1.75780868530273 0.995365917682648 1.19800674915314 1.23408925533295 1.27457618713379 1.49413573741913 1.53451573848724 1.7350070476532 1.77723395824432 1.87079095840454 1.95830571651459 2.48450684547424 2.5793993473053 3.89175081253052 4.06036710739136 2.6864972114563 2.61466860771179 2.8584988117218 3.02345633506775 2.92462038993835 3.68514561653137 4.15272855758667 4.57699060440063 4.68441200256348 4.69523572921753 4.33299160003662 4.45145511627197 4.58004665374756 4.23868608474731 3.57000041007996 2.99054718017578 3.05751705169678 3.1480712890625 2.89249205589294 2.35163497924805 2.37193989753723 2.34482741355896 2.20564699172974 2.27290034294128 2.15261244773865 2.13192629814148 1.90010845661163 1.81814956665039 1.86534798145294 1.77772724628448 1.88617980480194 2.07898807525635 2.24765038490295 2.33454966545105 2.15359377861023 2.13288474082947 2.48320746421814 2.57505130767822 2.74345588684082 2.90695071220398 2.59288048744202 0.2030159085989 0.221890822052956 0.215498954057693 0.223408907651901 0.118422836065292 0.116385206580162 0.184536516666412 0.226383998990059 0.565182149410248 0.814262509346008 2.45257568359375 3.00154137611389 6.30729198455811 8.73646545410156 18.6849231719971 3.63906788825989 5.88872480392456 11.4223051071167 12.7163619995117 8.15434551239014 9.39435291290283 2.67878031730652 3.52774000167847 3.75380682945251 3.91087508201599 4.24444150924683 4.59867286682129 4.7250804901123 4.83054256439209 5.36429834365845 5.63696002960205 5.94327354431152 6.10031890869141 6.3243088722229 6.58895015716553 7.13340711593628 7.82360696792603
5.73141479492188 9.81322288513184 11.6996803283691 17.5599308013916 39.9381790161133 30.3110046386719 0.681685328483582 15.3553142547607 3.95955157279968 7.59098863601685 14.4343891143799 1.89570665359497 5.12139511108398 -1.6418913602829 -1.52399945259094 -1.03860354423523 16.7104015350342 9.44401836395264 -1.54367446899414 -1.27865850925446 -1.01908195018768 4.16097545623779 11.8908061981201 2.8098669052124 21.730167388916 20.0646591186523 1.50284326076508 -1.49428188800812 17.2666683197021 -1.39668083190918 1.31582581996918 -1.36375820636749 -1.12176716327667 -1.37655532360077 -1.16434574127197 0.376568108797073 7.18064785003662 8.35826969146729 29.9842319488525 12.6000261306763 -2.36070513725281 15.8640775680542 0.642196655273438 -2.61005187034607 1.51657605171204 -1.77958869934082 -1.03011989593506 4.19210529327393 1.09288620948792 0.787201106548309 2.37106347084045 8.4859561920166 15.1132001876831 14.6989736557007 36.8509826660156 4.03941917419434 0.842739105224609 2.98559188842773 7.37211132049561 50.8309669494629 1.72108435630798 1.28130877017975 42.6399345397949 1.23369932174683 2.63886404037476 4.43071508407593 3.32133841514587 3.10743141174316 2.24244856834412 1.11658084392548 0.934601187705994 0.688017427921295 0.662947237491608 0.652608215808868 0.636380195617676 0.648000061511993 0.677341043949127 0.879175186157227 0.910148680210114 0.884047448635101 0.874104142189026 1.15348172187805 1.44948184490204 1.79918229579926 1.82350790500641 1.01595890522003 1.04780995845795 1.28125560283661 1.32014834880829 1.54775774478912 1.59178555011749 1.81583654880524 1.88634014129639 2.00392317771912 2.08486318588257 2.17592787742615 2.78098487854004 4.22348880767822 4.39270639419556 2.87585425376892 2.79124760627747 3.13042545318604 4.16323709487915 4.60885715484619 4.70475482940674 4.60765218734741 4.76677846908569 4.88924074172974 4.897385597229 4.51489353179932 4.65370321273804 4.78892707824707 4.42467021942139 3.72483134269714 3.12569260597229 3.19045662879944 3.26979207992554 3.37092280387878 3.12557339668274 2.61511015892029 2.61370348930359 2.34158825874329 2.40568614006042 2.27158904075623 2.21868944168091 1.97880232334137 1.97631680965424 2.08268594741821 2.22175741195679 2.19306564331055 2.39692330360413 2.53285145759583 2.63861727714539 2.34011268615723 2.34280133247375 2.74053716659546 2.88148212432861 3.09878182411194 3.23175954818726 3.39167261123657 3.02699089050293 0.29558652639389 0.264331668615341 0.310776382684708 0.155143439769745 0.151027455925941 0.390462219715118 0.246629908680916 0.311405181884766 1.07982230186462 4.05619812011719 5.61479187011719 14.9569606781006 1.03680241107941 1.1312403678894 8.23873615264893 25.5580883026123 1.26102137565613 2.18912625312805 2.40204215049744 3.02064752578735 3.18375587463379 3.52740454673767 3.84020018577576 4.13863801956177 4.24096202850342 4.60189580917358 4.98594999313354 5.12594556808472 5.61277389526367 6.01906585693359 6.34870862960815 6.51736879348755 6.78183698654175 7.08000946044922
2.67877960205078 6.8268256187439 10.1332559585571 16.558313369751 24.0798988342285 29.9983768463135 5.43641424179077 28.7605972290039 5.22833871841431 14.2783756256104 14.4223937988281 -0.776670634746552 9.11520576477051 -1.58445036411285 0.249191045761108 -1.34507858753204 -1.30388998985291 -0.496808469295502 16.556978225708 -0.929191410541534 -0.777002036571503 13.1794118881226 2.88093662261963 4.32038593292236 10.1149196624756 20.0450687408447 1.32566690444946 15.9510917663574 -0.998166680335999 -1.37685322761536 4.97037935256958 -1.13547909259796 -0.9832603931427 -0.946752965450287 8.48667049407959 -1.10098540782928 -0.753452718257904 5.36501407623291 12.5503950119019 24.9575042724609 7.44230985641479 4.26998853683472 -2.10777449607849 -1.83171427249908 -1.71665978431702 -1.54615378379822 -1.30170953273773 -0.416339635848999 26.512170791626 -0.191362738609314 10.6610956192017 18.8403358459473 11.0733547210693 41.5403633117676 0.893861949443817 5.11357021331787 1.96880209445953 26.1020755767822 42.3410911560059 3.03514218330383 7.94572401046753 4.99785852432251 2.2907030582428 46.3836364746094 1.52199077606201 4.45036315917969 4.08441925048828 4.12690782546997 3.53964018821716 1.58414542675018 1.2325633764267 0.811033725738525 0.756774663925171 0.73332679271698 0.712250828742981 0.715058267116547 1.21831774711609 1.5518627166748 1.59265792369843 1.12177991867065 1.16424167156219 1.07973623275757 1.17142295837402 1.33699798583984 1.47981452941895 1.84071159362793 1.8786860704422 1.93165564537048 1.07252252101898 1.32062447071075 1.36892402172089 1.61627197265625 1.66444706916809 1.91576433181763 2.00468897819519 2.09202480316162 2.23029923439026 2.34512424468994 2.97545003890991 4.56012392044067 4.7824535369873 3.13407397270203 4.82627773284912 4.93695259094238 4.77416753768921 4.95959091186523 5.06332445144653 4.79943418502808 4.9752631187439 5.11191892623901 5.13893175125122 4.74066638946533 4.89518356323242 5.03421497344971 4.61177635192871 3.90539193153381 3.9690158367157 3.36396312713623 3.46244597434998 3.56908702850342 3.30748844146729 2.81358957290649 2.790691614151 2.47991061210632 2.54777884483337 2.42138504981995 2.37170577049255 2.11664962768555 2.2092969417572 2.41255354881287 2.62425446510315 2.54559206962585 2.66506934165955 2.76529502868652 2.8613166809082 2.55268454551697 2.63594031333923 3.08315110206604 3.2198498249054 3.37772226333618 3.64993405342102 3.84601712226868 3.42973351478577 0.415253162384033 0.449192881584167 0.612054228782654 0.233989715576172 0.30687689781189 0.38418972492218 0.464347183704376 0.536091268062592 1.70711922645569 12.3185529708862 3.11797785758972 9.57710266113281 3.94368290901184 1.51073253154755 34.7182083129883 1.10606968402863 1.53505456447601 2.41477012634277 3.12820339202881 3.21830582618713 3.38233613967896 3.46693062782288 4.08637571334839 4.36449146270752 4.48001718521118 4.89941310882568 5.31135511398315 5.45311546325684 6.02448749542236 6.46062231063843 6.79648971557617 7.00970125198364
2.50654649734497 3.02348351478577 3.27604722976685 9.68271636962891 29.955114364624 21.3255214691162 0.618301928043365 23.8917560577393 12.505952835083 5.03230571746826 19.2092971801758 12.855149269104 -1.32314515113831 2.33276891708374 -1.17643964290619 -1.11169195175171 -0.857506215572357 -0.716024935245514 11.4483528137207 -0.454545140266418 -0.26974019408226 -0.286791324615479 0.110127195715904 0.133131220936775 12.6194381713867 45.6063385009766 8.58822536468506 3.60299825668335 -1.30251884460449 -1.07867658138275 12.2070331573486 -0.598354816436768 2.70707726478577 -0.771029114723206 0.0642802491784096 -0.680896282196045 -0.372736752033234 6.10447311401367 7.59438133239746 8.65190315246582 7.94362306594849 -0.574878573417664 5.88012313842773 -0.583901762962341 -1.15563905239105 11.4631462097168 -0.856748402118683 -0.738690257072449 -0.364924818277359 7.42610311508179 1.17528545856476 10.3926963806152 45.2269744873047 1.37102127075195 7.75234842300415 22.1577739715576 38.1773109436035 18.7290649414062 1.43790829181671 1.55644547939301 1.93873989582062 1.44485759735107 19.9776954650879 1.80733203887939 21.7318859100342 3.39663863182068 4.45386981964111 4.48876619338989 4.42179203033447 4.63073301315308 3.89368963241577 1.10617566108704 0.952149331569672 0.918849766254425 0.894817233085632 0.906860888004303 1.20425069332123 1.24976420402527 1.30375468730927 1.62585639953613 1.65970742702484 1.50562763214111 1.57947587966919 1.22648465633392 1.02738058567047 0.934854745864868 1.2113481760025 1.53805756568909 1.94775342941284 2.00581312179565 1.10557019710541 1.37774908542633 1.41979157924652 1.68583023548126 1.75411808490753 1.84066128730774 2.14210343360901 2.24150228500366 2.37980270385742 2.49099278450012 3.2116801738739 5.01482772827148 5.28533124923706 5.54593801498413 5.07282161712646 5.18502521514893 5.08136749267578 5.1509804725647 5.28152656555176 5.02324390411377 5.24358558654785 5.41021013259888 5.59051895141602 5.62078809738159 5.1463508605957 5.25702285766602 5.41140508651733 4.98075008392334 4.21397924423218 3.5494589805603 3.68021082878113 3.78321504592896 3.48074126243591 2.99739193916321 2.96595406532288 2.62292957305908 2.76998782157898 2.70083236694336 2.6345489025116 2.82674622535706 2.62742471694946 2.82787299156189 2.97427892684937 2.78602147102356 2.92817449569702 3.04068565368652 3.16009187698364 2.85814595222473 2.55914735794067 3.11628794670105 3.63714003562927 3.82977914810181 4.17760515213013 4.44082403182983 3.96775436401367 0.824733555316925 1.06531846523285 0.314507901668549 0.397178947925568 0.476662039756775 0.56750476360321 0.645730495452881 0.678647696971893 5.41406917572021 1.18962800502777 16.362340927124 1.72355568408966 1.73216700553894 5.48117446899414 14.0506010055542 1.79421603679657 1.84969174861908 2.40652370452881 3.33582901954651 3.4345371723175 3.16468524932861 3.66894102096558 4.35493993759155 4.65767765045166 4.80727243423462 5.23502540588379 5.66808986663818 5.83461380004883 6.38909673690796 6.70696783065796
1.86187815666199 1.91123485565186 3.76685953140259 4.5322151184082 5.35865831375122 16.7248039245605 27.3160972595215 7.9802565574646 3.24479508399963 13.5204429626465 17.5368003845215 13.4340963363647 -0.891491711139679 11.4418802261353 -0.973794043064117 -0.296629905700684 0.072081446647644 0.287886947393417 0.937395513057709 0.683386385440826 7.50771522521973 10.4391012191772 0.630535364151001 4.48050594329834 9.49608707427979 11.4148406982422 34.9907455444336 0.754172086715698 8.73804378509521 -0.861736834049225 -0.635307490825653 21.2366580963135 -0.55260181427002 12.5810499191284 -0.756319761276245 -0.0670421198010445 -0.250363171100616 -0.112173028290272 12.6307182312012 -0.362071096897125 6.08566999435425 -0.00717025017365813 0.971950590610504 4.80988883972168 1.20503103733063 8.94902229309082 6.12528800964355 18.4522476196289 -0.749325096607208 14.7080230712891 35.3353080749512 2.55923056602478 8.96705913543701 27.2831535339355 34.8192977905273 21.4706745147705 1.32997751235962 3.12282562255859 6.2928295135498 5.43182897567749 8.20477294921875 10.8549461364746 16.0882205963135 1.98293709754944 5.04978609085083 2.28012347221375 5.25106859207153 4.95615911483765 4.83047199249268 5.05481433868408 5.15490007400513 5.27818441390991 4.51409864425659 1.18657386302948 1.1847916841507 1.18781745433807 1.23974132537842 1.29644680023193 1.31322395801544 1.38098526000977 1.47484016418457 1.66745984554291 1.75520193576813 1.30395913124084 0.97452849149704 1.08526909351349 1.06744289398193 0.909264206886292 1.23033797740936 1.58990108966827 2.03475427627563 2.10843181610107 1.15584027767181 1.4377920627594 1.48241913318634 1.62787091732025 1.88666021823883 1.95762991905212 2.27651977539062 2.3920431137085 2.55962657928467 3.12194800376892 4.29408502578735 4.37517356872559 5.82154035568237 6.17680501937866 5.27244758605957 5.3918251991272 5.29667282104492 5.39328861236572 5.55817461013794 5.57546186447144 5.499587059021 5.74341249465942 5.91807556152344 5.91793060302734 5.40562200546265 5.5857629776001 5.72438383102417 5.26886224746704 4.48056507110596 3.76509022712708 3.88187408447266 3.98618745803833 3.64614844322205 3.2156229019165 3.20231628417969 2.99246668815613 3.21802949905396 3.53352689743042 3.52380752563477 3.2325541973114 2.9911470413208 3.15889739990234 3.31863141059875 3.1202757358551 3.26531577110291 3.42546129226685 3.59728169441223 3.67809581756592 3.33524298667908 3.56610608100891 4.16059637069702 4.4191722869873 4.88533163070679 5.2482967376709 4.62684488296509 0.350345432758331 0.414307504892349 0.480746150016785 0.548503518104553 0.632866322994232 0.71850973367691 0.831753492355347 2.52051997184753 4.64856624603271 1.25731587409973 9.15279197692871 2.50606083869934 2.62185835838318 2.78036594390869 6.42211866378784 1.7970929145813 2.40500617027283 2.64888095855713 3.5617504119873 3.66850829124451 3.36943626403809 3.89584755897522 4.67483520507812 4.99561309814453 5.15389776229858 5.60790157318115 6.08521223068237 6.26542186737061
2.02305316925049 2.07576441764832 2.13199639320374 2.05728220939636 6.79446029663086 9.61575412750244 14.6537561416626 33.0603256225586 0.553972899913788 16.2559947967529 0.573756158351898 10.0379104614258 0.309779554605484 2.9826283454895 0.108056172728539 16.8700313568115 0.0844473391771317 1.71414875984192 1.87550616264343 1.740877866745 1.91169333457947 1.74335277080536 3.53004956245422 4.79815578460693 9.26930999755859 12.4257965087891 31.6780586242676 0.287110328674316 7.99934911727905 17.3958721160889 -0.767460882663727 -0.715119004249573 0.644153714179993 1.26767885684967 1.51325011253357 8.9639778137207 13.240195274353 6.05733585357666 31.7031345367432 1.25344407558441 26.0473880767822 0.73951268196106 0.292253136634827 14.3751964569092 10.9188995361328 25.9531478881836 17.3404865264893 14.9772815704346 45.4117050170898 -0.248917192220688 0.825618803501129 6.05904293060303 48.0788269042969 1.9101437330246 5.01375913619995 1.27327275276184 9.04778289794922 3.57630181312561 1.94083619117737 10.9154558181763 10.9698715209961 9.08695888519287 14.8654813766479 2.46721029281616 1.14355325698853 11.9463109970093 1.15165114402771 5.57468843460083 5.6987247467041 5.90006637573242 5.57683849334717 5.79908609390259 5.93287467956543 6.36600685119629 6.86638593673706 5.93777370452881 1.58976590633392 1.53543126583099 1.47125041484833 1.43035483360291 1.44112753868103 1.49462652206421 1.62365913391113 1.66857218742371 1.68274104595184 1.71705663204193 0.938470363616943 0.946776509284973 0.787200510501862 0.738816261291504 1.26105964183807 1.66523516178131 2.15605616569519 2.23043870925903 1.261470079422 1.51849973201752 1.57589173316956 1.68719065189362 1.98625612258911 2.74678158760071 2.81320238113403 2.70920586585999 3.52188801765442 3.75531482696533 4.44839525222778 4.55004978179932 6.50422477722168 6.93831253051758 5.49219274520874 5.64167737960815 5.78302240371704 5.70046758651733 5.88568067550659 6.48368978500366 7.31213569641113 6.09638166427612 6.31980657577515 6.25235414505005 5.76183319091797 5.91456127166748 6.06509494781494 5.56114721298218 4.71896553039551 3.97022652626038 4.10557746887207 4.25676012039185 4.36740398406982 4.04195356369019 3.86543488502502 4.00083065032959 3.8274450302124 4.20698308944702 4.13666534423828 3.58583688735962 3.39209651947021 3.58188366889954 3.79329133033752 3.92634892463684 3.68709874153137 3.86886405944824 4.0793137550354 4.16870260238647 3.78031802177429 4.17382144927979 4.85655450820923 5.23635387420654 5.82167863845825 6.33939743041992 6.94216871261597 6.2151141166687 0.52749639749527 0.601568639278412 0.69708526134491 0.84893935918808 2.40369725227356 2.81793308258057 2.97328329086304 3.15172529220581 3.32621598243713 3.39274525642395 3.29503464698792 3.35261297225952 3.18503308296204 3.07989430427551 2.45291328430176 2.59639167785645 2.83440208435059 3.81764483451843 3.93769836425781 4.06238746643066 4.16612672805786 4.66506338119507 5.20600700378418 5.5802698135376 5.78037214279175
1.84417867660522 1.88073265552521 2.10186457633972 2.23186993598938 2.29232263565063 2.22431802749634 21.4725608825684 1.65856647491455 8.27132606506348 8.17173671722412 4.79221725463867 3.94127678871155 1.40582621097565 4.41484260559082 25.4446086883545 0.463075578212738 1.32852816581726 1.73025572299957 1.76248574256897 2.36202263832092 2.56126618385315 2.37033557891846 2.66894817352295 2.67611026763916 8.87172222137451 13.1244287490845 32.8638534545898 1.32959401607513 1.55803108215332 6.45856714248657 9.28540992736816 0.48467418551445 0.964237153530121 4.65244770050049 5.40808773040771 8.94909572601318 10.6234636306763 19.3283863067627 26.3591747283936 27.361120223999 19.2959957122803 16.690746307373 20.4349250793457 18.5084285736084 20.6018753051758 50.7967834472656 0.454654455184937 0.549118459224701 1.97840023040771 3.6841254234314 50.3316688537598 2.76192164421082 0.846005856990814 1.51365482807159 0.628525972366333 8.36686706542969 1.80431628227234 0.454425364732742 1.26659560203552 8.55816555023193 19.1661758422852 6.80707836151123 1.43126153945923 1.48409235477448 7.25321483612061 1.90668475627899 3.21910262107849 1.23960137367249 4.67191743850708 5.08370542526245 6.40215063095093 6.67315530776978 6.33703231811523 6.57633113861084 5.42814302444458 8.11662769317627 9.09858417510986 7.73959922790527 1.88902699947357 1.59744727611542 1.40764594078064 1.57334697246552 1.3685644865036 1.38522052764893 1.29477226734161 1.33218705654144 1.71549880504608 1.76222217082977 0.927165746688843 0.942748606204987 0.720604598522186 0.762145400047302 1.34436881542206 1.78031182289124 2.28942441940308 2.35424470901489 2.41966414451599 1.56332361698151 2.92189359664917 2.99341726303101 2.77554368972778 2.89149713516235 3.09181213378906 3.82349133491516 3.96131539344788 4.13981580734253 4.62771034240723 4.7326226234436 7.41470527648926 8.04527950286865 5.763023853302 5.95792770385742 6.14238405227661 6.81920289993286 7.73874855041504 8.45401191711426 9.69951438903809 6.44087028503418 6.68939971923828 6.70634031295776 6.10542631149292 6.26632308959961 6.4139928817749 5.87253093719482 5.09497213363647 5.19698190689087 4.39031457901001 4.5916600227356 4.79772806167603 4.49030828475952 4.53260612487793 4.66357612609863 4.50451612472534 4.98384857177734 4.93162155151367 4.15050506591797 3.58051133155823 4.08237075805664 4.29548740386963 4.46020078659058 4.18366861343384 4.54116439819336 4.7111349105835 4.80654287338257 4.34918975830078 4.98798322677612 5.80202388763428 6.4607310295105 7.32122707366943 8.26095199584961 9.27060985565186 8.28050708770752 0.716304838657379 2.35974287986755 2.85501408576965 3.06425309181213 3.5170361995697 3.62205600738525 3.85432434082031 4.10280323028564 4.18233108520508 3.67787480354309 3.52472710609436 3.54466843605042 3.3702826499939 3.4304666519165 3.01612448692322 2.75572538375854 3.04007244110107 3.71840572357178 4.25697803497314 4.39958190917969 4.4584174156189 4.66008949279785 5.69635200500488
2.14454627037048 2.02194762229919 1.96906650066376 2.00862717628479 2.25777435302734 2.40187525749207 2.46469163894653 2.3938319683075 3.18601441383362 6.43653583526611 24.2826080322266 2.44951415061951 5.2684383392334 3.20065665245056 23.1997928619385 2.63025212287903 11.7550277709961 2.35507440567017 1.72864234447479 1.73987197875977 2.2500581741333 3.09112024307251 3.47528195381165 3.27718615531921 3.68567037582397 3.50389981269836 30.9400825500488 1.62298905849457 4.53765106201172 5.42980098724365 5.99901008605957 6.66645097732544 5.7450704574585 6.33393573760986 8.96841812133789 10.9787178039551 7.84675598144531 17.1115169525146 23.5307960510254 50.7122917175293 3.79783797264099 -0.113094687461853 1.78797781467438 8.47433376312256 1.1867835521698 5.72410726547241 1.85018634796143 4.94973039627075 50.2904968261719 0.933535039424896 1.02762925624847 5.45941495895386 7.46039819717407 -0.203972220420837 4.66713285446167 0.910949289798737 0.989361107349396 0.189369842410088 1.3385488986969 0.804969191551208 4.34761428833008 1.98368048667908 2.05195474624634 2.1591203212738 2.41730666160583 1.60393464565277 1.83952724933624 5.55224895477295 2.29135608673096 5.33285665512085 5.37327527999878 4.07204151153564 7.20882654190063 7.47451877593994 7.42087030410767 8.00862503051758 8.65884685516357 11.1710624694824 12.9400949478149 10.7174558639526 1.73905837535858 1.47216057777405 1.35194492340088 1.17539584636688 1.20024001598358 1.27332603931427 1.30091834068298 1.36821937561035 1.77968955039978 1.8269761800766 0.942575812339783 0.989995121955872 0.791595160961151 0.838286399841309 0.937479794025421 1.48799884319305 1.93759679794312 2.49325275421143 2.59405183792114 2.6364574432373 3.05426287651062 3.12300872802734 3.46680927276611 3.89823746681213 3.97126841545105 3.96760725975037 4.11753606796265 4.30136680603027 4.82463693618774 5.0188889503479 8.80202579498291 9.85343360900879 10.9604339599609 7.02823686599731 6.98269367218018 8.86708450317383 10.2985391616821 10.9890165328979 13.2388257980347 6.75448560714722 7.07892990112305 7.32420969009399 7.22168922424316 6.61903381347656 6.87883901596069 7.06272125244141 6.49909782409668 5.60603952407837 4.82397031784058 5.09053707122803 5.31174755096436 4.97960948944092 5.39783573150635 5.61022758483887 5.51764392852783 6.10077285766602 5.98032188415527 5.01855993270874 4.74686717987061 4.66415977478027 4.97008657455444 5.14306211471558 5.29389715194702 5.94604444503784 5.51983451843262 5.64224481582642 5.10671186447144 5.27740144729614 6.99444103240967 9.10476779937744 10.9132242202759 12.3007383346558 13.7642736434937 12.2928037643433 2.92369961738586 3.44062304496765 3.92240452766418 4.19899797439575 4.2799768447876 4.32207632064819 4.40570878982544 4.4945855140686 4.59660291671753 4.22453451156616 4.19862937927246 4.10254526138306 3.56048202514648 3.63922619819641 3.55101561546326 2.86693644523621 3.0606427192688 3.37171030044556 4.62197208404541 4.81667470932007 4.41384363174438
2.43115568161011 2.48987674713135 2.29422903060913 2.17831587791443 2.29185676574707 2.14917063713074 2.51803517341614 2.63155031204224 2.73297429084778 3.12060213088989 4.53153800964355 2.72061705589294 2.41445398330688 7.67583847045898 8.50450992584229 6.44913196563721 10.3411703109741 20.1626071929932 1.12408816814423 1.77288639545441 2.0767240524292 2.22423052787781 2.98902106285095 4.21642351150513 4.71559047698975 4.21657371520996 4.55468225479126 4.4248194694519 4.11498212814331 5.9639630317688 6.59102058410645 7.19075107574463 8.73817443847656 9.71776485443115 8.01279354095459 9.2849645614624 17.3372917175293 23.6828346252441 11.9172554016113 46.5234870910645 2.71549272537231 10.192777633667 6.30217981338501 5.62629222869873 2.41152238845825 1.65611124038696 50.9237098693848 1.9409716129303 1.88794445991516 1.81800639629364 1.55544126033783 2.33191871643066 7.56448078155518 8.09034824371338 0.427350014448166 0.367080241441727 0.92560738325119 0.995329916477203 7.18911123275757 0.273031204938889 0.35937374830246 2.51184177398682 1.26082456111908 2.30180263519287 2.58714890480042 4.08866310119629 2.49528288841248 2.41548013687134 2.27561092376709 6.64072847366333 6.92690372467041 6.29233884811401 6.72261667251587 6.85502290725708 8.17982006072998 8.81749820709229 9.54573822021484 10.0589113235474 11.0794429779053 17.3967094421387 22.80100440979 18.8394832611084 1.44658327102661 1.47482252120972 1.50106143951416 1.17992198467255 1.21114540100098 1.30900311470032 1.3440797328949 1.41757369041443 1.86216807365417 1.9349524974823 1.01729547977448 1.07535111904144 1.12398254871368 2.05883073806763 2.0985951423645 2.1348443031311 2.0164008140564 2.71133351325989 2.82236528396606 2.75291872024536 3.18397569656372 3.59513163566589 3.69001936912537 4.04803991317749 4.13847875595093 4.13375520706177 4.27864503860474 4.47666311264038 4.77686214447021 6.11708116531372 6.80640554428101 12.6133842468262 14.4107084274292 9.42973613739014 9.21130752563477 11.555793762207 13.9218502044678 17.2723350524902 23.4777870178223 7.11937284469604 7.48534917831421 7.7761549949646 7.80399942398071 7.07130861282349 7.35901212692261 7.57489109039307 6.9924488067627 6.10839700698853 5.31440877914429 5.8176794052124 5.98732709884644 6.03880262374878 6.75726175308228 6.90478229522705 6.87206697463989 7.57119417190552 8.3718318939209 8.07808876037598 6.73318338394165 5.41373586654663 5.75395822525024 5.65878820419312 7.02997446060181 8.5005464553833 6.77535533905029 7.36335325241089 7.5654559135437 7.44744920730591 9.82997131347656 15.2461919784546 21.0618095397949 23.5494117736816 26.0400657653809 23.4502010345459 3.85169959068298 4.18077230453491 4.38468980789185 4.46940994262695 4.50596046447754 4.64937496185303 4.75222396850586 4.73529243469238 4.83114624023438 4.43835306167603 4.40862083435059 4.30706453323364 4.03170204162598 3.86248850822449 3.72505235671997 3.38633894920349 3.32662558555603 3.67530083656311 5.09252786636353
3.55628395080566 3.12458443641663 2.58777594566345 2.65518736839294 2.4602382183075 2.49264883995056 2.63536190986633 2.29399180412292 2.60681295394897 2.91540813446045 3.00261259078979 2.78170776367188 2.62190747261047 2.87075543403625 2.97806453704834 12.4731397628784 15.0434694290161 3.42353272438049 2.50320053100586 1.98086154460907 2.28214883804321 2.64531970024109 2.87957978248596 3.041668176651 3.80314445495605 5.41002893447876 6.30910062789917 7.54931640625 6.69210338592529 7.44748973846436 6.96094226837158 6.23035955429077 8.69907474517822 9.77576541900635 12.6871795654297 15.3038177490234 12.220775604248 14.6454944610596 45.9692192077637 1.22013258934021 14.2467889785767 29.3353118896484 7.7923731803894 0.0311282631009817 39.6482238769531 22.0060348510742 2.03687119483948 9.4503059387207 2.03926992416382 2.73919677734375 2.01685333251953 3.07972168922424 1.66940057277679 1.21867763996124 1.32124578952789 7.73715209960938 0.711191177368164 2.91063213348389 1.11597096920013 1.19857037067413 4.37286758422852 0.360904663801193 0.389890819787979 4.52385711669922 1.80892014503479 6.4800009727478 3.32949161529541 2.40642070770264 1.80361986160278 3.13163065910339 6.37062406539917 7.59332132339478 7.98744678497314 7.83745670318604 8.61797904968262 8.56994247436523 9.74796676635742 11.0262269973755 12.0940504074097 13.2970867156982 15.2260875701904 41.6217956542969 -0.193060845136642 0.00418402813374996 1.03218281269073 1.49679708480835 1.53843176364899 1.19741117954254 1.75563943386078 1.80220103263855 1.40970504283905 1.65343606472015 1.99602162837982 2.0847384929657 2.20348858833313 2.25475454330444 2.00816774368286 2.14920234680176 2.19087529182434 2.2503821849823 2.29184627532959 2.9416811466217 3.06893825531006 3.79934477806091 3.8636736869812 3.72861480712891 3.8357949256897 4.21356344223022 4.30261468887329 4.31695222854614 4.50310707092285 4.74107265472412 5.23706436157227 5.76226186752319 8.62622451782227 17.8677520751953 21.1313991546631 12.9421405792236 12.2965288162231 17.9468860626221 25.0627288818359 42.1456298828125 5.9189338684082 7.57502794265747 8.04076385498047 8.39765357971191 9.67101860046387 7.61738443374634 7.93752431869507 8.19031810760498 7.66916561126709 6.32150030136108 6.21087074279785 6.91836643218994 6.88477230072021 7.39276552200317 8.27465152740479 9.19494152069092 9.2816686630249 9.57701969146729 10.9601125717163 10.4067850112915 8.38772583007812 6.01331901550293 6.54755449295044 7.26887464523315 11.2471942901611 16.4830017089844 10.1270313262939 14.3792676925659 13.53391456604 13.8976573944092 17.415922164917 40.6604766845703 6.4686393737793 6.85742616653442 2.63916921615601 3.17529320716858 4.43473243713379 4.38876962661743 4.74272155761719 4.850426197052 4.91994333267212 4.9309344291687 5.01636266708374 4.97815322875977 5.08690309524536 5.02093315124512 4.6400089263916 4.52947807312012 4.27512550354004 4.11266803741455 4.08676719665527 3.69403266906738 3.64491248130798
3.32372188568115 3.69076943397522 3.77975130081177 3.32515573501587 2.83914875984192 3.00508236885071 2.64709067344666 2.86719441413879 3.02018451690674 2.4234082698822 2.46327972412109 3.20046854019165 3.29990410804749 2.96136856079102 3.64712715148926 4.78215456008911 4.23958492279053 30.8737525939941 0.94254732131958 2.20161080360413 2.13327312469482 2.52329158782959 3.04936623573303 3.3063268661499 3.88441133499146 4.40747833251953 5.69753742218018 6.36200523376465 9.1353702545166 10.409779548645 8.85897350311279 10.0724201202393 9.36198616027832 8.24674224853516 12.4816188812256 14.9862575531006 21.6091957092285 29.3316516876221 20.7207832336426 22.3923416137695 19.2168617248535 1.63155424594879 50.9949150085449 0.515183568000793 1.39894688129425 2.86471343040466 1.89446651935577 6.68683385848999 2.14208912849426 2.39599680900574 2.45763397216797 4.31585025787354 2.3856999874115 2.39023303985596 4.40230178833008 1.97776019573212 1.34878647327423 1.82620477676392 2.2074191570282 8.88173389434814 7.24530935287476 8.94721221923828 21.334623336792 4.52278709411621 2.18028712272644 1.92229092121124 5.83791971206665 4.79851388931274 2.73066759109497 3.23525905609131 3.27984356880188 6.97717714309692 7.32626342773438 8.90856456756592 9.54542636871338 10.5891160964966 12.0033159255981 12.273998260498 9.231276512146 14.5017490386963 16.7053623199463 16.4039459228516 21.6847171783447 19.7828216552734 1.04210245609283 0.998671889305115 1.03635776042938 1.53357863426208 1.58199918270111 1.23932015895844 1.82163774967194 1.88081645965576 1.5021812915802 1.73029613494873 1.78589689731598 2.24476861953735 2.3382248878479 2.36212539672852 2.09821915626526 2.23411250114441 2.27425503730774 2.32734417915344 2.41571068763733 3.14959645271301 3.27831363677979 3.93370246887207 4.00867891311646 3.8697350025177 3.98999834060669 4.40391302108765 4.50500202178955 4.61916589736938 4.79469442367554 5.40187692642212 6.65689659118652 8.19426727294922 12.0009527206421 27.0301837921143 35.5613975524902 22.3593044281006 21.7869453430176 43.5487785339355 5.79447364807129 8.01366233825684 8.35027599334717 8.2086296081543 8.755126953125 12.5164051055908 17.4831581115723 12.6143388748169 8.03552532196045 8.45054721832275 8.41112804412842 7.81662607192993 8.09224605560303 8.59771633148193 9.70812225341797 8.06103610992432 10.3063879013062 11.8285388946533 11.895058631897 12.3764743804932 14.5161285400391 13.5687427520752 10.9751043319702 5.96367645263672 8.72996616363525 13.6917562484741 33.6294212341309 4.25611448287964 22.4831581115723 7.48448181152344 8.28351497650146 8.42094326019287 12.930380821228 8.95849704742432 2.79140162467957 2.86392831802368 2.77406001091003 3.24280285835266 4.66584348678589 4.7447452545166 4.99310064315796 5.09998798370361 5.17400646209717 5.17644309997559 5.26611328125 5.28958940505981 5.36278915405273 5.48399686813354 5.03835773468018 5.01166343688965 4.89173746109009 4.39216899871826 4.32993316650391
3.198486328125 3.58849716186523 3.77829313278198 3.93139433860779 4.03835964202881 3.55343246459961 3.27427077293396 3.47110247612 2.82918977737427 3.29663252830505 3.45901846885681 2.54225897789001 2.70412158966064 3.67309474945068 3.80691599845886 3.73789119720459 3.25384187698364 3.56619691848755 4.87414264678955 5.10905742645264 2.5823118686676 2.54910922050476 2.8407871723175 3.29835081100464 4.04431438446045 5.04873466491699 5.76791572570801 6.48229360580444 6.51637935638428 8.45945739746094 13.0703449249268 15.646538734436 12.5573701858521 15.0756225585938 14.1915616989136 12.5858125686646 20.9885482788086 28.4899768829346 51.7272415161133 0.1409522742033 50.6784400939941 0.233624160289764 1.88846933841705 2.87294173240662 3.93756246566772 3.20566463470459 1.85284042358398 1.35199761390686 1.90069139003754 1.98367953300476 2.92870616912842 3.59962391853333 6.70180177688599 2.78163695335388 2.81061029434204 2.87253785133362 2.88489651679993 2.62294125556946 2.71174693107605 2.32712459564209 4.45702266693115 4.4196891784668 19.7938747406006 2.83337807655334 2.66599488258362 2.3731575012207 6.9488263130188 6.83387279510498 20.6009540557861 1.60416495800018 3.18815469741821 4.39635229110718 7.75930881500244 8.28841495513916 8.78015899658203 10.1792221069336 11.8793954849243 16.4279727935791 21.731538772583 21.5811653137207 7.76803588867188 17.9521617889404 20.4976177215576 45.5541915893555 0.0994555503129959 -0.170247912406921 1.06227219104767 1.00294280052185 1.04519045352936 1.59276616573334 1.6746838092804 1.32169961929321 1.91440522670746 1.97469508647919 1.86738681793213 2.27233743667603 2.3281352519989 2.4230043888092 2.53245854377747 2.45192646980286 2.1479480266571 2.29691672325134 2.33702754974365 2.39095759391785 2.43216419219971 3.04110240936279 3.5816695690155 4.09949493408203 4.16402721405029 4.01585817337036 4.13228702545166 4.22712755203247 4.70814657211304 4.86628007888794 6.27175951004028 7.7752161026001 8.99742221832275 10.210036277771 17.4469013214111 55.8603477478027 4.29813003540039 5.72702550888062 6.36101722717285 8.63910961151123 8.34261798858643 8.70427703857422 9.11397075653076 8.89626121520996 9.49999237060547 34.6277770996094 8.56524085998535 10.106951713562 9.63978481292725 10.3070478439331 11.6754903793335 9.61015510559082 12.0175008773804 10.684642791748 12.3385152816772 9.01019859313965 13.4234352111816 15.7550172805786 15.3549451828003 17.8053970336914 25.0894355773926 24.9226455688477 21.4933586120605 7.41079950332642 19.0212516784668 8.01506519317627 12.9664077758789 17.5870761871338 23.580249786377 22.120964050293 22.0747585296631 9.85109519958496 6.62653017044067 11.2435989379883 3.11156582832336 3.71276760101318 4.37798166275024 4.82249689102173 4.9264497756958 4.97855281829834 5.25791358947754 5.37281322479248 5.44594383239746 5.44969701766968 5.54021024703979 5.66633653640747 5.68114471435547 5.82507801055908 5.34083461761475 5.30403900146484 5.18277931213379
3.29647135734558 3.36875462532043 3.39891576766968 4.11179637908936 4.36275720596313 4.19620180130005 4.31653356552124 3.7953679561615 3.79939484596252 4.05444097518921 3.31701397895813 3.83448100090027 4.1455192565918 4.50755596160889 3.20614862442017 4.27042388916016 4.35869741439819 4.44950151443481 4.03763580322266 5.23861598968506 2.91524291038513 2.88535571098328 3.03356862068176 3.09613537788391 3.6870653629303 4.96650791168213 5.79977369308472 6.52305364608765 7.75568246841431 8.85148048400879 8.86853408813477 12.0618371963501 21.7224006652832 29.5494937896729 21.1681251525879 28.7372436523438 27.1935443878174 24.3665924072266 50.8181915283203 0.429097235202789 0.205804392695427 0.33643239736557 10.4301748275757 3.32562756538391 4.05022621154785 5.24311971664429 10.5353221893311 1.16899049282074 1.34077906608582 2.11387610435486 2.27268433570862 4.86674880981445 3.03068947792053 6.22973537445068 3.15500211715698 3.1080904006958 3.20581698417664 3.25660538673401 5.34542274475098 7.52239561080933 10.7789449691772 8.40818023681641 4.36145925521851 5.01551055908203 7.24062299728394 7.33152389526367 10.3155965805054 22.4727058410645 2.38928723335266 7.60037803649902 1.57401871681213 6.27312421798706 4.47452116012573 9.27622318267822 9.62574100494385 10.5437450408936 14.0020503997803 18.2365055084229 20.0775737762451 28.5479335784912 2.73340344429016 2.72140622138977 4.1513032913208 43.525463104248 8.29251766204834 0.156488612294197 0.208065569400787 1.03467619419098 1.0885089635849 1.03626525402069 1.10018181800842 1.70594680309296 1.79351532459259 1.89034485816956 1.99925374984741 2.06124424934387 3.07339286804199 3.15330266952515 2.42244958877563 2.57989263534546 2.64030408859253 2.49785995483398 2.53672099113464 2.32413244247437 2.40185499191284 2.4813334941864 2.53299307823181 3.13985204696655 3.88866114616394 4.23775148391724 4.31875228881836 4.4090633392334 4.27491903305054 4.45260334014893 5.24174308776855 6.50169610977173 8.33652496337891 9.3845796585083 12.5215835571289 21.5112342834473 26.138916015625 4.90695571899414 6.34777116775513 8.01707553863525 9.03676319122314 9.48425579071045 9.00547122955322 9.42433452606201 9.92767143249512 15.0865669250488 9.50015926361084 11.0617427825928 11.8606557846069 11.9949054718018 10.6597423553467 14.2173700332642 19.4131622314453 19.9753189086914 8.6192102432251 14.0897741317749 16.6361122131348 9.88225555419922 19.0156078338623 26.1421489715576 27.0439376831055 44.9571914672852 1.65641510486603 2.1759295463562 3.76593422889709 8.96609401702881 14.087197303772 25.9682559967041 10.6728754043579 12.7772569656372 4.69209814071655 2.80878090858459 3.29544401168823 2.39046454429626 2.58994579315186 3.32569622993469 4.53899431228638 4.64460325241089 4.61915111541748 5.07997226715088 5.20490312576294 5.33129692077637 5.54286050796509 5.66313791275024 5.79361963272095 5.87439727783203 5.88379096984863 6.01870012283325 6.03499364852905 6.17888927459717 5.67394065856934
