NCOLS 174
NROWS 32
XLLCORNER 353680
YLLCORNER 6700224
CELLSIZE 16 
NODATA_value -3.4e+38 
2.0040340423584 2.24820423126221 3.71364831924438 3.69482946395874 5.14031219482422 1.89681148529053 1.67326152324677 1.36921286582947 6.01622915267944 5.07634115219116 6.10384654998779 0.394652992486954 5.81053447723389 6.35448408126831 5.18063497543335 3.80790185928345 3.78860139846802 3.83884644508362 4.48287534713745 5.02634763717651 4.62304639816284 3.96897506713867 3.25983810424805 5.37970542907715 17.6364326477051 9.72699737548828 8.35640239715576 9.70021724700928 12.2195081710815 13.862603187561 14.5451192855835 11.8278341293335 3.51457285881042 3.91462087631226 4.41147136688232 4.54235696792603 4.60532665252686 4.86173295974731 4.65077352523804 4.35451650619507 4.04425764083862 3.47045421600342 4.30700922012329 3.92251372337341 4.13557243347168 3.68992924690247 6.88803339004517 9.13674163818359 9.48667812347412 10.2633037567139 23.7924137115479 28.1097888946533 28.0408191680908 3.75565338134766 3.71938633918762 7.51797914505005 11.2796926498413 21.8077297210693 15.4557199478149 16.0059127807617 19.3583717346191 29.8459606170654 10.6766662597656 12.391960144043 17.4465370178223 6.83907794952393 8.83276748657227 8.41659927368164 2.44710493087769 1.39658105373383 1.43610465526581 25.2877731323242 3.51529717445374 13.5995016098022 11.8064346313477 4.28081607818604 11.5721035003662 7.46651840209961 8.05247974395752 8.87615966796875 12.5406322479248 11.7874193191528 11.6967887878418 14.301962852478 11.8262386322021 8.19217872619629 1.5809600353241 24.2270355224609 7.06319904327393 0.527603030204773 2.58649325370789 3.39479279518127 2.21109676361084 3.50430512428284 5.99033498764038 8.09399509429932 -1.73406887054443 -2.45752716064453 -2.73377180099487 -2.84773969650269 0.699882507324219 2.87443017959595 3.88141202926636 4.60217666625977 9.20149230957031 4.55780839920044 3.55661201477051 -0.486693382263184 11.9429140090942 13.4590072631836 10.6027002334595 11.3379392623901 6.25053596496582 26.123514175415 12.6179943084717 13.3874082565308 21.9907169342041 15.1483745574951 6.09152936935425 30.9305744171143 14.1332693099976 3.55123400688171 29.2016983032227 8.75414276123047 28.9932746887207 -3.11531114578247 -4.00932598114014 -3.87662124633789 -4.10376977920532 -4.27436923980713 -3.56875085830688 -4.18869638442993 -4.59219837188721 -4.07592821121216 -0.983759343624115 -0.0215478353202343 -0.0454449318349361 0.532060742378235 1.73215234279633 0.710845768451691 -2.65356826782227 -2.66708850860596 0.498897314071655 -1.81188225746155 1.64456939697266 3.93376636505127 14.0900497436523 -4.51207733154297 -4.20436143875122 -4.49555826187134 11.9705944061279 -5.02811908721924 16.8231353759766 -5.27291917800903 -5.39312934875488 -4.08171939849854 -1.1132298707962 7.622642993927 7.47540378570557 2.7601912021637 3.79117226600647 9.8288631439209 35.212158203125 44.9242095947266 28.6593322753906 16.5569458007812 17.0388278961182 8.05943202972412 7.03833770751953 24.8529510498047 0.952607572078705 -4.04350233078003 12.4250068664551 -4.52861404418945
1.6300528049469 1.73921537399292 2.49002861976624 3.16250848770142 4.79263925552368 2.97322106361389 1.78862524032593 0.951179385185242 5.29840326309204 4.62421369552612 5.1258978843689 3.88615894317627 3.11499071121216 5.10300588607788 4.12832164764404 3.89912986755371 3.98990893363953 3.50006151199341 3.52674794197083 4.24038219451904 4.72097063064575 3.67233061790466 4.38535928726196 3.89595651626587 7.76418209075928 9.16176223754883 7.86270523071289 8.5920467376709 11.1643590927124 11.8070602416992 13.2886295318604 2.41254854202271 2.39451718330383 3.06858348846436 4.03332662582397 4.42383146286011 4.25866508483887 4.35381031036377 4.27259969711304 4.11046457290649 3.54068470001221 3.49630308151245 4.03908777236938 3.90768432617188 3.94829893112183 3.50932645797729 6.36256837844849 6.06155347824097 8.79949951171875 9.5152416229248 8.04367733001709 16.1737022399902 20.6485042572021 22.70827293396 23.8450374603271 28.6079692840576 22.9848613739014 15.1755418777466 16.6067333221436 35.032543182373 18.1271343231201 24.8000316619873 24.1311321258545 6.16406679153442 5.65499448776245 2.97941160202026 2.65138840675354 2.47359418869019 2.11438751220703 1.38697290420532 29.3487491607666 15.9479370117188 22.6727619171143 2.78826522827148 2.22630476951599 3.03172039985657 3.9267418384552 1.23841619491577 2.98727822303772 13.2297859191895 9.27033042907715 9.99777698516846 10.7248649597168 6.03635740280151 9.14795780181885 4.33151912689209 23.4071826934814 4.09266090393066 2.55427408218384 23.2113170623779 4.14148378372192 2.30809998512268 2.20121693611145 2.64542269706726 9.89294910430908 4.49710178375244 10.7278881072998 14.1357116699219 11.4307546615601 2.09678936004639 -0.84963184595108 1.93620097637177 12.9667043685913 3.39075231552124 2.79444074630737 0.116787977516651 2.35946488380432 -0.652874529361725 3.39302968978882 8.76528072357178 10.7493906021118 8.01227188110352 38.6236114501953 8.24671459197998 27.3731842041016 9.25633907318115 6.08271980285645 21.9336929321289 5.43027114868164 17.5060939788818 23.862434387207 4.38419771194458 1.70931005477905 1.52711284160614 4.78921175003052 -3.72802639007568 10.1722526550293 -4.28313207626343 -4.39984273910522 -4.48245429992676 -4.30026292800903 -4.53374099731445 5.04682588577271 -4.40366458892822 6.16537427902222 -0.780136227607727 -1.93425858020782 -2.29536128044128 -0.671297609806061 -2.07095313072205 1.82571160793304 -2.8231201171875 -1.41583025455475 -4.04993629455566 1.8448246717453 3.21867251396179 -4.26357793807983 2.84157848358154 -4.74750471115112 33.3291549682617 -3.21715021133423 -4.99732971191406 -4.44855928421021 -1.16638052463531 7.5418176651001 12.48854637146 9.45483303070068 8.4368143081665 6.02041149139404 0.237914144992828 3.01081705093384 2.53593230247498 15.6892442703247 25.847282409668 31.434663772583 18.0338001251221 16.3557014465332 4.8300952911377 6.37298583984375 0.912240862846375 -0.437372148036957 10.8205938339233 -3.25818276405334 5.04466819763184
1.06237018108368 1.63408935070038 1.8019608259201 2.97075867652893 2.96101570129395 4.04787921905518 0.793029963970184 0.923662066459656 2.12009239196777 4.56119871139526 5.54529047012329 3.88184475898743 2.84933090209961 3.97249531745911 3.54563331604004 3.69463777542114 3.85416197776794 3.22111368179321 3.29356527328491 3.89436984062195 4.04982376098633 3.64421582221985 3.91864681243896 4.07148694992065 4.95246696472168 7.38953447341919 8.54727649688721 7.36720371246338 10.4604206085205 6.65169954299927 9.43859672546387 22.0791893005371 17.5195770263672 10.1131477355957 8.51755809783936 4.27074098587036 4.02088975906372 3.69338965415955 3.7878086566925 3.80242824554443 3.45842790603638 3.41612386703491 3.47340226173401 3.65281367301941 3.77456140518188 3.04685592651367 5.92283058166504 5.63398790359497 8.20468902587891 8.87266445159912 7.95433235168457 8.62770652770996 16.2045211791992 6.28456211090088 11.5507068634033 19.187858581543 23.0351104736328 30.4154930114746 29.5178279876709 20.8821983337402 22.7952480316162 19.5924549102783 13.9368047714233 20.461763381958 13.5104551315308 2.89014291763306 2.34080719947815 8.8513011932373 1.97732865810394 18.8508338928223 17.802921295166 15.0015535354614 6.26800155639648 8.14141273498535 6.03411483764648 3.74257326126099 3.05708050727844 11.4441270828247 5.765221118927 8.36593914031982 7.91757106781006 16.5082759857178 5.44218587875366 18.9485301971436 2.53058648109436 2.91675543785095 4.25853109359741 3.8085150718689 2.28161358833313 2.1998872756958 12.9512557983398 1.96584188938141 9.06513595581055 1.90030527114868 3.44135308265686 1.59775590896606 22.5971126556396 -2.3469123840332 -2.47047352790833 -2.92462921142578 -0.362030625343323 -0.274237096309662 0.454948365688324 -0.393240034580231 0.907215178012848 -1.75200724601746 -0.67133903503418 2.21991276741028 -0.981406986713409 3.82124352455139 1.49931716918945 1.93336582183838 -1.1686909198761 9.96551609039307 10.3605546951294 11.4659223556519 25.3944034576416 8.87531185150146 27.1907939910889 10.0316829681396 13.0295972824097 2.96374988555908 1.59351122379303 -3.23870301246643 -1.63331985473633 -3.98901557922363 -3.87976503372192 -4.54620599746704 -4.79391956329346 -4.71282005310059 -5.15933036804199 -5.22620677947998 -5.03214120864868 -4.94465637207031 12.2747688293457 -1.27641832828522 -2.75495290756226 43.5558242797852 -2.97557282447815 9.82406711578369 8.94598293304443 8.50647068023682 -3.89413475990295 -4.11030960083008 -1.78488981723785 -4.10809755325317 0.97679728269577 3.58743238449097 23.021053314209 -4.93350839614868 4.76522159576416 6.29550504684448 8.13697910308838 -4.6563515663147 23.8422660827637 7.97829532623291 17.0540409088135 7.72024965286255 4.3218789100647 0.230976402759552 2.06837892532349 2.33885073661804 5.27198553085327 16.7427291870117 27.8972587585449 28.2443981170654 11.0961637496948 11.8753080368042 5.49185991287231 21.3473072052002 23.0636444091797 0.193572282791138 2.59785938262939 4.34870624542236
3.76394033432007 1.01495599746704 0.851920604705811 2.70122456550598 2.81933236122131 3.97311615943909 3.06915712356567 1.54214370250702 2.66451501846313 4.26220989227295 3.8972475528717 4.8163013458252 2.22750043869019 3.17402601242065 3.19203352928162 3.70109391212463 3.44287323951721 5.19800090789795 4.25173044204712 3.54263687133789 3.69143724441528 3.58861207962036 4.26645565032959 3.25543546676636 4.7900915145874 7.05728244781494 8.3666877746582 7.35101938247681 5.14072036743164 4.11070680618286 6.47502899169922 16.7996234893799 17.282901763916 13.3895816802979 9.21943759918213 3.97164249420166 4.12779808044434 3.68596315383911 3.1979820728302 3.22208881378174 3.19121789932251 3.38476777076721 3.241450548172 3.59140539169312 3.59581327438354 2.96611380577087 2.83455729484558 5.444176197052 7.10448169708252 7.53854894638062 8.14183330535889 6.86974573135376 10.8772373199463 34.3718910217285 33.7404022216797 19.9747848510742 18.6452903747559 19.5818157196045 16.7433471679688 15.018030166626 16.5892105102539 13.5036907196045 14.7965745925903 9.69122409820557 3.53175520896912 2.73538041114807 17.7920932769775 2.39770245552063 1.97767734527588 9.60131931304932 9.4925479888916 11.4786615371704 3.60778570175171 14.9291925430298 1.3415961265564 2.17694497108459 1.67657351493835 7.90213108062744 27.697624206543 6.77474880218506 6.50295686721802 8.22796630859375 16.5922470092773 6.73833513259888 21.7340774536133 13.4686403274536 2.74666857719421 6.98752737045288 7.43652105331421 10.6493520736694 10.8340015411377 12.6013193130493 2.46730875968933 4.20763826370239 1.2466287612915 16.1419658660889 -0.137003853917122 43.3459587097168 10.1740894317627 1.68874228000641 -2.16277623176575 -1.29853951931 16.3154430389404 -0.886635661125183 -2.108717918396 7.65079069137573 21.1547679901123 2.99324584007263 -1.23322176933289 1.97913730144501 13.1292428970337 1.29143083095551 6.77817296981812 20.7638740539551 4.8919506072998 2.81483459472656 3.1171977519989 25.5128765106201 9.75511932373047 11.4602394104004 12.4768133163452 4.08035516738892 0.41406637430191 29.2627277374268 39.9640922546387 7.48091840744019 -4.04419088363647 8.80143356323242 -4.99675035476685 -5.29016828536987 -3.33575129508972 0.117293305695057 -5.13970136642456 5.30534934997559 8.98923492431641 -3.79415512084961 -2.45354747772217 12.4073905944824 19.948034286499 -1.18383991718292 -2.71220803260803 -2.75236296653748 -3.07238483428955 -4.23239326477051 -4.27864789962769 -4.53246355056763 -4.46435880661011 -4.40153741836548 -4.91197776794434 -5.14054775238037 -5.53321075439453 7.63058185577393 -1.04000759124756 16.8329620361328 13.4283981323242 6.5065541267395 6.5495719909668 4.90860891342163 11.5252571105957 1.38148021697998 10.4311685562134 20.2732791900635 9.9856128692627 9.05736541748047 23.1382007598877 24.0272216796875 30.3690490722656 7.519118309021 3.2688889503479 1.09022700786591 3.20610618591309 4.24769258499146 24.0872592926025 29.3101291656494
8.82294178009033 0.924590826034546 1.45338463783264 2.55699920654297 2.45934319496155 3.77796816825867 2.49390697479248 2.44092965126038 1.97362184524536 4.12269020080566 3.73371815681458 4.52607250213623 3.4150402545929 1.48982977867126 3.00628018379211 3.42869234085083 3.34424448013306 3.38163828849792 3.18486928939819 3.03310251235962 4.02031803131104 3.95280909538269 3.6377158164978 3.24744057655334 3.31304240226746 6.93389892578125 7.97627687454224 6.68772077560425 4.05114316940308 18.3528118133545 19.8523426055908 6.84786367416382 12.1076784133911 5.41551876068115 6.13613128662109 3.48268461227417 3.86461710929871 3.84055352210999 3.54339504241943 3.02256798744202 3.16949343681335 3.31101226806641 3.2758162021637 3.30675673484802 3.49505758285522 3.41935539245605 2.7850284576416 5.15319299697876 4.99352645874023 7.14718008041382 7.73487043380737 6.57322931289673 9.59338283538818 11.0303411483765 16.7001457214355 16.5500965118408 14.5957269668579 15.254096031189 12.9351491928101 12.9712381362915 14.0434379577637 11.6636915206909 12.995135307312 10.2505321502686 2.61173439025879 3.61924409866333 3.52236223220825 8.80622291564941 35.1878356933594 16.4043960571289 12.6413450241089 6.72595024108887 5.35696792602539 7.85283756256104 11.2722225189209 1.31808400154114 3.15435099601746 9.7390604019165 7.67795276641846 19.9780769348145 5.92735624313354 6.64987325668335 5.34404802322388 5.43922138214111 5.50292158126831 12.8219356536865 2.70969367027283 3.27407574653625 1.63611698150635 7.41979122161865 8.56751251220703 4.40738868713379 6.7818717956543 2.41268634796143 2.08322906494141 2.44450712203979 20.2874622344971 5.96858692169189 40.5221672058105 15.6769857406616 28.9671745300293 15.3086500167847 -0.195343568921089 13.8931865692139 5.73874568939209 16.229040145874 5.03658390045166 5.56645917892456 -2.38429093360901 1.77738797664642 9.26591205596924 6.95373344421387 0.379478454589844 12.3876008987427 -0.841392874717712 6.4544939994812 20.5744285583496 14.7446241378784 14.01291847229 11.4512491226196 11.7611131668091 9.05238056182861 0.746869266033173 0.299216538667679 -2.79980802536011 -3.89416337013245 -4.48275136947632 -4.53755807876587 -4.83478450775146 4.18231439590454 3.84830355644226 4.71498823165894 -1.15327787399292 -5.42259979248047 16.2106552124023 -3.88963985443115 -3.11793851852417 -2.80486083030701 6.92853832244873 -1.88461756706238 -3.15663266181946 -2.95068502426147 -2.94462013244629 -4.44229173660278 -4.46735906600952 -4.71588039398193 -4.93703126907349 -5.08861637115479 -5.25188493728638 -5.36780261993408 21.3348255157471 -5.45589828491211 -5.15438604354858 0.0721041858196259 12.583155632019 5.57809448242188 6.53685855865479 3.65758943557739 6.62236738204956 3.07241320610046 8.50604152679443 17.8062648773193 48.722469329834 27.9002933502197 12.9625234603882 19.5084190368652 18.7430953979492 42.5274810791016 35.2835693359375 46.4128494262695 5.83413171768188 2.34535646438599 6.91896200180054 14.6785163879395
7.44345331192017 0.332994908094406 0.825010418891907 0.972140789031982 2.38307547569275 2.46723031997681 3.39731526374817 1.92945444583893 2.47361326217651 2.13889050483704 5.25159311294556 5.03561067581177 3.49347686767578 1.983891248703 2.80333542823792 3.03506207466125 3.03693509101868 3.02023959159851 3.01968002319336 5.43788814544678 3.81965851783752 3.92208528518677 3.34227776527405 3.63350439071655 4.30824089050293 4.48949956893921 6.1728835105896 7.09309482574463 33.0791435241699 33.4667930603027 12.6563367843628 5.84046649932861 9.33150196075439 3.45157718658447 4.34634447097778 2.77687859535217 3.16445350646973 3.00292634963989 3.16296219825745 2.99628496170044 2.88774514198303 3.23764538764954 3.00555157661438 3.05390453338623 3.16368293762207 3.28541898727417 2.70840644836426 4.93050956726074 4.59093236923218 6.79357576370239 7.30060338973999 6.6397852897644 6.09117937088013 9.61763763427734 12.0680828094482 11.9573545455933 12.0346612930298 12.2087230682373 11.8061723709106 11.0985794067383 12.2802438735962 10.2365951538086 11.4258089065552 9.32252025604248 42.3597183227539 12.0221147537231 31.1702098846436 16.3773632049561 3.9627742767334 11.170220375061 9.72599983215332 9.3044261932373 11.3120994567871 6.93055009841919 0.718733251094818 10.5557842254639 0.991229832172394 18.6016654968262 24.0068111419678 7.44774770736694 2.94154739379883 3.45546364784241 2.02715063095093 5.9473729133606 4.83580732345581 9.65987014770508 20.6882839202881 24.6968460083008 26.6877365112305 8.54823970794678 1.11128425598145 3.56375765800476 0.518704116344452 0.890659391880035 3.0991039276123 21.0523338317871 28.8304786682129 43.2925491333008 17.8520488739014 36.7970275878906 17.9648838043213 15.641450881958 22.3258495330811 -0.299662113189697 38.7914390563965 20.1728916168213 23.145809173584 5.20022821426392 13.6428661346436 -1.56204450130463 1.74110913276672 7.10636949539185 13.6272144317627 -0.931187152862549 52.5961303710938 41.9069519042969 37.8454818725586 24.5563945770264 16.0453796386719 30.8067150115967 9.55493354797363 28.4367027282715 19.343225479126 -3.68266177177429 -3.80816197395325 -2.76291394233704 -1.30449914932251 -4.64649963378906 3.54177069664001 2.86876606941223 -4.43487405776978 -5.56603717803955 -5.77254819869995 6.22781038284302 1.37085723876953 0.0894114077091217 8.10652542114258 -3.52026724815369 -3.20517563819885 10.4506740570068 11.4080696105957 9.30851936340332 -1.91841840744019 -4.55042457580566 -4.8018946647644 -4.84464693069458 -4.8463077545166 -5.29936599731445 -4.17384099960327 -3.98287796974182 -5.42983150482178 2.34700274467468 5.88361883163452 9.44540596008301 2.07760977745056 0.560224652290344 2.27079772949219 9.98237133026123 9.76574230194092 13.4078369140625 12.4064674377441 14.2214097976685 15.255654335022 30.011137008667 19.2396450042725 17.4980335235596 16.9718894958496 16.0605239868164 23.2125053405762 27.579029083252 52.4074020385742 51.2405433654785 50.4970169067383 39.7146301269531
6.11325693130493 1.79354429244995 0.465161710977554 0.562767207622528 2.31464076042175 2.40856552124023 3.35207462310791 1.93271553516388 2.15415501594543 4.34772539138794 3.83518934249878 3.70420670509338 4.27229881286621 4.43675756454468 3.55369758605957 2.92768239974976 2.85811448097229 2.74345684051514 4.15185213088989 3.63568520545959 4.3487548828125 3.5654935836792 3.22691822052002 3.59473633766174 3.08330392837524 4.16788339614868 5.80986213684082 6.72346019744873 5.69973850250244 10.0587854385376 14.1066875457764 21.3900241851807 6.63187503814697 1.53105103969574 4.9721736907959 3.29929447174072 2.71007108688354 2.87664461135864 2.93242120742798 2.31303739547729 2.53224658966064 2.83418941497803 3.1714448928833 2.97227430343628 2.96266102790833 3.21234440803528 2.58027124404907 2.52197313308716 4.55279397964478 5.82825660705566 6.29385280609131 6.76505613327026 5.78737449645996 7.39909315109253 9.47697830200195 10.1349277496338 10.3010387420654 9.67300128936768 10.4438743591309 9.73233699798584 9.37020206451416 10.5344791412354 8.87624359130859 9.61368083953857 6.9503231048584 35.071949005127 19.5453109741211 9.26247406005859 23.5401725769043 28.6402187347412 8.23363399505615 11.4252347946167 7.78269100189209 3.05222105979919 28.6476421356201 17.1683025360107 30.5073089599609 14.0234413146973 13.9705972671509 7.29508256912231 2.53417658805847 2.36759328842163 16.3686676025391 4.89387845993042 4.48999214172363 6.73882246017456 5.33275890350342 7.57026815414429 8.55881023406982 2.62528371810913 2.093834400177 2.03443050384521 8.07027816772461 0.394551813602448 0.474069207906723 0.695619583129883 5.91274881362915 15.6521778106689 31.1991214752197 12.4032230377197 14.0728530883789 15.1253652572632 -0.823210835456848 9.24774551391602 12.3597345352173 27.3878841400146 10.8150882720947 20.8050498962402 5.21144247055054 7.74805116653442 3.38571262359619 11.4523544311523 14.2499704360962 -1.46627116203308 2.10856771469116 23.1506538391113 9.39539432525635 15.9777812957764 16.3655586242676 13.357138633728 21.9703254699707 11.0353479385376 9.91263008117676 10.3630247116089 -3.94372057914734 -3.64716506004333 -4.50560092926025 13.0801210403442 -5.02098560333252 -5.25825834274292 4.9261999130249 4.63020467758179 19.6584548950195 13.9053382873535 17.4437599182129 1.71664333343506 2.82059574127197 6.90169429779053 20.6201286315918 -0.604454755783081 -2.38394713401794 3.61007618904114 -2.97626447677612 22.7491683959961 -0.0843063294887543 -5.0473256111145 -5.35296535491943 2.90537548065186 11.1961488723755 0.678249835968018 -0.475271910429001 1.49221074581146 4.20666790008545 3.10869288444519 1.88892900943756 0.257342278957367 3.86660718917847 5.35990858078003 9.76667213439941 3.5728976726532 17.7227725982666 25.3079853057861 39.5487213134766 22.8081684112549 14.5215129852295 15.5681228637695 15.1379108428955 13.7161741256714 19.0527114868164 19.9109516143799 27.8223476409912 32.4306030273438 37.3603477478027 35.211784362793
3.38901782035828 5.10060167312622 0.0154163260012865 0.499861538410187 1.50080573558807 2.10750126838684 3.16615056991577 2.24651169776917 2.44898819923401 2.13703536987305 3.64885568618774 3.5988883972168 4.2052788734436 3.23129630088806 3.70050811767578 2.70128440856934 2.56040692329407 4.2491626739502 3.10560607910156 3.11817669868469 3.44636130332947 3.26791334152222 3.44135975837708 3.52094793319702 2.75705933570862 3.97880387306213 5.54917621612549 6.41255760192871 5.41572380065918 7.2719521522522 12.8248424530029 18.5231781005859 20.1815357208252 15.1100454330444 1.37146079540253 2.50899314880371 1.92446982860565 2.317538022995 2.30710029602051 2.3140504360199 2.08520364761353 2.48851156234741 2.728511095047 2.631103515625 2.83325982093811 2.36197233200073 3.03852844238281 2.49172592163086 4.30652618408203 4.87966680526733 5.96302890777588 6.42960023880005 5.50417375564575 6.7111554145813 7.34314632415771 8.83829212188721 8.99560070037842 8.46425533294678 9.47536754608154 8.77741622924805 8.45851039886475 9.4852819442749 7.82022571563721 8.64206600189209 7.43124866485596 15.6612586975098 16.0018138885498 26.1540660858154 25.2591915130615 13.5640811920166 7.17303133010864 5.54144954681396 5.68161201477051 2.77033185958862 2.29370427131653 24.1377468109131 14.4867238998413 23.0589714050293 9.87487697601318 3.51253294944763 1.7019898891449 1.9274685382843 3.07760095596313 11.0141801834106 4.36934328079224 3.42771887779236 4.95335006713867 13.5021991729736 6.20048809051514 9.67345428466797 6.93428611755371 0.210132822394371 -0.188309296965599 -0.037773109972477 0.416580826044083 3.01559042930603 1.92450201511383 9.70883941650391 16.5749607086182 39.6110725402832 15.0750923156738 14.7500171661377 45.4437713623047 46.0892448425293 23.4544010162354 24.5687370300293 26.4531192779541 18.391300201416 18.3275604248047 7.49851894378662 9.31695365905762 9.90320777893066 6.75167846679688 2.06846523284912 26.7198715209961 18.0875568389893 12.8352174758911 8.23724746704102 10.6202564239502 10.8531284332275 11.1805582046509 8.84003639221191 8.0456657409668 29.7831707000732 6.56567335128784 0.468961238861084 12.6885852813721 -4.76660966873169 -5.18649244308472 2.87606406211853 11.9622640609741 16.7008228302002 8.47636032104492 16.7747936248779 16.1404609680176 10.0190505981445 3.410076379776 9.77421569824219 5.2602596282959 4.06035375595093 25.9959697723389 1.28481876850128 -3.21786046028137 -3.19710898399353 22.8760452270508 21.5536212921143 24.199312210083 32.280330657959 18.1447315216064 6.57261896133423 16.1805839538574 0.295182108879089 0.420340955257416 18.5748596191406 7.0586109161377 18.1531200408936 14.6674165725708 9.75470542907715 5.76014518737793 4.36414241790771 13.1107110977173 32.5982894897461 28.0051536560059 22.1674060821533 12.5905380249023 9.90490531921387 13.8367862701416 13.6015625 15.6879501342773 16.8783168792725 23.8548450469971 26.4231472015381 30.4113540649414 28.5584335327148
1.52922105789185 4.43819332122803 -0.0317210853099823 0.297329127788544 0.312323153018951 2.00222373008728 2.08213472366333 2.96794033050537 1.2955105304718 1.76130044460297 2.03947520256042 3.45290040969849 3.98395228385925 3.22215938568115 2.9189338684082 2.37050843238831 2.81919193267822 2.99455714225769 3.17022800445557 2.84833073616028 2.90535378456116 3.00802612304688 3.17731356620789 3.37511157989502 2.58007907867432 2.37391209602356 5.33127737045288 6.15033674240112 5.20030879974365 12.2118902206421 8.61886882781982 3.3121452331543 12.6717700958252 25.5226955413818 28.3454761505127 1.99336445331573 1.48694610595703 2.25305581092834 2.12897229194641 2.18044114112854 2.06132507324219 1.7757750749588 1.84257864952087 2.13416028022766 2.64443802833557 2.29073190689087 2.92766666412354 2.19803547859192 4.11585140228271 4.02206707000732 5.67210912704468 6.12782049179077 5.27025365829468 4.55461454391479 6.7195463180542 6.240149974823 7.640061378479 7.76315355300903 8.65087127685547 8.03577136993408 7.72602033615112 8.59318161010742 7.0610933303833 7.8749566078186 6.94290113449097 12.6806240081787 12.4195356369019 10.8850755691528 13.163722038269 23.344877243042 8.04402446746826 7.701256275177 7.76059913635254 16.1135768890381 10.3516902923584 18.296106338501 12.8059034347534 16.24755859375 8.78990840911865 33.7116394042969 23.8063526153564 31.6997089385986 2.6378972530365 7.82349443435669 2.95892643928528 3.13563823699951 1.41013419628143 2.76671385765076 3.39625000953674 1.05640387535095 0.712426066398621 2.47492504119873 0.13523705303669 4.48378849029541 0.215500563383102 -0.0586750768125057 2.37999558448792 12.5339059829712 14.1517429351807 13.3529281616211 31.4726257324219 22.4561824798584 14.4840402603149 26.0584239959717 27.7776336669922 23.3420848846436 18.6097373962402 14.0161037445068 15.2615995407104 16.3288707733154 16.1330223083496 10.9480438232422 4.65186405181885 -0.445924311876297 11.6962490081787 20.6717739105225 7.83043622970581 5.93838882446289 6.82361888885498 8.93389320373535 9.95998764038086 8.1068868637085 7.650071144104 11.0309648513794 25.5638484954834 31.8938217163086 -4.38448286056519 7.32125616073608 12.4367570877075 9.40531158447266 7.11868572235107 8.34560012817383 18.3758544921875 15.440938949585 13.6800937652588 7.78954982757568 3.57252359390259 6.86084079742432 -0.740778684616089 -3.35328149795532 15.7811832427979 6.02517461776733 -3.17544412612915 -3.46249604225159 5.06879806518555 13.8655376434326 22.6292743682861 23.3319931030273 14.2113084793091 27.2134342193604 8.91529750823975 9.89184379577637 3.27393388748169 4.18632030487061 13.9886465072632 9.09435272216797 14.55491065979 15.2522773742676 9.3248176574707 12.5224189758301 18.8945693969727 28.7490100860596 11.7439880371094 16.1970901489258 14.6876592636108 9.60795211791992 12.7710437774658 12.6248340606689 10.685040473938 13.24778175354 14.0615367889404 22.245023727417 25.5239181518555 23.9857788085938
1.68613421916962 3.86407113075256 0.988732695579529 -0.0774237215518951 0.157093957066536 1.95274460315704 2.05104422569275 2.84794211387634 1.28143131732941 1.46580564975739 1.86443746089935 3.26714372634888 3.12145948410034 3.6966609954834 2.12067890167236 2.19977498054504 2.38221001625061 3.08164143562317 2.63397145271301 2.66387915611267 2.6510603427887 2.76438617706299 2.89680576324463 2.93526005744934 3.13762712478638 2.26972198486328 3.59396743774414 4.98880434036255 5.75574016571045 4.84447717666626 6.16181373596191 40.7539176940918 9.71422004699707 6.52079820632935 12.7955951690674 13.2803773880005 0.998135626316071 0.894593179225922 1.94504153728485 1.94914591312408 1.82114207744598 1.56264638900757 1.52804183959961 1.81371593475342 1.95095777511597 2.5507640838623 2.82061100006104 1.46972417831421 3.9299578666687 3.55276107788086 5.43033790588379 5.87471675872803 5.45105028152466 5.00865697860718 5.61721801757812 6.02376937866211 6.91923761367798 7.05044031143188 6.73155117034912 7.7418794631958 7.13775587081909 6.82095050811768 7.62396049499512 6.75152063369751 6.99149608612061 5.5408182144165 10.5778274536133 9.45353603363037 10.1808614730835 13.9053382873535 25.1627006530762 27.6262073516846 5.33405494689941 3.97166800498962 23.7617721557617 15.331693649292 8.62961769104004 11.9254570007324 8.03065967559814 6.62139511108398 25.2218132019043 17.5372772216797 19.4875679016113 1.99760568141937 1.71223926544189 1.14316415786743 0.263810575008392 0.114681802690029 0.663490772247314 5.88689804077148 9.49731636047363 8.86619281768799 -0.0262833349406719 -0.122008182108402 7.19583129882812 18.9904289245605 0.618599116802216 6.66811943054199 6.7010703086853 17.5405387878418 19.3882465362549 23.9648532867432 25.863260269165 25.1763248443604 25.3306884765625 21.5731506347656 20.7448711395264 29.2962474822998 23.6691818237305 22.0853824615479 11.9583730697632 3.20995259284973 3.9415111541748 25.3623294830322 15.3870935440063 15.8224296569824 10.513011932373 8.76325416564941 25.8234596252441 7.62750101089478 7.71100044250488 7.78316879272461 7.15820789337158 10.8323221206665 4.13725805282593 12.5362167358398 25.3958930969238 15.193247795105 10.524790763855 8.29630661010742 9.51729297637939 8.35136318206787 13.0069522857666 14.0373687744141 15.353307723999 10.5508251190186 8.40581607818604 12.2947120666504 21.9568786621094 -1.84612381458282 9.17678070068359 5.89151763916016 7.59815263748169 11.0503253936768 -0.677087128162384 6.5057487487793 10.4517059326172 14.6049928665161 10.5795421600342 6.49340438842773 3.45018076896667 2.6338791847229 5.22234344482422 5.16569137573242 7.51091241836548 4.99441385269165 6.49341630935669 9.91885566711426 13.0765438079834 14.3462772369385 20.410680770874 15.01500415802 34.0419006347656 14.0398807525635 13.1007041931152 8.94277954101562 11.9875774383545 11.8175630569458 10.0600080490112 11.9014368057251 12.7787609100342 17.7149486541748 18.4465579986572 21.1941394805908
1.24315011501312 2.46550846099854 3.34450483322144 -0.100318044424057 0.0145578859373927 1.86139953136444 1.91906130313873 2.73641777038574 0.881518185138702 1.14342033863068 1.37469434738159 3.14343047142029 2.99056148529053 3.48472762107849 2.77159833908081 1.66226899623871 -0.145133465528488 2.4149649143219 2.43502593040466 2.49723124504089 2.5347592830658 2.56342673301697 2.67885494232178 2.87105655670166 3.09878659248352 2.22728896141052 3.47138619422913 4.81234455108643 5.54920196533203 4.66540575027466 5.33827829360962 7.16259574890137 19.820915222168 7.04796743392944 9.76028633117676 9.11053657531738 0.374428957700729 0.419548690319061 1.68074822425842 1.39901959896088 1.25521552562714 1.22748732566833 1.0149974822998 0.987809300422668 1.8379842042923 2.38244366645813 2.11783051490784 2.69278907775879 1.49035835266113 3.72568392753601 4.70953893661499 5.16366291046143 5.57501220703125 4.80173826217651 5.18188238143921 5.540846824646 6.38844013214111 6.49044370651245 6.03328466415405 7.2057991027832 6.65951871871948 6.37830877304077 7.10988569259644 5.84425115585327 6.53086471557617 5.96398210525513 8.67363166809082 8.85389041900635 8.9996337890625 9.76013088226318 11.4018039703369 13.2772445678711 27.4839534759521 24.9192810058594 10.8711376190186 9.86681461334229 9.58623600006104 7.23410320281982 9.26443481445312 5.43295001983643 11.7387371063232 10.6194868087769 16.37815284729 27.2502498626709 15.6752910614014 0.971671104431152 8.86587333679199 6.74517726898193 14.6818981170654 13.4544506072998 17.3341579437256 18.3587474822998 17.962308883667 7.74414539337158 1.18788540363312 3.15752816200256 7.68658113479614 8.92101669311523 5.92460107803345 6.29183864593506 11.3237466812134 9.94909954071045 15.3917942047119 22.5453300476074 22.0487976074219 18.3006458282471 14.6757316589355 10.2132730484009 11.6832342147827 9.73950386047363 6.61680793762207 5.76256656646729 0.970955669879913 7.49601745605469 20.5808238983154 10.6303272247314 16.3255290985107 5.60933065414429 9.78409862518311 5.20025873184204 5.72082042694092 4.66984128952026 6.30115509033203 14.0723190307617 42.1342506408691 23.6938343048096 14.473913192749 14.1599769592285 20.9464836120605 15.6637239456177 11.9153327941895 9.74678993225098 11.9334020614624 12.0027713775635 14.2526826858521 17.4414463043213 35.4712944030762 32.6767272949219 11.3919706344604 53.8531723022461 2.43479633331299 4.56618404388428 11.4136772155762 12.0116624832153 13.0662517547607 6.24069738388062 10.012092590332 9.73818874359131 4.21683931350708 2.53486633300781 15.7096300125122 20.3818817138672 20.4087886810303 6.05432605743408 5.2072172164917 2.59915781021118 6.12974739074707 20.1635284423828 32.7997245788574 50.4148406982422 41.5232734680176 8.04265117645264 17.0242366790771 19.7179946899414 12.9171772003174 9.36770343780518 8.70876884460449 11.3335256576538 11.1029539108276 10.8473596572876 11.6694307327271 16.0865230560303 16.533203125 18.9328784942627
6.34161233901978 0.990214169025421 3.06005597114563 -0.163859307765961 -0.147556528449059 1.2027782201767 1.72997152805328 2.6172239780426 1.91967606544495 0.96444046497345 1.14977884292603 1.4181672334671 2.9215452671051 3.31231546401978 2.79402542114258 3.05316567420959 26.8167400360107 2.24360156059265 2.22458934783936 2.28710055351257 2.33960866928101 2.50541734695435 2.60121440887451 2.66308760643005 2.97273349761963 2.19121193885803 2.01937675476074 4.64872169494629 5.36584663391113 4.52637624740601 4.76195049285889 5.12034320831299 14.6821269989014 6.12985849380493 6.0651273727417 7.34414339065552 42.8209266662598 37.619800567627 18.6991119384766 0.816275894641876 1.25175714492798 0.901428699493408 0.649060785770416 0.955114424228668 1.73556065559387 2.2319028377533 2.03591918945312 2.59939312934875 1.33074867725372 3.60193777084351 3.54175710678101 4.94196844100952 5.31889200210571 4.59428310394287 3.85905838012695 5.18272876739502 4.88295459747314 5.73416185379028 5.82248592376709 6.76963090896606 6.2305645942688 5.97107219696045 6.66069507598877 5.50575542449951 6.1213173866272 5.66998529434204 7.79452228546143 8.21783447265625 7.76881742477417 9.14928722381592 10.2900609970093 10.1806993484497 10.5633344650269 12.8855009078979 10.9954605102539 7.61169242858887 7.96095037460327 6.02436590194702 7.56777334213257 5.3570351600647 8.95107173919678 17.2350406646729 10.1355867385864 10.5027742385864 1.78379714488983 0.330722272396088 9.41017436981201 32.5412063598633 14.8274574279785 14.8728065490723 7.78116273880005 9.38892555236816 11.8111019134521 12.1892166137695 2.7635064125061 7.84439754486084 2.46936273574829 0.0174245275557041 2.88751363754272 2.41350889205933 19.051778793335 22.3886013031006 14.3657484054565 11.637001991272 17.4972114562988 17.8360481262207 14.3479709625244 13.8467140197754 9.43330478668213 7.99964189529419 6.58213520050049 5.25026893615723 4.41789674758911 10.751992225647 14.7474565505981 4.6535758972168 6.27988243103027 0.122070051729679 4.26023101806641 2.29403877258301 1.94664716720581 3.86598348617554 3.40941786766052 5.70335674285889 7.26509189605713 15.7189779281616 39.2244758605957 26.2152214050293 23.4837799072266 16.0614471435547 13.0880889892578 9.70435619354248 8.06388664245605 10.8994560241699 12.5853509902954 29.9547271728516 29.075382232666 33.8271675109863 34.5707511901855 22.2773666381836 27.8583812713623 7.25527381896973 2.60868358612061 3.97672390937805 7.59955215454102 11.3901872634888 8.8287525177002 11.4014377593994 21.9655456542969 21.3207206726074 23.322135925293 13.330587387085 16.0888862609863 10.7074337005615 3.8126060962677 15.7062177658081 17.1488208770752 46.1646156311035 36.0634880065918 32.5026473999023 30.3650379180908 49.5559272766113 15.832839012146 15.2093124389648 12.0253973007202 11.1119585037231 8.40147304534912 10.7301874160767 10.5237379074097 9.03041839599609 9.92861080169678 10.5643281936646 14.9623851776123 17.0867023468018
4.7373309135437 0.733188331127167 2.74156260490417 0.697553694248199 0.519407987594604 0.477405518293381 1.66822338104248 1.75169467926025 2.46120071411133 0.910486459732056 1.23786115646362 1.28690409660339 2.84312653541565 2.70770001411438 3.16657781600952 1.80149328708649 2.1611340045929 13.817813873291 2.19173336029053 2.17372679710388 2.24449181556702 2.39089560508728 2.52719044685364 2.57309460639954 2.46685004234314 2.78169274330139 1.95036995410919 3.16426181793213 4.37641620635986 5.04672050476074 4.22782897949219 4.96226358413696 11.6115550994873 5.68538522720337 3.46852326393127 6.2789831161499 5.2912745475769 22.5976066589355 19.0489253997803 0.769820690155029 0.779272675514221 0.838789463043213 0.607101917266846 0.937418639659882 0.905080258846283 1.66349732875824 2.16002941131592 2.49469518661499 1.22261548042297 3.42202639579773 3.04668045043945 4.71193218231201 5.09070158004761 4.76306915283203 4.38722467422485 4.57435512542725 4.79293918609619 5.29028797149658 5.36374568939209 5.23438882827759 6.20694446563721 5.70966053009033 5.42498064041138 6.10245990753174 5.57040309906006 5.61603689193726 4.70781517028809 6.78113889694214 7.1015305519104 7.63024759292603 9.22193813323975 8.16496181488037 8.48438835144043 9.72970390319824 8.16049003601074 6.28443479537964 6.88376235961914 5.06846714019775 6.47788000106812 4.89478445053101 4.49526834487915 6.76907777786255 9.37056159973145 9.44852256774902 1.64232099056244 23.001256942749 21.5918941497803 9.53426551818848 14.9415893554688 10.5799026489258 5.61103439331055 7.44585609436035 3.27909731864929 5.55187559127808 9.71440124511719 4.17142772674561 1.85889387130737 2.25800013542175 0.359821379184723 6.54386711120605 5.95409202575684 25.2312545776367 18.9070339202881 9.62347221374512 14.1346139907837 15.6730804443359 26.6583957672119 11.6374206542969 19.1159915924072 6.6150541305542 4.19919919967651 9.97776317596436 26.6124706268311 16.4234580993652 11.6697187423706 9.22143745422363 20.8913326263428 12.954701423645 1.18588626384735 -0.395151555538177 0.513177692890167 0.572202205657959 2.60472106933594 4.75900030136108 5.94341802597046 15.6551475524902 10.5069255828857 27.3264579772949 13.0536231994629 25.6589641571045 27.4817981719971 28.2556552886963 11.3053722381592 12.0332345962524 17.3139686584473 22.8298587799072 32.3994064331055 25.7023277282715 16.9566898345947 18.5963439941406 19.3208980560303 25.1647148132324 20.4875011444092 4.94129371643066 7.31335115432739 10.9022617340088 14.5830059051514 26.8503170013428 25.8441753387451 28.9056129455566 18.0347633361816 23.1958427429199 14.2305688858032 13.739857673645 23.7446899414062 23.3329086303711 30.5931129455566 36.8117561340332 30.4938907623291 25.4604663848877 23.8212413787842 19.7507476806641 24.368953704834 13.2795524597168 11.2589702606201 10.3105840682983 8.06571102142334 10.1325302124023 9.93077564239502 8.54020977020264 9.18120002746582 9.82668781280518 13.278000831604 13.3230667114258
3.77148509025574 0.632385432720184 1.85764110088348 2.50271558761597 -0.000543710542842746 0.367353886365891 1.54845666885376 1.67093360424042 2.37749338150024 0.858367621898651 0.955974936485291 1.3705438375473 2.80275201797485 2.68742704391479 3.03946185112 1.69304609298706 1.81201875209808 10.0881252288818 2.11790013313293 2.11301302909851 2.16800618171692 2.30277228355408 2.37237858772278 2.47193503379822 2.53694581985474 2.73577213287354 1.87631320953369 3.0611617565155 4.22593927383423 4.88614273071289 4.11377620697021 4.1334376335144 5.08545589447021 8.46152210235596 5.27930068969727 5.48825120925903 4.48413467407227 16.3214511871338 13.4771137237549 1.05885529518127 0.686955749988556 0.781711220741272 0.65498685836792 1.3703351020813 0.825614809989929 1.57415246963501 2.02041292190552 1.85393285751343 2.41816544532776 1.25976872444153 3.22078156471252 4.06617498397827 4.50177955627441 4.87958717346191 4.23337316513062 4.23364686965942 4.46948575973511 4.88289451599121 4.97710275650024 4.81394290924072 5.80215120315552 5.37192821502686 5.21547746658325 5.83391571044922 4.80637359619141 5.30373001098633 4.9919376373291 6.11429452896118 6.50203847885132 6.13453054428101 7.37244892120361 7.82360219955444 6.76143789291382 7.76115226745605 6.63781404495239 5.57432651519775 5.21053171157837 6.14421939849854 5.03824281692505 5.89136600494385 3.64679408073425 5.69769430160522 7.83810043334961 7.32637119293213 36.479175567627 29.7377319335938 12.2459383010864 8.81840705871582 6.40636587142944 7.45784330368042 4.39441967010498 4.31894302368164 1.45094478130341 2.754150390625 1.45312404632568 1.9272129535675 0.01430887542665 -0.0332631729543209 1.33373022079468 -0.571892261505127 17.7774410247803 6.93336915969849 16.6056957244873 11.9638690948486 11.8237752914429 11.187084197998 12.7786407470703 34.9950180053711 8.67690849304199 34.4850578308105 34.3877143859863 11.173638343811 10.3060216903687 19.7695636749268 17.8896255493164 8.64426422119141 -1.04979348182678 0.865015029907227 4.95210218429565 -0.691256284713745 -0.584630906581879 -0.110285498201847 2.07416033744812 2.14903926849365 4.83166313171387 11.7406673431396 8.72091865539551 7.75164699554443 28.6211318969727 16.2916870117188 16.9462356567383 19.6783924102783 23.3460083007812 15.7524223327637 14.7211513519287 12.609769821167 24.456428527832 20.3396759033203 16.8537902832031 14.214527130127 35.7458000183105 6.11304950714111 5.82585525512695 25.7627811431885 14.892840385437 15.4672193527222 12.1903858184814 9.11357688903809 16.0772171020508 18.6513938903809 19.3552589416504 15.2520790100098 16.9920063018799 22.2715721130371 16.6924514770508 38.8826065063477 33.8855171203613 36.2432060241699 24.2157077789307 21.6754264831543 20.5576801300049 13.9554576873779 24.1787185668945 12.5886077880859 11.3536787033081 10.5690498352051 7.80489444732666 7.72032451629639 9.52396678924561 9.36118125915527 8.49903964996338 9.1423282623291 12.3251819610596 12.2565174102783
3.10998249053955 2.11674785614014 1.68137848377228 2.25585222244263 -0.212309345602989 0.103005304932594 0.976197481155396 1.50054085254669 2.24782967567444 1.64209580421448 0.76593953371048 0.990616023540497 2.78612875938416 2.72029185295105 2.98619866371155 2.50935697555542 1.76422238349915 8.00165557861328 2.06937646865845 2.01640725135803 2.08289361000061 2.21969890594482 2.2663266658783 2.36954379081726 2.41103148460388 2.66674852371216 1.87106478214264 1.72901022434235 4.08234834671021 4.71894359588623 3.98036813735962 3.77143049240112 4.41233825683594 7.30894088745117 5.08385992050171 3.42303037643433 4.64239120483398 12.635290145874 10.3469352722168 7.71335649490356 0.188911974430084 0.723583817481995 0.758744835853577 0.573553860187531 0.737583160400391 1.46387124061584 1.90987503528595 1.73430860042572 2.29293394088745 1.14576935768127 3.08782196044922 3.06671547889709 4.32466268539429 4.66548299789429 4.07343530654907 3.43437957763672 4.19296979904175 3.9594202041626 4.47034454345703 4.53390026092529 5.48025035858154 5.07720279693604 4.90848445892334 5.52203750610352 4.72300052642822 5.04168844223022 4.72195196151733 5.41583824157715 5.77381992340088 5.56497287750244 4.97231006622314 3.04080677032471 6.62715148925781 5.95614004135132 5.74703025817871 5.0824556350708 4.66854476928711 5.59963178634644 4.48342275619507 5.244309425354 3.83507180213928 4.79010057449341 6.66336536407471 6.18942642211914 5.52544260025024 16.2734375 23.5633735656738 14.0547428131104 25.8865795135498 5.91939973831177 5.19996404647827 0.814542293548584 0.174382403492928 0.189300954341888 0.803402125835419 1.61401176452637 8.41526794433594 19.6571445465088 7.81677389144897 22.7187328338623 3.55652952194214 5.54676008224487 7.51184177398682 7.86022853851318 8.54364585876465 26.1793632507324 12.2067384719849 11.4272584915161 21.9442291259766 28.7189598083496 27.7908515930176 27.0324897766113 22.0799083709717 17.8442440032959 8.60089302062988 6.89481258392334 31.3019504547119 39.4858283996582 4.84023284912109 28.2861919403076 3.34057068824768 33.1846618652344 12.4673118591309 23.5107383728027 3.54435062408447 21.9814987182617 6.80032348632812 9.05667877197266 11.0971765518188 45.8079605102539 36.3435287475586 51.0372047424316 28.0289821624756 27.0249652862549 12.4623241424561 50.6552734375 19.9888687133789 4.66551828384399 8.40323352813721 11.3042554855347 12.9392147064209 29.7054042816162 5.60421562194824 8.06523704528809 8.75627326965332 11.9354333877563 9.8794527053833 11.3015995025635 13.4416494369507 16.3866138458252 17.0672168731689 14.3619184494019 26.4196949005127 34.2480087280273 37.3501129150391 36.0719108581543 33.4934425354004 30.9877071380615 19.9233093261719 19.8609371185303 17.8825397491455 28.9565563201904 19.7704620361328 13.9639911651611 10.8396739959717 10.045973777771 8.93340969085693 7.41623497009277 9.05322742462158 8.89934635162354 7.79959487915039 8.00102424621582 8.48354625701904 11.3442525863647
1.26044523715973 2.75916266441345 0.580154657363892 2.12147521972656 0.4644835293293 -0.0128350593149662 0.38505294919014 1.43543684482574 1.51523804664612 2.10465383529663 0.705271899700165 1.00747203826904 1.80871486663818 2.98780512809753 3.78213739395142 2.53064584732056 1.66582071781158 1.78715395927429 6.62091970443726 2.05044841766357 2.04576802253723 2.05793690681458 2.18296146392822 2.26535511016846 2.28999757766724 2.11644554138184 2.45446109771729 1.68717265129089 2.79347276687622 3.84694766998291 4.44275617599487 3.72865152359009 4.26350355148315 6.43439483642578 4.90916204452515 2.74266147613525 4.20886754989624 3.32327723503113 9.70340061187744 8.01304244995117 0.13115006685257 0.66140353679657 0.530799388885498 0.490807294845581 0.664060413837433 0.669301748275757 1.40025627613068 1.81270468235016 2.17688846588135 0.984730899333954 2.9953932762146 2.60732340812683 4.11300563812256 4.46885919570923 4.20995473861694 3.8748562335968 3.79481387138367 3.8982458114624 4.19109725952148 4.27110052108765 4.23911571502686 5.10121870040894 4.75915193557739 4.62514448165894 5.15483331680298 4.73043441772461 4.51668453216553 3.14248132705688 2.39874053001404 2.5904688835144 11.778600692749 2.5140540599823 3.45665740966797 3.27981925010681 5.20858001708984 4.32553768157959 4.30911111831665 5.06248426437378 3.92182230949402 4.50378751754761 3.40775561332703 3.26749563217163 3.89703941345215 5.28374719619751 4.70187330245972 11.4600954055786 12.4942407608032 9.96802425384521 8.18357086181641 2.94921493530273 4.40097856521606 0.883442759513855 0.0977543815970421 5.01812410354614 10.2241945266724 12.4361705780029 0.487202763557434 6.23479509353638 7.74324417114258 9.15485668182373 13.5183067321777 4.25903749465942 5.58127403259277 21.0410442352295 5.18491363525391 7.85603475570679 9.57787799835205 7.65638494491577 10.7613315582275 7.17401552200317 19.4645938873291 19.5809097290039 10.7942304611206 13.6693696975708 10.7476968765259 22.1335163116455 26.6328544616699 18.0923557281494 41.6514434814453 41.2599792480469 38.718391418457 20.2814159393311 19.3918132781982 2.89600920677185 12.7721338272095 2.4070348739624 36.3956260681152 14.5256719589233 38.7634086608887 24.8974952697754 31.4080085754395 31.092945098877 34.5942573547363 12.3371448516846 10.7008218765259 30.029764175415 8.01311016082764 12.9977512359619 4.62800025939941 10.3032627105713 11.5993766784668 38.7710304260254 32.812801361084 7.75456285476685 12.9174556732178 10.865629196167 9.82101440429688 8.47144222259521 9.78545951843262 12.9646654129028 10.7582750320435 16.2251815795898 17.7516250610352 28.0681915283203 24.0761127471924 39.3564071655273 29.9761085510254 25.9237098693848 24.6086692810059 17.8073902130127 16.6958866119385 15.7851915359497 17.4545555114746 16.9148693084717 11.0581064224243 9.67815685272217 8.83859252929688 7.25189447402954 8.7377815246582 8.55596160888672 7.43489074707031 7.57696437835693 8.02992820739746 10.628888130188
1.37022805213928 2.44884848594666 0.584786176681519 1.59538412094116 1.96953761577606 0.615114569664001 0.366830796003342 1.39296531677246 1.4647935628891 2.04338097572327 0.492825120687485 1.36445474624634 2.15255689620972 2.65584111213684 2.51034355163574 2.81601858139038 1.63585519790649 1.7664783000946 5.67237567901611 1.95263659954071 1.99597728252411 2.0184850692749 2.10559415817261 2.15032887458801 2.18896460533142 2.08345985412598 2.41541433334351 1.62658488750458 2.73232460021973 3.73428440093994 4.3071231842041 3.62342977523804 3.67242169380188 3.96813201904297 5.28736639022827 4.59876155853271 3.82096290588379 2.96153831481934 8.22663593292236 6.7194504737854 0.85861200094223 0.566852211952209 0.668445587158203 0.531814515590668 0.605769336223602 0.604005098342896 1.29550206661224 1.71094799041748 1.59181988239288 2.07895302772522 1.00560307502747 2.8434956073761 3.56973576545715 3.95965385437012 4.28741312026978 3.74631571769714 3.63852262496948 3.73610544204712 3.98727035522461 4.0540943145752 4.03695583343506 4.89295101165771 4.54364919662476 4.34291791915894 4.77788066864014 4.42486667633057 4.3324613571167 3.66753792762756 21.9437599182129 10.2953157424927 1.95779764652252 4.18576002120972 14.2755613327026 23.0304393768311 4.43084383010864 2.7445855140686 4.01207828521729 3.67815732955933 4.31533098220825 3.34205174446106 3.93072462081909 2.78215336799622 3.41373705863953 4.60475254058838 4.03791666030884 8.31999397277832 6.44567441940308 9.21434688568115 7.32778882980347 1.57906091213226 3.12228202819824 15.1926136016846 0.862658739089966 5.01465559005737 1.0715297460556 8.24643611907959 1.92591774463654 1.68802356719971 4.18378019332886 7.43495416641235 7.91188192367554 1.83390128612518 7.79762697219849 6.33967542648315 4.81734848022461 4.9868950843811 5.4764986038208 6.80730819702148 7.35621356964111 4.51307582855225 11.0839357376099 4.23883199691772 8.27564525604248 6.76099157333374 9.08279895782471 5.00293159484863 6.78894853591919 14.1575679779053 14.8215179443359 24.0430870056152 43.9658203125 42.4052200317383 26.495246887207 43.6597671508789 14.321722984314 12.0501680374146 11.5482187271118 22.0527324676514 25.6059226989746 26.6583003997803 22.9205589294434 23.3711547851562 21.9064102172852 24.7644577026367 10.5422668457031 11.3159828186035 9.39277458190918 10.8198556900024 24.9501094818115 6.11786079406738 8.82993984222412 14.7004594802856 39.1427040100098 46.2831726074219 36.4758071899414 17.8341789245605 12.0415058135986 13.1078205108643 17.8420734405518 22.6596851348877 26.9751491546631 51.9826698303223 47.9645080566406 34.8451728820801 24.6097793579102 31.4001083374023 26.4401626586914 23.7013759613037 17.3141441345215 16.3074760437012 15.2875862121582 15.0724210739136 14.3225812911987 15.2333707809448 10.5902900695801 10.0406131744385 9.34888744354248 7.20837068557739 6.80242013931274 8.54373264312744 8.35369873046875 7.35466575622559 7.6765718460083 10.0523929595947
1.7452700138092 2.45300936698914 1.64300489425659 1.55899000167847 1.91192746162415 -1.52565848827362 -0.0364676713943481 0.895716667175293 1.32683825492859 2.00529956817627 1.71550393104553 1.50091457366943 1.80508959293365 2.58843803405762 2.47715616226196 2.76859331130981 2.38692593574524 2.94769692420959 5.02905178070068 1.88763248920441 1.86618638038635 1.92807054519653 2.04420900344849 2.05364370346069 2.1089391708374 2.12176752090454 2.37546491622925 1.63947355747223 1.54146707057953 3.65132737159729 4.19361543655396 3.52416515350342 3.37962317466736 3.86941146850586 4.85769701004028 4.44082355499268 2.33410382270813 3.34889888763428 7.07874441146851 5.75271320343018 4.66441631317139 0.0527151934802532 0.56562077999115 0.468707770109177 0.418563663959503 0.628357648849487 1.09889686107635 1.55423212051392 1.50231266021729 1.977503657341 0.859959542751312 2.62738990783691 2.63050127029419 3.73797750473022 4.07595014572144 3.60915613174438 3.31942272186279 3.52245759963989 3.76120162010193 3.71031546592712 3.88511252403259 4.64170503616333 4.24423313140869 4.00224113464355 4.47920560836792 3.81363153457642 4.08880186080933 3.72059369087219 3.32276272773743 2.21573543548584 14.323769569397 19.0840244293213 17.6030979156494 8.4556188583374 3.52248024940491 12.8449048995972 2.3298397064209 3.4041223526001 3.88227224349976 2.95692324638367 3.34978842735291 2.64805746078491 3.10796332359314 4.00374221801758 3.39312720298767 2.60673642158508 5.32524633407593 7.67429733276367 0.54950886964798 21.5772228240967 7.44015598297119 8.00202560424805 10.4786262512207 4.89588451385498 0.0616292171180248 0.427489787340164 5.66063261032104 1.20986270904541 2.01178574562073 2.32007646560669 2.59256100654602 9.7322826385498 4.53043413162231 3.54620575904846 2.60550665855408 2.73117804527283 1.7217572927475 3.97401356697083 6.34449291229248 10.8030643463135 4.42850971221924 21.2349376678467 9.19896221160889 3.30929517745972 2.5092921257019 3.8260293006897 4.12362718582153 9.96725845336914 10.9659852981567 15.5412273406982 21.7896862030029 27.1311836242676 21.5525798797607 9.8856897354126 22.751615524292 4.10322093963623 13.8824663162231 10.5573854446411 11.1190605163574 19.7941284179688 18.3031959533691 18.7903518676758 18.6376132965088 38.8394393920898 23.2167148590088 30.4540138244629 35.8816566467285 31.3043689727783 11.5918016433716 14.1084852218628 4.82865571975708 7.08091926574707 21.3093242645264 33.4614868164062 27.8048629760742 39.4479751586914 31.3917999267578 16.2883949279785 31.9299201965332 22.8787803649902 23.9023208618164 38.7159996032715 32.7459983825684 28.5795993804932 27.4884948730469 26.2385711669922 23.5496864318848 20.7766380310059 22.2782611846924 17.260347366333 15.0771913528442 14.1916952133179 13.49915599823 14.0045394897461 10.5434637069702 9.77254390716553 9.19786739349365 8.29133987426758 7.38553142547607 8.47194385528564 8.22086524963379 7.19983434677124 6.96590805053711 7.16753578186035
1.8726898431778 1.96288800239563 2.51625561714172 1.76574242115021 1.82351398468018 33.7143630981445 -0.0657845810055733 0.135761097073555 1.29142880439758 1.35769045352936 1.96565997600555 1.65915441513062 1.64791691303253 1.83952987194061 3.95416831970215 5.2547492980957 4.41348314285278 3.02044916152954 2.18364429473877 4.54804420471191 1.71890044212341 1.87355530261993 1.8971756696701 1.96209251880646 2.03415203094482 2.04160785675049 1.80685842037201 2.19648408889771 1.51335000991821 2.53938102722168 3.45713829994202 3.97251200675964 3.33115386962891 3.76462888717651 4.50703239440918 4.30986547470093 2.3744432926178 3.11344408988953 2.33884406089783 6.01407957077026 4.88607263565063 0.057644996792078 0.52148175239563 0.415991604328156 0.319588452577591 0.534745395183563 0.490242958068848 1.08395576477051 1.50920975208282 1.9058974981308 0.753944635391235 2.48326396942139 2.1558518409729 3.56098365783691 3.86307835578918 3.64725780487061 3.35031008720398 3.19759798049927 3.04770398139954 3.44631695747375 3.56292343139648 4.29221200942993 3.90278077125549 3.78469085693359 4.23910284042358 3.58649587631226 3.82947778701782 3.64801025390625 2.46254396438599 21.3455619812012 0.929463028907776 15.7338848114014 1.60771214962006 3.33134126663208 16.2558307647705 6.70830726623535 13.5798101425171 3.20736885070801 1.88728499412537 0.832813322544098 2.52752327919006 2.09312224388123 2.19443798065186 2.63896059989929 2.91129946708679 2.38751316070557 4.19801044464111 6.47458982467651 21.9309825897217 6.78659963607788 13.1324768066406 2.31819081306458 14.9152460098267 1.39908003807068 0.0843283087015152 0.177444353699684 0.143754854798317 2.90266132354736 5.61311435699463 2.59610223770142 0.224630117416382 3.33310174942017 3.21835708618164 2.13046717643738 1.91953349113464 1.41416835784912 0.580968618392944 1.70831859111786 3.23928928375244 4.21434020996094 3.72261714935303 3.82560992240906 3.72306108474731 6.70071029663086 8.62722301483154 5.25568628311157 3.27455234527588 -0.715093016624451 4.20448398590088 14.8188323974609 13.0917472839355 21.0096664428711 19.5301914215088 30.0962429046631 18.1064586639404 6.4069561958313 6.63709497451782 14.6082286834717 13.0688705444336 11.1459245681763 14.0369777679443 16.5887603759766 16.9925556182861 17.3893299102783 31.1547260284424 30.1963691711426 37.7269248962402 24.2628345489502 39.0726051330566 20.2792224884033 25.3282890319824 29.755313873291 15.3872604370117 24.7616329193115 35.9522819519043 25.814868927002 23.7330989837646 37.1106262207031 23.2055187225342 31.9921970367432 28.9759273529053 33.671989440918 26.9428462982178 23.29563331604 21.4893379211426 21.5088787078857 21.1762981414795 9.27571964263916 11.5522050857544 17.0598316192627 13.9894771575928 13.253490447998 12.9820518493652 12.4971418380737 12.8752183914185 9.87001991271973 8.94486999511719 8.42276573181152 7.15286064147949 8.33339881896973 8.05209255218506 7.02046823501587 6.63111543655396 6.81520748138428
0.605805277824402 2.16467213630676 2.42888522148132 0.272382020950317 1.1313750743866 0.823450982570648 16.9444541931152 0.194263502955437 1.25043773651123 1.30419600009918 1.90295779705048 1.51315593719482 2.25888085365295 2.36483550071716 4.00410127639771 4.39162874221802 4.25189924240112 2.62087726593018 1.76618707180023 4.24107122421265 3.17087078094482 1.90003573894501 1.86829841136932 1.94944310188293 1.89393103122711 1.96899139881134 1.81512272357941 2.13728713989258 1.43929719924927 2.48500895500183 3.37635612487793 3.87808156013489 3.25262784957886 3.31685471534729 3.51674056053162 3.88116312026978 4.08227729797363 2.92259097099304 2.17676067352295 5.38377618789673 4.35085391998291 0.706582725048065 0.484591245651245 0.149674966931343 0.408749938011169 0.444510966539383 0.404858380556107 0.962681949138641 1.33571004867554 1.36912059783936 1.81646800041199 0.747560501098633 2.36385893821716 3.00356531143188 3.37242341041565 3.66219329833984 3.17881464958191 2.88586497306824 2.90457558631897 3.17053031921387 3.19335961341858 3.27246737480164 3.92746090888977 3.57729721069336 3.41841626167297 3.83454275131226 3.58363842964172 3.39560890197754 2.96774363517761 4.75436544418335 40.2692527770996 9.4868221282959 39.1504287719727 1.94052517414093 3.43037939071655 7.21866798400879 1.39641880989075 4.72521114349365 1.35303568840027 18.7159652709961 1.73075020313263 2.12072992324829 1.30784738063812 1.11701166629791 2.54571652412415 2.0546247959137 3.47833442687988 2.96133065223694 10.2834167480469 10.3148384094238 8.55591011047363 2.16077065467834 2.65536594390869 -0.0361838936805725 3.50886487960815 19.3561172485352 18.8698806762695 0.174402162432671 2.50201439857483 2.70511198043823 9.58378314971924 3.91827034950256 2.14165139198303 8.1424388885498 0.93410313129425 0.776911556720734 -0.0630037486553192 -0.176134198904037 1.23146188259125 1.42010056972504 2.02613210678101 3.64659953117371 2.29388689994812 4.0064845085144 16.8260059356689 11.8403463363647 1.70118629932404 33.5960121154785 1.67636668682098 5.43454313278198 5.70416593551636 17.6662769317627 19.6710338592529 15.8670034408569 9.72557353973389 6.36394643783569 1.76793968677521 8.30449485778809 7.88126468658447 6.23337078094482 12.7380342483521 14.7103433609009 15.3291482925415 15.4621677398682 20.9392795562744 24.3484497070312 20.8985481262207 31.984977722168 12.646653175354 11.4978828430176 25.5037155151367 22.1111698150635 18.1050148010254 18.0786170959473 26.2514247894287 25.7696170806885 35.9435424804688 35.9903144836426 38.7498970031738 24.7221794128418 14.2086524963379 22.9780464172363 23.0349254608154 20.5951995849609 19.6472415924072 19.6554489135742 12.9193153381348 52.6899528503418 19.2736797332764 12.6865949630737 12.9513893127441 12.3315343856812 12.4826154708862 11.8749971389771 11.9561128616333 9.47093296051025 9.15643405914307 8.67173767089844 6.99552011489868 8.06107521057129 7.79401731491089 6.67881870269775 6.60638952255249 6.45812368392944
25.3573608398438 1.72457194328308 0.0374664403498173 10.6242237091064 13.2680835723877 1.68714988231659 12.0843572616577 0.185316041111946 0.808995068073273 1.19157660007477 1.80713355541229 1.48463296890259 2.31623315811157 2.28732895851135 2.55129194259644 3.31961226463318 3.33738851547241 2.38260221481323 2.01085591316223 4.01962327957153 1.83995044231415 2.29997277259827 1.82356739044189 1.90100431442261 1.87777185440063 1.92867922782898 1.79350793361664 2.08119368553162 1.43150007724762 1.36093318462372 3.29885625839233 3.78427958488464 3.17483520507812 3.06951260566711 3.44425463676453 3.81542873382568 3.98713707923889 1.82345724105835 2.62775230407715 4.87593078613281 3.93366551399231 3.29265642166138 0.00449178321287036 0.47067266702652 0.353914618492126 0.24109011888504 0.411588877439499 0.823721170425415 1.16799771785736 1.17635548114777 1.7062007188797 0.662696719169617 2.23218083381653 2.21857213973999 3.17600703239441 3.46795153617859 3.06464576721191 2.5308141708374 2.64183235168457 2.89373755455017 2.84670114517212 3.00043869018555 3.61090087890625 3.26879143714905 3.11247825622559 3.53891921043396 3.01051545143127 3.2375659942627 3.10655546188354 2.8419988155365 6.91575622558594 20.7369823455811 8.66835784912109 36.4094200134277 2.9171838760376 2.85767412185669 1.36999011039734 5.95353221893311 13.7768430709839 2.70678567886353 6.85786819458008 1.62095510959625 11.5473251342773 6.60836124420166 2.29703974723816 1.879723072052 2.05321025848389 3.0678346157074 8.88233947753906 11.0909452438354 5.64184379577637 2.8447163105011 17.1446361541748 0.492264211177826 0.583212733268738 5.76394271850586 6.49017524719238 1.9739031791687 0.863200545310974 9.04941844940186 9.39361572265625 1.56573271751404 15.7264852523804 5.18901014328003 19.1048545837402 0.387480497360229 -0.0864746049046516 -0.653212904930115 0.553487598896027 11.5484838485718 1.22353553771973 0.646503567695618 1.17692732810974 2.16906833648682 2.59088182449341 7.98494529724121 22.9890289306641 3.14831233024597 3.10041618347168 3.98963332176208 12.5885992050171 13.3473501205444 16.2529983520508 13.8731899261475 7.00301265716553 4.10563182830811 1.70099902153015 1.57826483249664 4.65430545806885 13.7588148117065 8.32671356201172 13.1140003204346 14.4734487533569 14.6758108139038 16.1209411621094 20.7880172729492 18.2032794952393 23.4903411865234 43.0404472351074 44.5566940307617 20.7896366119385 17.8863277435303 14.4505271911621 14.9855909347534 19.0571212768555 22.3053379058838 23.8082160949707 24.402889251709 26.4987697601318 24.8619155883789 32.5321769714355 17.4306335449219 22.2857933044434 19.1385059356689 18.1414318084717 13.5928497314453 10.563027381897 16.6395282745361 34.1089057922363 26.9767951965332 13.7439756393433 12.2188968658447 11.7792530059814 11.2648153305054 11.2260141372681 9.48992443084717 8.85881900787354 8.33438301086426 7.49832010269165 6.6980996131897 7.63673114776611 7.30751752853394 6.32724094390869 5.80445194244385
0.93457555770874 11.0674057006836 27.3366184234619 2.11272501945496 4.69961595535278 6.04564380645752 9.19841766357422 0.635878145694733 0.536126852035522 1.18904161453247 1.23702335357666 1.83948183059692 1.82743871212006 1.78818416595459 1.79310894012451 2.63979387283325 2.84193801879883 2.36549806594849 1.85599410533905 1.75819051265717 3.73724365234375 1.97262167930603 1.77538621425629 1.76304173469543 2.31870269775391 1.87241792678833 1.7485648393631 1.44367337226868 1.95450830459595 1.3234087228775 2.28572583198547 3.11288499832153 3.58627033233643 3.00670695304871 3.359299659729 3.51985144615173 3.91848802566528 2.14790725708008 2.49072480201721 1.80158078670502 4.32494831085205 3.47443199157715 0.0100454771891236 0.422296941280365 0.302779972553253 0.166592836380005 0.345025926828384 0.323919713497162 0.796248257160187 1.14530420303345 1.61193919181824 0.517799198627472 2.06786060333252 1.75360321998596 3.04945874214172 3.31868815422058 3.11814618110657 2.81759548187256 2.40361332893372 2.28457927703857 2.59761619567871 2.64343547821045 3.28656840324402 2.97363376617432 2.83093500137329 3.24247217178345 2.79060959815979 3.04088187217712 2.92534136772156 2.1541543006897 5.31523990631104 14.9073038101196 5.62946605682373 14.4549751281738 3.83845162391663 2.58616232872009 32.2783279418945 1.78452825546265 1.61268413066864 3.7757785320282 5.03723812103271 1.32327687740326 1.2102757692337 0.8210529088974 10.6188716888428 1.91702079772949 2.04633593559265 2.92135238647461 4.87472820281982 12.8887042999268 1.51879191398621 7.59659862518311 2.95743703842163 26.0470676422119 14.9029111862183 10.5369834899902 5.30983543395996 12.0511350631714 0.92879855632782 0.87483823299408 3.03791522979736 8.75638484954834 2.84690594673157 1.535724401474 1.2846565246582 0.349150151014328 1.14984726905823 -1.40709912776947 -0.662864029407501 -0.0918277353048325 1.11236500740051 3.77771425247192 2.64786076545715 8.67963027954102 3.50789856910706 5.24888563156128 3.51395964622498 2.58100771903992 30.2587337493896 18.1324901580811 11.359673500061 12.2618741989136 15.3620204925537 11.9105577468872 7.16292285919189 1.90110647678375 1.31045269966125 1.02281677722931 40.1349182128906 19.783784866333 33.5815200805664 11.728964805603 13.4739418029785 14.0198154449463 14.3721294403076 17.0486640930176 17.8699207305908 16.5544624328613 20.1273899078369 26.4506664276123 27.214168548584 15.9245567321777 12.7693777084351 11.3235702514648 17.1095390319824 19.8132934570312 19.4214496612549 19.5545768737793 21.8411731719971 19.7923851013184 24.0527954101562 30.4050769805908 20.2790946960449 15.1668195724487 16.2874584197998 30.1558132171631 44.6210060119629 13.8115568161011 26.3936290740967 20.9482746124268 16.393590927124 11.412317276001 11.0772581100464 11.0885992050171 10.7635278701782 10.5805416107178 8.82796382904053 7.99734687805176 7.16753959655762 6.47677421569824 7.35580778121948 7.01222133636475 6.01266002655029 5.45492696762085
-1.42845690250397 5.66306972503662 1.02827262878418 -1.05592787265778 3.32242465019226 4.39559364318848 1.00113558769226 7.47230577468872 0.655228137969971 1.17382514476776 1.35496616363525 1.77715718746185 1.72800493240356 1.7181259393692 1.71241855621338 2.45051193237305 2.40410542488098 2.66759395599365 1.66287064552307 1.72215223312378 3.47157979011536 1.72158312797546 1.69765245914459 1.74267029762268 1.79249548912048 1.72409856319427 1.71278393268585 1.59402799606323 1.90225076675415 1.21675670146942 2.22731995582581 3.03325963020325 3.49555206298828 2.92952704429626 3.00413584709167 3.17434167861938 3.55984163284302 3.72133421897888 2.38644933700562 1.7182776927948 3.98929738998413 3.21436095237732 0.596722185611725 0.394096374511719 0.029433136805892 0.296254724264145 -0.735638678073883 0.24361227452755 0.759279131889343 1.11151301860809 1.10171639919281 1.49738168716431 0.445032387971878 1.919109582901 2.4931948184967 2.85914063453674 3.11507654190063 2.67192792892456 2.21749711036682 2.15093231201172 2.36684942245483 2.29886960983276 2.41508674621582 2.94873476028442 2.65394949913025 2.53645730018616 2.97096228599548 2.87404370307922 2.78038740158081 2.49170327186584 2.60612821578979 11.5028896331787 4.73266315460205 11.1034965515137 2.85217761993408 2.28330254554749 7.95357322692871 28.2006244659424 1.31414341926575 4.65176582336426 5.76872634887695 1.14347624778748 11.0509672164917 8.4598388671875 7.49966430664062 2.89090800285339 4.61073970794678 4.50710201263428 3.82997345924377 6.27630567550659 16.3519458770752 4.2261643409729 1.94316959381104 12.4566688537598 10.2389097213745 8.49791526794434 9.05685234069824 14.1526203155518 0.142345085740089 -0.0206108447164297 9.2179479598999 2.24950122833252 2.24789905548096 21.6532649993896 1.20944392681122 9.68556499481201 0.443702071905136 0.857430696487427 -1.1826103925705 4.52120447158813 2.14491176605225 0.0225386992096901 17.5077781677246 17.3944606781006 7.88442707061768 2.4662868976593 1.53914940357208 14.4592580795288 8.46009731292725 12.6650419235229 16.7165679931641 12.5089464187622 11.3253879547119 8.77920341491699 15.5374460220337 2.11197018623352 1.13543486595154 3.2886278629303 3.39345455169678 25.2741222381592 10.2597713470459 22.3485431671143 12.5850439071655 13.2847862243652 13.2908964157104 14.9931936264038 16.5643043518066 14.9321489334106 18.6543846130371 21.9756813049316 22.6290683746338 16.0611839294434 14.1679754257202 11.6483850479126 13.0707569122314 17.7542591094971 17.4047145843506 17.4508037567139 17.5857429504395 17.4310131072998 17.4049491882324 18.6067523956299 18.2897415161133 22.1072635650635 14.5045413970947 15.5904607772827 13.6615686416626 26.4007053375244 23.0189399719238 17.4304828643799 12.5395774841309 10.6209487915039 10.3887701034546 10.60338306427 10.3022556304932 9.95034694671631 8.44417572021484 7.66780948638916 7.17540168762207 6.27390766143799 7.09771251678467 6.77558851242065 5.66076898574829 5.62933111190796
-2.15884470939636 0.510612368583679 0.919969260692596 45.505931854248 2.1912784576416 3.30335998535156 1.5325642824173 6.28067302703857 0.535590946674347 0.816193401813507 1.37515842914581 1.89806461334229 1.8926944732666 1.56366062164307 1.59270012378693 2.38236546516418 2.38046216964722 2.61817407608032 2.24422168731689 2.53408145904541 3.43429946899414 1.71621024608612 1.6725127696991 1.64776515960693 1.68123269081116 1.64530670642853 1.65740764141083 1.59446799755096 1.87981033325195 1.24065256118774 1.13789975643158 2.95019602775574 3.40304040908813 2.84885621070862 2.77163195610046 3.07174396514893 3.46444869041443 3.63596248626709 1.5046159029007 2.14762187004089 3.7069845199585 2.96917343139648 2.52970004081726 -0.0521931797266006 0.372872799634933 0.0353241823613644 7.35890245437622 -0.721032023429871 0.655564069747925 0.990843713283539 1.0092750787735 1.39141225814819 0.341638416051865 1.75782740116119 1.7865446805954 2.68634986877441 2.9517707824707 2.60424661636353 1.93052136898041 2.01674675941467 2.18487930297852 2.10635948181152 2.21652817726135 2.71768760681152 2.42411303520203 2.31508111953735 2.75914216041565 2.43384337425232 2.70425343513489 2.63606119155884 2.24405717849731 3.48237180709839 0.834639191627502 4.83367300033569 10.8865528106689 5.60407114028931 9.42118549346924 11.1519536972046 3.98131036758423 1.26545703411102 4.07960748672485 1.19486248493195 0.36457148194313 0.562692642211914 9.47229862213135 1.95860874652863 3.2543420791626 4.73371553421021 4.93814134597778 0.669380962848663 4.63892936706543 7.54149723052979 18.0906600952148 13.398247718811 26.9043445587158 27.02197265625 23.2379913330078 5.03405570983887 21.0582370758057 0.848195612430573 3.15518450737 0.18421383202076 1.25666737556458 0.993405878543854 12.9207315444946 8.63809967041016 -0.346008509397507 -1.18931519985199 -1.32745623588562 2.36468172073364 0.220109567046165 9.31882095336914 19.8619117736816 12.4792022705078 4.22515439987183 1.52704036235809 6.76844215393066 1.64797914028168 6.20006990432739 12.9084005355835 15.2548770904541 10.2693748474121 10.2069005966187 7.06074285507202 4.43267917633057 9.23338890075684 0.921600699424744 3.4358332157135 6.3974666595459 5.12723588943481 29.8483867645264 16.3150959014893 10.9173259735107 11.9761791229248 12.3546123504639 12.7906627655029 15.0609045028687 13.9831161499023 17.2645149230957 19.000789642334 19.6356792449951 15.1270704269409 13.4429664611816 11.1205902099609 12.3926782608032 14.4988603591919 15.8714580535889 15.3896741867065 15.6358509063721 15.5594987869263 15.502836227417 15.1506614685059 15.0768194198608 16.1217670440674 14.8907785415649 14.3898391723633 26.3519134521484 24.9833183288574 18.5848236083984 18.7137184143066 14.5324544906616 11.4790182113647 10.1887092590332 10.0769338607788 9.83400440216064 9.34493541717529 8.13612270355225 7.82030820846558 7.27123022079468 5.86162853240967 6.02255535125732 6.74312305450439 6.39358997344971 5.48588085174561
1.3148045539856 -0.184820607304573 3.02655816078186 6.82023620605469 25.1536350250244 1.8266122341156 2.66205620765686 5.46609735488892 1.53065001964569 2.0007050037384 1.53236997127533 2.03558325767517 2.06373476982117 1.39330422878265 1.41660273075104 1.44308924674988 2.33102488517761 2.53717732429504 2.24376845359802 3.16199135780334 1.84020578861237 2.90160274505615 1.59165740013123 1.55187916755676 1.51246047019958 1.60356140136719 1.60475647449493 1.53932309150696 1.30448639392853 1.75888180732727 1.12446057796478 2.02364754676819 2.77864098548889 3.2223002910614 2.69215536117554 2.96715021133423 3.03106498718262 3.53229188919067 1.92556059360504 2.06334638595581 1.47075164318085 3.35918354988098 2.69027829170227 -1.40240120887756 -0.934755206108093 -1.48089957237244 -1.29311847686768 -1.28190052509308 0.173116892576218 0.602579832077026 0.919336557388306 1.28790771961212 0.234158039093018 1.62183368206024 1.29793679714203 2.51959872245789 2.80404281616211 2.6472475528717 2.37758421897888 1.87657272815704 1.81870901584625 1.98161053657532 1.97565066814423 2.54775238037109 2.26736903190613 2.15088987350464 2.57820653915405 2.30701518058777 2.59741353988647 2.55722069740295 2.14938735961914 1.48942172527313 6.00479745864868 3.44061589241028 19.7015247344971 18.6614627838135 9.18091011047363 5.64571332931519 19.6339836120605 17.1750659942627 3.44776558876038 20.8734092712402 12.9254913330078 0.537928462028503 7.14478063583374 5.10472345352173 3.09352469444275 4.43440532684326 1.02719700336456 21.9499320983887 4.29544734954834 16.6402606964111 2.72819423675537 6.95243453979492 13.8686761856079 15.2407350540161 12.8455924987793 18.1976280212402 5.49515724182129 3.41614985466003 0.0129120834171772 20.1326808929443 5.90769910812378 11.2691631317139 23.3822975158691 0.387119710445404 11.830638885498 11.3061237335205 11.0457143783569 0.892656445503235 14.2872457504272 0.446598589420319 19.3122081756592 0.970493972301483 5.05715990066528 11.2416667938232 4.52057981491089 6.28171157836914 14.4832258224487 12.6894693374634 12.3218374252319 4.02195405960083 6.92876243591309 6.73949813842773 7.06947088241577 2.95623135566711 18.5747528076172 15.7709112167358 7.67583656311035 6.71290731430054 4.55838489532471 7.96700716018677 9.84007263183594 10.9400930404663 11.5001630783081 11.7316341400146 12.2317876815796 13.6322631835938 12.7288084030151 15.6329011917114 16.0986099243164 16.7070331573486 12.6927890777588 10.6648874282837 10.2834587097168 13.5911245346069 14.5705795288086 13.9657955169678 13.8612051010132 13.7649641036987 13.6784429550171 14.0273675918579 13.1586561203003 15.0039730072021 13.9031429290771 13.6788454055786 13.7923173904419 20.8523921966553 15.4528770446777 17.3112449645996 13.4892120361328 11.4321460723877 9.71548366546631 9.52825355529785 9.67800140380859 9.29126453399658 8.65930843353271 7.54524803161621 7.01109313964844 6.23483276367188 5.85422229766846 6.56407117843628 6.30800104141235 5.48867034912109
27.1931667327881 22.6964454650879 5.92448997497559 0.485491544008255 18.3126525878906 1.77617418766022 2.41444706916809 1.74726259708405 5.10419893264771 2.04223394393921 2.54894185066223 2.52776122093201 2.10685062408447 1.55564987659454 1.2738276720047 1.38544011116028 2.25727295875549 2.18941926956177 2.48356652259827 2.41286110877991 1.66319096088409 2.86615514755249 1.5635267496109 1.52247953414917 1.48272252082825 1.56296646595001 1.5169050693512 1.51521158218384 1.34432053565979 1.71358382701874 1.04890787601471 1.9808863401413 2.72006058692932 3.12963080406189 2.60888409614563 2.68509435653687 2.79789900779724 3.18034791946411 3.35046410560608 1.98340022563934 1.41520965099335 3.17590856552124 2.49057531356812 5.55632209777832 -1.90774571895599 -1.73959720134735 -1.84956800937653 -1.81957674026489 -1.42905843257904 0.505510926246643 0.819485127925873 0.840201139450073 1.18165004253387 0.177158147096634 1.49242031574249 1.99943065643311 2.37534332275391 2.65453290939331 2.25519990921021 1.73485767841339 1.65289902687073 1.85689306259155 1.79872214794159 1.93060326576233 2.3967981338501 2.14275979995728 2.08525109291077 2.52761483192444 2.53797054290771 2.51507258415222 2.31291222572327 20.8552093505859 22.6574249267578 19.6753978729248 6.26113510131836 10.4662370681763 1.95363318920135 1.82762265205383 6.77145719528198 7.30012464523315 6.95059251785278 4.02122974395752 22.8093414306641 31.1052875518799 15.0327110290527 4.80728387832642 3.57450389862061 0.883125305175781 17.9187030792236 2.53260636329651 19.7591419219971 8.07640933990479 17.2492771148682 6.03495311737061 7.26605653762817 10.9493913650513 11.0512409210205 8.23741149902344 9.65907669067383 15.9516630172729 11.3973903656006 0.893516063690186 7.51185369491577 6.17335796356201 5.61222171783447 22.4041481018066 6.66175270080566 11.8007411956787 -0.734279334545135 5.11251020431519 -0.225107938051224 16.0274505615234 2.41047859191895 5.05681562423706 4.95885181427002 2.02446436882019 1.10617303848267 2.55910015106201 0.845894277095795 3.96329164505005 7.05950164794922 26.397123336792 3.38265752792358 3.93383193016052 3.92606449127197 2.65438151359558 14.0376625061035 12.9561862945557 10.9014730453491 3.99542856216431 9.28443336486816 23.8664569854736 9.97402667999268 10.3211154937744 10.8970136642456 10.8937730789185 11.4304065704346 12.3516120910645 11.6563949584961 14.3806295394897 14.3495016098022 14.9252262115479 12.6767168045044 11.3925800323486 9.95469665527344 11.0414361953735 13.4752140045166 12.8896446228027 12.8164691925049 12.5336627960205 12.666111946106 13.2023897171021 12.4650983810425 14.0885448455811 13.3335886001587 13.1251859664917 13.145751953125 13.0991239547729 16.6613750457764 15.9305734634399 12.6524982452393 11.0932197570801 9.429856300354 9.12343597412109 9.1985387802124 8.84907722473145 8.19896221160889 7.37329626083374 6.76214408874512 6.36776351928711 5.69893026351929 6.38477802276611 6.18982315063477 5.35298633575439
17.7957191467285 15.7379388809204 20.8706836700439 -0.554048418998718 14.3073139190674 1.81681346893311 2.27383351325989 1.44312620162964 4.6311149597168 1.9497504234314 1.60451662540436 1.90796875953674 1.84826791286469 1.42520499229431 1.11668992042542 1.1986255645752 2.17782282829285 2.19717264175415 2.46578574180603 2.21131539344788 1.49727261066437 2.73045253753662 1.52467679977417 1.49336516857147 1.45090878009796 1.52119243144989 1.47166085243225 1.45915305614471 1.37712907791138 1.66953241825104 1.04748368263245 0.987728178501129 2.65633535385132 3.06072044372559 2.54081702232361 2.47867441177368 2.699786901474 3.07362365722656 3.24759888648987 1.89923560619354 1.34921562671661 2.93165683746338 2.27832365036011 21.7369499206543 7.93195962905884 17.2539463043213 0.203533321619034 11.1503458023071 -0.0448716022074223 -1.00559759140015 0.711315751075745 0.763058483600616 1.10742366313934 0.123600199818611 1.41336464881897 1.41851758956909 2.23114919662476 2.5118350982666 2.1818540096283 1.56160926818848 1.58659410476685 1.74207317829132 1.70232403278351 1.84441208839417 2.31611061096191 2.09987115859985 2.05178809165955 2.47457408905029 2.23630571365356 2.52017426490784 2.48334527015686 2.05525898933411 16.0609817504883 8.30670356750488 1.43489420413971 7.69397783279419 1.26851761341095 21.4974727630615 -0.27777498960495 4.07610321044922 4.54847431182861 2.23211050033569 8.20341777801514 13.5022916793823 16.9889965057373 0.265511035919189 0.366394996643066 8.39640712738037 1.50108850002289 9.47480297088623 7.98110485076904 4.63046169281006 5.87893486022949 9.36288452148438 3.79052901268005 8.82825660705566 8.53110218048096 7.60318899154663 18.3683280944824 7.90598821640015 7.84848070144653 3.5336766242981 4.26238250732422 0.589623093605042 7.41891670227051 24.3711853027344 32.1708488464355 4.59967136383057 15.453727722168 13.7747011184692 13.9088649749756 4.69401407241821 13.435474395752 2.95122218132019 12.0938320159912 3.70929288864136 6.72322511672974 0.0535154566168785 0.881945669651031 1.36111807823181 3.21850228309631 2.44395780563354 2.35066246986389 3.47782707214355 2.5728440284729 2.58065724372864 1.28710854053497 10.281231880188 4.34440088272095 3.69942378997803 4.25227642059326 4.57473468780518 12.1691951751709 9.1253776550293 10.1690130233765 10.5471515655518 10.6857490539551 11.2889738082886 11.0987167358398 13.3153896331787 12.7547912597656 13.2497501373291 12.1011981964111 10.4185819625854 8.81755352020264 10.3986310958862 11.6140584945679 12.1767654418945 11.8142747879028 11.6560907363892 11.5538311004639 11.7175006866455 11.9432678222656 12.4536209106445 12.8205862045288 12.3985538482666 12.3413486480713 12.3487844467163 14.9020004272461 12.7334680557251 14.0809268951416 11.4353637695312 10.3255596160889 8.98986911773682 8.72186756134033 8.37493324279785 7.82631015777588 7.23422765731812 6.94569301605225 6.4534330368042 5.39372777938843 5.53067874908447 6.17543792724609 5.98126554489136
14.1684198379517 22.6348838806152 15.2955617904663 -1.64641451835632 -1.39213037490845 11.3873195648193 1.52396512031555 2.25295901298523 4.33999443054199 1.30695152282715 1.56147503852844 1.72349989414215 1.8138575553894 1.74833846092224 1.16985511779785 1.13189816474915 1.26048457622528 2.13421988487244 2.33387303352356 2.13863110542297 1.47739994525909 1.50354254245758 2.52567362785339 1.41091644763947 1.4044554233551 1.3651909828186 1.43572676181793 1.40867972373962 1.33053255081177 1.10479176044464 1.55890011787415 0.96268904209137 1.81866300106049 2.50069212913513 2.89750385284424 2.4084312915802 2.58818221092224 2.6523334980011 3.11693120002747 1.64986503124237 1.63416075706482 0.224164128303528 2.6030011177063 19.8280334472656 14.9759902954102 11.7761011123657 19.4351367950439 12.3819704055786 11.7078790664673 -1.45693385601044 -0.940903306007385 0.634158730506897 1.02297806739807 0.0621765740215778 1.34940183162689 1.01096785068512 2.08979415893555 2.37443733215332 2.21268248558044 1.98988425731659 1.46549880504608 1.4845290184021 1.61584067344666 1.65392470359802 2.22305345535278 2.05442762374878 2.02061557769775 2.42154932022095 2.18204164505005 2.44840550422668 2.40662240982056 1.95697152614594 6.94013833999634 20.0631141662598 31.5060577392578 3.98990416526794 30.9513301849365 0.0736551582813263 -1.43036031723022 1.9404011964798 2.22082352638245 2.16075563430786 6.61552572250366 0.319727420806885 -0.500808477401733 0.00847463682293892 22.3119583129883 1.07955431938171 3.79624962806702 3.55066323280334 19.533031463623 3.95881366729736 5.79756259918213 6.06912136077881 2.82885980606079 7.12154912948608 7.45970439910889 6.57104253768921 6.19192790985107 2.90427303314209 8.55993843078613 2.2712779045105 1.85338389873505 4.14422607421875 17.4896697998047 20.0514488220215 5.1562442779541 20.8340892791748 33.4541969299316 35.6972045898438 30.7005863189697 18.8762359619141 10.9661540985107 24.6783180236816 6.34514856338501 1.14468336105347 1.03377187252045 18.8568286895752 7.80960607528687 4.12260770797729 7.85016441345215 5.79581022262573 14.2184619903564 11.0392713546753 4.85158634185791 2.12620186805725 11.2345705032349 7.97687005996704 14.479419708252 4.11855888366699 4.03088569641113 13.1786556243896 6.02725267410278 8.65645790100098 9.83246994018555 10.1256313323975 10.1741638183594 10.4885959625244 10.7470588684082 10.8885402679443 12.2962226867676 11.7929563522339 11.4977998733521 9.73493194580078 8.09989643096924 8.91002464294434 10.8725748062134 11.348819732666 11.0773000717163 10.8568534851074 10.5563440322876 10.622088432312 11.1567029953003 11.2214384078979 12.0478382110596 11.9839572906494 11.8830804824829 11.9044027328491 13.4767227172852 12.2623596191406 13.1875324249268 11.1552867889404 10.2900238037109 8.83074283599854 8.3123025894165 7.93102407455444 7.66510534286499 7.27750968933105 6.72533321380615 6.27557849884033 5.59609460830688 5.41433095932007 6.01416683197021 5.58746385574341
3.67837452888489 8.55260181427002 11.7593936920166 -0.772349119186401 -1.52039432525635 -1.8018012046814 0.662753343582153 1.80214464664459 1.86129081249237 4.01090574264526 1.54191708564758 2.02672410011292 1.91948997974396 1.7350527048111 1.2466413974762 1.16041886806488 1.15485632419586 2.06609749794006 2.0279335975647 2.29581570625305 1.44142770767212 1.46572816371918 2.41298770904541 1.41170704364777 1.3722311258316 1.32801485061646 1.39130258560181 1.33513641357422 1.31054711341858 1.14471244812012 1.51679599285126 0.900653004646301 1.77509319782257 2.442387342453 2.82332515716553 2.31883955001831 2.37451124191284 2.41175317764282 2.73645257949829 2.87952733039856 1.47274005413055 1.0070561170578 2.41415166854858 1.86436522006989 -1.26676571369171 0.523773014545441 5.39490509033203 10.0312843322754 2.10984086990356 -1.67105603218079 -1.10001266002655 0.546863675117493 0.572375953197479 0.972040832042694 0.0385417006909847 1.22959935665131 1.64267873764038 1.97804296016693 2.25402140617371 1.9059374332428 1.37520742416382 1.33066189289093 1.51877844333649 1.51980650424957 1.69010925292969 2.19378066062927 2.05239915847778 2.01289391517639 2.382568359375 2.36920118331909 2.31695222854614 2.11215281486511 5.0462212562561 9.32454204559326 2.08321952819824 13.7334423065186 3.02529406547546 -0.803075194358826 1.12420868873596 -0.887895584106445 1.19305956363678 2.13011384010315 0.0755579248070717 -0.172468140721321 39.1053276062012 33.3316459655762 12.1814594268799 10.6928091049194 19.5432720184326 0.869250535964966 5.7900595664978 7.60289478302002 4.24389934539795 4.08203029632568 2.40684509277344 3.20162725448608 6.08545017242432 5.65067863464355 4.98784255981445 2.38130617141724 4.54953670501709 11.7177791595459 0.342744380235672 23.0142669677734 0.325890511274338 23.5820236206055 35.6421813964844 26.02587890625 31.7110939025879 29.1085262298584 23.3659915924072 25.8708057403564 29.0694828033447 18.590160369873 14.0467567443848 1.65821206569672 0.832195937633514 0.82543408870697 18.3361110687256 24.5602855682373 30.1335868835449 39.7154769897461 14.9331045150757 14.3144330978394 8.1533670425415 15.8305625915527 18.1334095001221 22.1973133087158 8.2584924697876 4.77436923980713 3.408935546875 12.0773954391479 4.50976037979126 5.91258525848389 9.35439300537109 9.79070472717285 9.77004623413086 9.94728565216064 10.2020139694214 10.4976539611816 11.4820652008057 10.8612861633301 10.8261775970459 9.56073570251465 8.58500957489014 8.52023410797119 9.04699420928955 10.6164779663086 10.1962299346924 10.2838258743286 9.90257930755615 9.9182710647583 10.4165468215942 10.1881065368652 11.286208152771 11.4809103012085 11.4266710281372 11.4336280822754 11.1754035949707 11.7438459396362 12.2615060806274 10.7582588195801 9.9443359375 8.61913108825684 8.09970664978027 7.92683935165405 7.55092573165894 7.14038896560669 6.5439920425415 6.09560632705688 5.70309066772461 5.1036491394043 5.10716867446899 4.22240781784058
1.21294140815735 23.0858554840088 10.5296802520752 2.47223615646362 3.39755821228027 11.3062839508057 -2.01068186759949 -0.447242230176926 1.37362742424011 3.80056142807007 1.71617615222931 1.9302054643631 1.66343998908997 1.70566785335541 1.36705613136292 1.02401757240295 1.03087866306305 1.99022603034973 2.01718378067017 2.21378469467163 1.96041584014893 1.28365075588226 2.30807089805603 1.37550628185272 1.33814585208893 1.29091930389404 1.35379076004028 1.28539323806763 1.25876951217651 1.16608047485352 1.47668027877808 0.89947646856308 0.839248657226562 2.38414573669434 2.75144743919373 2.27022099494934 2.19879293441772 2.25185823440552 0.397120356559753 0.724969983100891 -1.45692658424377 0.836765289306641 2.20402669906616 1.68608224391937 45.3992156982422 -2.15883994102478 3.61318397521973 3.66706442832947 2.16349101066589 -1.7846440076828 -1.49509584903717 -0.348296672105789 0.0247324630618095 -1.09007680416107 -1.33814144134521 1.13493692874908 1.16682124137878 1.91200876235962 2.16765880584717 1.87567830085754 1.3067615032196 1.28313851356506 1.44577097892761 1.45252025127411 1.63094365596771 2.13532304763794 1.99904215335846 1.95090842247009 2.29530262947083 2.04727411270142 2.27823948860168 2.23128080368042 1.71691477298737 3.53896999359131 28.314868927002 8.89092445373535 -0.309614211320877 -1.21451330184937 2.17787384986877 17.8255252838135 -0.52879798412323 -0.616436839103699 -0.150916069746017 33.4498443603516 9.11737537384033 22.9302635192871 15.2191200256348 13.0386085510254 4.44822263717651 27.4040546417236 8.14007759094238 6.3230299949646 3.31262063980103 3.04759001731873 1.16933643817902 1.42313158512115 5.52482128143311 5.02796411514282 4.23847675323486 23.2082576751709 7.71334838867188 10.2745180130005 12.0964288711548 0.590726017951965 12.6749229431152 6.47455215454102 9.93892288208008 23.213623046875 21.8778457641602 24.2679424285889 22.7349014282227 19.5117111206055 22.429615020752 21.4439792633057 8.08876514434814 2.25462651252747 10.2972784042358 34.0506324768066 13.861180305481 11.2840003967285 11.4224424362183 11.4754858016968 16.2782249450684 5.56489896774292 36.5953178405762 23.6858558654785 23.1779727935791 24.5233001708984 23.258129119873 18.3103523254395 7.44515466690063 4.05405139923096 16.8724174499512 5.45074129104614 7.40855073928833 9.49183559417725 9.48314762115479 9.55848693847656 9.79104900360107 9.78148937225342 10.7270469665527 10.1144132614136 10.220196723938 9.70126438140869 7.98438549041748 8.15501880645752 8.5704288482666 9.44350337982178 9.75479030609131 9.60459518432617 9.59086513519287 9.08208465576172 9.128981590271 9.74449825286865 10.658579826355 10.9534645080566 10.9230518341064 10.9769506454468 10.7346982955933 10.7454805374146 11.0464925765991 11.026535987854 9.599045753479 8.41390132904053 8.07787322998047 7.70360088348389 7.26440620422363 6.85070943832397 6.44702625274658 6.25961256027222 4.87933015823364 4.4132227897644 4.5200400352478 4.33119249343872
1.73145997524261 2.69860529899597 9.74197578430176 11.295202255249 -2.0954897403717 -1.57779705524445 14.1648931503296 -1.30631196498871 1.38937878608704 3.50176119804382 1.74958682060242 1.4534569978714 1.52000546455383 1.468905210495 1.66257417201996 0.963321626186371 0.909169614315033 1.09244585037231 1.941614985466 2.1286895275116 1.94046330451965 1.35684013366699 2.21678590774536 1.34185206890106 1.24779760837555 1.24112403392792 1.20269644260406 1.24987471103668 1.204106092453 1.11770486831665 0.927720010280609 1.38782775402069 0.822000801563263 1.63359260559082 2.25623035430908 2.59591364860535 2.11932778358459 2.21329355239868 14.2644214630127 0.125817745923996 -0.0990922823548317 1.03506064414978 -0.328996807336807 -1.720618724823 -1.5627555847168 20.394100189209 -1.0796138048172 -0.513401865959167 -0.361328423023224 4.67795372009277 -1.1841287612915 0.438894093036652 0.466073989868164 40.2340126037598 43.9530830383301 1.07973730564117 0.797285437583923 1.83477389812469 2.11190438270569 1.94764518737793 1.74483895301819 1.27291655540466 1.29730677604675 1.41547429561615 1.46362483501434 2.04001235961914 1.92553067207336 1.8840137720108 2.21692800521851 1.97445976734161 2.20181226730347 2.13024139404297 1.6025162935257 2.70428943634033 5.43797206878662 10.5164527893066 -0.352745890617371 -1.94150388240814 0.0685067623853683 15.0569725036621 16.5540180206299 39.8302841186523 24.4828624725342 8.90757656097412 16.6587047576904 15.1533136367798 11.8722610473633 9.66925144195557 0.862993657588959 5.84664440155029 14.3959045410156 5.82336711883545 2.58474898338318 0.89836573600769 1.43362891674042 0.612284779548645 4.00061464309692 4.47853469848633 4.06361818313599 4.82330417633057 10.7413749694824 3.95828771591187 8.6595344543457 0.934725284576416 6.94290399551392 5.09635829925537 11.6475610733032 12.6213579177856 13.2152423858643 19.8401298522949 19.2420139312744 17.5615081787109 18.9301242828369 18.1303215026855 19.0525379180908 26.8977108001709 21.1877670288086 19.2312145233154 27.0182247161865 30.3337669372559 19.4399375915527 9.25846862792969 9.29524230957031 23.5207252502441 21.2489433288574 44.2563552856445 24.0363082885742 19.096809387207 14.7315702438354 12.4929056167603 9.42564392089844 6.17525005340576 4.30117511749268 17.6254291534424 4.87981843948364 6.24097585678101 9.32230758666992 9.27616024017334 9.39313697814941 9.52431678771973 9.77173900604248 9.89833164215088 9.66991901397705 9.15436172485352 7.78750324249268 6.63010406494141 7.83206653594971 8.935471534729 9.19448184967041 9.09080028533936 9.12787914276123 8.89938735961914 8.59998416900635 9.30987739562988 10.187198638916 10.48655128479 10.1958608627319 10.3209743499756 10.3691205978394 10.2014541625977 10.5521183013916 10.2793750762939 9.22254371643066 8.88141822814941 8.02450084686279 7.52536106109619 7.08934164047241 6.79215335845947 6.39269542694092 6.02512073516846 22.4812088012695 4.31679534912109 4.47497415542603 15.3972139358521
1.61533439159393 2.25652003288269 7.83945941925049 44.4531326293945 18.2542591094971 14.8544111251831 5.21836566925049 10.4807214736938 -0.602685749530792 0.744820356369019 3.40828442573547 1.46098339557648 1.45461773872375 1.35518598556519 1.63768708705902 0.914608657360077 0.826135396957397 0.981107175350189 1.8655686378479 1.83864450454712 2.08761501312256 1.34873735904694 1.33537340164185 2.04892230033875 1.25325846672058 1.20378243923187 1.16092705726624 1.19920611381531 1.12921023368835 1.12951385974884 0.974968016147614 1.35774445533752 0.784114360809326 1.62243044376373 2.21364736557007 2.53724694252014 2.05744171142578 2.08571195602417 4.39788818359375 13.0661430358887 0.467839449644089 12.3824396133423 37.5513496398926 48.1578598022461 20.3987197875977 -1.9506311416626 1.96362030506134 4.28617286682129 6.06864261627197 8.92448234558105 8.59200191497803 7.62764072418213 0.439399898052216 -0.0224217288196087 20.2705574035645 23.2817077636719 1.055703997612 1.42632913589478 1.74849486351013 2.05190420150757 1.71905207633972 1.22214782238007 1.17524290084839 1.34946596622467 1.36149334907532 1.55461919307709 2.02585577964783 1.87501394748688 1.81676244735718 2.12754487991333 2.09652853012085 2.02862882614136 1.81984007358551 2.0625171661377 4.25142812728882 1.06769597530365 12.2924003601074 40.1938781738281 14.4384241104126 27.3507480621338 31.4848613739014 24.1262989044189 27.9585056304932 29.4161243438721 11.0408477783203 12.2253112792969 9.90367126464844 2.1149218082428 22.7140712738037 4.76221942901611 9.93171787261963 2.65139961242676 1.18588984012604 9.71394443511963 1.32223987579346 0.556252062320709 1.02441895008087 4.51135969161987 4.03763294219971 3.64756274223328 13.7156200408936 15.9212684631348 5.14003133773804 20.6896991729736 30.2163887023926 3.67160558700562 15.1527452468872 32.6509857177734 39.0027770996094 15.5291290283203 17.278377532959 14.3692312240601 16.3430137634277 16.9654922485352 19.5124492645264 18.665283203125 24.9658794403076 38.9628791809082 20.7979049682617 21.5397624969482 8.10140800476074 6.92396640777588 14.0781621932983 22.9912948608398 17.8674201965332 20.0140190124512 21.5396060943604 11.9649381637573 12.6065483093262 7.38286972045898 6.00860261917114 3.40336084365845 15.2958850860596 13.9419984817505 25.8155517578125 17.0257015228271 6.35270023345947 9.04553508758545 9.03561878204346 9.2169075012207 9.45220756530762 9.34301567077637 8.92100048065186 9.03736877441406 7.63654136657715 6.84356641769409 7.41326141357422 7.95604658126831 8.70381450653076 8.65019035339355 8.71983909606934 8.54786205291748 8.19569206237793 8.77897644042969 9.11360645294189 9.6189603805542 9.8934497833252 9.90741729736328 9.96270656585693 9.75745868682861 10.092230796814 9.58281135559082 9.33648490905762 8.66592025756836 7.72551679611206 7.266197681427 7.10687446594238 6.69171762466431 6.31743001937866 5.74833536148071 4.9251275062561 4.28804779052734 4.0862340927124 4.43042039871216
