NCOLS 171
NROWS 32
XLLCORNER 354016
YLLCORNER 6701216
CELLSIZE 16 
NODATA_value -3.4e+38 
8.84310436248779 10.1310939788818 2.84241223335266 2.54210162162781 2.53602886199951 2.1152491569519 2.95762181282043 2.74939274787903 3.40205550193787 3.02872228622437 1.9282568693161 1.77258086204529 1.76151657104492 2.19992518424988 6.21450138092041 9.63871002197266 9.85583972930908 9.63242053985596 9.49952983856201 8.20726013183594 7.77326631546021 7.4825873374939 6.90328598022461 6.26462507247925 5.65867185592651 5.24124431610107 4.31013679504395 3.32673335075378 2.10603094100952 1.1654851436615 0.765139639377594 2.78411412239075 1.73092615604401 2.52840733528137 5.58946895599365 7.99301958084106 6.77273511886597 5.97217702865601 6.11901807785034 8.18608856201172 12.6815319061279 12.2221450805664 9.2995023727417 8.21320343017578 7.07363605499268 5.59264183044434 3.44484400749207 2.28392815589905 0.807846486568451 0.916022717952728 1.07334005832672 1.29377925395966 2.96144986152649 1.87541878223419 2.08554816246033 2.14099359512329 2.06139349937439 1.98713481426239 1.83116030693054 1.91232240200043 2.32779407501221 4.40640449523926 6.80910062789917 7.71916627883911 8.14372158050537 11.4306735992432 16.957935333252 15.6177949905396 15.4232511520386 14.4778242111206 13.4145965576172 12.0753717422485 11.8488874435425 14.2290315628052 15.6950740814209 16.0881233215332 15.6930541992188 13.9475860595703 12.8669271469116 10.2824926376343 7.91777563095093 6.54729986190796 5.64426565170288 5.19659996032715 5.08790159225464 4.51784133911133 3.4628598690033 2.65152049064636 2.25176453590393 1.8837503194809 1.71171367168427 1.63191390037537 1.66079413890839 1.64000463485718 1.43603920936584 1.10302078723907 1.74892282485962 3.24188542366028 3.89734578132629 4.44660329818726 4.61640548706055 4.72786235809326 4.7668604850769 4.88263988494873 4.87375211715698 4.64620161056519 4.21460247039795 2.99593210220337 1.74962401390076 1.067995429039 0.520296335220337 0.381259173154831 0.424519807100296 1.6406409740448 6.29194688796997 7.73655986785889 7.7697868347168 7.19741678237915 5.00262546539307 3.40791797637939 2.85148692131042 3.12651300430298 3.74473261833191 4.85917520523071 5.58815240859985 5.86059951782227 5.50141048431396 4.76837873458862 4.45743751525879 6.13202381134033 4.12046051025391 3.19680595397949 2.85635423660278 2.58681988716125 2.40940833091736 2.05727767944336 1.67776989936829 1.10923981666565 0.926074922084808 1.06052386760712 1.14050149917603 1.2529364824295 1.40889692306519 1.80556178092957 2.05736517906189 2.11950659751892 2.16009306907654 2.24760031700134 2.27941513061523 2.23337006568909 2.124671459198 1.87138628959656 1.75692224502563 2.42222571372986 2.83145976066589 3.22387623786926 3.58003926277161 3.73558259010315 3.73658633232117 3.44659900665283 3.42104172706604 2.85185551643372 2.43800210952759 1.70503807067871 1.31256341934204 0.877572536468506 0.648014843463898 0.591682016849518 0.596701085567474 0.638241827487946 0.659688949584961
7.2796950340271 12.5292043685913 11.9787359237671 4.94023609161377 4.10043096542358 3.50458383560181 3.96219658851624 3.41924643516541 3.93949341773987 3.14087748527527 1.85752642154694 1.76566112041473 2.45670580863953 4.50954580307007 8.078049659729 8.26512622833252 8.56806182861328 8.59131717681885 8.11389064788818 6.20317506790161 6.00146913528442 6.82020854949951 6.39805459976196 5.66025066375732 5.20991802215576 4.50410413742065 3.79403042793274 3.10363221168518 2.13591480255127 1.31206870079041 3.40542340278625 4.65993547439575 4.96759748458862 6.27347278594971 6.68933534622192 8.41541767120361 5.54617071151733 7.54451370239258 11.4508953094482 10.901104927063 11.9218721389771 9.64916133880615 8.0239372253418 6.67378902435303 4.91060590744019 2.83505725860596 2.02255725860596 1.22141098976135 0.682196736335754 0.845214784145355 1.0302859544754 3.3189160823822 5.00212049484253 1.75924587249756 1.88997745513916 1.90228760242462 1.90819025039673 1.89500153064728 1.81169974803925 3.31865167617798 4.43078088760376 5.14189577102661 5.31513452529907 6.41695356369019 7.71029233932495 9.90319919586182 12.0377883911133 12.6311836242676 11.5860977172852 11.4940719604492 11.9047136306763 11.3658514022827 10.5240354537964 12.6093711853027 13.904167175293 14.1537704467773 13.9681797027588 13.2430934906006 12.4493789672852 10.083833694458 7.84388732910156 6.41998386383057 5.45801687240601 5.00565767288208 4.90606498718262 4.27766704559326 3.74545359611511 3.08366703987122 2.4307427406311 1.74416720867157 1.62739479541779 1.56582605838776 1.58898723125458 1.61536514759064 1.45738899707794 1.19547581672668 1.18021535873413 2.31597828865051 3.43787550926208 4.26844263076782 4.43025827407837 4.38908910751343 4.49057292938232 4.5283317565918 4.64168882369995 4.63253879547119 4.33710479736328 3.12834072113037 2.40181708335876 1.35033452510834 0.522052943706512 0.366985410451889 0.399330496788025 1.25299429893494 4.96474695205688 5.96285915374756 6.04853582382202 5.58147430419922 4.2847580909729 3.67528653144836 2.62779593467712 2.64295697212219 3.10750389099121 3.82579874992371 4.53890371322632 4.65079116821289 4.77774000167847 4.53778886795044 3.8406503200531 3.50162386894226 3.65674614906311 2.90661191940308 2.62424445152283 2.52231907844543 2.25571084022522 1.97814333438873 1.78591477870941 1.42930996417999 0.839593946933746 0.926258623600006 1.02173054218292 1.16319596767426 1.3012729883194 1.76953387260437 1.9352285861969 2.02822327613831 2.08059310913086 2.18417000770569 2.27404546737671 2.23184323310852 2.11685180664062 1.97641599178314 2.28449773788452 3.03643798828125 3.16455173492432 3.07271003723145 3.50756406784058 3.66184663772583 3.52505707740784 3.55878949165344 3.18357062339783 2.53614473342896 2.59518265724182 1.66365528106689 1.29488158226013 1.02182722091675 0.747264981269836 0.553680002689362 1.00203680992126 0.592666327953339 0.641761362552643
11.951961517334 15.1482982635498 19.6373500823975 12.3899984359741 9.70616436004639 7.28952074050903 6.59369277954102 5.06883955001831 4.35089302062988 3.48357367515564 1.9031355381012 2.24928188323975 6.08922481536865 6.6390233039856 9.16237449645996 7.57569980621338 7.59229278564453 7.54988193511963 7.12061882019043 7.13798189163208 5.87250185012817 6.09504413604736 5.74529457092285 5.38058757781982 4.61948204040527 3.64646530151367 3.25982451438904 2.87961649894714 2.31524753570557 2.88808751106262 5.39701509475708 7.29243659973145 10.7135581970215 11.7734298706055 10.5910167694092 9.09214878082275 8.20020866394043 8.4707498550415 11.748556137085 13.0696334838867 11.8752412796021 9.16699600219727 7.62487268447876 5.20621681213379 3.21680545806885 1.80924391746521 1.20558512210846 1.10442733764648 0.606787979602814 0.731218278408051 0.910602927207947 3.39288735389709 5.09682989120483 2.01146411895752 1.80143320560455 1.892258644104 3.04233646392822 4.53835248947144 7.79605531692505 6.76187372207642 7.69206523895264 5.70245838165283 6.09314966201782 6.18769884109497 7.54121112823486 8.1326208114624 8.95586204528809 10.7292900085449 10.3994312286377 10.6303148269653 10.745231628418 10.5566091537476 9.47725772857666 9.89860057830811 11.7160749435425 12.5252065658569 12.6777076721191 12.3957004547119 11.2720260620117 10.1960020065308 7.67109870910645 6.31635999679565 5.36059236526489 4.88328170776367 4.66183567047119 4.17886400222778 3.79310464859009 3.00947451591492 2.31376171112061 1.70026183128357 1.53498220443726 1.46995568275452 1.47826659679413 1.42417442798615 1.33508861064911 1.15044677257538 0.92436945438385 2.22400760650635 3.3029944896698 3.92553353309631 4.07979488372803 4.2298436164856 4.32968664169312 4.36638259887695 4.47344017028809 4.46117448806763 4.17671537399292 3.52666711807251 2.59104752540588 1.44716143608093 0.619667530059814 0.427376210689545 0.367557197809219 0.521216928958893 3.19679617881775 4.31755208969116 4.58048868179321 4.5993185043335 4.27862071990967 3.11429357528687 2.24830937385559 2.29778552055359 2.61906218528748 3.38066601753235 3.96128630638123 4.13120317459106 4.20174026489258 3.98390483856201 3.40490078926086 2.88904213905334 2.81240677833557 2.42998695373535 2.29209303855896 2.19194531440735 2.00176644325256 1.89706063270569 1.69353032112122 1.39815509319305 0.930441558361053 0.809102356433868 0.898683965206146 1.10341811180115 1.27180695533752 1.51915097236633 1.79728722572327 1.97690510749817 2.05887770652771 2.16777729988098 2.27249264717102 2.22929358482361 2.16310453414917 2.09944653511047 2.12301182746887 3.139315366745 4.3395357131958 4.34289026260376 3.42182588577271 3.62224984169006 3.51583385467529 3.2852418422699 2.95215702056885 2.55918431282043 2.39523029327393 1.56955111026764 1.28303503990173 1.05662107467651 0.807776927947998 1.64529538154602 0.515911638736725 0.532015860080719 0.606036901473999
5.674635887146 8.36905002593994 11.6433420181274 17.7747116088867 12.73450756073 9.96816539764404 7.99605083465576 6.40458965301514 5.419273853302 3.38675093650818 2.17721915245056 1.89744293689728 4.85236310958862 8.83058547973633 9.58936500549316 6.21645784378052 6.71584749221802 6.39199447631836 6.46710634231567 6.08070516586304 5.6557788848877 5.5699896812439 5.36992120742798 4.99275970458984 4.26767110824585 3.57753872871399 3.16660499572754 2.93406558036804 3.03874015808105 4.78028249740601 5.17548274993896 6.36788272857666 6.83630609512329 9.50131702423096 10.2166318893433 9.43454456329346 7.60843753814697 10.0432071685791 11.7976894378662 11.8777074813843 9.69363117218018 8.1321439743042 6.32632684707642 4.13823890686035 2.22141432762146 1.35772287845612 1.10633361339569 1.08924210071564 1.0939267873764 1.93111908435822 2.69817996025085 4.02631044387817 4.33480882644653 1.98476779460907 1.76720595359802 5.21786165237427 8.37942504882812 11.5191659927368 10.5762596130371 12.8514490127563 12.5204563140869 13.8007621765137 12.0476427078247 9.40400886535645 8.18629169464111 7.40012693405151 8.00284099578857 9.2096118927002 9.71862697601318 10.0624380111694 10.4069786071777 9.87974548339844 8.79653167724609 8.9289083480835 10.539270401001 11.243504524231 11.3720693588257 11.1388692855835 10.3332490921021 9.761549949646 7.77550792694092 6.38306713104248 5.26489114761353 4.73788547515869 4.44316387176514 4.23092412948608 3.82423996925354 2.89532709121704 2.27616047859192 1.93826162815094 1.47753870487213 1.3345308303833 1.34263753890991 1.31885981559753 1.26354134082794 1.10330319404602 0.966951549053192 1.52101922035217 2.81993007659912 3.38771080970764 3.91018390655518 4.07973480224609 4.17502546310425 4.20588064193726 4.29889154434204 4.29153251647949 4.11122989654541 3.75676488876343 2.69115686416626 1.56228578090668 0.966334164142609 0.456191807985306 0.336289882659912 0.37407985329628 0.799994885921478 3.2398521900177 3.88641285896301 3.96601891517639 3.65040159225464 2.75215864181519 1.91664755344391 1.82643830776215 1.98830449581146 2.41082239151001 3.01807284355164 3.46881318092346 3.64305782318115 3.53638005256653 3.36067414283752 2.89183163642883 2.31647253036499 2.08298540115356 1.97673535346985 1.9082750082016 1.84272956848145 1.70481908321381 1.54244923591614 1.23206496238708 0.830679357051849 0.715802729129791 0.781043291091919 1.02035117149353 1.17354965209961 1.29583489894867 1.71068561077118 1.96992897987366 2.22653102874756 2.14947605133057 2.19875979423523 2.24966382980347 2.20328330993652 2.07353782653809 1.84563887119293 1.75403368473053 2.41073846817017 2.83553051948547 3.17194557189941 3.45743131637573 3.52191615104675 3.08006930351257 2.7155601978302 2.62535667419434 2.21543860435486 1.89979183673859 1.31199073791504 1.0585458278656 0.772722721099854 0.515411138534546 0.414739906787872 0.459736078977585 0.550523996353149
2.32688546180725 3.21207475662231 6.33247947692871 9.72262191772461 9.88597774505615 7.79880046844482 6.20201921463013 5.06394195556641 4.94978380203247 3.41309833526611 2.2364284992218 5.56399250030518 6.51978349685669 7.76757526397705 7.43490934371948 5.84065198898315 5.468092918396 5.78247261047363 5.81694555282593 5.4845757484436 5.15807723999023 4.95063877105713 4.93684673309326 4.45222282409668 4.11441373825073 4.41795110702515 5.29152393341064 4.01606369018555 5.3386812210083 4.33624887466431 3.87311816215515 4.04500532150269 3.99207592010498 6.05341196060181 7.80055618286133 7.8289041519165 7.58960247039795 9.48218154907227 11.0335025787354 10.014796257019 8.59592437744141 6.84858322143555 5.5461540222168 3.39961194992065 1.87754774093628 1.38920760154724 1.19357776641846 0.962563037872314 0.599601805210114 1.34560108184814 5.36545562744141 6.40814924240112 4.40409708023071 2.66276550292969 3.82636547088623 10.9728803634644 13.8313035964966 13.7306699752808 13.4711256027222 13.7647705078125 15.0160255432129 15.0677032470703 15.3708505630493 12.3724174499512 8.90655994415283 7.04485321044922 7.50003099441528 8.55387020111084 8.85876083374023 8.95459651947021 9.54982662200928 9.00868511199951 8.20085716247559 7.65431070327759 8.90481090545654 9.72653579711914 10.1340446472168 10.2071113586426 9.79867649078369 9.20988464355469 8.00910663604736 6.17415285110474 5.06865262985229 4.4884090423584 4.1964225769043 4.13673162460327 3.61650562286377 3.23605060577393 2.64681649208069 2.00586819648743 1.3787682056427 1.23938798904419 1.22314989566803 1.205690741539 1.14075553417206 1.04046654701233 0.92400723695755 1.04384934902191 2.03491473197937 3.02985143661499 3.77572226524353 3.91486763954163 3.90291213989258 3.99058246612549 4.00989484786987 4.10228586196899 4.09790992736816 3.84560370445251 2.81423544883728 2.19124317169189 1.21996426582336 0.470527410507202 0.333671420812607 0.326923012733459 0.61071789264679 2.78758454322815 3.38454985618591 3.45130085945129 3.17083692550659 2.72163653373718 2.29370522499084 1.64261090755463 1.77760803699493 2.17773151397705 2.79941201210022 3.08731365203857 3.19242167472839 3.1885302066803 3.02714347839355 2.60859394073486 2.12196850776672 1.89619016647339 1.74214208126068 1.68867886066437 1.66008591651917 1.54506468772888 1.45647311210632 1.30800831317902 1.05305528640747 0.669452428817749 0.707361996173859 0.861136019229889 1.02867567539215 1.20521402359009 1.68539214134216 1.86479103565216 1.95793044567108 2.00385069847107 2.06526875495911 2.1596691608429 2.14554452896118 1.9953533411026 1.80815064907074 1.62551736831665 2.07247829437256 2.59417200088501 2.97788286209106 3.34717750549316 3.39802098274231 3.14764523506165 2.77684617042542 2.40793609619141 1.98031425476074 2.01376819610596 1.424760222435 0.96573543548584 0.722586214542389 0.548884987831116 0.413406550884247 0.383566081523895 0.471176952123642
8.96102333068848 7.58247566223145 5.45931768417358 7.18772315979004 7.52521133422852 5.30342483520508 4.17092561721802 3.47543168067932 2.38317942619324 1.57337164878845 1.03329253196716 0.913307845592499 1.4502387046814 2.61975193023682 4.27442073822021 4.55320310592651 4.56643295288086 5.03987550735474 5.16529321670532 4.83557987213135 4.70375490188599 4.42326879501343 4.38565731048584 4.09615564346313 3.84391903877258 3.41467261314392 3.2095091342926 3.02833390235901 2.83794283866882 3.16099715232849 2.79369974136353 2.35823106765747 1.86733996868134 3.59533882141113 5.5733699798584 6.84847927093506 7.06964874267578 8.15059280395508 9.65510272979736 9.01318836212158 7.48739910125732 5.18694162368774 3.06250667572021 2.30501341819763 1.70255100727081 1.24598121643066 1.13121914863586 2.72597360610962 4.22616195678711 3.95630264282227 5.17868995666504 7.55181884765625 5.20407772064209 4.03172254562378 3.48602032661438 9.32927513122559 12.0696859359741 12.783655166626 13.2907295227051 14.7967262268066 14.8064966201782 14.2987260818481 13.414701461792 10.1164417266846 7.17251586914062 6.65652084350586 6.68733692169189 6.88818550109863 7.82872915267944 8.24027347564697 8.80100917816162 8.6259241104126 8.13431739807129 7.02082109451294 7.29216575622559 8.53995418548584 9.05702877044678 9.13168621063232 8.81631278991699 8.27414894104004 7.90891075134277 5.894700050354 5.08316278457642 4.32721090316772 4.02451801300049 3.94096374511719 3.59319043159485 3.27673506736755 2.54313206672668 1.90759575366974 1.38676452636719 1.16505312919617 1.10581839084625 1.12149882316589 1.08039903640747 0.97925192117691 0.870027422904968 0.761635065078735 1.96390533447266 2.91676259040833 3.47256135940552 3.60865354537964 3.77626967430115 3.86149668693542 3.88627028465271 3.97742962837219 3.97450971603394 3.72568798065186 3.1600866317749 2.40608263015747 1.28810787200928 0.558986783027649 0.377486526966095 0.326320469379425 0.430762946605682 1.76607418060303 2.39287757873535 2.88607144355774 2.93728041648865 2.69613170623779 2.07143616676331 1.48329257965088 1.61921167373657 1.8799911737442 2.48411202430725 2.80872654914856 2.90523791313171 2.88847398757935 2.75129389762878 2.37006783485413 1.98383116722107 1.70649802684784 1.56767547130585 1.52846896648407 1.50019121170044 1.41642868518829 1.3585729598999 1.22563147544861 0.980207800865173 0.623082339763641 0.658948242664337 0.738321721553802 0.894673228263855 1.07592809200287 1.47020208835602 1.71527493000031 1.82450044155121 1.90856850147247 1.88170897960663 1.90817415714264 1.8820161819458 1.78529930114746 1.59604871273041 1.41273283958435 1.89894127845764 2.48485112190247 2.83275532722473 3.09308958053589 3.27670311927795 3.16911125183105 2.6816725730896 2.46990132331848 2.12365245819092 1.90208506584167 1.38734591007233 1.04851460456848 0.845919609069824 0.6182781457901 0.412425458431244 0.329530000686646 0.386259943246841
3.94319653511047 11.1144456863403 6.28750944137573 4.65489387512207 5.92334032058716 4.72097873687744 3.57886457443237 2.54261827468872 1.97907173633575 1.32366824150085 0.850691020488739 0.579898595809937 0.938908517360687 1.25780045986176 1.63417184352875 1.94159483909607 1.99179530143738 2.06308031082153 2.80872321128845 3.23404741287231 3.55552625656128 3.50256538391113 3.55652570724487 3.5667245388031 3.30635523796082 3.04708504676819 2.78796792030334 2.52180051803589 2.44564533233643 2.22952628135681 1.85052704811096 0.968854188919067 1.61645579338074 2.72486329078674 4.34224557876587 5.79443025588989 6.74307107925415 7.48249053955078 8.51165008544922 7.36227798461914 5.64946508407593 3.55931115150452 2.15015149116516 1.76070964336395 1.36155986785889 1.1391749382019 1.09537065029144 2.14056324958801 3.78219175338745 5.02193307876587 6.26534461975098 7.60073041915894 8.98232173919678 9.85774230957031 11.5611295700073 10.9841928482056 11.4370403289795 12.8054857254028 13.13161277771 14.1779651641846 13.2506294250488 12.1162338256836 10.831859588623 9.21555042266846 6.81121015548706 5.98202323913574 6.15866756439209 6.3961706161499 7.31338357925415 7.64478063583374 7.89128637313843 8.20839977264404 7.57390594482422 6.45933818817139 6.66959524154663 7.78865146636963 8.18819999694824 8.19674301147461 8.16269397735596 7.77861261367798 7.38294696807861 5.85465669631958 5.08141088485718 4.18479585647583 3.86109566688538 3.74106335639954 3.63451194763184 3.25874614715576 2.44133615493774 1.92374122142792 1.62392687797546 1.2415429353714 1.03694295883179 0.975366115570068 0.983295798301697 0.933295845985413 0.837541162967682 0.734081208705902 1.34526395797729 2.49249768257141 2.99290800094604 3.49388003349304 3.65845251083374 3.73750877380371 3.76590013504028 3.85208797454834 3.83560824394226 3.71668863296509 3.38938999176025 2.43497061729431 1.4155513048172 0.874051690101624 0.410239219665527 0.296894907951355 0.341381877660751 0.476220071315765 2.10261535644531 2.60063171386719 2.64620208740234 2.38913345336914 1.88521265983582 1.33388733863831 1.29990243911743 1.46461868286133 1.88837778568268 2.31074285507202 2.50468420982361 2.59466075897217 2.58646249771118 2.45600199699402 2.12052774429321 1.69414138793945 1.45411944389343 1.38269174098969 1.33474600315094 1.32345712184906 1.2684850692749 1.12833797931671 0.873573303222656 0.57607626914978 0.606945931911469 0.67461633682251 0.758280992507935 0.870133697986603 1.17402482032776 1.51174557209015 1.66918206214905 1.77268445491791 1.77397477626801 1.65043616294861 1.55338704586029 1.44797503948212 1.32272481918335 1.25716280937195 1.60153925418854 2.17055463790894 2.54673004150391 2.83390283584595 3.09539747238159 3.13512396812439 2.73143935203552 2.37904119491577 2.07086944580078 1.8152242898941 1.59698641300201 1.22798919677734 0.874163448810577 0.654719352722168 0.483173012733459 0.311503291130066 0.32057049870491
-0.45633402466774 4.87362766265869 11.6349287033081 5.86083936691284 4.99571752548218 4.13302707672119 3.42203736305237 2.61579561233521 1.90478110313416 1.29404902458191 0.8111771941185 0.37652051448822 0.566649436950684 0.894105613231659 1.28328061103821 1.37069058418274 1.02469849586487 1.08882892131805 1.27593088150024 1.42474353313446 1.89092445373535 2.18370842933655 2.31100583076477 2.18107581138611 1.91869556903839 1.9299910068512 1.96752035617828 1.91572177410126 1.98062348365784 1.93153882026672 1.41824615001678 1.00751578807831 3.83583045005798 2.79002118110657 4.3837513923645 5.13783311843872 6.60488128662109 7.89084768295288 7.15354490280151 6.23950338363647 5.29671335220337 3.4541711807251 2.24245595932007 1.57185328006744 1.05438995361328 0.762521922588348 0.6432244181633 0.94009006023407 2.43164396286011 4.25848770141602 5.83253812789917 8.88427639007568 10.5358085632324 13.7519407272339 15.7659673690796 15.2804098129272 12.2591419219971 12.7138547897339 13.2231035232544 12.5288066864014 11.7044763565063 10.8518304824829 9.56243419647217 8.56872653961182 6.44653129577637 5.39125680923462 5.77329730987549 5.92277669906616 6.70847702026367 6.98304414749146 7.23057985305786 7.64618825912476 7.06522369384766 6.49999856948853 5.8851203918457 6.69326400756836 7.16599178314209 7.51347017288208 7.51500940322876 7.24726343154907 6.85660696029663 6.32236003875732 4.85162305831909 3.96885657310486 3.66265940666199 3.54922962188721 3.55256509780884 3.11358380317688 2.78318452835083 2.2785279750824 1.76739859580994 1.22832143306732 0.992634415626526 0.900877177715302 0.882067322731018 0.871954202651978 0.799383878707886 0.696263313293457 0.93459939956665 1.81921899318695 2.71669244766235 3.38435435295105 3.50921702384949 3.50609874725342 3.58891177177429 3.61089968681335 3.6918580532074 3.69489860534668 3.46298933029175 2.54917907714844 1.94620215892792 1.10595607757568 0.424747049808502 0.3022281229496 0.300016492605209 0.442268311977386 1.93818032741547 2.33978176116943 2.39555764198303 2.16799378395081 1.93923664093018 1.71619486808777 1.23290801048279 1.36235213279724 1.76684629917145 2.15034317970276 2.31662750244141 2.39823484420776 2.38968253135681 2.27208518981934 1.9579873085022 1.57235467433929 1.3947479724884 1.27362942695618 1.25096702575684 1.22828686237335 1.18280732631683 1.14158701896667 0.924217581748962 0.739899337291718 0.56252783536911 0.579618990421295 0.655343234539032 0.73686271905899 0.904484689235687 1.22674286365509 1.47006678581238 1.56025040149689 1.53527784347534 1.44040381908417 1.30613696575165 1.20328974723816 1.08047914505005 1.15326929092407 1.47057783603668 1.87574338912964 2.34741020202637 2.68179726600647 2.99855875968933 3.0364933013916 2.79695463180542 2.47293782234192 2.02739882469177 1.74763667583466 1.68754839897156 1.21705996990204 0.931296229362488 0.674549520015717 0.770794987678528 0.348734349012375 0.281565994024277
-1.13410627841949 1.3024115562439 7.54837989807129 14.3073024749756 6.66785478591919 4.13561153411865 3.38251972198486 2.78460144996643 1.65023803710938 1.28831100463867 0.872343957424164 0.352737843990326 0.350130677223206 0.594911873340607 1.03778719902039 1.00945425033569 0.80782824754715 0.864905297756195 0.989726960659027 1.13396954536438 1.26308310031891 1.30574548244476 1.2353253364563 1.25313329696655 1.04917931556702 0.757568359375 0.845791399478912 1.24577367305756 1.52018880844116 1.62700057029724 1.39084625244141 2.80763578414917 5.2301082611084 9.1304349899292 8.53670215606689 9.17908096313477 9.10587215423584 7.24651575088501 6.12168598175049 5.83278608322144 5.11866092681885 6.06004858016968 4.75097990036011 1.76485431194305 0.958609521389008 0.659882843494415 0.502848744392395 0.789697647094727 2.23837637901306 5.92855596542358 11.4124689102173 15.3766622543335 12.2973289489746 14.8659343719482 15.2281589508057 15.586030960083 13.8484745025635 12.0569791793823 11.8750629425049 11.1187705993652 10.2070150375366 9.34869194030762 8.18762397766113 7.3075737953186 5.63096714019775 5.01387977600098 5.42089748382568 5.51112461090088 5.61186838150024 6.36299324035645 6.79564476013184 7.17133903503418 7.01659488677979 6.56849431991577 5.63699436187744 5.88157510757446 6.68405628204346 6.96318340301514 6.91485214233398 6.66417217254639 6.47258853912354 6.2206597328186 4.5851583480835 3.84338092803955 3.41192436218262 3.3933744430542 3.38780045509338 3.13107442855835 2.85622644424438 2.24744606018066 1.70792126655579 1.24884510040283 0.952071189880371 2.50381398200989 0.866003453731537 0.825567483901978 0.766901969909668 0.655349910259247 0.657740652561188 1.75134611129761 2.61166453361511 3.11106824874878 3.24677062034607 3.40471243858337 3.48290514945984 3.50918507575989 3.59277892112732 3.58932089805603 3.36353588104248 2.85790801048279 2.14147472381592 1.17574334144592 0.511611640453339 0.345797210931778 0.298103153705597 0.392532140016556 1.21003389358521 1.68853485584259 2.06879591941833 2.06940317153931 1.95071804523468 1.56037402153015 1.15551590919495 1.26963305473328 1.50149655342102 1.91465771198273 2.15547204017639 2.24266505241394 2.2301390171051 2.10483431816101 1.82224988937378 1.55439233779907 1.28556299209595 1.16039741039276 1.14415454864502 1.14167082309723 1.09383082389832 1.02556085586548 0.860061943531036 0.702753305435181 0.519975066184998 0.514699041843414 0.564309418201447 0.637962698936462 0.713702857494354 0.880893766880035 1.19398844242096 1.27254855632782 1.23056149482727 1.17039048671722 1.05738687515259 0.929402053356171 0.922135651111603 1.04934573173523 1.23796379566193 1.70619487762451 2.22801542282104 2.54270839691162 2.77547717094421 2.93289852142334 2.85493159294128 2.40316128730774 2.21203970909119 1.91406619548798 1.62720704078674 1.1762855052948 0.903097927570343 0.752908110618591 0.574325025081635 1.56132256984711 0.243231728672981
-1.56290113925934 -1.4100353717804 1.76435220241547 10.61669921875 15.9652910232544 11.1674156188965 9.26142024993896 2.66423869132996 3.11057782173157 4.48801374435425 1.33920216560364 0.464314103126526 1.64993607997894 0.554497957229614 0.885724246501923 2.55312728881836 0.797624289989471 0.719716966152191 0.85477089881897 0.96161687374115 1.10235810279846 0.998703598976135 0.715288579463959 0.89752334356308 0.674562931060791 0.370955526828766 0.500212252140045 0.732729434967041 0.976730048656464 1.14461863040924 1.37005054950714 1.23687624931335 3.89411997795105 5.35637187957764 8.07115077972412 10.3314847946167 10.0286359786987 6.61084938049316 5.94345331192017 5.43236398696899 4.92518663406372 4.33910083770752 4.66794157028198 3.73099493980408 4.57530164718628 4.78918123245239 2.59511637687683 2.7968225479126 4.96267461776733 11.0105285644531 13.7657852172852 16.9105262756348 14.3258676528931 14.3128824234009 13.8968305587769 13.4702110290527 11.2017688751221 10.4496049880981 10.3156862258911 9.81080341339111 8.9861536026001 8.44304370880127 7.8151330947876 6.90248250961304 6.08429861068726 4.68053960800171 4.81201267242432 5.12485456466675 5.29076528549194 5.99509763717651 6.29791975021362 6.40753173828125 6.73138618469238 6.21326351165771 5.30911636352539 5.4634804725647 6.30137157440186 6.56777572631836 6.477942943573 6.50678539276123 6.15917301177979 5.79550695419312 4.51920509338379 3.81320834159851 3.32675647735596 3.22767901420593 3.20680689811707 3.1650562286377 2.84966850280762 2.16802382469177 1.74432849884033 1.45996165275574 1.12250697612762 0.892457127571106 1.49040806293488 0.831788122653961 0.72985976934433 0.593212783336639 0.524455904960632 1.18148839473724 2.21942830085754 2.67452239990234 3.14719486236572 3.30795478820801 3.38433790206909 3.41127157211304 3.49274015426636 3.48362278938293 3.377121925354 3.03703689575195 2.18475866317749 1.31456279754639 0.794876217842102 0.375802755355835 0.275989174842834 0.312640428543091 0.379398703575134 1.58945226669312 1.8926055431366 1.92973601818085 1.79971206188202 1.43129467964172 1.0692081451416 1.07242631912231 1.20648801326752 1.51131784915924 1.82928740978241 1.96592390537262 2.0469970703125 2.02800345420837 1.92873871326447 1.66739976406097 1.32114267349243 1.13468325138092 1.05989050865173 1.04404580593109 1.02840113639832 0.90567809343338 0.841953933238983 0.67357611656189 0.471236228942871 0.445702135562897 0.45756670832634 0.546079874038696 0.66093498468399 0.671509027481079 0.779545426368713 0.994109094142914 1.09986937046051 1.00755894184113 0.918908596038818 0.883631706237793 0.878222465515137 0.980532169342041 1.14429545402527 1.45834922790527 1.93907296657562 2.26427698135376 2.53176546096802 2.78431487083435 2.81387853622437 2.45755362510681 2.12862777709961 1.83454203605652 1.6010890007019 1.2940286397934 0.927486062049866 0.742268085479736 0.556205272674561 0.460342019796371 0.242606654763222
-1.54720544815063 -1.62936353683472 -0.451029002666473 3.24987649917603 14.0003156661987 16.5793685913086 16.1978092193604 10.3918743133545 5.10358238220215 4.74555921554565 3.0822811126709 1.17313885688782 2.51784348487854 3.34715986251831 1.97219347953796 0.980097591876984 5.44523906707764 1.98943531513214 0.803836166858673 0.907480478286743 1.03776824474335 0.880046129226685 0.623878479003906 0.836849510669708 2.41729855537415 0.448222935199738 0.545647025108337 0.64627593755722 0.802949070930481 1.07567644119263 1.35024619102478 1.29326736927032 2.78253769874573 3.5519073009491 5.8171763420105 8.08783435821533 8.53408145904541 6.14875555038452 5.77545595169067 4.81931447982788 4.20313835144043 3.72849130630493 2.98806285858154 3.63731789588928 4.29856967926025 6.01357698440552 6.67909383773804 5.74774789810181 8.44907283782959 13.4109420776367 15.3606996536255 15.2366905212402 12.7916097640991 12.8867464065552 12.24631690979 11.5564451217651 11.0473957061768 9.1705961227417 9.06283664703369 8.77166175842285 8.4075403213501 7.7711181640625 7.24690341949463 6.51969289779663 5.8733229637146 4.39817333221436 4.39930105209351 4.75880432128906 4.98162126541138 5.51232004165649 5.7273736000061 6.09389591217041 6.37411117553711 5.8964376449585 5.49440479278564 4.95094919204712 5.50533533096313 5.97288131713867 6.23628854751587 6.17791032791138 5.87393474578857 5.46161937713623 4.3959755897522 3.84795331954956 3.33615040779114 3.04563045501709 3.00219225883484 3.06909108161926 2.72520160675049 2.46853828430176 2.00800251960754 1.57833385467529 1.10142350196838 0.849263727664948 0.826815366744995 0.739603042602539 0.666602909564972 0.52865082025528 0.497467219829559 0.814756333827972 1.62028634548187 2.43850350379944 3.04498648643494 3.16607356071472 3.18606853485107 3.26291131973267 3.28851222991943 3.36036229133606 3.31953954696655 3.10655283927917 2.30723333358765 1.81614363193512 1.02559030056 0.384658992290497 0.27740615606308 0.281359851360321 0.373430073261261 1.45863127708435 1.79453814029694 1.80938351154327 1.63768601417542 1.56644666194916 1.35995948314667 1.00530052185059 1.13599073886871 1.43246865272522 1.7284688949585 1.83646821975708 1.89690613746643 1.88332045078278 1.78794419765472 1.53798067569733 1.23220229148865 1.0669801235199 0.977600812911987 0.968066334724426 0.896956384181976 0.840771973133087 0.864137828350067 0.777555644512177 0.610985457897186 0.373325169086456 0.347221404314041 0.418969929218292 0.564748644828796 0.647970259189606 0.735011458396912 0.94790506362915 1.04678308963776 0.968360185623169 0.879563748836517 0.842206001281738 0.833366632461548 0.910292625427246 1.05057775974274 1.33697092533112 1.6975531578064 2.11478638648987 2.41836094856262 2.70521378517151 2.78577256202698 2.58282566070557 2.25306344032288 1.81764876842499 1.55722951889038 1.35813069343567 1.08026027679443 0.763942360877991 0.554974019527435 0.478037714958191 0.839329242706299
1.3111127614975 -1.6124175786972 -1.56058299541473 1.44711863994598 5.60948276519775 8.93922901153564 13.2158069610596 17.7062339782715 14.9835529327393 6.27241992950439 2.21438789367676 1.65071249008179 2.44143414497375 2.50704526901245 2.04173970222473 0.816860914230347 0.904688477516174 3.56650996208191 1.27534639835358 1.83993124961853 1.51645147800446 1.10452330112457 2.48555731773376 2.27999687194824 4.89090490341187 6.31898164749146 3.5374608039856 3.61552333831787 8.63118362426758 8.67911338806152 6.61917400360107 3.50801658630371 5.14158058166504 9.52705574035645 11.9935846328735 12.4260597229004 9.49204635620117 6.71171283721924 4.98067331314087 3.81166863441467 3.29362559318542 3.13553881645203 2.83475971221924 4.04993677139282 6.28356838226318 6.96735286712646 7.5780463218689 11.6131734848022 17.9202194213867 16.488037109375 14.619740486145 13.7476968765259 12.3931274414062 11.5440969467163 11.3295011520386 10.1817073822021 9.66073799133301 7.99155330657959 8.06412410736084 8.04110050201416 7.74536800384521 7.28537797927856 6.81100559234619 6.35031175613403 5.46328926086426 4.51356792449951 4.17995166778564 4.4653902053833 4.57642602920532 4.80697584152222 5.38994932174683 5.81042909622192 6.0884485244751 5.96896266937256 5.57169437408447 4.77013301849365 5.0579981803894 5.69314289093018 5.93273162841797 5.90338897705078 5.62052536010742 5.24547481536865 5.02186393737793 3.83091807365417 3.3108332157135 2.90361857414246 2.90648365020752 2.91638541221619 2.74591445922852 2.50103282928467 1.97756934165955 1.50789773464203 1.11342298984528 0.822039484977722 0.743664383888245 0.677266478538513 0.603143215179443 0.484927237033844 0.473932921886444 0.563474476337433 1.56473815441132 2.33897542953491 2.78683733940125 2.93073678016663 3.09774827957153 3.17608714103699 3.20110654830933 3.26599884033203 3.21652746200562 3.02566885948181 2.60975217819214 1.97586739063263 1.08936071395874 0.473902493715286 0.319776177406311 0.271360129117966 0.362831681966782 0.932700037956238 1.32229793071747 1.63457000255585 1.64950728416443 1.55943977832794 1.276371717453 0.94599175453186 1.05622184276581 1.21541380882263 1.53930306434631 1.72764337062836 1.78154134750366 1.77057754993439 1.66560161113739 1.46642172336578 1.25518584251404 1.03394269943237 0.908734917640686 0.892939329147339 0.780947387218475 0.824424147605896 0.822541117668152 0.739064455032349 0.580621957778931 0.363906502723694 0.271563351154327 0.404148936271667 0.521260917186737 0.609681189060211 0.660441398620605 0.900198578834534 1.00733196735382 0.941618323326111 0.858219385147095 0.820636868476868 0.790149509906769 0.802881002426147 0.953275442123413 1.12222290039062 1.545334815979 2.00703144073486 2.28216314315796 2.53719639778137 2.66089534759521 2.58499121665955 2.19544982910156 1.98930287361145 1.71698975563049 1.39482891559601 1.05068957805634 0.812723278999329 0.664682805538177 0.607650101184845 0.526784002780914
-0.0102999247610569 -0.975859880447388 0.211569622159004 0.377231895923615 2.76374292373657 7.20346832275391 9.42183017730713 12.8745594024658 10.8513927459717 6.95020151138306 7.73557186126709 2.4481155872345 3.25809025764465 2.92670154571533 2.84949827194214 0.814337909221649 0.839418053627014 2.03197598457336 2.9627513885498 3.07192540168762 3.14090180397034 4.04615831375122 4.01636266708374 4.93280601501465 10.2128553390503 15.3114156723022 13.7359552383423 14.5913219451904 12.7822742462158 13.3156089782715 13.4128723144531 15.3738431930542 14.3069429397583 14.8596029281616 15.665506362915 15.5516023635864 9.73607921600342 6.52902221679688 4.17455959320068 3.05425953865051 2.83744335174561 2.94733810424805 2.92362403869629 2.69641876220703 3.83180522918701 6.83024263381958 12.7980709075928 19.9333648681641 18.9190521240234 17.9165534973145 14.5890951156616 12.864086151123 13.0082988739014 11.7005968093872 10.0666818618774 9.09353351593018 8.58394145965576 7.71713495254517 7.46823358535767 7.4892578125 7.2968807220459 6.88051748275757 6.69413328170776 6.2744574546814 5.55069398880005 4.89813375473022 4.03827524185181 4.02750825881958 4.30897235870361 4.53530502319336 5.07308578491211 5.36508131027222 5.53579616546631 5.76774454116821 5.33403730392456 4.5757622718811 4.85994100570679 5.46199369430542 5.68634462356567 5.67574310302734 5.56900596618652 5.3778772354126 5.16682624816895 3.85731840133667 3.40821123123169 2.95526933670044 2.81340718269348 2.80789661407471 2.7712881565094 2.50201225280762 1.89920246601105 1.53389084339142 1.27870178222656 0.981877982616425 0.668682515621185 0.605717241764069 0.542338132858276 0.466785430908203 0.471001118421555 0.469477564096451 1.04502761363983 1.98104238510132 2.39907479286194 2.84752345085144 3.01114892959595 3.08960342407227 3.11693000793457 3.1479799747467 3.14056181907654 3.05415225028992 2.78770637512207 2.00453352928162 1.21354484558105 0.744739532470703 0.341081351041794 0.247669130563736 0.281859964132309 0.357666939496994 1.24182486534119 1.52066028118134 1.563756108284 1.46310353279114 1.19971907138824 0.851802408695221 0.884827673435211 0.972491264343262 1.24196922779083 1.49615132808685 1.59316945075989 1.64319205284119 1.62194716930389 1.53393256664276 1.32527089118958 1.05674839019775 0.889232158660889 0.788266599178314 0.746149003505707 0.784188449382782 0.782128632068634 0.699422717094421 0.548075139522552 0.339576214551926 0.189914599061012 0.271327704191208 0.484696090221405 0.589598536491394 0.597830653190613 0.670829474925995 0.868646442890167 0.959038436412811 0.882126092910767 0.803913772106171 0.753909945487976 0.743938505649567 0.892134130001068 1.04242324829102 1.32590579986572 1.7361204624176 2.0373899936676 2.30427289009094 2.55063486099243 2.55955743789673 2.25657057762146 1.92694103717804 1.66507506370544 1.4463586807251 1.15832674503326 0.836889147758484 0.666127324104309 0.822314858436584 0.380851894617081
-0.659767091274261 -0.0828364789485931 1.79655134677887 2.87076926231384 2.48849391937256 4.88799953460693 8.04333305358887 9.99028587341309 12.2293252944946 11.9246072769165 9.90128326416016 4.84398031234741 2.62423634529114 3.92753386497498 4.89280319213867 2.69001793861389 1.30384922027588 2.68085813522339 5.92152833938599 6.13549470901489 4.70721101760864 4.93123292922974 7.73184299468994 11.8249750137329 13.0842790603638 13.6383352279663 15.0768222808838 14.8184757232666 15.8492851257324 15.7057781219482 16.6737461090088 16.9064903259277 17.5061779022217 16.8715744018555 16.2005615234375 12.4282503128052 7.67862701416016 5.13315725326538 3.91014671325684 2.94971561431885 2.88847208023071 2.89598631858826 2.79234075546265 2.70968151092529 3.48656129837036 7.53734445571899 18.5502986907959 17.6760425567627 18.9802913665771 16.0956058502197 13.5891942977905 12.9857635498047 11.9268236160278 10.5940523147583 9.11248588562012 8.87102603912354 8.11596393585205 7.76986742019653 7.01818609237671 6.83236122131348 6.79183769226074 6.68219566345215 6.38198471069336 5.94633102416992 5.24833869934082 4.75088834762573 3.87004804611206 3.8691565990448 4.14055395126343 4.3228645324707 4.62149381637573 4.88526058197021 5.29357862472534 5.52644300460815 5.13941478729248 4.40347290039062 4.56404685974121 5.25637626647949 5.50399875640869 5.50101518630981 5.56926393508911 5.27231502532959 4.95568704605103 4.0369086265564 3.49148416519165 3.01002717018127 2.73454093933105 2.66829800605774 2.69666028022766 2.39818096160889 2.2039315700531 1.7989364862442 1.38989925384521 0.951600909233093 0.642624735832214 0.568428695201874 0.507828235626221 0.451172232627869 0.467993408441544 0.44557312130928 0.713667094707489 1.44827127456665 2.20037484169006 2.76289010047913 2.87796759605408 2.90915036201477 2.95173382759094 2.96198129653931 3.04256534576416 3.04068946838379 2.85241532325745 2.12917494773865 1.67591845989227 0.94958484172821 0.360961616039276 0.37743079662323 0.25554484128952 0.345335930585861 1.18034720420837 1.42646813392639 1.46376645565033 1.35685479640961 1.29379713535309 1.11335563659668 0.824186623096466 0.897266745567322 1.15751791000366 1.40767872333527 1.49667346477509 1.53599369525909 1.52349102497101 1.43895161151886 1.23818469047546 0.980224013328552 0.823555946350098 0.693877160549164 0.731561481952667 0.748252034187317 0.740763247013092 0.668373048305511 0.5479376912117 0.324790507555008 0.14875040948391 0.246898636221886 0.375007390975952 0.50645923614502 0.581272125244141 0.649454474449158 0.837018668651581 0.925213575363159 0.849049270153046 0.773542761802673 0.737367033958435 0.717068731784821 0.828399360179901 0.954605937004089 1.21605288982391 1.52739334106445 1.93148922920227 2.20502305030823 2.48246836662292 2.50310182571411 2.29249572753906 2.04186105728149 1.64135813713074 1.3996901512146 1.20965325832367 0.974893093109131 1.16748654842377 0.529995560646057 0.386375486850739
2.86320638656616 1.24115169048309 3.26582050323486 4.54037618637085 5.06939697265625 5.8090181350708 8.16219806671143 8.26497364044189 9.7907018661499 8.78317356109619 8.11507797241211 9.06149578094482 6.97007179260254 5.93869161605835 5.90879678726196 5.39092206954956 6.03792142868042 5.36167478561401 4.26661968231201 5.12467241287231 4.00690603256226 3.65002512931824 8.06727600097656 8.57474613189697 9.59696769714355 11.9085025787354 14.8024911880493 15.1821250915527 15.138843536377 17.3630123138428 17.891206741333 17.3741416931152 16.6434135437012 15.8774242401123 14.1061582565308 10.9290475845337 7.77645206451416 5.58087730407715 4.60554170608521 7.47568655014038 9.52806568145752 9.23930358886719 5.16071367263794 2.8810555934906 4.05450391769409 14.1751670837402 16.2680625915527 17.3893432617188 16.6920700073242 14.9064722061157 14.1993246078491 12.2990255355835 11.2173929214478 10.1151609420776 8.86962699890137 8.36200046539307 7.62935304641724 7.14572095870972 6.32392168045044 6.32662868499756 6.43663311004639 6.28472423553467 6.00227451324463 5.59174394607544 5.35418462753296 4.6941089630127 3.89187669754028 3.76656007766724 4.03926801681519 4.17816972732544 4.29466104507446 4.63012218475342 5.0504937171936 5.28482484817505 4.96643257141113 4.65902662277222 4.21518611907959 4.63726758956909 5.10945749282837 5.3754506111145 5.37684345245361 5.08114242553711 4.7428297996521 4.5248908996582 3.40569090843201 2.98965954780579 2.61387777328491 2.59813404083252 2.58731532096863 2.43677949905396 2.22145676612854 1.74910485744476 1.34310925006866 0.988299310207367 0.72860723733902 0.539081931114197 0.507582306861877 0.463830024003983 0.445476859807968 0.424633532762527 0.491218566894531 1.3910436630249 2.10281682014465 2.52020525932312 2.65504765510559 2.82382988929749 2.83678507804871 2.89312934875488 2.97049188613892 2.96607565879822 2.78149557113647 2.40712237358093 1.823490858078 1.00466442108154 0.446785390377045 0.293122708797455 0.251215040683746 0.332699596881866 0.748225629329681 1.10581588745117 1.34296596050262 1.3582683801651 1.25001740455627 1.04443204402924 0.769523561000824 0.832696974277496 1.07292461395264 1.31075096130371 1.40803849697113 1.4423840045929 1.44275534152985 1.37010967731476 1.17637765407562 0.912673592567444 0.745327651500702 0.668365597724915 0.689889550209045 0.682644665241241 0.687189638614655 0.70258617401123 0.628645062446594 0.489335238933563 0.26932156085968 0.176004081964493 0.363272160291672 0.470936805009842 0.551059186458588 0.59517377614975 0.800871193408966 0.893110871315002 0.835097551345825 0.762514233589172 0.720896184444427 0.687176167964935 0.727303385734558 0.858328282833099 0.998310089111328 1.36421120166779 1.83687829971313 2.08563017845154 2.30486726760864 2.4560866355896 2.39368915557861 1.98764646053314 1.80060589313507 1.55113112926483 1.26485311985016 1.48984742164612 0.767193913459778 0.591453433036804 0.676239311695099
5.37464714050293 5.91041851043701 4.4139232635498 6.74384212493896 7.44011116027832 8.77745246887207 7.88445806503296 8.05514335632324 7.56636667251587 7.58357048034668 9.70226287841797 12.0605936050415 11.6787185668945 12.3117599487305 13.7226514816284 11.7481079101562 7.38784217834473 6.16212368011475 4.2700400352478 4.41242408752441 3.40823769569397 2.87261533737183 4.04715299606323 6.69614171981812 8.42720985412598 11.5010261535645 15.8592195510864 17.4661598205566 18.2731094360352 18.0467891693115 16.7671451568604 15.4061288833618 14.8791370391846 13.9764585494995 12.4750328063965 11.2659397125244 9.30987167358398 9.97823143005371 14.5628395080566 17.166036605835 18.6830158233643 18.7155208587646 21.2129020690918 22.6408061981201 23.2827968597412 16.0971870422363 17.0763339996338 15.5487976074219 15.457088470459 15.7694892883301 14.8260087966919 11.9669742584229 10.7924480438232 10.2543048858643 8.75224876403809 7.85098028182983 7.21039724349976 6.5736255645752 6.11203289031982 5.96877002716064 6.04886865615845 5.87566566467285 5.67448902130127 5.5316596031189 5.21448993682861 4.67880487442017 4.18291902542114 3.69256162643433 3.95711517333984 3.96907043457031 4.09112071990967 4.41558456420898 4.79297733306885 5.03444719314575 5.02998399734497 4.71415519714355 4.06598997116089 4.38957262039185 4.94785165786743 5.18073606491089 5.15997743606567 5.0256552696228 4.79681730270386 4.54077577590942 3.43158960342407 3.01727294921875 2.64030504226685 2.50301933288574 2.48152184486389 2.45562696456909 2.20738863945007 1.66050601005554 1.3577995300293 1.13956785202026 0.866380333900452 0.547925710678101 0.482291549444199 0.451424062252045 0.420634567737579 0.417106091976166 0.405358612537384 0.915493428707123 1.77006995677948 2.14355659484863 2.57962465286255 2.69034194946289 2.76487112045288 2.81204080581665 2.8879656791687 2.88519191741943 2.81834030151367 2.57242465019226 1.851646900177 1.1280357837677 0.693182170391083 0.328881204128265 0.237424328923225 0.255425184965134 0.327565610408783 1.04544115066528 1.26619529724121 1.29780530929565 1.18879497051239 0.972805917263031 0.713742017745972 0.827527701854706 1.00976622104645 1.41062712669373 1.30946409702301 1.36643016338348 1.36850345134735 1.30105471611023 1.14597594738007 0.957822561264038 0.727556824684143 0.665470898151398 0.641492962837219 0.64864718914032 0.663314402103424 0.666926205158234 0.602343380451202 0.471897006034851 0.291114985942841 0.14130625128746 0.24206630885601 0.43300998210907 0.535509347915649 0.54119884967804 0.598268628120422 0.772374987602234 0.853662371635437 0.781406998634338 0.713432729244232 0.662127375602722 0.639935374259949 0.802944123744965 0.921737551689148 1.18659448623657 1.59188032150269 1.86150121688843 2.11099243164062 2.36269378662109 2.37471294403076 2.05747222900391 1.77742874622345 1.53003466129303 1.35007977485657 1.07011795043945 0.766131699085236 0.61679607629776 0.489185363054276
5.11618566513062 6.045729637146 6.75621700286865 8.81363201141357 10.014347076416 11.3139162063599 8.45249176025391 7.1544303894043 6.88134288787842 7.23287868499756 10.2462730407715 14.2897548675537 19.5085582733154 19.2759475708008 16.0731163024902 15.9101209640503 10.9952068328857 7.74053478240967 5.97528553009033 4.91995143890381 3.72348976135254 4.16444873809814 3.51641345024109 6.05931186676025 12.6421461105347 14.8372583389282 17.5819568634033 19.8987827301025 18.750940322876 17.7068157196045 14.6895961761475 13.8310203552246 13.1156406402588 13.0323390960693 11.7000713348389 10.3055620193481 9.10801887512207 11.6906127929688 15.4776287078857 16.27268409729 15.2379760742188 15.217113494873 15.3199405670166 17.4838943481445 19.4991683959961 19.7729644775391 15.8616714477539 14.5549764633179 15.080958366394 15.3443288803101 14.0400304794312 11.7460432052612 10.676438331604 9.63069152832031 8.33450889587402 7.42114877700806 7.07751941680908 6.38456964492798 5.99197912216187 5.59154605865479 5.50185537338257 5.5835542678833 5.40636682510376 5.25808477401733 5.00329923629761 4.49482440948486 4.17718982696533 3.60155034065247 3.64335703849792 3.85862302780151 3.96371030807495 4.22982215881348 4.40956163406372 4.62888097763062 4.81076240539551 4.51885509490967 3.93002891540527 4.13209915161133 4.76005697250366 4.91765356063843 4.90227842330933 4.90893363952637 4.6059741973877 4.30239152908325 3.5295844078064 3.03624033927917 2.64942479133606 2.39893865585327 2.3616669178009 2.38605356216431 2.10780692100525 1.93576526641846 1.56858849525452 1.21338927745819 0.827655792236328 0.542957544326782 0.441101551055908 0.417465269565582 0.38692644238472 0.397953718900681 0.369634449481964 0.614856481552124 1.28202188014984 1.98146867752075 2.47792863845825 2.55801224708557 2.60260987281799 2.67861342430115 2.71923518180847 2.79028177261353 2.78633046150208 2.61734795570374 1.97421991825104 1.5559606552124 0.878452897071838 0.342407554388046 0.242329895496368 0.48413959145546 0.348963707685471 1.01622116565704 1.22431457042694 1.24331188201904 1.13000977039337 0.929182946681976 0.653031170368195 0.668365359306335 0.706400573253632 0.933247923851013 1.2048807144165 1.26557946205139 1.29699313640594 1.28865087032318 1.18856620788574 1.01502239704132 0.753191769123077 0.645815312862396 0.596388518810272 0.605316281318665 0.624868452548981 0.631696760654449 0.569636642932892 0.469746232032776 0.281143248081207 0.129802048206329 0.223843604326248 0.339188039302826 0.454224079847336 0.522448658943176 0.572058618068695 0.73802387714386 0.82446825504303 0.748419225215912 0.677737355232239 0.637973129749298 0.602523565292358 0.732852220535278 0.837705552577972 1.10302984714508 1.40649950504303 1.78330683708191 2.05513215065002 2.30671095848083 2.32111072540283 2.11806297302246 1.85673928260803 1.52072036266327 1.29066431522369 1.12248682975769 0.905217349529266 0.648301482200623 0.482165634632111
7.8978853225708 7.50447654724121 9.39884948730469 11.3191556930542 12.5734376907349 12.7852239608765 8.22165012359619 6.25360059738159 5.97039651870728 6.50674772262573 7.53140068054199 10.1692142486572 12.7089824676514 14.5777025222778 12.5130138397217 11.1205978393555 12.9406213760376 6.72059917449951 5.21973133087158 4.96187591552734 5.27982139587402 5.09203577041626 7.97991895675659 12.2090482711792 15.8259191513062 19.0711116790771 18.317066192627 16.2287063598633 15.7608709335327 14.5508995056152 12.8232126235962 12.1957292556763 11.5046482086182 11.1926488876343 10.04638671875 9.20183563232422 8.35323047637939 7.34624719619751 7.65534639358521 11.0345048904419 14.1443214416504 14.9213838577271 16.6355304718018 17.7510890960693 18.8081169128418 18.7402305603027 15.5627851486206 14.6182308197021 14.518590927124 14.4022455215454 13.1882953643799 12.0839252471924 10.0630025863647 9.06208229064941 8.2846212387085 7.14905881881714 6.69175910949707 6.02449178695679 5.64062786102295 5.20199298858643 5.20510196685791 5.31074810028076 5.14600324630737 5.02865362167358 4.82740592956543 4.72103643417358 4.15352487564087 3.52191495895386 3.49920701980591 3.74457144737244 3.8518385887146 3.90691757202148 4.07315540313721 4.43217515945435 4.60296487808228 4.39072751998901 4.16737508773804 3.81111001968384 4.10338830947876 4.4821925163269 4.63609457015991 4.63893699645996 4.34432983398438 4.08512687683105 3.90816497802734 2.94178915023804 2.60189604759216 2.28299713134766 2.2961094379425 2.28600120544434 2.15032482147217 1.94364631175995 1.50577926635742 1.14786875247955 0.839207231998444 0.621876299381256 0.425431102514267 0.379228621721268 0.358402937650681 0.36200413107872 0.340432971715927 0.389352858066559 1.22597372531891 1.87292492389679 2.25105476379395 2.36964273452759 2.52361011505127 2.58517241477966 2.62211489677429 2.67774271965027 2.67397689819336 2.5229024887085 2.21855688095093 1.69041347503662 0.931656956672668 0.416112959384918 0.27624186873436 0.214398637413979 0.334433138370514 0.971519231796265 1.15246272087097 1.1916800737381 1.08602917194366 1.02695918083191 0.893533110618591 0.656690657138824 0.699845314025879 0.906364798545837 1.15959894657135 1.2042635679245 1.23496603965759 1.20673775672913 1.18393957614899 0.975933492183685 1.87913060188293 0.626663446426392 0.557077288627625 0.557864725589752 0.571837604045868 0.586907863616943 0.593352854251862 0.534299433231354 0.415232628583908 0.216151595115662 0.153954580426216 0.320130497217178 0.423525810241699 0.499151021242142 0.5353724360466 0.703859925270081 0.784731209278107 0.735775053501129 0.669509887695312 0.619516789913177 0.587944388389587 0.631902158260345 0.755502164363861 0.932181239128113 1.26040720939636 1.70076560974121 1.9512939453125 2.14246964454651 2.26823139190674 2.21902370452881 1.83795309066772 1.66394066810608 1.445272564888 1.17590987682343 0.894682645797729 0.697945117950439 0.549990296363831
6.36456346511841 6.7113790512085 9.34301567077637 11.9675054550171 13.1954383850098 11.5752563476562 7.72334861755371 5.43983554840088 5.71634006500244 6.33720922470093 6.88676309585571 9.35194492340088 12.2190351486206 12.8741502761841 11.3773584365845 9.92526626586914 8.30147457122803 5.272705078125 4.90324687957764 4.41901969909668 6.03527355194092 5.43094301223755 5.36184644699097 9.26249599456787 14.9376354217529 17.6797695159912 15.2969951629639 13.9025688171387 13.9349517822266 12.8693780899048 11.1237916946411 10.7221651077271 10.5621328353882 9.7471170425415 8.79933643341064 8.42977428436279 8.17328643798828 7.52994537353516 6.98494005203247 9.87553310394287 13.3394289016724 14.9097862243652 16.3278160095215 17.7003440856934 18.2253551483154 17.7902336120605 15.3736095428467 15.0258169174194 13.8520650863647 13.6200227737427 13.3793935775757 11.8535556793213 9.51667308807373 8.87368297576904 8.17598438262939 6.85733556747437 6.35527324676514 5.96638536453247 5.48719501495361 5.04101610183716 4.94944334030151 5.05149793624878 4.95173406600952 4.8833065032959 4.84639883041382 4.60178995132446 4.13733291625977 3.71859335899353 3.37284159660339 3.61536979675293 3.61869645118713 3.71498584747314 3.90682148933411 4.20468997955322 4.39486312866211 4.41709756851196 4.12105083465576 3.60457706451416 3.85595631599426 4.25824451446533 4.40180921554565 4.39500570297241 4.31354475021362 4.10691261291504 3.88327169418335 2.96651482582092 2.60138821601868 2.30514574050903 2.18489074707031 2.17921733856201 2.16129207611084 1.92127478122711 1.43712508678436 1.1655341386795 0.975892603397369 0.732990980148315 0.449553728103638 0.341887325048447 0.330542117357254 0.328504025936127 0.321420758962631 0.312291741371155 0.768588185310364 1.55394411087036 1.90162289142609 2.29827117919922 2.4355890750885 2.49626064300537 2.50100946426392 2.53179693222046 2.51170206069946 2.47802662849426 2.28405833244324 1.68460524082184 1.04630172252655 0.644148707389832 0.303174197673798 0.105456344783306 0.21604035794735 0.618886709213257 0.898897588253021 1.10938608646393 1.12271559238434 1.02691841125488 0.853622019290924 0.643873989582062 0.686551213264465 0.791387617588043 1.02794861793518 1.12323689460754 1.16936910152435 1.20665860176086 1.09054911136627 0.967156827449799 0.812883675098419 0.774154841899872 0.927786409854889 0.597715497016907 0.532620847225189 0.553764760494232 0.555719256401062 0.503652155399323 0.382229059934616 0.21970996260643 0.0975283682346344 0.208964720368385 0.38467401266098 0.480517894029617 0.484475702047348 0.52447634935379 0.681862473487854 0.744316875934601 0.675134778022766 0.608265459537506 0.559725642204285 0.558976113796234 0.738282144069672 0.873560011386871 1.10579693317413 1.47144603729248 1.74473965167999 1.95756149291992 2.19518685340881 2.20753240585327 1.92714047431946 1.63604402542114 1.41677451133728 1.23307180404663 1.00515472888947 0.728554308414459 0.54248708486557
5.31343746185303 5.7757716178894 8.95607280731201 11.6534948348999 12.3925428390503 9.75949192047119 8.17326164245605 4.58277797698975 4.85190534591675 5.84002828598022 13.3581085205078 15.9316215515137 12.0480117797852 12.5853881835938 9.84013175964355 7.55131578445435 5.57683515548706 6.53462028503418 6.83304405212402 5.84659099578857 4.51688289642334 6.11691188812256 9.0267505645752 12.8960304260254 14.1907997131348 15.2693395614624 13.396258354187 12.2603044509888 12.0478868484497 11.2389640808105 9.8241491317749 9.02423572540283 9.12814140319824 8.63573455810547 8.3648157119751 7.64144897460938 7.17180871963501 6.8202657699585 6.34274673461914 8.48582363128662 11.4218635559082 13.9598989486694 14.9399166107178 15.3771829605103 16.5133533477783 16.9614009857178 16.5530319213867 14.5379047393799 13.4053220748901 13.2074995040894 12.3782453536987 10.8621940612793 9.44777297973633 8.46826839447021 7.59882593154907 6.80167293548584 6.07432079315186 5.85437488555908 5.31387901306152 4.96201467514038 4.70833349227905 4.67637157440186 4.80412435531616 4.73275232315063 4.66358089447021 4.41472434997559 3.9663348197937 3.56865644454956 3.25159811973572 3.27169179916382 3.47968792915344 3.58447265625 3.7520318031311 3.8710720539093 4.08647966384888 4.1909351348877 3.9095721244812 3.40553069114685 3.52020525932312 4.03919649124146 4.18604564666748 4.18955183029175 4.19306230545044 3.90519714355469 3.67342400550842 3.02844071388245 2.59385919570923 2.28391695022583 2.0730414390564 2.04980492591858 2.07593464851379 1.83372807502747 1.69798374176025 1.36378979682922 1.03415429592133 0.689089715480804 0.451779991388321 0.325625509023666 0.295394778251648 0.298251509666443 0.298212051391602 0.273779928684235 0.48810800909996 1.10648000240326 1.74982309341431 2.22100520133972 2.30579304695129 2.33214139938354 2.35985994338989 2.34048533439636 2.34768629074097 2.34917736053467 2.23680305480957 1.72352695465088 1.40693712234497 0.810480117797852 0.31297093629837 0.0620733536779881 0.16830974817276 0.207129612565041 0.871804237365723 1.05973327159882 1.08444106578827 0.994038820266724 0.823352038860321 0.574557304382324 0.607434868812561 0.712229073047638 0.8482266664505 1.06465303897858 1.1310133934021 1.11189556121826 1.0941698551178 1.04506933689117 0.878427088260651 0.667205274105072 0.559551179409027 0.533818900585175 1.19480931758881 0.859555780887604 0.635919153690338 0.466861456632614 0.382817059755325 0.225717514753342 0.0856718271970749 0.189028412103653 0.291189551353455 0.39390167593956 0.461090475320816 0.499967098236084 0.644368886947632 0.697905540466309 0.634222865104675 0.573585152626038 0.541077494621277 0.522037863731384 0.848916709423065 0.788731455802917 1.0150054693222 1.32578468322754 1.66568851470947 1.91776549816132 2.1537721157074 2.16221332550049 1.97435414791107 1.74534201622009 1.4181741476059 1.19675755500793 1.04243838787079 0.83727353811264 0.558725297451019
4.71828269958496 4.86059284210205 6.85254859924316 10.2338132858276 10.6272478103638 9.61392307281494 8.01091384887695 8.95923805236816 8.173415184021 7.87416172027588 14.5668325424194 13.8549995422363 10.9456672668457 10.8884782791138 9.33742046356201 7.08559226989746 7.77344655990601 8.72166633605957 5.09804964065552 7.51218414306641 6.59299659729004 8.90492725372314 11.5440044403076 15.2889766693115 18.7508964538574 15.4785470962524 13.2593278884888 10.8403463363647 10.6404619216919 9.10366249084473 7.49079990386963 6.61093950271606 6.71577930450439 6.93416452407837 6.85344314575195 6.2367525100708 6.29441690444946 6.48655128479004 6.33131980895996 6.8686785697937 10.7487726211548 13.3979759216309 14.0980558395386 14.5651416778564 15.3936500549316 15.7762565612793 15.7011756896973 13.5549230575562 12.8295154571533 12.4417781829834 11.7270460128784 10.6670799255371 9.49839496612549 7.98511838912964 7.1834716796875 6.62275075912476 5.97651243209839 5.55510902404785 5.05743885040283 4.72527837753296 4.46653842926025 4.50146675109863 4.60700941085815 4.54638814926147 4.47647380828857 4.21639537811279 3.86646962165833 3.59582114219666 3.14813733100891 3.11043167114258 3.33292007446289 3.4479603767395 3.47373414039612 3.5864531993866 3.90225100517273 4.01106929779053 3.7967255115509 3.55573034286499 3.24174308776855 3.47108387947083 3.84214878082275 3.98747706413269 3.98726439476013 3.73781561851501 3.49941635131836 3.33690595626831 2.5129976272583 2.20346999168396 1.94571530818939 1.97263312339783 1.97240900993347 1.87093734741211 1.67817711830139 1.28676199913025 0.959431529045105 0.697324514389038 0.495674699544907 0.341281622648239 0.270050883293152 0.241492450237274 0.24578221142292 0.215033292770386 0.269069045782089 1.03916049003601 1.64506733417511 1.99503350257874 2.12818694114685 2.24812173843384 2.28299570083618 2.27232885360718 2.26885390281677 2.2383348941803 2.10517120361328 1.8596773147583 1.44244027137756 0.818253576755524 0.3570456802845 0.076838381588459 -0.00685493228957057 0.18473719060421 0.821709096431732 1.00781869888306 1.0366176366806 0.956342160701752 0.93335348367691 0.796992123126984 0.601408958435059 0.664364159107208 0.83550900220871 1.00650179386139 1.06644666194916 1.07948040962219 1.08227562904358 1.02189981937408 0.867193758487701 0.650167942047119 0.545271754264832 0.50706946849823 0.495041012763977 0.489541202783585 0.49834731221199 1.05941915512085 0.452515572309494 0.339685648679733 0.177195817232132 0.125223681330681 0.280703216791153 0.37452444434166 0.432976067066193 0.454865723848343 0.833989143371582 1.06608319282532 1.31145405769348 0.593235313892365 0.54266220331192 1.04990112781525 0.60249650478363 1.13907086849213 0.858815431594849 1.1891702413559 1.58497929573059 1.82134091854095 1.99979734420776 2.11419725418091 2.07619643211365 1.71234035491943 1.5509922504425 1.34162867069244 1.09328842163086 0.813320338726044 0.598327279090881
11.1814308166504 12.6055679321289 10.4769086837769 11.0964736938477 10.0798797607422 8.92864799499512 7.21104955673218 8.16439342498779 8.8293399810791 9.09666347503662 13.3438234329224 11.2184038162231 9.44902229309082 10.2455406188965 11.4918823242188 13.0307931900024 10.3754596710205 11.1936044692993 10.5511503219604 7.59120035171509 13.4727020263672 14.8889265060425 16.6699237823486 18.043342590332 17.7027797698975 13.7887315750122 11.8700132369995 9.72191429138184 8.94729709625244 7.80172491073608 6.88873910903931 6.20402765274048 6.00382614135742 6.1455249786377 5.65661430358887 5.6762866973877 6.08723545074463 6.56363916397095 6.339035987854 6.09520530700684 9.16161727905273 12.3972129821777 13.8274917602539 13.9550971984863 14.6464986801147 14.6510305404663 14.2197484970093 13.2961902618408 12.6578187942505 11.6966457366943 11.0957956314087 10.7131214141846 9.2581672668457 7.7122049331665 7.12483930587769 6.50311803817749 5.73097801208496 5.32180023193359 5.05262470245361 4.6638388633728 4.28648471832275 4.30917310714722 4.41553258895874 4.35737133026123 4.29834032058716 4.12333631515503 3.99221587181091 3.52863955497742 3.06524991989136 2.99622941017151 3.20424103736877 3.20716643333435 3.31001281738281 3.43398499488831 3.68635368347168 3.80648684501648 3.80958342552185 3.52514505386353 3.07965135574341 3.31080532073975 3.65503787994385 3.80238938331604 3.79384422302246 3.70700144767761 3.49963021278381 3.2824923992157 2.5017261505127 2.16444063186646 1.93118786811829 1.85352492332458 1.85960185527802 1.82607984542847 1.63238394260406 1.19284451007843 0.964284062385559 0.790576457977295 0.573058247566223 0.315996587276459 0.250280767679214 0.173740312457085 0.167362630367279 0.150949567556381 0.165317818522453 0.599399626255035 1.33169829845428 1.64811944961548 2.05246353149414 2.17924118041992 2.2150137424469 2.20609426498413 2.21644496917725 2.19194340705872 2.12977623939514 1.92490613460541 1.36661911010742 0.757041037082672 0.333744436502457 0.127013996243477 0.700551271438599 0.0629674047231674 0.502550959587097 0.771131157875061 0.951681196689606 0.983867406845093 0.925617158412933 0.783874809741974 0.585426270961761 0.64383190870285 0.727362215518951 0.92491352558136 1.03583347797394 1.06507933139801 1.0529510974884 1.00116229057312 0.902488052845001 0.742982566356659 0.596708118915558 0.521881580352783 0.636028409004211 0.55679315328598 0.489364266395569 0.472780704498291 0.978657245635986 0.419611990451813 0.181058630347252 0.0654419213533401 0.180362299084663 0.343382865190506 0.428039342164993 0.771368622779846 0.455022841691971 0.603266775608063 0.667775273323059 0.796184897422791 1.11278474330902 0.524458944797516 0.648129999637604 0.712224662303925 0.827716588973999 1.04372322559357 1.37225890159607 1.63105940818787 1.83178853988647 2.05251860618591 2.0533607006073 1.79793453216553 1.52585709095001 1.31832706928253 1.13961327075958 0.912708580493927 0.627589702606201
10.5936031341553 11.5612869262695 13.0284070968628 16.5278873443604 11.5894479751587 7.97321224212646 6.5194296836853 6.22294044494629 11.2370042800903 10.5972728729248 8.72638130187988 9.0686206817627 8.60705184936523 9.10711669921875 8.88832092285156 10.1556348800659 13.6325817108154 11.7462224960327 13.9609289169312 12.8861389160156 17.1342811584473 17.8666286468506 18.2752895355225 18.4581069946289 15.5418615341187 12.74658203125 10.8335819244385 8.68527889251709 7.91400766372681 7.50926542282104 7.06451416015625 6.20434856414795 5.55482769012451 5.49339580535889 5.48943662643433 5.85989093780518 5.81827878952026 5.97819089889526 5.77972555160522 5.75798892974854 7.23825073242188 9.72621250152588 12.472339630127 12.8001289367676 12.8558330535889 13.6631555557251 13.8315887451172 13.1236734390259 11.5138740539551 10.5706262588501 10.5218458175659 10.0423173904419 8.78585147857666 7.78528022766113 6.85955715179443 6.2434401512146 5.70068740844727 5.08650207519531 4.89248132705688 4.4697151184082 4.19660329818726 4.1241774559021 4.21036863327026 4.16649866104126 4.17290687561035 4.10674715042114 3.86680006980896 3.46315908432007 3.1156804561615 2.95759558677673 2.90233898162842 3.07991409301758 3.16797471046448 3.27843737602234 3.36407113075256 3.56323838233948 3.65489482879639 3.37273359298706 2.93220710754395 3.01990675926208 3.47993874549866 3.60256004333496 3.62589383125305 3.59869885444641 3.32415127754211 3.10613536834717 2.54171109199524 2.15603256225586 1.88388323783875 1.73117828369141 1.71474063396454 1.71687734127045 1.51205778121948 1.41131913661957 1.10916364192963 0.816534876823425 0.496579617261887 0.299438267946243 0.186475217342377 0.114255152642727 0.0775344371795654 0.083723247051239 0.0862206593155861 0.330935508012772 0.891713440418243 1.51779675483704 1.96592140197754 2.05718278884888 2.08247017860413 2.12220740318298 2.11240792274475 2.14951324462891 2.12667489051819 1.97134971618652 1.38681709766388 0.64069014787674 0.230961561203003 0.0267852935940027 0.0900664925575256 0.247185155749321 0.469605982303619 0.761526882648468 0.922409236431122 0.942543089389801 0.909947335720062 0.763264954090118 0.541739046573639 0.570363461971283 0.621996641159058 0.801515221595764 0.966870963573456 1.02662599086761 1.03205633163452 1.02513444423676 0.960774004459381 0.821457087993622 0.694746434688568 0.533175945281982 0.491045951843262 0.540852963924408 0.487316459417343 0.470802038908005 0.412080824375153 0.76509964466095 0.279598414897919 0.0604902766644955 0.167277097702026 0.254253387451172 0.693353295326233 0.411874234676361 0.625115096569061 1.04574978351593 1.03153395652771 0.61968982219696 0.55831253528595 0.731336951255798 0.555045545101166 0.66838926076889 0.766400277614594 0.968670189380646 1.23560953140259 1.55829524993896 1.79501390457153 2.01510667800903 2.01331090927124 1.84100902080536 1.63316667079926 1.33300304412842 1.12116622924805 0.951004028320312 0.742853403091431
14.1551332473755 14.5591802597046 13.3489007949829 15.9105834960938 11.8646745681763 10.0215282440186 6.35912656784058 5.64813899993896 11.1275978088379 10.9572677612305 8.82684326171875 7.98800849914551 8.54684352874756 7.91602563858032 8.13101196289062 7.7820029258728 9.62521171569824 11.8455457687378 13.84987449646 17.5641040802002 15.4881019592285 16.9797992706299 17.4409446716309 16.6470432281494 14.485390663147 13.6243267059326 10.2932891845703 8.37928485870361 7.50950050354004 7.2585391998291 6.63043594360352 5.74319553375244 5.23199605941772 5.3085355758667 6.93386363983154 9.12357234954834 9.18341541290283 10.4326400756836 11.6874303817749 9.0336389541626 8.51942348480225 9.50683212280273 11.5357789993286 11.7367525100708 12.2999086380005 12.739598274231 12.6181745529175 11.9146156311035 10.5126447677612 10.0224552154541 9.78735542297363 9.39984798431396 8.80214405059814 7.76911735534668 6.58327198028564 6.02723789215088 5.58266639709473 5.04195308685303 4.6743016242981 4.26010370254517 4.00823211669922 3.90297675132751 3.92680549621582 4.026771068573 4.00285148620605 3.9437518119812 3.72641110420227 3.4301860332489 3.17818140983582 2.87695741653442 2.78501963615417 2.95926356315613 3.03020858764648 3.03425598144531 3.11403012275696 3.41194605827332 3.50633025169373 3.31996917724609 3.08064198493958 2.80335712432861 3.01348423957825 3.34508323669434 3.44906616210938 3.42881965637207 3.23186707496643 2.99878740310669 2.83533430099487 2.0763692855835 1.79383933544159 1.60279870033264 1.61585021018982 1.61797165870667 1.54570949077606 1.37054669857025 1.0003856420517 0.712024211883545 0.480909287929535 0.31049633026123 0.164288401603699 0.0278989356011152 0.0191006753593683 0.00109002727549523 0.0246547739952803 0.105831928551197 0.824458479881287 1.40787947177887 1.7511157989502 1.88348650932312 1.96237111091614 1.89372909069061 1.8272180557251 1.95482110977173 1.93308055400848 1.71350717544556 1.08434879779816 0.550608396530151 0.121265567839146 -0.0471525229513645 -0.0493677109479904 0.197923392057419 0.220627680420876 0.730985760688782 0.885797560214996 0.908169090747833 0.87438553571701 0.841931939125061 0.727142572402954 0.555273592472076 0.605547845363617 0.775140166282654 0.939043939113617 0.995997846126556 1.00626468658447 0.996058285236359 0.938508212566376 0.79812479019165 0.624318063259125 0.520720303058624 0.484816640615463 0.472998231649399 0.453208804130554 0.460744142532349 0.453721046447754 0.393070608377457 1.15732741355896 0.149781927466393 0.104206748306751 0.253784984350204 0.357738256454468 0.403874218463898 0.761726140975952 0.849323570728302 0.763501524925232 0.705230236053467 0.74336975812912 0.538714587688446 0.638729512691498 0.595528662204742 0.702745378017426 0.81996876001358 1.12154734134674 1.47761142253876 1.70575416088104 1.86928045749664 1.97403311729431 1.94515144824982 1.60129356384277 1.45584774017334 1.25133109092712 1.01788592338562 0.727701008319855
10.1102304458618 10.9047708511353 12.6749696731567 14.6666793823242 12.1477279663086 15.4058685302734 18.5137767791748 11.5011177062988 7.8811731338501 13.3516683578491 16.7659530639648 15.6194791793823 12.1795930862427 7.51715755462646 7.63617038726807 7.66181373596191 8.11037921905518 9.64984512329102 10.35387134552 11.3773021697998 13.8218460083008 15.4357147216797 15.99853515625 15.9245042800903 15.0790166854858 13.4652042388916 10.8883333206177 10.0233821868896 10.5219173431396 7.60220575332642 6.57608652114868 5.76204586029053 14.4208335876465 17.2112693786621 12.7620162963867 11.7526197433472 11.8397884368896 12.7228212356567 13.5969982147217 15.3181381225586 14.179780960083 13.9933185577393 10.8795967102051 11.3982906341553 11.4467258453369 11.6801748275757 11.5178480148315 10.8565349578857 10.0324077606201 9.3824348449707 9.10998916625977 8.86341094970703 8.58570384979248 7.45699834823608 6.46089839935303 6.00619316101074 5.50022792816162 4.98336982727051 4.57853031158447 4.09033012390137 3.83191299438477 3.72878670692444 3.77655410766602 3.85341453552246 3.84201788902283 3.78859853744507 3.66179275512695 3.54157257080078 3.1015510559082 2.78375649452209 2.72098231315613 2.85560941696167 2.80089259147644 2.86976504325867 2.93953394889832 3.1843535900116 3.29660868644714 3.31783986091614 3.06384325027466 2.67466473579407 2.86425471305847 3.18166351318359 3.28794384002686 3.25864338874817 3.20965242385864 3.01816463470459 2.79255628585815 2.08788466453552 1.7723822593689 1.58881282806396 1.51035714149475 1.5315408706665 1.52270901203156 1.3189252614975 0.901725709438324 0.695533394813538 0.525916874408722 0.331485837697983 0.11154866963625 -0.0436120256781578 -0.0567591525614262 -0.0646384432911873 -0.0542136467993259 -0.069584883749485 0.408913433551788 1.10569643974304 1.42669284343719 1.67134535312653 1.75729608535767 1.43164014816284 1.35307991504669 1.4756954908371 1.52583801746368 1.28894054889679 0.801734864711761 0.65812349319458 0.0427143722772598 -0.0977003276348114 -0.0747176557779312 -0.0137395430356264 0.084356814622879 0.471521258354187 0.708219110965729 0.86039400100708 0.896458625793457 0.840540766716003 0.701267123222351 0.538402616977692 0.583748459815979 0.66609513759613 0.833635628223419 0.937163472175598 0.96984452009201 0.964112877845764 0.916539549827576 0.812886893749237 0.681448578834534 0.551901459693909 0.479139596223831 0.452468812465668 0.441619157791138 0.456544727087021 0.446142703294754 0.380857855081558 0.302696257829666 1.08240151405334 0.232826203107834 0.351436138153076 0.338177889585495 0.39143231511116 0.410226404666901 0.502426326274872 0.598252713680267 0.659514367580414 0.599370718002319 0.547788262367249 0.522165358066559 0.534258484840393 0.624083340167999 0.711846351623535 0.876880705356598 1.28659641742706 1.51727998256683 1.70487177371979 1.84436964988708 1.92834854125977 1.68436443805695 1.42545902729034 1.23136901855469 1.05508625507355 0.823351621627808
10.0529041290283 10.5014619827271 12.9779224395752 14.2131977081299 13.6977195739746 17.1110515594482 22.3781337738037 21.2124977111816 15.4675035476685 13.8809051513672 15.9448080062866 15.8250846862793 13.3373050689697 10.9715900421143 7.11935234069824 7.31890392303467 8.75737762451172 11.7113609313965 12.0430870056152 13.663257598877 13.6298961639404 15.3749961853027 15.3544826507568 15.6149377822876 15.1972665786743 13.286639213562 14.4388341903687 19.256591796875 18.0671901702881 18.9666938781738 22.8770046234131 28.335485458374 24.0063323974609 18.3978843688965 17.2292308807373 14.4576053619385 13.7700786590576 14.066912651062 13.3797178268433 14.2844696044922 14.9153909683228 13.3672103881836 12.5081834793091 10.703031539917 10.5412759780884 10.3885459899902 10.4611215591431 10.2575674057007 9.59364318847656 8.61490535736084 8.30049228668213 8.32791709899902 8.08835124969482 7.25908756256104 6.43313598632812 5.74936628341675 5.34150648117065 4.84878301620483 4.45112276077271 4.19099617004395 3.86338758468628 3.59902596473694 3.64068675041199 3.69565677642822 3.68037986755371 3.69533920288086 3.61974740028381 3.41000247001648 3.04207944869995 2.70221900939941 2.66508150100708 2.56233549118042 2.69265103340149 2.74753928184509 2.78987073898315 2.86721205711365 3.0747504234314 3.16741538047791 2.93156123161316 2.55458807945251 2.59435844421387 2.98952722549438 3.09698343276978 3.12487125396729 3.10104489326477 2.86823010444641 2.64829134941101 2.13922715187073 1.82064700126648 1.55093669891357 1.41213262081146 1.40902733802795 1.41953957080841 1.21917974948883 1.11582970619202 0.819923281669617 0.534149408340454 0.23541633784771 -0.0237453132867813 -0.154365628957748 -0.148933097720146 -0.137198314070702 -0.157202839851379 -0.155775889754295 -0.133269622921944 0.381785541772842 1.0513824224472 1.3581291437149 1.25606107711792 0.967586100101471 0.9979168176651 1.00022172927856 1.05868709087372 0.730067908763885 0.42432501912117 0.191440373659134 0.232468575239182 0.217892467975616 0.188007086515427 -0.0105198817327619 0.0253235604614019 0.157648459076881 0.683086335659027 0.827706336975098 0.873026430606842 0.812193989753723 0.680986821651459 0.49084010720253 0.517974197864532 0.561043620109558 0.721763610839844 0.873451054096222 0.926702558994293 0.93067193031311 0.918818533420563 0.867386221885681 0.741685271263123 0.582796156406403 0.487207531929016 0.438698351383209 0.437554895877838 0.449953824281693 0.436742067337036 0.378522962331772 0.308615058660507 0.281988024711609 0.0583680905401707 0.461970329284668 0.251286864280701 0.390366584062576 0.403160929679871 0.438822090625763 0.573965489864349 0.630960583686829 0.57945716381073 0.527414500713348 0.510677397251129 0.502597033977509 0.548987746238708 0.645135402679443 0.784078121185303 1.01631200313568 1.25720119476318 1.48008346557617 1.65912520885468 1.79200255870819 1.71918022632599 1.51733291149139 1.2440767288208 1.0343621969223 0.872008383274078
15.3323812484741 16.4159545898438 14.8576250076294 15.1134738922119 14.0309724807739 13.2754364013672 14.9254131317139 18.5470809936523 17.7061347961426 16.0597743988037 13.8754615783691 14.752140045166 13.471399307251 18.0056228637695 14.6947460174561 8.32457256317139 7.50759649276733 10.9451246261597 19.0519886016846 22.2801132202148 21.1429557800293 16.8149795532227 15.4226922988892 15.3460712432861 14.5981149673462 13.4307498931885 12.7439298629761 14.1954545974731 18.1955375671387 20.293773651123 23.8837985992432 22.8418140411377 23.1437683105469 25.1188220977783 19.6959037780762 15.6607990264893 14.9900007247925 13.681658744812 13.4088726043701 12.6803522109985 12.8122873306274 12.9899816513062 10.1205701828003 9.96767425537109 9.77949333190918 9.6038818359375 9.58842849731445 9.31307983398438 8.77854347229004 7.91650629043579 7.7726263999939 7.76960039138794 7.63368082046509 7.25383949279785 6.37194633483887 5.50019550323486 5.20303201675415 4.86492443084717 4.51919412612915 4.10977172851562 3.74635481834412 3.49883985519409 3.44391250610352 3.47071003913879 3.54465961456299 3.53538298606873 3.46415948867798 3.26121425628662 3.02882242202759 2.78295660018921 2.56312847137451 2.44992113113403 2.57292485237122 2.63278031349182 2.62241530418396 2.67169070243835 2.92999768257141 3.02234387397766 2.88276481628418 2.68199586868286 2.42594075202942 2.5945873260498 2.89027667045593 2.98278999328613 2.95556545257568 2.79603910446167 2.56778407096863 2.40941047668457 1.75883829593658 1.48944532871246 1.31578183174133 1.30973792076111 1.31847298145294 1.25907421112061 1.08117949962616 0.72652941942215 0.375289440155029 0.0721298158168793 -0.167675092816353 -0.26526004076004 -0.241060763597488 -0.218532264232635 -0.211947843432426 -0.233087435364723 -0.20152921974659 -0.152498632669449 0.293687909841537 0.665473878383636 0.601658523082733 0.521495223045349 0.481452107429504 0.509321630001068 0.53099536895752 0.296766698360443 0.0988154038786888 0.0480115152895451 0.00885820481926203 0.467073649168015 0.547921299934387 0.0513714663684368 -0.0385111644864082 0.119381494820118 0.657970488071442 0.803044140338898 0.844018399715424 0.783481240272522 0.759517729282379 0.654493749141693 0.504824638366699 0.545637369155884 0.702556014060974 0.850323677062988 0.903694689273834 0.90485817193985 0.887378633022308 0.806107223033905 0.706698954105377 0.56359738111496 0.468336433172226 0.429319083690643 0.431579083204269 0.426855742931366 0.423801839351654 0.416832834482193 0.371219575405121 0.281714856624603 1.12971711158752 0.469364404678345 0.236484438180923 0.311611622571945 0.371344864368439 0.410194724798203 0.544613540172577 0.606768786907196 0.574929237365723 0.528050899505615 0.498070657253265 0.495685964822769 0.504060506820679 0.549374997615814 0.632835268974304 0.762535452842712 0.99499374628067 1.1814888715744 1.39937853813171 1.54826688766479 1.55866312980652 1.4621776342392 1.35602056980133 1.17085945606232 0.943151235580444
16.5671463012695 17.5691814422607 15.6778860092163 14.6104793548584 13.5318355560303 11.6665487289429 13.4080200195312 16.3290882110596 16.3335990905762 14.7403717041016 13.0637941360474 13.9132299423218 13.3843297958374 16.7952919006348 21.8212776184082 19.6826934814453 19.2665386199951 15.267297744751 13.3433952331543 15.7910318374634 17.9520111083984 17.4404010772705 15.4176597595215 14.6187925338745 13.9091138839722 13.4213123321533 12.0843191146851 12.7576913833618 16.0547885894775 18.4281711578369 18.111385345459 21.3746891021729 23.5356674194336 22.3531360626221 19.8285808563232 15.6968441009521 15.1572790145874 14.4979991912842 12.333179473877 12.4885625839233 12.7647104263306 11.6309776306152 9.75215244293213 9.17406463623047 8.94076919555664 8.7403621673584 8.71073532104492 8.52927017211914 8.03382110595703 7.64218425750732 7.22513151168823 7.26115798950195 7.2318959236145 7.09185647964478 6.16939544677734 5.34945821762085 5.05612087249756 4.78757572174072 4.55538320541382 4.11735773086548 3.66157341003418 3.4064314365387 3.30917358398438 3.35930252075195 3.41047739982605 3.37236785888672 3.28489065170288 3.17397046089172 3.05665922164917 2.66693377494812 2.45351624488831 2.37178206443787 2.43943619728088 2.40717220306396 2.49324464797974 2.50486445426941 2.727543592453 2.82445931434631 2.86618399620056 2.65130829811096 2.32515120506287 2.48458504676819 2.74898958206177 2.84476280212402 2.83835673332214 2.76991724967957 2.57835483551025 2.3837354183197 1.76504564285278 1.49698710441589 1.30797076225281 1.21257841587067 1.2248854637146 1.23297166824341 1.0333114862442 0.617686867713928 0.208306893706322 -0.117816083133221 -0.297788739204407 -0.377555787563324 -0.327960431575775 -0.309203326702118 -0.294609725475311 -0.288153529167175 -0.292838096618652 -0.261653691530228 -0.184725999832153 0.00816325284540653 0.100283555686474 0.122775472700596 0.0771629363298416 0.162625297904015 0.0749970003962517 -0.0196343120187521 -0.180767968297005 -0.26499941945076 0.0230862200260162 0.28573277592659 0.121393881738186 -0.0947582721710205 -0.0701867565512657 0.00652641803026199 0.413786232471466 0.638224422931671 0.791298687458038 0.810404419898987 0.751016139984131 0.634986877441406 0.488018155097961 0.526393711566925 0.603070497512817 0.756064534187317 0.850144028663635 0.877726137638092 0.850061774253845 0.782270610332489 0.718521058559418 0.619779407978058 0.49270948767662 0.434785276651382 0.415396004915237 0.4110187292099 0.417490929365158 0.410836011171341 0.366099774837494 0.278778553009033 0.152752161026001 0.0709572359919548 0.372349351644516 0.295755177736282 0.364154815673828 0.381288766860962 0.407176494598389 0.531215369701385 0.583471953868866 0.530128240585327 0.485384345054626 0.468599557876587 0.458971053361893 0.495425909757614 0.543146193027496 0.616102576255798 0.733817160129547 0.863718211650848 1.03610694408417 1.18201506137848 1.24010694026947 1.2232563495636 1.19838607311249 1.12480473518372 0.986367404460907
15.1485271453857 15.4775142669678 15.8622035980225 13.4328718185425 12.9646320343018 12.3056926727295 11.1559247970581 13.0699367523193 14.0008878707886 13.1489772796631 11.8085021972656 11.8697414398193 12.4308547973633 11.6340026855469 17.7279758453369 20.3705615997314 16.480489730835 15.8796787261963 15.1676025390625 15.6703462600708 17.6682224273682 16.5374526977539 14.6320858001709 13.9681749343872 13.4387722015381 12.9366426467896 11.7818689346313 10.8994436264038 13.345703125 15.347827911377 17.2383060455322 19.5948505401611 21.2563991546631 19.5034255981445 17.7332172393799 16.3538455963135 14.2670488357544 13.4465522766113 13.3770580291748 12.1356382369995 11.2256374359131 9.89680004119873 8.02818584442139 7.85606002807617 8.16407775878906 8.10910224914551 7.95233488082886 7.88967227935791 7.75199460983276 7.30304527282715 6.74603843688965 6.71643972396851 6.81660747528076 6.75045156478882 6.013343334198 5.44165515899658 5.0745792388916 4.81873369216919 4.48248529434204 4.11101675033569 3.78777146339417 3.48461484909058 3.21797895431519 3.25893068313599 3.29563856124878 3.22803616523743 3.1635844707489 3.05954670906067 2.87614250183105 2.52661991119385 2.2292377948761 2.29440999031067 2.19101977348328 2.28834795951843 2.37112975120544 2.38521003723145 2.46088433265686 2.65026235580444 2.73313283920288 2.52632355690002 2.22060680389404 2.25480580329895 2.60733246803284 2.67967748641968 2.71732044219971 2.68015599250793 2.45892858505249 2.27539014816284 1.82542753219604 1.53912603855133 1.27095079421997 1.11993741989136 1.12293612957001 1.13495028018951 0.887586116790771 0.487220644950867 0.0448146536946297 -0.282019883394241 -0.405982404947281 -0.478150010108948 -0.431397557258606 -0.408041715621948 -0.380098879337311 -0.360925853252411 -0.326998859643936 -0.372565776109695 -0.318055152893066 -0.272233188152313 -0.166107878088951 -0.163291111588478 -0.133912980556488 -0.112904503941536 -0.163207307457924 -0.255540430545807 -0.363655567169189 -0.365420550107956 -0.328855156898499 -0.218302100896835 -0.217538148164749 -0.158422455191612 -0.118350580334663 -0.0720241442322731 0.117952667176723 0.611382901668549 0.764422237873077 0.786744117736816 0.729118704795837 0.616391956806183 0.441924184560776 0.467455804347992 0.510966718196869 0.657224535942078 0.793975174427032 0.83900398015976 0.826632618904114 0.895351231098175 0.75972580909729 0.654490530490875 0.514622867107391 0.432662039995193 0.403865337371826 0.402235001325607 0.413598984479904 0.40386763215065 0.362334161996841 0.330235987901688 0.375313520431519 0.413738340139389 0.246650263667107 0.184700131416321 0.364440321922302 0.435399889945984 0.404060006141663 0.520086646080017 0.568940460681915 0.515474557876587 0.471033692359924 0.445857346057892 0.438642144203186 0.453818887472153 0.489433079957962 0.53345650434494 0.595048248767853 0.652041137218475 0.749455094337463 0.872797787189484 0.974649786949158 0.994340240955353 0.970076739788055 0.962651968002319 1.34355247020721
12.7846870422363 15.4754467010498 15.3888807296753 13.1622266769409 12.4466848373413 11.8744888305664 10.2019929885864 10.6891717910767 12.3371543884277 11.8527526855469 11.1958990097046 10.8677253723145 11.494213104248 11.2580099105835 13.4408359527588 17.1031646728516 19.6074867248535 19.5243701934814 16.9457740783691 15.4271678924561 16.3792705535889 15.0997676849365 14.0900545120239 13.5741930007935 13.0876226425171 12.4159202575684 11.8248138427734 11.0349426269531 10.3720998764038 12.6998996734619 14.8372402191162 15.8442583084106 16.3897171020508 17.3847579956055 16.3343906402588 15.4835386276245 14.4488897323608 13.7239828109741 12.1700305938721 10.6287231445312 9.73053073883057 8.23989677429199 6.98682928085327 7.29415702819824 7.63278293609619 7.60475587844849 7.462317943573 7.38439226150513 7.25717926025391 6.82572269439697 6.36077451705933 6.35241174697876 6.42873096466064 6.30637454986572 6.00235843658447 5.49425411224365 4.99630403518677 4.75432538986206 4.44816732406616 4.23407506942749 3.81780052185059 3.40623545646667 3.15851831436157 3.1032338142395 3.12594246864319 3.12323117256165 3.03440713882446 2.90029287338257 2.70459079742432 2.51186299324036 2.28614377975464 2.18188834190369 2.09305620193481 2.16640019416809 2.24592041969299 2.24394941329956 2.30133605003357 2.53148317337036 2.61432099342346 2.5084502696991 2.33434534072876 2.12613010406494 2.29201102256775 2.54797005653381 2.59506440162659 2.55635452270508 2.4349319934845 2.23073863983154 2.08835387229919 1.49405562877655 1.21564090251923 1.04554581642151 1.04346656799316 0.992332696914673 0.637335538864136 0.220212936401367 -0.168263718485832 -0.407451927661896 -0.495719939470291 -0.565895259380341 -0.560299634933472 -0.518458664417267 -0.491441339254379 -0.440876662731171 -0.430248558521271 -0.449668049812317 -0.413212805986404 -0.402523308992386 -0.391774445772171 -0.383001655340195 -0.357148200273514 -0.3613540828228 -0.39539110660553 -0.423946619033813 -0.443516463041306 -0.429084599018097 -0.374698787927628 -0.336306840181351 -0.288484156131744 -0.230433687567711 -0.177589774131775 -0.118005745112896 0.0688007697463036 0.566215991973877 0.726338326931 0.757063031196594 0.694992005825043 0.688241958618164 0.594419598579407 0.454975038766861 0.496573150157928 0.637129366397858 0.770432412624359 0.809959590435028 0.80719405412674 0.795033097267151 0.749872207641602 0.637779593467712 0.500508725643158 0.422668099403381 0.39446684718132 0.38992041349411 0.390662103891373 0.39532658457756 0.393508046865463 0.349281013011932 0.2713503241539 0.270417600870132 0.241051718592644 0.303489774465561 0.488319367170334 0.490243852138519 0.388262450695038 0.506864845752716 0.556658864021301 0.527746915817261 0.482358366250992 0.447467237710953 0.432281911373138 0.431328952312469 0.451843053102493 0.492763787508011 0.543919146060944 0.579966306686401 0.648579239845276 0.707106113433838 0.793605148792267 0.909941077232361 0.883926510810852 0.844835460186005 0.847479462623596
14.7865419387817 14.3202047348022 13.7327156066895 13.0541143417358 12.0611000061035 11.2067346572876 9.86177158355713 9.77841567993164 11.1766195297241 10.7063121795654 9.98271560668945 10.0983037948608 10.4557123184204 10.3118314743042 10.1113710403442 13.3996467590332 15.4893636703491 15.7033071517944 14.581449508667 13.333927154541 13.4996538162231 13.7156343460083 13.0891609191895 12.9192628860474 12.6452159881592 12.0420246124268 11.6799783706665 10.8050708770752 10.0794916152954 11.2096290588379 13.3500280380249 15.0072841644287 16.2480659484863 17.1234474182129 15.9722290039062 14.8727445602417 13.265851020813 11.9235334396362 10.6935720443726 9.70087718963623 8.82690620422363 7.83597183227539 6.77703380584717 6.84088659286499 7.16547918319702 7.063636302948 7.05518341064453 6.96878862380981 6.84828615188599 6.4409294128418 6.21490097045898 6.04579162597656 6.08809328079224 6.07134962081909 5.87330198287964 5.43958473205566 4.8895378112793 4.66645336151123 4.41173267364502 4.18306446075439 3.8503110408783 3.39587211608887 3.13107776641846 3.04121994972229 3.05511569976807 3.04989075660706 2.95224571228027 2.79406762123108 2.64299440383911 2.51339221000671 2.15070128440857 2.06523370742798 2.02852773666382 2.05768728256226 2.02517294883728 2.12994980812073 2.15667390823364 2.34845638275146 2.44257521629333 2.50467371940613 2.31343722343445 2.03609752655029 2.19220304489136 2.43609380722046 2.50672817230225 2.48225879669189 2.42479038238525 2.25966858863831 2.07308554649353 1.51381063461304 1.26066088676453 1.05765986442566 0.941485702991486 0.728916168212891 0.382531374692917 0.0263685770332813 -0.27849155664444 -0.449776023626328 -0.532268166542053 -0.601265728473663 -0.659822940826416 -0.633417129516602 -0.603541731834412 -0.559594392776489 -0.532300710678101 -0.580715835094452 -0.578954935073853 -0.592882215976715 -0.537247896194458 -0.534079134464264 -0.579804420471191 -0.516161322593689 -0.503820657730103 -0.506918549537659 -0.501133918762207 -0.499086797237396 -0.44439908862114 -0.396288722753525 -0.348753720521927 -0.295820683240891 -0.236640825867653 -0.16136708855629 -0.0794027298688889 0.311904489994049 0.56009840965271 0.70449686050415 0.713477492332458 0.665954113006592 0.566032826900482 0.440221726894379 0.47367325425148 0.531061410903931 0.672189235687256 0.758276879787445 0.784435391426086 0.774822115898132 0.744971454143524 0.668336391448975 0.561325907707214 0.45389324426651 0.397211730480194 0.37972566485405 0.378751069307327 0.391071349382401 0.38820892572403 0.347330212593079 0.26768770813942 0.216571688652039 0.193007528781891 0.269394338130951 0.53385329246521 0.411441266536713 0.329427629709244 0.390919119119644 0.500945687294006 0.540898561477661 0.495460271835327 0.44824630022049 0.419280201196671 0.405516982078552 0.41542786359787 0.44616636633873 0.504053950309753 0.566328465938568 0.625981569290161 0.648080468177795 0.742598652839661 0.883794188499451 0.852608561515808 0.808712244033813 0.771060883998871
10.742636680603 11.960150718689 12.3079242706299 12.1992330551147 11.3281803131104 10.3263940811157 9.4234504699707 8.76186084747314 8.73398685455322 9.95562744140625 9.68796062469482 9.38333320617676 9.31042289733887 9.17246913909912 8.84039688110352 10.1258020401001 12.4164886474609 13.6604747772217 13.8566732406616 12.7745065689087 12.5784158706665 12.681037902832 12.3876352310181 12.1594877243042 12.1243352890015 11.7385416030884 11.217474937439 10.4506187438965 9.94952392578125 10.7649555206299 12.3726768493652 13.7274599075317 14.8685712814331 15.6493711471558 14.4510803222656 13.7011661529541 12.692063331604 10.9065322875977 9.68273544311523 8.70296096801758 7.86081218719482 7.02776670455933 6.07310247421265 5.9675145149231 6.35474109649658 6.73608303070068 6.73252439498901 6.61631631851196 6.51623106002808 6.40290975570679 6.01523017883301 5.72466993331909 5.75963449478149 5.82604551315308 5.65489912033081 5.13990640640259 4.85887289047241 4.63029956817627 4.43239736557007 4.09502363204956 3.7872428894043 3.54498696327209 3.20638585090637 2.99047875404358 3.00506711006165 2.97835922241211 2.88861036300659 2.76853680610657 2.60144734382629 2.38879346847534 2.02628064155579 1.85700845718384 1.94174563884735 1.87762224674225 1.93996143341064 2.03150868415833 2.0600323677063 2.14122486114502 2.31628203392029 2.40320086479187 2.22250247001648 1.95780694484711 1.98151636123657 2.3106963634491 2.37818455696106 2.40845251083374 2.33173227310181 2.17777466773987 1.99009537696838 1.58092629909515 1.32486891746521 1.05762040615082 0.856234610080719 0.522185206413269 0.175758212804794 -0.076584666967392 -0.331590086221695 -0.488171219825745 -0.560407340526581 -0.634897172451019 -0.709295332431793 -0.724260449409485 -0.705980241298676 -0.667080938816071 -0.653665125370026 -0.702790975570679 -0.699648678302765 -0.699203491210938 -0.72783899307251 -0.670321464538574 -0.680572092533112 -0.660699427127838 -0.640126347541809 -0.644650638103485 -0.641710638999939 -0.611087262630463 -0.568865776062012 -0.503160893917084 -0.427626878023148 -0.344373047351837 -0.285081088542938 -0.210179924964905 -0.134375780820847 0.029474725946784 0.508670270442963 0.64555698633194 0.669394314289093 0.626614511013031 0.533545434474945 0.372265189886093 0.376794815063477 0.386362433433533 0.536402463912964 0.671027362346649 0.725525856018066 0.744095504283905 0.744681715965271 0.707217514514923 0.602928042411804 0.472197532653809 0.396109521389008 0.371324062347412 0.37032362818718 0.376127630472183 0.373941034078598 0.33273833990097 0.282346904277802 0.168395891785622 0.174631148576736 0.217622444033623 0.45004865527153 0.349530696868896 0.291672885417938 0.385738104581833 0.493740886449814 0.534225344657898 0.486316025257111 0.441687524318695 0.4135961830616 0.402508318424225 0.395133078098297 0.40363746881485 0.446504503488541 0.515358328819275 0.566041529178619 0.606709837913513 0.723020315170288 0.864934086799622 0.837042391300201 0.793053328990936 0.773006618022919
