NCOLS 174
NROWS 32
XLLCORNER 353856
YLLCORNER 6700224
CELLSIZE 16 
NODATA_value -3.4e+38 
3.3102650642395 3.31012892723083 3.01219034194946 4.57621622085571 2.83148145675659 2.30139231681824 2.06482791900635 2.50201654434204 3.11405920982361 3.76721024513245 3.12921285629272 3.60013937950134 4.88861274719238 3.59988903999329 3.4392249584198 8.62935924530029 6.16459369659424 4.77201128005981 2.93098664283752 2.66076803207397 2.47396659851074 2.35577511787415 2.26434636116028 2.56378841400146 3.01439356803894 3.75576257705688 3.67903995513916 5.0102801322937 4.64238166809082 4.32874059677124 3.78530287742615 3.96181726455688 3.7625093460083 3.94289970397949 4.51957273483276 4.29998636245728 4.09299516677856 5.0914363861084 4.89254570007324 4.70844888687134 5.4298415184021 10.9730367660522 2.68015551567078 2.29388189315796 4.00160264968872 2.0942497253418 15.7595901489258 6.84233474731445 7.49331903457642 22.4743022918701 19.9377212524414 9.74119663238525 14.7698593139648 9.99888229370117 5.60156631469727 1.3804270029068 1.14247584342957 0.806902587413788 1.26378440856934 5.39127683639526 37.0833320617676 5.85963869094849 21.9504489898682 11.8803787231445 6.18343162536621 4.4599404335022 5.05675840377808 8.19304180145264 8.18713283538818 8.27118968963623 4.2674708366394 5.18199300765991 11.7022294998169 4.12272787094116 3.69150876998901 1.39010071754456 29.7922763824463 2.89892554283142 0.900176763534546 18.8340911865234 2.1690628528595 1.63730728626251 11.7365589141846 17.4825744628906 7.7365984916687 -0.857559978961945 -1.71655118465424 -1.95202684402466 -1.94759976863861 42.0845375061035 3.82395792007446 0.475801885128021 12.5718002319336 17.6769580841064 -1.06992828845978 4.83823490142822 6.29627132415771 25.3478679656982 3.56163644790649 2.86929535865784 2.59278583526611 -1.42786204814911 2.51291346549988 -1.82972741127014 2.13129019737244 -2.22455382347107 -2.45173478126526 3.28028607368469 20.0220966339111 21.9617576599121 24.8104515075684 19.3036212921143 10.2370328903198 28.1691246032715 2.91173005104065 1.16561734676361 6.99365091323853 0.948249220848083 0.370734363794327 9.46797561645508 0.618898987770081 -0.517418146133423 24.2862586975098 55.7398300170898 27.410852432251 26.5136451721191 16.3817291259766 13.6752614974976 9.95901393890381 1.39783942699432 4.03161668777466 5.30754899978638 1.06289911270142 0.773188054561615 0.0463434495031834 -0.27106562256813 -0.908142924308777 -1.4214551448822 -2.56283378601074 20.5114612579346 -2.3718957901001 22.693431854248 -2.39313840866089 -2.26283383369446 -2.66099214553833 12.9118852615356 17.9420261383057 18.5341892242432 19.19997215271 15.9223651885986 42.3757171630859 16.7619647979736 11.2358083724976 7.60081768035889 19.1994819641113 22.4998111724854 17.4404945373535 11.2932472229004 6.69398403167725 2.3185932636261 -0.340816259384155 0.284714072942734 -0.365874409675598 7.90760469436646 4.36123180389404 13.073070526123 10.9263830184937 9.19729137420654 26.3524398803711 12.6780595779419 25.2049617767334 23.3293838500977 15.7821521759033 22.7401962280273
6.06691074371338 4.35009098052979 3.98459458351135 3.03111672401428 2.44971108436584 1.8571298122406 2.46329617500305 2.19361257553101 2.59454393386841 3.12047290802002 2.35234475135803 5.4273829460144 3.73202037811279 3.82513833045959 3.47294974327087 3.30702543258667 3.15170383453369 3.02345156669617 3.91445541381836 3.19872975349426 0.580344617366791 11.6449384689331 10.6527194976807 15.5354700088501 11.1533470153809 1.95032489299774 1.86140120029449 1.72674763202667 1.69939076900482 2.92431926727295 3.9240779876709 3.84234476089478 3.50070929527283 3.18005895614624 3.0370466709137 3.25928163528442 3.12399959564209 3.24922132492065 3.70973253250122 3.54163718223572 4.44889450073242 4.28055667877197 2.76103234291077 3.40490317344666 14.8589134216309 11.1548938751221 12.0138301849365 13.793664932251 18.1742897033691 13.8067874908447 22.5153999328613 15.7940769195557 7.12469244003296 4.03644514083862 2.64023995399475 1.48596930503845 0.940024852752686 0.879509449005127 0.713499009609222 36.4390029907227 19.4289417266846 17.1734447479248 5.31748580932617 7.86776542663574 7.27477312088013 4.46509170532227 1.47456085681915 4.27587604522705 33.2710113525391 8.39372730255127 6.68911790847778 6.61995410919189 2.52618145942688 17.0850982666016 1.60132777690887 7.28365230560303 1.60702884197235 3.84811663627625 12.312912940979 4.89818382263184 9.06092643737793 4.21198177337646 5.69705152511597 30.4527568817139 6.13118934631348 -0.776629567146301 -1.42919218540192 -1.70790946483612 -2.047358751297 17.1857585906982 18.2759094238281 16.3896465301514 10.041618347168 -0.750726461410522 -1.87759721279144 23.2933826446533 18.8438091278076 23.2243156433105 10.9332904815674 8.74329471588135 6.1842188835144 2.0630738735199 -1.12107932567596 7.77640819549561 -1.82890605926514 -2.28046202659607 18.9480781555176 -2.44303822517395 32.4838752746582 18.6416473388672 11.516016960144 8.72336196899414 4.10272741317749 13.6202630996704 1.81989443302155 4.59890747070312 -0.69106912612915 -0.964690864086151 -0.526562452316284 9.75612449645996 -0.435070604085922 3.59866046905518 3.20294141769409 52.3071517944336 29.6221485137939 21.7108116149902 11.3389377593994 7.23925876617432 4.74727296829224 1.46676993370056 0.726893544197083 10.5394687652588 0.684385716915131 13.1564102172852 0.816837131977081 0.169003665447235 -0.147159025073051 -1.02148020267487 21.9724960327148 -1.30549108982086 -2.21720194816589 2.47790551185608 -0.733893752098083 6.4606876373291 2.60079193115234 9.88711929321289 14.5493764877319 11.7029361724854 9.44793319702148 23.0705604553223 8.93021106719971 51.8202743530273 17.7851181030273 13.049262046814 7.26085567474365 17.4728679656982 7.4839653968811 10.1047992706299 5.28317928314209 1.99774074554443 1.57029497623444 0.728974044322968 0.712185740470886 7.09887313842773 8.96719169616699 16.9691410064697 15.8831090927124 13.9390449523926 12.772518157959 31.2083969116211 14.0690965652466 31.2270984649658 18.896520614624 15.477484703064
1.61638605594635 4.54302310943604 4.37718820571899 3.52755951881409 3.02881145477295 2.86698913574219 2.14973402023315 1.78981959819794 2.7148654460907 2.41362953186035 3.11379218101501 4.66876935958862 4.53829383850098 3.49425578117371 2.87668895721436 2.58636283874512 2.43770503997803 2.65343189239502 1.00009548664093 11.2399501800537 5.82211017608643 6.62395620346069 14.3621244430542 15.3985071182251 11.2333917617798 8.25482273101807 5.84492444992065 2.34896659851074 1.78953278064728 1.78774750232697 1.6791797876358 2.72657322883606 2.58414554595947 3.26708459854126 3.08226466178894 2.9176926612854 2.63290548324585 2.61942911148071 2.86075949668884 2.74805331230164 2.83542513847351 3.23399353027344 1.73457181453705 2.61280870437622 16.6496906280518 10.740104675293 14.9357423782349 17.1721878051758 14.5102491378784 14.227876663208 11.6416425704956 9.79548263549805 7.78329944610596 3.27293801307678 1.52768981456757 0.671476423740387 11.5636186599731 0.73969554901123 19.2914886474609 24.6209449768066 19.1213073730469 14.3118839263916 8.39479064941406 6.64795064926147 8.42665576934814 4.69803762435913 3.58909463882446 3.11594724655151 27.2895793914795 14.975564956665 16.4837493896484 3.92213773727417 19.1836776733398 1.49406611919403 3.41896200180054 10.8306646347046 1.31928896903992 1.30358588695526 13.9030284881592 7.73377513885498 2.9518985748291 3.12463903427124 1.5499005317688 12.4249782562256 2.78265929222107 0.187143594026566 -1.63525009155273 -1.86368465423584 -2.15427899360657 1.35173320770264 23.2404880523682 -0.415074527263641 -2.04476499557495 7.71687889099121 -2.20137190818787 16.4922199249268 33.3458786010742 13.0657796859741 12.0195817947388 0.733935713768005 15.2542552947998 2.8937611579895 5.39938163757324 -1.15051984786987 -1.65786755084991 -0.906323313713074 -1.9043904542923 11.0910167694092 3.94807600975037 12.1125802993774 9.72160720825195 8.6784200668335 -0.450374186038971 10.6167945861816 -0.230964571237564 6.02058601379395 -1.53785645961761 -2.28151082992554 4.95116996765137 -2.95308470726013 -2.0449640750885 10.0775938034058 4.68342733383179 51.4570770263672 31.7630767822266 19.5063228607178 43.9603500366211 6.19122695922852 23.6794185638428 3.97222685813904 2.42313551902771 1.51645195484161 0.279019176959991 4.8880786895752 0.260812133550644 0.233522459864616 0.190514072775841 4.05838012695312 -0.675226271152496 6.05372667312622 -1.50075960159302 4.34228467941284 -1.89916563034058 33.4330024719238 6.68501567840576 17.9679775238037 7.91550779342651 7.86301517486572 6.46123266220093 8.63898277282715 12.4328699111938 31.8404064178467 38.7572250366211 24.8259811401367 15.568943977356 9.28481674194336 10.7944116592407 6.04335641860962 5.71648645401001 4.53255748748779 2.76584124565125 1.88965797424316 1.81622171401978 12.4070262908936 11.6376256942749 26.0738410949707 24.0777549743652 21.039436340332 8.68413639068604 33.5466194152832 22.0067977905273 23.7482070922852 32.9813270568848 21.6495971679688
1.6508252620697 2.36359143257141 3.53152370452881 3.07919430732727 3.68726086616516 3.17853331565857 2.93136501312256 2.41054058074951 2.13046860694885 2.22816252708435 5.00825500488281 4.02966022491455 3.43598031997681 3.03236222267151 2.87509942054749 3.28253889083862 3.41961169242859 0.111544638872147 -0.811272025108337 15.9910411834717 32.239013671875 10.5821933746338 8.73397636413574 6.34249925613403 5.31371641159058 8.38792514801025 7.33275890350342 6.56266021728516 5.18227529525757 3.93698501586914 1.93690097332001 2.07645153999329 1.72400271892548 1.59652423858643 1.53921103477478 1.48011708259583 2.73162031173706 2.59803652763367 2.47415590286255 2.36103940010071 2.29463911056519 2.55874252319336 2.46856594085693 2.51272082328796 16.4772872924805 16.3943271636963 11.8336811065674 9.09631633758545 7.34818077087402 6.25345611572266 7.28450965881348 7.21198034286499 6.76392126083374 2.82245874404907 0.995906293392181 1.44219303131104 0.673671245574951 -0.260419338941574 22.7023906707764 9.70703411102295 23.9545021057129 9.94368457794189 9.13845443725586 4.64473104476929 13.6151351928711 4.97528600692749 7.1956672668457 19.7711029052734 3.7130606174469 18.8479537963867 10.7447147369385 6.93923234939575 6.12596082687378 3.77513670921326 2.64135479927063 3.56370091438293 2.02362728118896 1.79439318180084 15.7493162155151 9.81149578094482 6.18893766403198 1.8872709274292 1.27807867527008 0.784935414791107 25.2349185943604 0.341066747903824 -0.0708306729793549 -1.66444432735443 -2.09015035629272 -2.31063747406006 12.7814321517944 11.2541351318359 -2.51992130279541 -2.62493634223938 22.3918895721436 28.75364112854 21.7917633056641 17.6905822753906 14.3336229324341 10.5388593673706 6.37560129165649 12.3407249450684 19.5348663330078 -0.56107097864151 -1.7893373966217 -2.02336764335632 29.6458721160889 -1.68349635601044 3.47079396247864 11.7004108428955 4.93865776062012 3.7841956615448 5.31394004821777 24.9460487365723 -0.348075538873672 -1.7060010433197 -1.66527938842773 -3.75664043426514 -4.04540348052979 6.18667650222778 1.41070079803467 3.07465195655823 16.5281143188477 35.8534126281738 23.0565605163574 23.3162364959717 47.4176864624023 9.53715419769287 6.21419763565063 3.46234631538391 3.2964243888855 2.34410214424133 0.810738980770111 0.674296796321869 0.184108510613441 0.99633127450943 -0.580598175525665 -0.959407031536102 -1.11966645717621 -1.42924845218658 24.643482208252 -1.11117362976074 15.0333213806152 18.5910263061523 11.2933015823364 6.64747714996338 7.84383964538574 19.8641738891602 5.50386142730713 16.3466281890869 22.0848636627197 15.9885482788086 29.3922138214111 30.6968936920166 21.4636535644531 15.3305435180664 8.22816467285156 7.39818000793457 4.29362773895264 7.82238388061523 2.6262743473053 9.20107841491699 9.70247554779053 13.960599899292 13.1302709579468 34.9115715026855 20.3102931976318 16.2288494110107 22.349308013916 19.0621299743652 26.935188293457 21.6107215881348 38.269157409668 20.4612808227539
0.319661647081375 2.33161783218384 2.02026271820068 4.22188234329224 4.13810014724731 2.8862509727478 2.56767845153809 2.72219014167786 2.27933692932129 4.20670604705811 3.58535385131836 4.13230800628662 3.63586187362671 3.52550983428955 3.9395055770874 2.92320561408997 2.15070128440857 0.507246911525726 0.352449864149094 17.5307750701904 7.56108093261719 30.5951099395752 9.84596824645996 12.8589715957642 5.87125587463379 5.29009246826172 3.97682738304138 3.37061357498169 5.76656866073608 5.38129758834839 5.01487255096436 3.9958028793335 3.21210837364197 1.64595520496368 1.61693179607391 1.5820460319519 1.48530697822571 1.42697298526764 1.37174570560455 1.94959795475006 2.28286147117615 2.18342566490173 2.10626792907715 2.02436661720276 2.25872921943665 2.19297647476196 2.25111746788025 6.99203872680664 6.989013671875 5.90753746032715 5.08266735076904 4.52565670013428 3.87329030036926 1.98515629768372 1.82338976860046 1.65997660160065 1.34242355823517 26.9635791778564 14.6297330856323 14.388331413269 11.4018468856812 9.79494476318359 15.4650087356567 5.82701206207275 4.1985878944397 9.26031589508057 13.6461324691772 5.64556980133057 15.5158138275146 6.25012350082397 10.7876653671265 3.61563372612 4.17103719711304 3.62774205207825 3.95462870597839 1.57924354076385 1.17759883403778 1.56470966339111 14.6410484313965 6.93956184387207 5.23011064529419 2.80930924415588 1.57047760486603 0.480962663888931 12.8291053771973 4.10530185699463 0.0179406963288784 -0.207860812544823 -1.732142329216 9.18658447265625 9.8787784576416 7.10224437713623 0.768316864967346 -2.68907952308655 31.0725345611572 11.9865713119507 17.584623336792 12.4515228271484 24.3152294158936 12.8282957077026 9.88941478729248 7.40131807327271 34.9373054504395 -0.244433596730232 16.8344078063965 2.72786521911621 21.3689422607422 14.1257133483887 7.47219228744507 11.4992551803589 3.90794062614441 0.0851630046963692 8.56715393066406 -2.77999973297119 3.38196086883545 -3.14579200744629 -2.95496940612793 -3.8300678730011 -3.64366888999939 5.85471296310425 5.50495862960815 1.5571551322937 -1.01180636882782 48.0748329162598 18.304313659668 16.9642925262451 21.7518005371094 15.4467601776123 6.49808406829834 4.2116231918335 14.4844608306885 1.53936231136322 0.364788472652435 0.166919276118279 -0.64671403169632 -0.513808250427246 -0.750011622905731 -0.987505972385406 -1.69086837768555 21.3829727172852 -1.39131200313568 -1.51653015613556 18.3922653198242 20.6720161437988 8.18037796020508 6.14568758010864 2.13870573043823 20.6257286071777 6.43876028060913 17.4626407623291 27.1813564300537 46.7137031555176 27.0871887207031 30.0157909393311 22.3930644989014 17.6277484893799 15.7108335494995 11.6907224655151 10.6369686126709 5.19679880142212 3.96846199035645 8.87313270568848 7.65788078308105 6.97488880157471 28.6744594573975 34.5311546325684 26.0089797973633 21.1648254394531 34.0132484436035 28.8887119293213 23.1533317565918 19.6979656219482 23.5591564178467 23.3082542419434
1.01859974861145 1.94965898990631 1.77456164360046 4.5299768447876 3.92051649093628 3.29443001747131 2.71692037582397 2.22779250144958 2.48128962516785 2.67589426040649 4.00547122955322 3.40881013870239 3.38527631759644 5.07075691223145 2.99292302131653 2.09144496917725 1.74261498451233 1.46584141254425 1.50857222080231 2.68244957923889 0.189234733581543 35.6843452453613 9.33759307861328 14.1864280700684 8.84279537200928 7.58104181289673 5.66992664337158 4.37658309936523 4.12886905670166 3.19249105453491 2.77613019943237 4.55257511138916 4.41423273086548 4.05893993377686 3.26420831680298 2.54810047149658 1.56310379505157 1.52452826499939 1.47638559341431 1.37676608562469 1.30611670017242 1.25105595588684 1.73760759830475 1.93170952796936 1.84538865089417 1.82676780223846 1.81276953220367 2.05162239074707 1.99251306056976 2.03851938247681 4.38715744018555 4.35679340362549 3.72397232055664 2.9042603969574 1.61940050125122 22.5594635009766 2.72451710700989 1.43985164165497 13.7762689590454 13.5293169021606 7.1788501739502 11.0974597930908 10.1232128143311 3.05642700195312 19.2867870330811 3.58373117446899 36.5651626586914 15.0583877563477 6.66869783401489 3.35296297073364 3.21092057228088 1.98785853385925 31.7708396911621 3.37455248832703 3.26788330078125 2.99845385551453 2.90304088592529 9.87879848480225 9.24516677856445 2.52267837524414 1.57497310638428 1.05008804798126 0.963205099105835 6.55549716949463 29.1833019256592 16.7871990203857 9.43873882293701 0.134800478816032 -0.501816630363464 -0.926328778266907 5.97996139526367 5.37312889099121 -2.18120002746582 27.4528255462646 8.44043827056885 19.7249813079834 13.5316905975342 16.8769207000732 12.1094093322754 12.2242879867554 11.6559267044067 8.23630428314209 7.34772634506226 27.1160659790039 10.0495147705078 26.7520446777344 17.4915161132812 11.9920120239258 11.3659744262695 4.13491344451904 17.6346073150635 4.07822322845459 -2.90919518470764 0.0255776904523373 5.71655511856079 -3.30608367919922 -3.52379608154297 -3.79735422134399 -3.90062737464905 -4.20778465270996 -4.3143458366394 -4.36151266098022 25.2937164306641 23.2674236297607 35.048095703125 27.6930980682373 20.3448963165283 10.7561044692993 8.65923118591309 6.00254344940186 12.4322967529297 4.02595138549805 1.55162215232849 -0.784800946712494 -0.851405441761017 -1.20868408679962 -1.56774127483368 -1.56258058547974 -1.21154403686523 2.17756819725037 7.08092212677002 0.602035760879517 21.5945529937744 8.27985286712646 7.0081090927124 7.05270004272461 16.5766124725342 16.3875179290771 13.3597507476807 14.2635259628296 21.0526943206787 21.4434719085693 40.3424301147461 23.3473815917969 18.9171905517578 16.5979557037354 14.6426753997803 13.436695098877 12.0467367172241 10.7921590805054 8.41497135162354 26.0690422058105 25.9946517944336 28.290641784668 34.2922744750977 34.6525573730469 27.5635929107666 22.9614067077637 21.7183818817139 21.6574039459229 19.5206146240234 17.9542922973633 17.1252250671387 15.6302757263184
1.29668092727661 0.94348019361496 1.505126953125 2.82175493240356 4.26381301879883 3.11936712265015 2.47193741798401 4.06927824020386 2.79651784896851 3.02544474601746 2.39484429359436 2.29570579528809 4.24011468887329 3.34802389144897 2.26230406761169 2.02795624732971 1.78345787525177 1.61777806282043 0.833586513996124 0.684119701385498 -0.00324319791980088 0.59143078327179 0.015116922557354 38.1681442260742 10.245867729187 6.85254383087158 6.56321334838867 6.16129207611084 5.76466512680054 4.36849451065063 3.61978816986084 3.46382665634155 2.80696654319763 2.47497797012329 3.87085437774658 3.66367840766907 3.44812083244324 2.71599459648132 2.06717681884766 1.3978385925293 1.35823857784271 1.32314229011536 1.26761519908905 1.18947613239288 1.11580801010132 1.49601709842682 1.70039665699005 1.64099025726318 1.65985226631165 1.64550352096558 1.87776553630829 1.81492507457733 1.82304227352142 2.79204750061035 2.21756362915039 2.2716863155365 1.50692653656006 1.54929506778717 19.5787811279297 15.5681676864624 12.8513870239258 10.2689437866211 5.22819852828979 6.215087890625 6.42358636856079 18.6220188140869 15.6369276046753 23.2663955688477 10.4224510192871 3.02727007865906 2.9494194984436 4.21148586273193 16.7939796447754 14.0385913848877 9.26061630249023 6.54480409622192 2.5889253616333 2.38989281654358 1.56678807735443 1.51565325260162 1.14180052280426 2.40654516220093 0.4917131960392 1.47714912891388 1.04878675937653 30.0694999694824 10.504319190979 3.45240712165833 -0.676265716552734 -1.04084730148315 -0.87211000919342 -1.76917123794556 -1.83801794052124 21.1927604675293 21.3535327911377 11.2907514572144 12.7023496627808 5.36690378189087 12.3546361923218 11.9986143112183 15.493634223938 11.3805856704712 7.00768947601318 5.97984743118286 24.0479049682617 4.77938795089722 11.7350339889526 13.4172878265381 10.9190435409546 8.82729148864746 7.17844486236572 2.3437614440918 -2.88917589187622 -3.19674968719482 -3.42386698722839 -3.58264923095703 9.57596874237061 -4.10800313949585 -4.26503467559814 3.13904309272766 -4.12664031982422 7.07367372512817 19.9460124969482 25.4896697998047 24.6336517333984 23.2286643981934 20.490348815918 18.838399887085 12.116060256958 6.26531744003296 18.8474750518799 4.22938394546509 7.62847232818604 1.34053039550781 -0.370847642421722 -1.6204708814621 4.32398080825806 5.08538913726807 -1.68394136428833 1.02494359016418 7.02590465545654 3.54135322570801 1.68437826633453 12.6926307678223 4.28342914581299 13.3757963180542 13.0535230636597 12.7642574310303 10.3905296325684 28.7703495025635 31.7564754486084 34.4125518798828 28.6115798950195 22.8040237426758 19.0486221313477 16.8864669799805 14.9140005111694 13.5344257354736 12.2870607376099 10.8826198577881 10.2282609939575 9.52870273590088 12.3264646530151 10.572714805603 18.6871128082275 19.5209770202637 18.7546768188477 18.777473449707 19.2085056304932 17.5664806365967 16.24147605896 15.4367837905884 16.0546970367432 14.9176988601685
0.624964833259583 0.835153520107269 1.0890554189682 2.31717848777771 2.43436336517334 1.67386591434479 4.70437526702881 3.10671472549438 3.08116626739502 2.48307132720947 2.32977843284607 2.31547713279724 5.00764513015747 2.17118453979492 1.92524993419647 1.71529281139374 1.81877613067627 1.62916874885559 0.877916395664215 7.84242916107178 2.60663723945618 3.08073377609253 -0.323660343885422 -0.416809946298599 30.3802967071533 8.90801239013672 19.6394424438477 6.46209764480591 4.9316143989563 5.22032737731934 4.98632287979126 4.77586126327515 3.66105794906616 3.23148989677429 3.04109120368958 2.37670183181763 2.01623868942261 3.15778231620789 3.01173424720764 2.86714172363281 2.72743153572083 2.15904116630554 1.66383111476898 1.24647068977356 1.18534862995148 1.13143253326416 1.08185756206512 1.03577470779419 1.36568796634674 1.52562141418457 1.46579921245575 1.48613226413727 1.44232165813446 1.62965285778046 1.48071587085724 1.35644376277924 1.47106659412384 1.44776964187622 2.11270618438721 1.39049589633942 1.39421916007996 15.9981327056885 4.50101280212402 4.09084320068359 34.6451263427734 9.67895984649658 11.5569972991943 9.1967945098877 4.72130060195923 2.42543196678162 2.38974809646606 9.48794174194336 8.41953945159912 9.12964916229248 3.05794668197632 3.13659977912903 11.9938802719116 4.05329990386963 2.59544634819031 1.75177764892578 0.510252118110657 1.11344015598297 0.544349253177643 3.67753100395203 4.70767784118652 15.960467338562 14.5302391052246 11.5191783905029 3.37977457046509 -0.578264832496643 -0.755877733230591 7.46838903427124 7.24550580978394 17.9918575286865 24.0658721923828 16.9882316589355 13.3516969680786 9.92328548431396 8.4706563949585 13.1997489929199 13.6676177978516 10.8953676223755 6.62434959411621 21.5413227081299 11.3894033432007 9.90699768066406 4.85574769973755 27.6290664672852 7.31492900848389 4.71885776519775 4.20536327362061 4.71611261367798 0.516863942146301 -2.01952219009399 -2.57959461212158 3.29901909828186 -3.78359961509705 -4.22291707992554 2.98669075965881 12.2144041061401 6.10066986083984 3.49000811576843 11.1540832519531 24.0200023651123 16.5609493255615 23.7329368591309 24.1488857269287 18.3532085418701 13.8295240402222 9.18980407714844 7.14133214950562 5.55893564224243 4.48792600631714 7.09976625442505 1.8673540353775 0.992048680782318 14.4615249633789 12.4167461395264 0.161862134933472 10.9143981933594 0.966063678264618 6.31789112091064 16.5431728363037 7.48744869232178 13.7301073074341 12.7919969558716 13.9300451278687 10.9330148696899 10.672043800354 28.5483989715576 49.8638801574707 30.8442001342773 25.1792812347412 19.5832042694092 17.5644912719727 15.5298852920532 15.1150312423706 13.9140348434448 12.8427104949951 11.5129899978638 10.620096206665 9.93109893798828 9.25760269165039 8.84182071685791 8.33759784698486 8.12831592559814 7.95813941955566 11.9752645492554 14.4740476608276 14.2931642532349 14.3424129486084 14.5776996612549 13.8354587554932 13.0287380218506
1.22819364070892 1.16935002803802 1.12077724933624 1.81545758247375 1.28107392787933 3.26143980026245 4.00779867172241 3.37438654899597 2.50207281112671 2.04520344734192 2.16178441047668 2.17580556869507 5.41460227966309 2.07983732223511 1.84993541240692 1.6626387834549 1.55177390575409 1.37067592144012 1.22096765041351 1.03924536705017 -0.928525805473328 39.1057167053223 0.834513604640961 0.747707426548004 11.9191427230835 3.56738758087158 25.3837833404541 9.37601184844971 8.12728595733643 7.09359121322632 4.83301544189453 4.01022434234619 4.40566873550415 4.2885799407959 4.13097715377808 3.14852070808411 2.69533443450928 2.57079863548279 2.45218896865845 1.89637982845306 1.61868870258331 2.58500862121582 2.49407982826233 2.38847398757935 1.86070048809052 1.41386234760284 1.13763725757599 1.10502958297729 1.06580591201782 1.0047961473465 0.933936178684235 1.19357895851135 1.3169492483139 1.24472105503082 1.23347198963165 1.08723378181458 1.21292972564697 1.13741624355316 1.168208360672 0.870086908340454 0.893021821975708 16.0539627075195 8.14678192138672 4.38137483596802 28.8955745697021 18.7200031280518 13.7677097320557 10.8898658752441 6.08810234069824 3.28458738327026 11.7650194168091 3.72403430938721 11.3501720428467 4.25613260269165 4.39190196990967 1.61551332473755 17.4910087585449 2.27627778053284 0.972516655921936 0.978899598121643 0.783042371273041 0.613700151443481 2.85457825660706 0.397809863090515 0.396750181913376 14.7685289382935 35.3337593078613 12.3122282028198 3.42871570587158 0.70987206697464 0.231587037444115 5.56438207626343 4.83944845199585 3.48491239547729 8.77592945098877 11.585825920105 9.23172283172607 11.0551052093506 9.62051105499268 12.1756954193115 13.4089193344116 7.43153095245361 3.74608993530273 29.280029296875 18.1967830657959 6.10466241836548 4.87047290802002 4.62637948989868 23.8322811126709 8.20091724395752 5.22773504257202 3.42029452323914 1.77078580856323 0.351657152175903 0.0771068632602692 -2.78822660446167 -3.03912806510925 -3.52233910560608 -0.155722469091415 7.16752243041992 8.46101474761963 8.50987243652344 8.65310668945312 20.2445888519287 16.4707736968994 16.1480884552002 24.1798419952393 13.2923793792725 9.44756889343262 20.01731300354 8.38716793060303 6.53706836700439 2.61313128471375 23.8033390045166 4.2289252281189 3.76242995262146 7.74697637557983 4.92012166976929 1.33612132072449 0.19805546104908 2.48052787780762 1.63758587837219 6.43130779266357 20.6410331726074 9.76345252990723 12.1819286346436 13.8590173721313 10.4529962539673 12.6280727386475 27.307107925415 45.2975044250488 21.113431930542 34.9098854064941 20.3429183959961 18.0410346984863 16.3117504119873 13.9793767929077 13.0346574783325 12.2772426605225 11.9535350799561 11.1256504058838 10.3934907913208 9.60566520690918 9.08080387115479 8.50084209442139 7.96347427368164 7.69802331924438 7.54499483108521 7.73684597015381 7.71687078475952 10.4580173492432 12.2572298049927 12.0775947570801 12.0400943756104
1.7984744310379 0.840973436832428 1.00515043735504 0.921418309211731 1.11500549316406 4.36410522460938 3.27936887741089 2.58996224403381 2.11260271072388 1.7536940574646 1.5888340473175 1.82966363430023 5.56518316268921 2.13917422294617 1.77311897277832 1.59071183204651 1.42457020282745 1.4559473991394 1.3475216627121 1.23473846912384 0.962981939315796 0.859775900840759 19.0281734466553 13.329400062561 10.38121509552 -0.695919096469879 -0.0428908467292786 39.6746635437012 9.49854469299316 7.70558500289917 6.18146944046021 6.02645349502563 5.66547393798828 4.17583084106445 3.50519442558289 3.8288140296936 3.63868856430054 3.47507047653198 3.3160982131958 2.53419518470764 2.2327253818512 2.15769124031067 1.69068515300751 1.45438277721405 2.28140068054199 2.16591835021973 2.08991742134094 1.64989709854126 1.23662614822388 1.04421389102936 0.998787522315979 0.895892202854156 0.818831741809845 0.774196207523346 1.03503906726837 1.05248069763184 0.899774432182312 0.925513446331024 0.912917196750641 1.79647815227509 2.05486965179443 0.614244878292084 2.19896554946899 24.7713165283203 8.96037101745605 12.1649036407471 9.71503257751465 8.48974227905273 8.37777900695801 7.20286655426025 4.66231536865234 3.03677463531494 1.28767812252045 1.52818751335144 1.42726004123688 0.700119316577911 0.566225528717041 10.2362327575684 8.05272483825684 1.3749623298645 1.14411449432373 0.436986327171326 0.393563270568848 11.1502065658569 7.15245294570923 2.3348913192749 30.4218845367432 13.9904890060425 10.7993478775024 4.04425859451294 1.73198890686035 2.31722259521484 4.32297611236572 5.26480913162231 11.7101097106934 10.5091962814331 6.13077592849731 5.73874998092651 13.1254930496216 7.80754804611206 7.01726913452148 6.38495826721191 5.44290399551392 15.390230178833 22.3958492279053 9.24551677703857 4.78743505477905 15.2837448120117 8.29891395568848 9.48368358612061 5.37662792205811 4.19614791870117 3.03265905380249 0.582745671272278 11.6647472381592 -0.774079442024231 -1.50765073299408 -2.25698804855347 -2.95868253707886 5.76722002029419 7.72143983840942 9.89807891845703 8.99142360687256 14.4200134277344 12.4332790374756 14.658353805542 30.8183937072754 16.5600261688232 8.67291355133057 29.1655960083008 6.85924530029297 5.7451753616333 5.58394622802734 4.79452562332153 10.4912796020508 5.26138496398926 3.69930243492126 2.51481032371521 1.58602380752563 -0.188408613204956 -0.330865055322647 4.50108480453491 6.19168281555176 9.96909427642822 8.17500114440918 7.17416143417358 23.3081912994385 12.2192840576172 11.2220115661621 23.0889015197754 22.4018459320068 36.9730186462402 22.8370132446289 20.65452003479 18.3783912658691 16.5979404449463 14.8124551773071 13.7060832977295 12.7356033325195 11.235990524292 10.9436473846436 10.3584613800049 9.97327613830566 9.42002582550049 8.82373905181885 8.11796474456787 7.73967552185059 7.52976703643799 7.45312547683716 7.38361263275146 7.34800863265991 7.53452634811401 7.4923152923584 9.40135955810547
1.40306651592255 1.71031153202057 1.6533442735672 1.59517073631287 0.814008951187134 -0.0939460843801498 28.3403205871582 2.37622809410095 2.06207180023193 1.73840081691742 1.51817417144775 1.47697913646698 3.0822606086731 3.99351143836975 1.48823428153992 1.42943918704987 1.36309111118317 1.247185587883 1.06006872653961 0.888866007328033 1.08487474918365 0.989250063896179 0.903715312480927 0.719634711742401 0.69573038816452 -0.558269679546356 9.80052661895752 40.1014633178711 20.5530014038086 15.7280826568604 12.7261123657227 5.84549808502197 5.40010356903076 5.1293568611145 4.89605093002319 4.67324876785278 3.53570318222046 2.91069149971008 2.77633357048035 3.1496410369873 3.04014682769775 2.9215874671936 2.22901248931885 1.96539425849915 1.88412058353424 1.48823094367981 1.26669788360596 1.99516880512238 1.92675387859344 1.85672676563263 1.43711566925049 1.0461311340332 0.863166570663452 0.761711955070496 0.680761516094208 0.61159348487854 0.46850198507309 0.797400236129761 0.856589257717133 1.56608259677887 1.83318150043488 1.60300230979919 1.21335327625275 11.4867687225342 9.85774993896484 7.86880397796631 6.83133220672607 5.14962577819824 6.3209342956543 5.49301195144653 3.40541768074036 11.3320026397705 3.22840595245361 2.07267904281616 0.618746280670166 0.550556480884552 0.325998902320862 17.9687252044678 14.0912590026855 11.5167293548584 8.03369426727295 1.90783214569092 0.694914877414703 2.03261065483093 4.96361589431763 5.06435680389404 17.3711490631104 15.4190454483032 6.98973178863525 3.70776224136353 0.0890223011374474 29.5913505554199 1.28483438491821 0.508669912815094 1.29677486419678 -0.0625088140368462 -0.106330700218678 3.37204265594482 1.14317667484283 0.671836376190186 3.01116299629211 0.144634187221527 18.898380279541 13.1711883544922 8.27291202545166 6.02260732650757 4.2450475692749 8.91658496856689 3.14980030059814 2.49052882194519 2.88819003105164 24.2937717437744 3.46310663223267 2.78715467453003 2.21884822845459 0.623783588409424 -0.185088112950325 -1.61722815036774 -1.69221758842468 5.91703653335571 8.62649917602539 9.77487468719482 8.75774383544922 11.8712205886841 17.3650150299072 33.4220237731934 33.8463554382324 20.3196506500244 24.1977024078369 7.85239458084106 6.0567193031311 6.33041715621948 5.07783174514771 4.45579528808594 4.90903091430664 8.2415018081665 3.97688460350037 2.63421630859375 0.623163402080536 5.84510946273804 3.60356426239014 10.7245321273804 7.12297821044922 6.20418453216553 5.0549054145813 13.9751777648926 35.5713310241699 30.0163764953613 36.5160369873047 33.627197265625 9.98507404327393 51.2918167114258 21.4523601531982 19.2003040313721 17.1052093505859 15.716118812561 15.0613870620728 13.8845224380493 12.9187078475952 11.903169631958 11.1604204177856 10.46803855896 9.52302837371826 9.44332408905029 8.91446495056152 8.37819290161133 7.97680425643921 7.66406869888306 7.52752113342285 7.37555980682373 7.32232141494751 7.24819421768188 7.11912298202515 7.06367111206055
2.33576202392578 1.2816150188446 1.2072274684906 1.2912335395813 2.12820911407471 2.55234456062317 3.13266086578369 14.1273040771484 10.3448152542114 8.18872737884521 1.67469251155853 1.5827831029892 1.63481140136719 4.49306392669678 1.43338358402252 1.28427541255951 1.12631297111511 1.01531195640564 0.93375563621521 0.829875946044922 0.715189456939697 0.560583591461182 0.419648021459579 0.83074826002121 0.789798855781555 0.780110716819763 0.957039058208466 23.5593681335449 20.7776031494141 15.9837322235107 13.1081418991089 9.57177829742432 8.84312057495117 8.1786527633667 4.36459255218506 4.20570421218872 4.24407911300659 4.03839159011841 3.85812830924988 3.04421472549438 2.88689470291138 2.37692880630493 2.74947023391724 2.64902567863464 2.55978345870972 1.95942556858063 1.77585983276367 1.71282851696014 1.32260167598724 1.10705029964447 1.76873695850372 1.68683838844299 1.6159348487854 1.24853146076202 0.912900567054749 0.587847352027893 0.517782807350159 0.429418921470642 0.345871388912201 0.9796342253685 1.143967628479 0.833864390850067 0.779258847236633 0.713441610336304 0.0755073130130768 1.287437915802 5.26661968231201 5.64258289337158 5.42161273956299 4.88127851486206 3.91570138931274 3.49879908561707 3.5539276599884 0.348976224660873 0.140022769570351 17.3882846832275 21.7862434387207 10.1672115325928 16.3536224365234 9.14994525909424 7.75357151031494 5.58963203430176 2.75485134124756 0.541653692722321 12.6279067993164 0.578974843025208 0.273551970720291 38.5734100341797 0.460460364818573 31.8788719177246 0.680328786373138 18.8498764038086 9.43017959594727 8.82340621948242 6.15729236602783 0.0851776823401451 0.427815973758698 -0.516430854797363 3.77914524078369 -0.23401466012001 5.28503084182739 -0.606812417507172 24.4644374847412 14.2801551818848 4.93201971054077 2.91186285018921 -0.0721355378627777 36.8578758239746 0.523979902267456 0.267539888620377 27.5191745758057 0.948848187923431 32.1873970031738 3.34687542915344 1.91781115531921 11.9315013885498 0.748828291893005 0.333846509456635 -0.396857053041458 1.45517194271088 5.18701314926147 4.64472055435181 8.98567008972168 8.38428783416748 40.1953315734863 29.0467014312744 32.8867835998535 24.8497676849365 19.5763721466064 9.14034461975098 5.75532960891724 4.47147655487061 4.54683589935303 4.00477313995361 7.9957160949707 6.30625820159912 3.64461541175842 3.24594140052795 3.31810784339905 10.567361831665 8.91972827911377 8.55502605438232 3.64044880867004 1.02234876155853 18.2569770812988 15.442102432251 55.372631072998 40.9039611816406 32.1716079711914 26.4364814758301 23.0500926971436 19.1399669647217 31.6735000610352 24.7465438842773 20.420711517334 15.0545845031738 13.9863176345825 12.9449310302734 12.5753679275513 12.0346441268921 11.3114805221558 10.6359033584595 9.99802207946777 9.5418758392334 9.06081771850586 8.55990123748779 7.68866395950317 7.77705001831055 7.62161922454834 7.5356969833374 7.36461305618286 7.28387975692749 7.10267448425293 6.99712800979614
1.43052458763123 2.17391967773438 2.01883029937744 1.94710123538971 1.95864033699036 1.74710881710052 2.81642556190491 1.97622919082642 1.89136564731598 2.01283478736877 6.73498964309692 5.93787670135498 5.27143239974976 2.67855477333069 1.54941987991333 1.14370918273926 0.996609032154083 0.878524005413055 0.826733291149139 0.81577068567276 0.742108225822449 0.655717730522156 0.545525312423706 0.472266793251038 0.260382235050201 0.24955752491951 0.761761009693146 0.81011575460434 1.97516357898712 3.09061026573181 11.5276165008545 10.0351037979126 9.4284086227417 8.39678859710693 7.02291107177734 6.52576589584351 6.00867557525635 3.53006553649902 3.32392191886902 3.52883362770081 3.34543299674988 3.18779516220093 3.06412577629089 2.51228618621826 2.11064195632935 2.47253227233887 2.3801064491272 2.2946298122406 1.74782299995422 1.58622574806213 1.51874709129333 1.13122665882111 0.947793066501617 1.56870317459106 1.50664699077606 1.44928169250488 1.10744857788086 0.791627764701843 0.371709614992142 0.240362703800201 0.180745795369148 0.158882364630699 0.129707261919975 0.0767053291201591 0.656688332557678 0.187528997659683 2.16431760787964 4.24285888671875 3.8590030670166 4.31244325637817 4.09369611740112 3.70482850074768 3.05568623542786 -0.259960830211639 5.33395481109619 15.8768177032471 13.1539068222046 11.9881200790405 10.0096750259399 4.45593214035034 5.35419321060181 2.25490093231201 1.6559396982193 1.31754469871521 1.58338105678558 0.509427070617676 0.285409808158875 8.41701030731201 5.18614768981934 1.33856499195099 32.2580795288086 8.97631549835205 0.286383032798767 9.39845848083496 5.75153636932373 8.11496543884277 0.223333790898323 9.69007587432861 -0.583214044570923 -0.651415765285492 25.0066928863525 7.46239995956421 7.16763782501221 12.8738889694214 6.45842409133911 4.95851421356201 -1.88179290294647 0.191894814372063 -1.48046338558197 -1.43858194351196 -0.342510789632797 22.5397300720215 35.3495826721191 14.5112495422363 6.92075490951538 2.85512280464172 2.29821729660034 0.575097560882568 0.43234920501709 3.64616560935974 11.4407920837402 4.44277095794678 9.72452735900879 15.3009424209595 30.3495407104492 38.3229141235352 28.7944946289062 23.3126411437988 18.8688449859619 10.7727603912354 7.37836313247681 5.72146892547607 4.45500469207764 4.1015043258667 10.8594083786011 10.8692502975464 7.85311269760132 4.52203273773193 7.5521936416626 5.32374572753906 9.87278747558594 3.71788334846497 4.14737939834595 5.76275873184204 17.8140163421631 28.167932510376 37.7290878295898 37.6228218078613 29.1208095550537 23.9045314788818 22.8363704681396 17.9449253082275 23.0038948059082 17.130012512207 15.8925743103027 16.8909740447998 14.8995246887207 13.3540725708008 11.9584131240845 11.3325595855713 10.748143196106 10.6339597702026 10.185736656189 9.73733711242676 9.3027515411377 8.63688850402832 8.2747802734375 7.92856025695801 7.72315216064453 7.20162105560303 7.41857147216797 7.33154582977295 7.25559520721436 7.01805543899536
1.67479908466339 1.60872638225555 1.52929067611694 1.22614598274231 1.93246150016785 2.338054895401 2.64393210411072 2.30075335502625 1.83334994316101 1.70240151882172 1.67112755775452 1.7588198184967 1.83004319667816 4.79781913757324 4.44930791854858 3.67558169364929 1.04544901847839 0.977745652198792 0.912536799907684 0.551036834716797 0.406773686408997 0.286962538957596 0.582618653774261 0.194745853543282 0.434245705604553 0.414922326803207 0.416675180196762 0.263520509004593 1.78988325595856 2.27630090713501 2.90377044677734 2.71850442886353 4.57317018508911 8.13665771484375 7.54995012283325 6.9638032913208 6.18852281570435 5.42428493499756 5.00874519348145 4.66058444976807 2.89648962020874 2.7843770980835 2.67586922645569 2.91630554199219 2.7886004447937 2.66741681098938 2.19801807403564 1.8449981212616 2.19246649742126 2.12131309509277 2.0567090511322 1.57235455513 1.4130437374115 1.33689081668854 1.00286138057709 0.823929250240326 1.40773475170135 1.35182070732117 1.26474523544312 0.918733358383179 0.616733491420746 0.194396555423737 0.0687387809157372 0.0199332423508167 -0.037234865128994 -0.0485823713243008 1.83373022079468 4.58534574508667 3.30703711509705 2.65243363380432 2.20959210395813 1.66874706745148 2.9715793132782 2.44996047019958 1.9720995426178 3.94479417800903 8.29271602630615 1.22690379619598 14.4328870773315 6.30924844741821 5.25902938842773 1.96423721313477 0.420462876558304 0.121046409010887 4.49328660964966 -0.0637572333216667 0.093380406498909 4.05484628677368 -0.0769001021981239 28.8137645721436 1.90510249137878 30.4707183837891 3.26252675056458 1.09494185447693 0.166250929236412 18.5304088592529 13.3695363998413 0.105122059583664 8.37380981445312 4.39837408065796 14.8549499511719 16.744592666626 14.0873680114746 11.2979230880737 2.87044286727905 -1.67994213104248 -1.76500034332275 -0.25060623884201 -2.86534905433655 -2.99553465843201 -2.44053411483765 25.8416213989258 16.4708423614502 34.195613861084 13.3759183883667 5.37448358535767 0.558091223239899 19.81325340271 0.316816598176956 3.56752395629883 6.90621280670166 2.1818630695343 2.65212512016296 13.7149953842163 10.8374519348145 50.3704872131348 24.3736343383789 19.9585456848145 18.9125556945801 16.3103008270264 6.25600099563599 5.0266375541687 9.68284702301025 4.50281047821045 11.4529848098755 13.0010719299316 6.25427961349487 6.87440013885498 4.9631872177124 3.76568460464478 3.23787212371826 4.43225049972534 4.21324253082275 6.31743288040161 39.6200370788574 31.8983535766602 33.571418762207 28.9630832672119 24.9096374511719 22.7112255096436 16.7572441101074 29.2768211364746 18.0915813446045 16.9368667602539 15.6406869888306 14.4867401123047 13.5549697875977 12.7594623565674 12.0996246337891 11.0850877761841 10.3975439071655 10.1156120300293 9.59032535552979 9.45168018341064 9.09693622589111 8.93413257598877 8.57707405090332 8.23095512390137 7.7542290687561 7.58646631240845 7.45277070999146 7.34256982803345 6.88838481903076 7.06464624404907
1.24459731578827 2.43195724487305 1.58691298961639 1.48547291755676 1.48362648487091 2.15479564666748 2.75490808486938 2.46235346794128 2.06983423233032 1.91478037834167 1.87190008163452 1.59618449211121 1.58319342136383 1.61534202098846 1.92817187309265 1.48460698127747 3.13897132873535 2.76859474182129 2.46632242202759 0.831685423851013 0.742486417293549 0.649864971637726 0.192012429237366 0.0134998867288232 0.00914891809225082 0.140898331999779 0.244505628943443 0.40298393368721 1.26342117786407 1.55433356761932 2.55838990211487 2.57907104492188 3.29991769790649 1.85033178329468 5.50665187835693 2.17920589447021 6.17121982574463 5.8609037399292 5.57683658599854 4.81894874572754 4.26180601119995 4.05371570587158 3.81613755226135 2.33896279335022 2.36644434928894 2.27354598045349 2.5286660194397 2.43267726898193 2.33587265014648 1.9598867893219 1.64780855178833 1.9810494184494 1.92526185512543 1.8921138048172 1.37416851520538 1.208984375 1.15176069736481 0.846328854560852 0.678254246711731 0.776984989643097 0.158092528581619 34.8635520935059 0.792990863323212 0.497920781373978 0.0644776299595833 -0.0677512809634209 1.41073632240295 2.98183822631836 3.02280211448669 2.46959733963013 1.87612366676331 1.53679013252258 1.105996966362 0.564373970031738 0.202164575457573 1.4977160692215 1.26322841644287 10.6228523254395 1.953782081604 6.40864515304565 -0.339981377124786 -0.70781809091568 1.24202013015747 0.15546515583992 1.99419152736664 1.45249176025391 7.95145082473755 3.54631447792053 7.18726921081543 5.94185781478882 9.36970329284668 6.45442485809326 4.38662576675415 1.79463791847229 15.2848863601685 6.2057056427002 5.70624971389771 11.1657276153564 16.2894115447998 15.6190853118896 10.326226234436 9.99306392669678 9.34970855712891 8.78239345550537 4.39743757247925 0.911708652973175 1.7910487651825 -1.99654376506805 -2.32052564620972 -3.10228967666626 28.9429531097412 16.5057201385498 28.5182971954346 20.4980087280273 22.4264945983887 7.41566276550293 5.51258325576782 5.04110288619995 39.7852439880371 12.3043508529663 29.9576511383057 10.4796056747437 8.01746368408203 5.75784063339233 49.2893257141113 29.4981327056885 3.87613654136658 36.7517127990723 40.5864105224609 14.3922672271729 8.75463962554932 4.60732746124268 4.75990390777588 4.44376039505005 5.92586374282837 6.4976053237915 5.06839990615845 5.87389707565308 5.36232328414917 4.0732102394104 3.63969087600708 13.5018587112427 16.2525177001953 17.5028953552246 29.5029411315918 33.8742485046387 29.1748523712158 19.0880317687988 22.9870300292969 18.8541412353516 17.5721054077148 18.2352199554443 17.6100997924805 15.8858489990234 14.3999881744385 14.2890300750732 13.401026725769 12.6614646911621 11.8667507171631 11.4170742034912 10.9601230621338 10.4760990142822 9.56441688537598 9.06465625762939 8.74942398071289 8.36199951171875 8.45550346374512 8.16450881958008 7.99981641769409 7.75165271759033 7.57739210128784 7.27323055267334 7.17312622070312 7.06978416442871
2.05598044395447 2.86033129692078 2.46732258796692 1.49091565608978 1.20306062698364 1.39187037944794 1.46604549884796 4.14045095443726 2.1706018447876 1.97449898719788 1.73997569084167 1.83549082279205 1.8088366985321 1.78513264656067 2.30828332901001 1.23751294612885 1.38402891159058 1.2939966917038 1.21855616569519 2.1248893737793 1.8569415807724 1.581183552742 0.557523310184479 0.482933849096298 0.430828064680099 0.0686606988310814 -0.0700127333402634 0.112807258963585 0.572542011737823 1.07237839698792 1.81892383098602 3.08354091644287 3.1982569694519 1.81304085254669 3.5183367729187 3.71963667869568 2.08539080619812 1.85858929157257 1.72814977169037 5.10045433044434 4.74271965026855 4.46796655654907 3.91608166694641 3.53227829933167 3.37950587272644 3.21533918380737 3.07206749916077 2.07149291038513 1.99675595760345 2.23609447479248 2.16313767433167 2.11200523376465 1.79892873764038 1.49878513813019 1.77538192272186 1.63736605644226 1.55441546440125 0.474100917577744 0.32798159122467 22.798755645752 -0.338365942239761 9.49249458312988 7.29264640808105 23.6825542449951 8.62362575531006 0.633813798427582 0.398581504821777 1.00612008571625 2.52967762947083 2.1182918548584 1.57157921791077 1.25939631462097 0.790834307670593 0.36050820350647 -0.00379705498926342 -0.20048014819622 -0.294745534658432 1.29730927944183 -0.79590117931366 18.8551940917969 -0.719465672969818 -0.886528134346008 8.19600868225098 5.24683284759521 6.49625825881958 0.443023353815079 7.39525270462036 2.21572351455688 7.24898290634155 4.92549896240234 -0.138854384422302 3.36089873313904 26.0472145080566 -0.463057667016983 18.9115905761719 11.7910652160645 0.103322640061378 20.922945022583 0.161219477653503 30.6909580230713 5.02819490432739 3.91040921211243 4.31504106521606 3.15383195877075 2.54456257820129 0.972033083438873 1.18347346782684 4.25733423233032 0.382351696491241 -0.408421099185944 3.63274073600769 17.0576019287109 8.92197799682617 34.5831756591797 13.0643787384033 19.6275291442871 9.6932954788208 29.9280281066895 26.6647319793701 26.3822975158691 19.3627262115479 11.863187789917 0.862927913665771 1.30036723613739 48.3491859436035 1.03226459026337 1.76335847377777 4.66749143600464 52.4575805664062 27.8236293792725 22.3991565704346 7.01204204559326 4.19030523300171 6.10140752792358 5.84829139709473 7.86064291000366 5.26486396789551 4.00117683410645 6.37818765640259 3.32072615623474 17.1988430023193 11.9751901626587 23.3897838592529 13.4696741104126 37.2968406677246 25.8272342681885 19.2990322113037 18.5947589874268 19.7854900360107 17.7069492340088 15.9860696792603 16.0328025817871 14.9363822937012 13.9916486740112 14.7850933074951 13.8038816452026 12.9517288208008 11.9611053466797 11.9749507904053 11.4592733383179 11.0229473114014 10.3297576904297 9.94212627410889 9.50279521942139 9.08429050445557 8.68305110931396 8.12354469299316 7.8625373840332 7.5011191368103 7.63907814025879 7.46814203262329 7.41441011428833 7.30539083480835 7.18375825881958
2.98260521888733 2.44176125526428 2.05680966377258 1.90780937671661 1.78250443935394 1.35275447368622 1.7882319688797 2.55755829811096 2.56250834465027 2.26747035980225 1.88205111026764 1.64393520355225 1.53750371932983 1.47625529766083 1.77056670188904 1.66939091682434 1.5129861831665 1.00031888484955 0.902195990085602 1.1414270401001 1.06790041923523 0.987243115901947 1.35147047042847 1.11586737632751 0.932472407817841 0.842874825000763 0.37676277756691 0.370049476623535 0.20035594701767 0.800691902637482 1.38116550445557 2.6175684928894 2.62731528282166 1.98107147216797 3.28924322128296 3.52032351493835 2.21867108345032 1.92118573188782 1.6188337802887 1.50333452224731 2.37300729751587 1.44689416885376 4.19953155517578 4.00335121154785 3.83813261985779 3.68204236030579 3.22521829605103 2.92070245742798 2.79453873634338 2.67152810096741 1.87024700641632 1.81151056289673 2.00353360176086 1.87832856178284 1.78523111343384 1.49291908740997 1.17053663730621 1.42021453380585 1.00397098064423 0.579742550849915 0.0612516738474369 19.2116584777832 17.8547916412354 11.0481548309326 4.96579694747925 18.2931976318359 5.37724781036377 4.38060998916626 1.08948874473572 3.7911274433136 2.06691527366638 0.853428184986115 0.445901811122894 0.0796582773327827 -0.307570487260818 -0.404317021369934 -0.449859172105789 3.09336161613464 -1.34738719463348 20.6568584442139 5.92055082321167 -1.56597459316254 12.1718006134033 2.51069116592407 15.7231645584106 1.39005696773529 0.112548291683197 3.92084169387817 14.1567411422729 1.648561835289 -0.146700873970985 11.2077693939209 1.48742640018463 -0.74320262670517 -0.802892088890076 0.50530344247818 13.139274597168 1.92254054546356 -0.554408371448517 38.2284545898438 -0.244630381464958 35.9310493469238 4.9659104347229 1.7050222158432 1.05518412590027 0.537651598453522 -0.928742349147797 -0.863568425178528 12.9775695800781 1.86792922019958 4.55067205429077 9.71681118011475 16.9796981811523 18.658670425415 22.107141494751 21.1667976379395 12.153938293457 22.1677322387695 21.8205471038818 16.1204376220703 12.3407125473022 11.9710302352905 4.55426549911499 2.76496982574463 13.1464204788208 0.337774604558945 9.23167514801025 19.5841541290283 14.9687042236328 40.7108154296875 24.7398376464844 18.3305435180664 11.9502382278442 8.89176273345947 11.0678367614746 7.45700979232788 7.2917857170105 5.06930923461914 11.716477394104 7.42558813095093 47.1945114135742 36.1049308776855 30.9482707977295 17.4678840637207 22.2330894470215 21.1703853607178 15.5848159790039 9.47207832336426 26.8512325286865 13.5187921524048 13.9220676422119 14.8141412734985 13.7161111831665 13.0620145797729 13.1820402145386 12.3831624984741 11.6859931945801 12.3587522506714 11.7656936645508 11.2257251739502 10.5503101348877 10.5364122390747 10.0519771575928 9.59246730804443 9.18373870849609 8.50391864776611 8.2613639831543 7.94352388381958 7.65513324737549 7.33857154846191 7.18420934677124 6.98825693130493 7.19654226303101 7.09318447113037
3.35710668563843 2.94843196868896 2.9066276550293 2.77923226356506 1.93611645698547 1.83382833003998 2.72242784500122 2.26240038871765 2.02419805526733 1.54969894886017 1.65358567237854 1.58672440052032 1.45774841308594 1.43365871906281 1.42493271827698 1.34137392044067 1.13940966129303 1.42022335529327 1.30236768722534 1.19507277011871 0.742926418781281 0.660456001758575 0.918141961097717 0.821981489658356 0.734115123748779 -0.175109192728996 0.763071119785309 0.714043140411377 0.690722167491913 0.523929178714752 1.04975092411041 1.94294917583466 2.43424797058105 3.03330492973328 2.64160108566284 1.62256169319153 3.12678551673889 2.26469421386719 1.53880190849304 1.45446848869324 1.35808825492859 1.27110874652863 1.19706535339355 1.17968344688416 1.11282730102539 1.08549630641937 3.45613646507263 3.3323085308075 3.20963788032532 2.80779194831848 2.55149126052856 2.41182661056519 2.24705648422241 1.53367519378662 1.46977734565735 1.66566622257233 1.45788109302521 1.27633166313171 0.580239593982697 6.72515726089478 0.87806624174118 16.1880779266357 10.7970752716064 6.08857822418213 9.96881294250488 3.06254148483276 21.0446033477783 4.70566940307617 3.4669713973999 3.5173704624176 3.47262740135193 1.16821193695068 0.369246363639832 -0.27877089381218 -0.411604762077332 -0.475336015224457 1.09586584568024 -1.35136353969574 22.2070636749268 1.24230134487152 12.5460033416748 0.236799225211143 0.0638644993305206 -0.0502718277275562 1.75474965572357 8.83528327941895 0.41499325633049 0.246119439601898 5.31923151016235 -0.685521006584167 7.73545932769775 0.466595411300659 -0.952144920825958 -1.30306577682495 -1.38682687282562 -1.55728089809418 15.7987298965454 19.2546901702881 3.63900232315063 -0.517118275165558 29.3330974578857 14.2905359268188 5.52788209915161 -0.45171982049942 27.0293998718262 -0.727914154529572 -0.859736204147339 -0.978811621665955 8.54066467285156 3.87293601036072 0.645942091941833 -0.79514217376709 -1.68862795829773 21.0996913909912 5.37192726135254 23.5499172210693 7.55285120010376 8.92473316192627 28.7412376403809 11.064019203186 9.58257293701172 9.94753837585449 9.08890819549561 5.44570302963257 21.4339809417725 13.7074422836304 10.6149263381958 9.87464237213135 12.7258205413818 11.7830505371094 15.1881866455078 30.1512336730957 17.3944396972656 10.3886442184448 10.3016891479492 7.81780529022217 6.54630851745605 16.3579235076904 14.6431369781494 10.4581718444824 40.0398979187012 28.9832229614258 21.2660999298096 16.6952457427979 17.8680896759033 15.2184371948242 13.094654083252 10.3783655166626 11.9920101165771 16.8696441650391 13.4038009643555 11.2408094406128 11.3567571640015 11.5598802566528 12.2096738815308 11.5725021362305 11.2351779937744 11.2128286361694 10.6426067352295 10.2569770812988 10.7961378097534 10.299201965332 9.7896556854248 9.35147571563721 8.79225254058838 8.68191337585449 8.33464527130127 8.01936626434326 7.45425081253052 7.27285814285278 7.08324766159058 6.96984338760376 6.86460399627686 6.78326511383057
3.51889944076538 3.49530911445618 3.46352696418762 3.22369861602783 2.84046173095703 2.94127607345581 2.91819524765015 2.07924389839172 1.81297194957733 1.70682036876678 2.66555094718933 1.51136231422424 1.20740294456482 1.27915394306183 1.28282153606415 1.38693928718567 1.26891577243805 1.19918143749237 0.966981410980225 0.873352289199829 1.1017963886261 1.01184070110321 0.926075160503387 0.490690112113953 0.386926561594009 0.69517195224762 -0.21682944893837 -0.216359063982964 -0.0378255806863308 0.649556279182434 0.749748051166534 1.62150466442108 1.93307030200958 2.27162265777588 2.47793555259705 1.72054004669189 2.46855473518372 2.74895238876343 1.87032914161682 1.4905207157135 1.31128585338593 1.19439125061035 1.13307774066925 1.07311809062958 0.990813672542572 0.958195090293884 0.95489913225174 1.03221678733826 0.90062290430069 2.95779252052307 2.82437443733215 2.67221140861511 2.3157753944397 2.08888244628906 1.97028040885925 1.8533433675766 1.22762787342072 1.05688774585724 1.30605554580688 0.0237695816904306 40.2254829406738 -0.0283686183393002 23.5145740509033 20.7349433898926 5.60011863708496 4.84522867202759 8.51230907440186 0.911771774291992 0.059279665350914 26.4127063751221 3.0069522857666 3.05301570892334 2.54364800453186 1.96978044509888 -0.467145383358002 -0.519119262695312 1.76598703861237 -0.878601431846619 7.10336065292358 13.4423551559448 6.79336833953857 4.05373907089233 -1.50982522964478 -1.57987368106842 -0.129997402429581 -1.29926741123199 7.25638151168823 2.04688239097595 2.24098801612854 -0.427610963582993 7.01300811767578 -0.939554989337921 -1.79676187038422 -1.96469044685364 -2.26149964332581 -2.08050560951233 1.91475057601929 19.1274814605713 3.33989429473877 11.4884510040283 5.73803424835205 16.182731628418 13.6628503799438 4.16358470916748 17.4936809539795 1.41691946983337 -1.80456697940826 16.6574115753174 30.1137313842773 0.972811102867126 0.663848698139191 15.0187959671021 0.459288507699966 0.0746385827660561 6.00894832611084 15.4051113128662 8.96323585510254 5.16425228118896 5.32545280456543 21.417947769165 11.8961715698242 9.27995109558105 8.50600147247314 7.12625741958618 14.9890794754028 21.7056560516357 7.2259316444397 12.0597734451294 8.51833248138428 22.0622062683105 25.1590595245361 23.0023765563965 18.9675521850586 15.1403465270996 11.2437877655029 9.31082534790039 8.57709789276123 8.91231346130371 22.2923488616943 11.3864822387695 26.2315769195557 23.3356437683105 16.4060726165771 12.7075777053833 14.0807828903198 11.4007091522217 3.01215362548828 21.1876411437988 48.3509178161621 10.7015514373779 9.47976779937744 10.2163915634155 10.0753288269043 9.31659412384033 9.54078769683838 9.9590368270874 10.1177186965942 10.480842590332 9.91491794586182 9.74228858947754 9.60928344726562 9.07242298126221 8.61363697052002 8.45725917816162 8.84368133544922 8.47044849395752 8.1102352142334 7.67272996902466 7.54160451889038 7.23735809326172 7.00455904006958 6.66235303878784 6.61338376998901 6.5385947227478
6.99495887756348 6.55132913589478 3.73111438751221 3.47353768348694 3.43090033531189 3.34344577789307 3.05687570571899 2.64211916923523 2.62176895141602 2.57776117324829 1.8900979757309 1.99718022346497 1.67158937454224 1.57342708110809 1.55075716972351 1.1567622423172 1.0707141160965 1.00787854194641 1.13253748416901 1.01134514808655 0.924643099308014 0.718339681625366 0.647402346134186 0.833626925945282 0.722595930099487 0.651714980602264 0.317044615745544 0.286597371101379 0.267640322446823 0.0267470180988312 0.526565432548523 1.24741888046265 1.52173614501953 1.70515859127045 1.74683952331543 1.8964741230011 2.17280220985413 1.45166456699371 4.08391618728638 1.47822499275208 1.30775880813599 1.17431974411011 1.13511204719543 0.99677050113678 0.9249507188797 0.873752534389496 0.854780673980713 0.831142127513885 0.966666877269745 0.777658581733704 0.73644083738327 0.675764381885529 2.47262763977051 2.36327505111694 2.24851632118225 1.86424446105957 1.63842511177063 1.53801441192627 1.48475623130798 1.00663018226624 0.985139131546021 20.7571601867676 2.10198330879211 25.6193771362305 14.2874689102173 2.11059904098511 23.3930988311768 0.0209177639335394 9.57341289520264 4.93739414215088 11.299280166626 4.31257104873657 0.709621906280518 23.8173809051514 1.38023269176483 1.27107751369476 1.57323908805847 -0.674337089061737 -0.872217655181885 4.66318416595459 -0.290766090154648 -1.04421508312225 -1.63386833667755 5.35996866226196 16.0509586334229 7.45350217819214 0.587014555931091 5.96235370635986 3.08509111404419 1.98218834400177 0.569571733474731 -0.816989183425903 -1.90178644657135 -2.93324398994446 -2.96127462387085 -2.81637334823608 -1.54733908176422 5.53719234466553 -2.35372710227966 30.5182323455811 22.8586711883545 2.85432052612305 35.8280372619629 11.3707666397095 8.96691799163818 1.27511703968048 1.6934210062027 -1.41781842708588 13.0616245269775 5.89103031158447 28.6556453704834 8.65222930908203 2.89703774452209 -1.51023757457733 10.2736215591431 -1.54654085636139 32.3575248718262 5.32314968109131 0.34184518456459 41.4553070068359 13.2789516448975 10.1885242462158 8.57859516143799 8.35335159301758 7.91336584091187 10.329158782959 7.58162021636963 4.95140600204468 4.59744215011597 40.2243728637695 18.4521484375 14.8788967132568 16.1737976074219 15.0867652893066 13.657603263855 12.1232938766479 13.5828428268433 18.3692626953125 9.38883972167969 5.32284116744995 20.5555438995361 17.4510974884033 10.507869720459 9.59995937347412 10.6778736114502 3.97138428688049 31.375675201416 4.06372165679932 24.6413898468018 31.5231266021729 23.1082572937012 19.076473236084 9.41582202911377 8.34979343414307 8.93405628204346 8.63264942169189 8.36426544189453 8.52061653137207 8.65591526031494 8.59558773040771 8.74036121368408 8.23100757598877 7.79100799560547 7.85312509536743 7.74396228790283 7.40280199050903 7.34257173538208 7.61651563644409 7.20373678207397 6.85357332229614 6.53608798980713 6.49658823013306 6.35609483718872 6.20449113845825
4.15614986419678 4.26761102676392 5.9740743637085 5.64350318908691 5.30430221557617 3.56167221069336 3.22477149963379 3.13347482681274 3.09460711479187 2.89730620384216 2.54672718048096 2.48999738693237 2.42861986160278 1.75743412971497 1.58555543422699 1.46257042884827 1.40681433677673 0.889494597911835 0.945009291172028 0.873115718364716 0.799591541290283 0.85327810049057 0.784949421882629 0.71306300163269 0.499005734920502 0.423699021339417 0.621028959751129 0.578745722770691 0.542127847671509 0.255610942840576 0.251420497894287 0.958732485771179 0.978507041931152 1.14150142669678 1.55706357955933 1.59162557125092 1.01811015605927 0.917166531085968 2.06085801124573 4.80762958526611 1.30692577362061 1.12779033184052 0.992266178131104 0.864238619804382 0.811211347579956 0.762625813484192 0.710134863853455 0.686287462711334 0.663142204284668 0.653022587299347 0.627601683139801 0.554498970508575 0.490748822689056 0.429024130105972 0.39561602473259 2.01651644706726 1.91028892993927 1.82670962810516 1.56056678295135 1.42603814601898 1.39584410190582 1.35982501506805 0.938188672065735 0.390145689249039 10.1942510604858 1.80185282230377 27.6194095611572 9.73973560333252 4.59962558746338 3.29551792144775 4.27747344970703 5.65740203857422 0.464613795280457 17.1589260101318 8.82715320587158 6.11799144744873 5.16540241241455 5.46666812896729 0.980076909065247 0.407408893108368 0.316347599029541 11.544846534729 -1.64791142940521 3.83871912956238 10.3440074920654 5.14295387268066 0.838152408599854 1.27008140087128 12.9783401489258 4.3084282875061 -0.189024746417999 11.4833269119263 -2.18777894973755 -2.69126605987549 -3.31471633911133 -3.38235259056091 -1.1040426492691 7.78285503387451 4.71068954467773 -2.05206775665283 6.09257984161377 25.2562026977539 30.1901016235352 17.9196224212646 14.1685590744019 10.5964069366455 2.82480096817017 -1.72805237770081 6.0143575668335 17.9072971343994 13.2957277297974 12.317928314209 6.16385316848755 1.02406084537506 -2.02584648132324 -2.16132116317749 17.0056838989258 -0.867056369781494 15.6944131851196 3.50391554832458 38.3080444335938 20.1458339691162 16.0889453887939 7.87359714508057 6.91984510421753 6.77099609375 7.52277374267578 7.19325733184814 6.89493417739868 22.8784942626953 24.2386379241943 18.7356910705566 15.9574375152588 12.1622333526611 11.2495498657227 12.5419101715088 11.4079751968384 10.3921318054199 9.63163089752197 7.3925461769104 6.48699140548706 21.9767246246338 14.2831449508667 10.6298370361328 4.82635068893433 3.08420586585999 42.574520111084 17.666805267334 14.5952091217041 22.6424579620361 18.4736881256104 19.055492401123 16.9985256195068 15.344123840332 12.8332595825195 8.38351154327393 7.54235506057739 7.92080545425415 7.53326892852783 7.14722394943237 6.72971963882446 6.79812431335449 6.86823654174805 6.80965518951416 6.98552322387695 6.67368793487549 6.79580450057983 4.3504753112793 3.41845297813416 3.34915351867676 3.50617909431458 54.3286018371582 5.92114973068237 5.68799829483032
4.30434274673462 4.99300384521484 4.10820579528809 4.06059074401855 3.8210756778717 4.86854028701782 4.36000299453735 4.04899835586548 3.27628207206726 3.04288721084595 2.98164916038513 2.91269469261169 2.70737504959106 2.40678715705872 2.32645964622498 2.22911739349365 1.56024134159088 1.30445897579193 1.23052608966827 1.13574981689453 0.650311231613159 0.733127892017365 0.330903798341751 0.33107516169548 0.660347163677216 0.587937831878662 0.527422666549683 0.350176632404327 0.313587635755539 0.519675076007843 0.506455957889557 0.504836678504944 0.258862406015396 0.858053505420685 1.58192050457001 1.39290654659271 2.33062219619751 1.03041100502014 1.44154870510101 4.05900287628174 1.49906587600708 1.12799763679504 0.895621538162231 0.868289172649384 0.753311395645142 0.680560350418091 0.581093609333038 0.54027795791626 0.510755777359009 0.480846405029297 0.456296741962433 0.402643769979477 0.356654644012451 0.31547674536705 0.281340926885605 0.249968320131302 0.221327185630798 0.189522072672844 1.75291168689728 1.7377804517746 1.69272983074188 1.43840658664703 1.31741321086884 0.427540719509125 11.3435335159302 19.9966735839844 0.0945101007819176 17.8826160430908 4.92563486099243 3.24215793609619 2.67910146713257 1.95320677757263 0.443017572164536 20.9316005706787 6.65148019790649 4.59297657012939 3.92759919166565 5.03104448318481 5.05907201766968 -0.0851246118545532 19.0168209075928 2.10061550140381 0.0592985153198242 -0.313680827617645 11.0242509841919 6.34010982513428 3.68045473098755 0.951061367988586 1.10037755966187 9.59757423400879 0.822560787200928 4.11020278930664 -2.2710907459259 -2.68907332420349 -3.33285641670227 -3.58108019828796 -3.90612173080444 -3.90519261360168 7.26097345352173 8.89250564575195 10.7244777679443 24.3220405578613 32.1062698364258 24.4562225341797 20.4521026611328 14.7667179107666 5.30823850631714 3.7711009979248 2.44870924949646 15.7204704284668 14.6802453994751 13.2458448410034 6.75091314315796 -1.31246113777161 -2.17476725578308 1.35153663158417 18.224142074585 43.0397872924805 16.4113483428955 23.8844604492188 22.1983032226562 23.3320083618164 17.9011001586914 14.3303546905518 12.2570714950562 11.0136966705322 6.49909734725952 6.00512790679932 6.00648260116577 6.57584428787231 6.66670751571655 6.46673440933228 12.7899198532104 14.2271509170532 13.1361846923828 11.899751663208 9.29869747161865 8.42520999908447 9.61985206604004 8.85407733917236 8.09392738342285 8.28829860687256 6.04653930664062 15.104564666748 7.32301092147827 5.03789043426514 3.88356614112854 25.3681812286377 18.9252700805664 15.8994779586792 11.4323444366455 10.5933294296265 12.9101161956787 11.728364944458 13.8836393356323 12.7477178573608 11.6969661712646 9.67981719970703 7.25507116317749 6.90670776367188 6.07835388183594 6.18383693695068 5.90753889083862 5.69752979278564 5.88570356369019 5.97115087509155 5.88693809509277 4.2889232635498 2.66422367095947 2.36392736434937 2.64423537254333 53.3216972351074 29.1284313201904 21.6991195678711
4.39272117614746 4.88630771636963 4.40546798706055 4.22693681716919 3.99043869972229 3.92107105255127 3.82607936859131 3.52224636077881 3.80412149429321 3.63094258308411 3.42158389091492 3.06666660308838 2.85173296928406 2.76614236831665 2.67528676986694 2.46858239173889 2.15641641616821 1.50685179233551 1.14982068538666 0.650554478168488 1.03402197360992 0.948959946632385 0.873717248439789 0.45439201593399 0.404671669006348 0.18308125436306 0.157066211104393 0.487124234437943 0.286928802728653 0.295356571674347 0.272470206022263 -0.0596138685941696 0.477901726961136 0.230326399207115 1.59971988201141 -1.11220717430115 36.4870185852051 3.09069180488586 1.88624000549316 1.35301887989044 0.971751153469086 0.729997336864471 0.698622226715088 0.952532351016998 0.636581420898438 0.587822735309601 0.495562851428986 0.435343593358994 0.391475915908813 0.34198209643364 0.312611401081085 0.262272715568542 0.230087444186211 0.194303661584854 0.176398530602455 0.53387314081192 0.175186395645142 0.16384981572628 0.159404337406158 3.20025873184204 0.794410467147827 1.6404345035553 1.59763705730438 0.741826415061951 11.1559734344482 19.7865505218506 9.42774391174316 1.1933262348175 11.3583688735962 5.03445863723755 2.02692127227783 11.042519569397 1.74690175056458 12.6668500900269 9.9028902053833 7.45513963699341 6.10535573959351 4.31747579574585 4.73589992523193 1.24787199497223 1.39593434333801 6.92852830886841 6.15093660354614 0.486947238445282 -0.144173145294189 4.21798849105835 3.33264517784119 0.400824129581451 -0.477355659008026 25.5827960968018 0.798410832881927 0.321664661169052 -0.887586772441864 -2.70281767845154 -3.12844824790955 -3.56717824935913 -3.88229990005493 -4.01208972930908 13.9863843917847 8.17749404907227 3.6432626247406 42.3413467407227 26.3227272033691 22.3036041259766 18.4040393829346 12.3272657394409 15.1466083526611 8.82092475891113 6.64497137069702 15.3458156585693 11.9662466049194 7.29281949996948 1.79913318157196 0.909716427326202 -2.10548710823059 -2.17499351501465 18.2864418029785 10.3876161575317 46.8243064880371 14.0058736801147 32.497615814209 14.4389982223511 14.894889831543 13.3912296295166 12.8629426956177 11.3691425323486 10.6123495101929 9.79507541656494 8.98541927337646 5.74984455108643 5.37363719940186 5.48933982849121 5.43591499328613 6.44444513320923 6.87874937057495 10.2840890884399 10.616771697998 9.58163452148438 8.61716938018799 6.69226264953613 6.70138025283813 7.18948078155518 7.13428640365601 6.19205808639526 8.95649433135986 4.82671117782593 4.92699337005615 7.55599164962769 13.1639575958252 9.76690769195557 13.3661041259766 12.4086685180664 11.6141767501831 9.27917003631592 8.6437873840332 9.47426223754883 8.60804176330566 10.529109954834 9.76041126251221 9.06903743743896 7.29461336135864 5.96774435043335 5.6495156288147 5.13346481323242 5.40902137756348 5.20653772354126 4.97545766830444 3.57998204231262 2.26553654670715 1.80090141296387 1.53630208969116 8.53219223022461 53.9443168640137 22.2070045471191
4.63371706008911 4.61552667617798 4.44643020629883 4.32706737518311 4.27222871780396 4.19535350799561 3.99656271934509 3.71811580657959 3.66747689247131 3.61237740516663 3.34404349327087 3.25557947158813 3.17706871032715 3.05618715286255 2.8142364025116 2.58564972877502 2.39012098312378 2.03943872451782 1.34948217868805 1.07146966457367 0.577892541885376 0.406156897544861 0.310847640037537 0.793569922447205 0.734938681125641 0.683859407901764 0.302595973014832 0.247941255569458 0.0464186184108257 0.0406825505197048 0.215529277920723 0.241141855716705 0.199260026216507 -0.106824032962322 0.788304328918457 -0.914620041847229 -1.08953368663788 36.7047348022461 13.6461133956909 10.8758516311646 0.8360715508461 0.518423855304718 0.4448062479496 0.734778761863708 1.00035715103149 0.572865724563599 0.559463202953339 0.346849799156189 0.307212442159653 0.258183598518372 0.201118126511574 0.163991391658783 0.115691237151623 0.0747829452157021 0.0616993010044098 1.19504153728485 1.0912092924118 0.403111100196838 0.395830482244492 1.61280989646912 2.90398859977722 -0.944732666015625 38.6225166320801 -0.308772414922714 1.12063920497894 19.4037609100342 9.84434986114502 1.90284740924835 1.20683991909027 12.6985149383545 0.360188663005829 -0.956721305847168 5.79026126861572 27.072790145874 6.80453252792358 5.74745082855225 5.12216186523438 5.88833379745483 -1.04874348640442 27.0133152008057 0.608001887798309 16.8233222961426 7.16970682144165 6.90376472473145 5.7509651184082 12.6149950027466 2.42797017097473 0.389653831720352 -0.979309678077698 14.3500308990479 0.174465775489807 1.87919068336487 -1.15742456912994 -2.43727040290833 -2.95223307609558 -3.71074461936951 -3.96710443496704 -4.14576721191406 13.7108211517334 0.980518579483032 20.2926387786865 42.4768104553223 28.5926036834717 25.2740707397461 18.4195327758789 12.8608522415161 10.7032175064087 9.14806842803955 9.05953788757324 13.6601181030273 11.3712902069092 6.42271995544434 1.24276852607727 -0.885311424732208 5.56852293014526 -1.50074887275696 17.2105655670166 21.1947269439697 13.794641494751 41.9427680969238 21.7543258666992 17.7211761474609 13.9356241226196 12.1532363891602 11.1315336227417 11.0969438552856 10.4869766235352 9.79563140869141 9.01097679138184 8.78935241699219 8.22083377838135 7.6901593208313 5.23167896270752 5.00475406646729 5.36101675033569 5.34124422073364 6.14337873458862 5.93833875656128 7.73658323287964 7.69274091720581 6.81633901596069 6.26166677474976 5.16328048706055 4.926109790802 6.04615020751953 5.62672472000122 5.70727014541626 9.58389949798584 5.25324440002441 4.68379402160645 4.71015882492065 7.93599510192871 7.85953807830811 10.7421445846558 9.89385986328125 9.07470321655273 7.20447492599487 6.69220495223999 7.05855083465576 6.54178142547607 8.29975032806396 7.59076929092407 6.91891050338745 5.55940818786621 5.2605447769165 5.08524465560913 4.57215976715088 3.92280888557434 3.55776166915894 2.80784106254578 6.57467889785767 16.5318908691406 14.8883199691772 44.5137062072754
4.78847789764404 4.72394514083862 4.55455207824707 4.52625942230225 4.47493648529053 4.24988746643066 4.0884256362915 4.00510263442993 3.99656653404236 3.75612020492554 3.4288969039917 3.40353012084961 3.28930377960205 3.05536341667175 2.96792387962341 2.73239207267761 2.48033261299133 2.20299482345581 1.6359623670578 1.25179922580719 1.16373860836029 1.08726000785828 0.333591461181641 0.266055792570114 0.193540707230568 0.138923823833466 0.621233820915222 0.566505551338196 0.514476776123047 -0.0780968219041824 -0.0793403387069702 -0.0513003841042519 -1.08112585544586 16.5102138519287 -1.49801898002625 5.79191637039185 -1.56479012966156 48.2593231201172 17.9600830078125 13.3052196502686 10.3210382461548 6.63336658477783 5.69638729095459 0.229944363236427 1.25723600387573 0.923416256904602 0.363292902708054 0.479116231203079 0.460207492113113 0.439061343669891 0.124460481107235 0.0934734120965004 0.0546434745192528 0.0164328627288342 -0.00981482490897179 1.16018128395081 1.96658134460449 1.24796509742737 1.1561803817749 1.59551584720612 -0.333939105272293 -0.794966340065002 34.778434753418 19.4396533966064 13.9991588592529 10.9455108642578 3.09886646270752 9.134446144104 4.40670680999756 6.06961679458618 6.8319878578186 0.30898180603981 -0.852136254310608 28.2891941070557 14.598105430603 11.5948619842529 9.85740852355957 0.515018403530121 9.57936096191406 7.99398279190063 19.091682434082 7.5038537979126 17.0607585906982 6.37097787857056 4.82783937454224 2.59979271888733 1.95869028568268 0.533296465873718 -0.733727395534515 -0.878064095973969 21.187572479248 2.32314252853394 0.876588463783264 -1.25496935844421 -3.04711961746216 -3.46514511108398 -3.73151922225952 -3.91811227798462 -0.416509121656418 14.471643447876 4.33370113372803 41.8901329040527 15.6283769607544 38.9246559143066 18.852087020874 16.3562660217285 13.9294023513794 13.1629705429077 10.0969696044922 9.89698886871338 5.36963653564453 21.2331104278564 3.4824960231781 1.43397510051727 0.228701934218407 16.0171089172363 14.36634349823 18.1864604949951 15.0212593078613 12.1242389678955 26.5421257019043 25.9795036315918 14.5726537704468 12.8945875167847 11.9359464645386 11.249698638916 10.2057905197144 9.73916816711426 9.36152744293213 8.83059883117676 8.32853412628174 7.54079055786133 7.5385103225708 7.10791873931885 6.76047325134277 4.84938669204712 4.59348297119141 4.64173412322998 4.84705018997192 5.5986475944519 5.32265996932983 5.88911008834839 6.00941324234009 5.64388704299927 5.26255416870117 4.74377298355103 4.20237445831299 4.71167278289795 4.67900609970093 4.82281064987183 4.63058042526245 4.54688835144043 5.38557386398315 5.97705554962158 6.77119445800781 6.1984715461731 8.21893501281738 7.62042903900146 7.089768409729 5.75547218322754 5.40323638916016 5.51975393295288 5.02342939376831 6.63575601577759 6.31394052505493 5.97678279876709 5.67584466934204 3.48306822776794 30.0181140899658 3.39105272293091 3.34181785583496 7.55912637710571 17.1674518585205 18.255931854248
8.5574197769165 7.77699995040894 7.31178569793701 4.60641717910767 4.56004762649536 4.36406373977661 4.27637910842896 4.22231578826904 4.05772018432617 3.84132122993469 3.72565841674805 3.63809084892273 3.42646288871765 3.19323444366455 3.00948357582092 2.80502486228943 2.25526928901672 2.19310474395752 2.00028324127197 1.82032561302185 1.67213451862335 1.36154198646545 1.00419807434082 0.268313825130463 0.210186719894409 0.149923756718636 0.114411555230618 0.0597934387624264 0.0139408372342587 0.478675544261932 -0.06910540163517 -0.0916720777750015 -1.10709750652313 -1.73215055465698 4.96453619003296 -1.88310599327087 -2.06076908111572 19.386999130249 49.3836326599121 19.4880523681641 15.2894334793091 7.37529897689819 6.21277189254761 5.3500394821167 4.16355657577515 3.88936448097229 0.722213268280029 0.137472048401833 0.118141517043114 0.101890370249748 0.372931152582169 0.0518303327262402 0.189427778124809 0.0316344127058983 0.00807130616158247 1.0205682516098 2.12560367584229 2.08282256126404 1.74808716773987 1.76443016529083 1.84768784046173 -0.179527401924133 15.4784784317017 17.1971492767334 12.7879590988159 4.3152289390564 3.14584517478943 22.4761390686035 5.19741010665894 1.77235782146454 1.63088738918304 2.53707242012024 3.10957312583923 11.9297657012939 15.9002199172974 12.4305562973022 2.30880641937256 15.357460975647 2.99904823303223 19.5953235626221 9.51199245452881 6.81560182571411 5.29419374465942 10.3428010940552 7.43961429595947 6.49635934829712 2.24152183532715 0.295808494091034 -0.319503307342529 -0.635819554328918 1.79534542560577 7.42771768569946 2.95806813240051 -1.03270411491394 -2.01239490509033 -2.99195504188538 -3.4934241771698 -4.00336933135986 3.92284035682678 1.07095277309418 17.1270866394043 6.17647361755371 28.7795944213867 24.8198204040527 20.2407054901123 14.0753679275513 13.3655014038086 9.09257793426514 8.17070579528809 15.8345022201538 10.4966859817505 5.02350664138794 2.39253187179565 1.53078734874725 0.287763386964798 29.0356597900391 11.7587261199951 12.7335977554321 10.4075813293457 13.6552066802979 37.8993797302246 23.7301445007324 18.5905647277832 15.6849517822266 12.1402282714844 11.6745567321777 10.7682590484619 10.4256639480591 9.97071552276611 8.8682746887207 8.45853996276855 8.03524494171143 7.50360298156738 7.07716798782349 6.30519342422485 6.44901180267334 6.11311149597168 5.80839347839355 5.58892726898193 4.22424602508545 4.24249172210693 4.33675527572632 5.03908157348633 4.88615989685059 4.99731731414795 5.04506635665894 4.68369197845459 4.4691686630249 4.30163621902466 3.8000910282135 4.10378360748291 4.14818143844604 4.57762384414673 5.03793716430664 4.53412866592407 4.50717306137085 4.46474599838257 5.14418601989746 4.75784969329834 6.54765796661377 6.18109703063965 5.83650636672974 4.77333927154541 4.46624517440796 4.51709890365601 4.23385763168335 4.04380512237549 3.44611525535583 37.2964553833008 14.5057764053345 10.0987949371338 3.43785786628723 12.5851831436157 10.8678007125854
5.50475025177002 5.20778131484985 4.94190216064453 6.63950443267822 6.34514236450195 6.06566143035889 4.38086175918579 4.35377407073975 4.18598079681396 4.05101728439331 3.9192943572998 3.68448376655579 3.53248739242554 3.32336282730103 2.71772289276123 2.9133095741272 1.94203269481659 1.89910840988159 1.23065745830536 1.08816361427307 1.0174298286438 1.51959192752838 1.37718963623047 1.24929058551788 0.705801606178284 0.139865189790726 0.102703914046288 0.0779349356889725 0.0458781197667122 0.0094161257147789 -0.0560775101184845 -0.0826238766312599 -0.565053462982178 -1.50419414043427 14.4732065200806 -1.3339866399765 2.92766332626343 8.75547504425049 11.9997148513794 45.2115669250488 20.0425033569336 15.6512956619263 9.72107028961182 8.41220760345459 4.31768751144409 3.94692540168762 3.65645837783813 2.98924350738525 2.80951642990112 0.476722538471222 0.18560291826725 0.322531789541245 0.625115096569061 0.329443722963333 0.35225573182106 1.24341833591461 1.96940577030182 2.3056206703186 2.16264343261719 1.94344770908356 1.63283729553223 1.39711487293243 -0.311035215854645 -0.685081779956818 32.5726547241211 -0.808933973312378 33.0044326782227 -1.44027495384216 47.6388397216797 5.42468023300171 4.66173267364502 3.76563143730164 2.45565748214722 3.34664797782898 -1.08195769786835 -0.524702310562134 23.5420970916748 5.11352443695068 8.25651931762695 2.90404748916626 15.7051563262939 5.17313814163208 5.84191465377808 4.82790040969849 4.38471794128418 3.32524514198303 5.58507251739502 4.58505868911743 1.40837442874908 -0.546790063381195 -0.725567042827606 6.76549196243286 -0.980469107627869 4.01304054260254 -1.18026220798492 -1.9079293012619 -3.00102663040161 -3.27267074584961 2.13465881347656 8.51814746856689 5.28676986694336 17.6418952941895 11.8962564468384 32.0513648986816 22.9446449279785 18.3154773712158 8.42399883270264 17.7261238098145 8.62471771240234 7.66342163085938 5.31579780578613 4.35811328887939 2.92884659767151 1.52846002578735 0.953921616077423 0.0874449759721756 31.5132293701172 9.32114410400391 16.8040828704834 9.24533748626709 7.16699171066284 45.6565551757812 16.2686405181885 13.8300094604492 13.4433116912842 12.4604978561401 11.7222967147827 10.8187570571899 10.424822807312 9.46653652191162 9.01655101776123 8.55375289916992 7.57073068618774 7.19363975524902 6.84493970870972 6.52867317199707 6.01036787033081 5.73086595535278 5.09407949447632 5.34788274765015 5.1131591796875 4.88392877578735 3.82253003120422 3.85295844078064 3.96142601966858 4.62954473495483 4.48058986663818 4.32046937942505 4.23249101638794 4.26050043106079 4.12777233123779 4.00467252731323 3.6172571182251 3.91943359375 4.01595306396484 4.40290212631226 4.30664539337158 4.18529891967773 4.13182163238525 4.09941291809082 4.18601131439209 3.97170543670654 5.52915620803833 5.22036457061768 4.92334985733032 4.64284706115723 3.91169404983521 3.71125245094299 3.73666787147522 20.0677738189697 13.9035396575928 10.0912857055664 6.00117349624634 6.33384943008423
6.42984914779663 6.06371021270752 5.70124673843384 4.67746305465698 4.52529907226562 4.37982749938965 5.63461923599243 5.37362957000732 5.22440242767334 4.09772253036499 4.00613307952881 3.81033563613892 3.57912302017212 3.2877459526062 2.96482491493225 2.26264333724976 2.24019145965576 1.71169483661652 1.48757028579712 1.40636026859283 1.32628083229065 0.935160756111145 0.707071602344513 0.573774099349976 1.10555052757263 0.993408977985382 0.930126547813416 0.535065829753876 0.00265168701298535 -0.0292194709181786 -0.0545187443494797 -0.0828213021159172 -0.0915170535445213 -1.13510704040527 3.39569067955017 4.12959766387939 1.43605649471283 8.0795431137085 1.73374319076538 14.4622526168823 43.3308715820312 17.2533740997314 13.6545267105103 11.4976186752319 8.66707611083984 6.14454936981201 5.63118314743042 3.00333619117737 2.84646105766296 2.68778300285339 2.31923198699951 2.21234273910522 1.15478765964508 1.30414962768555 1.59372770786285 1.63120937347412 1.77126586437225 2.01921916007996 1.86478686332703 1.6673150062561 1.57024598121643 1.43166077136993 1.15108609199524 0.808461427688599 5.83605337142944 12.19065284729 -1.54550075531006 -2.49981045722961 60.917896270752 24.09739112854 19.2928943634033 16.2911186218262 -0.0752311795949936 -1.54552841186523 19.3578662872314 28.0623607635498 10.0256042480469 11.0446357727051 7.84304618835449 20.1869583129883 4.00388717651367 9.59051704406738 5.58806133270264 3.79493236541748 2.75247859954834 6.32081413269043 3.60359621047974 2.84737277030945 0.316161185503006 1.14146542549133 -0.430880963802338 1.66265141963959 -0.99473637342453 17.3696460723877 3.31049561500549 -2.16868996620178 -2.32766628265381 2.60051488876343 13.1158266067505 16.2610454559326 7.73377990722656 9.79414558410645 26.1986122131348 15.501636505127 14.3719806671143 13.3763618469238 10.8455209732056 10.278998374939 12.1655540466309 9.22703742980957 6.75413942337036 6.09674835205078 4.23994588851929 1.96374297142029 1.23304772377014 6.8460578918457 22.7161464691162 20.7625579833984 15.2224102020264 13.6206121444702 9.48649215698242 8.9240665435791 39.4985275268555 21.802152633667 18.2626476287842 11.6562452316284 11.6508235931396 11.3273839950562 10.9806804656982 9.90774440765381 9.33973407745361 8.8346586227417 8.00760269165039 7.61971139907837 7.24669218063354 6.91296243667603 6.19201469421387 5.94302034378052 5.71017980575562 5.23591470718384 5.02362966537476 4.41633176803589 4.67045831680298 4.4887580871582 4.30552244186401 3.49765110015869 3.51842331886292 3.59804058074951 4.2492299079895 4.13598394393921 4.0092830657959 3.92799711227417 3.93268871307373 3.83117532730103 3.78251123428345 3.48067617416382 3.74919247627258 3.75875282287598 4.07554149627686 3.98737478256226 3.90166234970093 3.86720037460327 3.63076543807983 2.73823189735413 2.39893627166748 10.6149463653564 2.80788922309875 36.2546463012695 4.00080728530884 3.49449372291565 3.38586497306824 3.39412069320679 7.79672241210938 5.91205835342407
6.46820020675659 6.09369468688965 5.688805103302 5.36130666732788 5.12457704544067 4.91373014450073 4.1225700378418 3.99356245994568 3.95036816596985 4.73946046829224 4.4830379486084 4.2496600151062 4.0166449546814 3.21684002876282 2.87195324897766 2.57892656326294 1.90777981281281 1.7845858335495 1.43694257736206 1.35861659049988 1.08758044242859 1.23232650756836 0.565078735351562 0.203030064702034 0.128713712096214 0.0736027136445045 0.351525843143463 0.753922283649445 0.696018218994141 0.68627256155014 -0.0764249935746193 -0.101523071527481 -0.111316934227943 -1.41459286212921 -1.58477032184601 19.6260089874268 -1.14788269996643 -1.87890791893005 -1.96541225910187 16.1354465484619 45.6298561096191 22.2761287689209 16.5236129760742 12.8912410736084 9.46568584442139 8.43812370300293 7.65715742111206 5.80720615386963 4.55550909042358 4.28997087478638 2.340176820755 2.26315236091614 2.22796297073364 2.049241065979 2.53518581390381 2.24334859848022 1.75736260414124 1.63631665706635 1.50240778923035 1.37458777427673 1.27381086349487 1.11362910270691 1.00175929069519 -0.647586286067963 26.9094982147217 -0.0922381207346916 -2.18553256988525 -2.49037909507751 24.970630645752 51.7157974243164 31.1127128601074 15.3855810165405 1.11505687236786 32.0390281677246 11.2958583831787 23.3629665374756 15.824257850647 20.2644290924072 4.46699476242065 29.8412437438965 7.65657138824463 6.53401947021484 5.61637592315674 2.70556974411011 2.83569955825806 2.64418268203735 2.41165232658386 2.31329345703125 0.176956459879875 0.174617767333984 0.021828006953001 -0.451691418886185 22.0921993255615 -0.750248551368713 31.6288890838623 -1.16991794109344 -1.70168805122375 11.057222366333 15.7277126312256 8.71073246002197 2.98960566520691 9.89614200592041 18.0384750366211 14.8287143707275 8.57046794891357 9.8809061050415 10.605297088623 21.063196182251 14.9607391357422 15.9098176956177 16.1718101501465 7.42536067962646 5.29002046585083 2.82463359832764 2.44776701927185 9.31395435333252 21.1201419830322 15.5566835403442 10.3515796661377 10.3580408096313 20.7887382507324 6.82335758209229 22.3006801605225 45.6550712585449 18.8653049468994 15.8955497741699 14.2445907592773 13.2195835113525 10.0304698944092 10.3074655532837 9.74463558197021 9.20903778076172 8.26277923583984 7.86413955688477 7.48177671432495 7.13910150527954 6.54987668991089 6.27899312973022 6.03624582290649 5.44509935379028 5.24606466293335 5.05387306213379 4.59948110580444 4.43843698501587 3.89016437530518 4.15934467315674 3.9773645401001 3.82528972625732 3.20513820648193 3.22937941551208 3.31157469749451 3.92186522483826 3.79919981956482 3.68117189407349 3.63953828811646 3.71272850036621 3.1809229850769 3.0956699848175 3.05845355987549 3.44253182411194 3.3234269618988 3.19914364814758 2.56692147254944 2.38651871681213 1.88979589939117 2.81982684135437 1.80074954032898 1.78408563137054 48.8949928283691 12.7899322509766 9.76338386535645 3.49207019805908 3.17488718032837 3.04219627380371
12.4839954376221 6.89545488357544 6.30333185195923 5.25306272506714 5.01428461074829 4.79394865036011 4.61586093902588 4.46990633010864 4.34101581573486 4.17224884033203 3.58991813659668 3.65004777908325 3.2364764213562 3.74175548553467 3.51068568229675 3.31316256523132 1.60502016544342 1.55651366710663 1.62601113319397 1.50781548023224 1.3984797000885 1.05196595191956 0.418002843856812 0.411732822656631 0.321665316820145 0.207394793629646 -0.117011345922947 -2.17743706703186 8.12650775909424 -1.95778250694275 54.4597320556641 0.569315552711487 0.544802129268646 -0.175696089863777 -2.00009870529175 34.3666648864746 3.11505675315857 -1.31635427474976 -2.16043019294739 9.29606151580811 23.4543323516846 41.5190277099609 6.1991229057312 1.64635157585144 44.5335464477539 8.91272830963135 6.94890546798706 6.73789072036743 6.31070995330811 5.94756650924683 4.54782676696777 3.73145079612732 3.62456631660461 2.29153537750244 3.08651041984558 2.27545523643494 2.16875815391541 1.97999489307404 1.93055999279022 1.22364151477814 1.14132523536682 0.837337076663971 0.74088841676712 0.533654391765594 0.0478224605321884 -1.71922218799591 -2.52105689048767 -0.476804494857788 33.4794082641602 16.3717632293701 11.1415863037109 18.7604084014893 33.0804443359375 15.1046934127808 18.7473773956299 13.7301149368286 12.8541212081909 5.30958318710327 12.4798498153687 11.0011100769043 12.7646856307983 9.59424304962158 6.08698558807373 2.81847929954529 7.40532541275024 10.3334045410156 2.11287569999695 2.04814577102661 1.8489043712616 0.693539500236511 0.982934594154358 -0.143047541379929 -0.385733366012573 3.05730128288269 13.1158018112183 2.14793276786804 -0.802202463150024 -1.18512845039368 8.19652557373047 4.67752408981323 3.58456349372864 6.86794805526733 12.5274686813354 2.44693541526794 4.02523612976074 15.7864866256714 34.2687149047852 15.2973861694336 13.746452331543 10.5128383636475 9.44579696655273 8.26912689208984 5.41590309143066 5.15248155593872 4.00400161743164 14.7400226593018 20.9619731903076 17.9597339630127 10.411584854126 10.5644445419312 9.67253494262695 7.75625705718994 9.20346832275391 23.2259006500244 34.8304595947266 22.1885623931885 18.3474216461182 12.5329847335815 12.0207195281982 11.1316032409668 10.2018489837646 8.11249923706055 8.60718250274658 8.18964672088623 7.79250240325928 7.4401912689209 6.75461959838867 6.47589063644409 6.21464157104492 5.74908828735352 5.53579092025757 5.33655881881714 4.84755706787109 4.69318294525146 4.52755451202393 4.10020303726196 3.95887589454651 3.43915557861328 3.69443321228027 3.56448650360107 3.43643379211426 2.94371151924133 2.95926380157471 3.02604699134827 3.61833882331848 3.15065431594849 3.10831737518311 2.87053036689758 2.99989700317383 2.13484525680542 6.22156810760498 2.45454597473145 2.26264095306396 2.19556641578674 2.24188256263733 2.07595539093018 15.8677310943604 3.83856344223022 12.3739786148071 11.227822303772 34.8182678222656 15.279128074646 6.26883029937744 5.24950695037842
16.7013301849365 14.7816820144653 9.77314567565918 8.89873218536377 5.26052665710449 4.92662906646729 4.47790575027466 4.34725856781006 4.22466468811035 4.12716960906982 3.91219139099121 3.71618485450745 3.52844667434692 2.91647028923035 2.74378108978271 2.58074235916138 3.06064915657043 2.8841540813446 2.728848695755 1.37347936630249 1.33324217796326 1.26487243175507 1.14502680301666 1.01835358142853 0.700147688388824 0.0718699768185616 0.0501059480011463 -1.87314867973328 -2.48011302947998 20.0575790405273 52.9567337036133 13.0924777984619 2.89771175384521 1.46543288230896 7.34590911865234 -1.22866475582123 6.31917858123779 4.46718692779541 1.51274418830872 3.50146126747131 19.4339256286621 43.9436302185059 22.651252746582 17.5441703796387 20.2987384796143 23.4294929504395 17.1972351074219 13.4009485244751 6.22386264801025 5.04686498641968 5.45467710494995 5.2280387878418 5.0109224319458 3.92600965499878 3.42481231689453 3.4056704044342 3.31056833267212 2.05971693992615 1.99593365192413 1.95107841491699 1.76632153987885 1.68234634399414 0.636100947856903 0.34965181350708 -0.00991021282970905 -1.77387487888336 -3.02832841873169 21.9437313079834 29.3495388031006 22.2790489196777 26.6891345977783 18.7928161621094 20.6478862762451 17.5406799316406 13.6307258605957 11.9094009399414 11.6871004104614 8.65312576293945 23.3315658569336 8.28705787658691 4.78886079788208 7.26917266845703 4.03951692581177 9.75599670410156 1.737389087677 19.368350982666 8.79189491271973 4.31969356536865 3.10279059410095 1.02242684364319 0.320509016513824 0.00725386664271355 -0.595211684703827 9.5824556350708 0.715659320354462 5.17580509185791 -0.682120203971863 -1.16423904895782 15.8904228210449 -0.641112148761749 -1.30351519584656 3.28931331634521 7.66396427154541 2.88194799423218 4.86997938156128 14.5395984649658 21.5060291290283 22.7977638244629 19.787618637085 12.7952299118042 9.07855319976807 7.72003030776978 6.92606735229492 6.67475318908691 18.0334377288818 6.40114736557007 12.4255084991455 12.4693470001221 10.0106620788574 8.29720211029053 7.49479198455811 5.84713077545166 20.2796192169189 5.11984586715698 12.9752397537231 53.0747871398926 18.6309833526611 16.6286315917969 15.0569467544556 12.3297805786133 9.30416297912598 9.15775489807129 8.50265598297119 7.9206371307373 7.32472562789917 6.5512261390686 7.03150272369385 6.73635149002075 6.47222137451172 5.9173731803894 5.70525693893433 5.51183319091797 5.1095757484436 4.94757652282715 4.78614854812622 4.35102128982544 4.21481037139893 4.0816798210144 3.66832089424133 3.53769993782043 3.10289978981018 3.31177282333374 3.20124530792236 3.09536337852478 2.71682929992676 2.73357796669006 2.82761311531067 3.06903481483459 2.29359841346741 2.21275234222412 2.1212306022644 4.8599534034729 2.04893326759338 1.46851229667664 1.38961625099182 1.67015564441681 18.1790428161621 2.00378561019897 26.416862487793 11.5027542114258 1.70765721797943 1.5863755941391 48.1754608154297 9.94742488861084
19.4220294952393 16.6422004699707 14.5370674133301 11.5154457092285 10.4775810241699 7.36569118499756 6.93586730957031 4.38203048706055 4.25929403305054 3.27095484733582 3.89917016029358 3.66661095619202 3.47567224502563 3.29869031906128 3.10882306098938 2.92109274864197 2.37179255485535 2.24100542068481 2.14877986907959 2.55226016044617 2.40788221359253 2.27258086204529 0.37798735499382 0.25966277718544 0.865771770477295 0.743796706199646 0.611641585826874 -1.33577704429626 -2.18702292442322 0.921774685382843 31.3655395507812 38.585620880127 22.0146217346191 6.62768793106079 -0.806768953800201 8.34782886505127 13.8152494430542 3.0262622833252 0.557374536991119 3.41302490234375 9.67742252349854 11.9115333557129 39.6955795288086 17.7532730102539 13.5873994827271 11.6659393310547 9.99751567840576 8.50999450683594 10.3044376373291 8.91322803497314 7.89113855361938 4.95905447006226 4.281494140625 4.71309614181519 4.64734983444214 4.58241987228394 4.44341230392456 3.51256132125854 3.01082277297974 2.88580203056335 1.77830743789673 1.69468772411346 1.58517301082611 1.37814354896545 0.31176346540451 -1.49551868438721 -1.97902691364288 -2.17098784446716 39.4236450195312 34.3353576660156 27.1135330200195 23.238374710083 20.2924556732178 13.6184616088867 12.5568532943726 12.7103157043457 8.68003749847412 28.3476696014404 9.81354808807373 10.7402114868164 8.3862771987915 2.8305139541626 10.4856128692627 2.52284264564514 3.25053739547729 11.8086309432983 18.7302551269531 9.24386215209961 7.05234098434448 2.84020614624023 2.02844619750977 0.836324453353882 -0.211729884147644 20.4834842681885 0.642379879951477 19.6917171478271 9.74270725250244 3.73203015327454 4.63839673995972 11.9209508895874 3.78800272941589 7.83568048477173 7.10124206542969 5.44207191467285 5.14152574539185 15.1471338272095 32.9722557067871 20.1169376373291 17.7126789093018 10.532995223999 8.51356983184814 7.8251314163208 7.37713098526001 6.76215744018555 6.03609800338745 6.0092511177063 4.17109107971191 7.51869297027588 3.98752427101135 3.70316791534424 3.60644507408142 13.1308155059814 9.68396186828613 8.00949859619141 6.62913084030151 10.5825309753418 51.6318321228027 25.5402126312256 20.8589019775391 13.2363176345825 12.011004447937 10.9488582611084 8.79225921630859 7.74980068206787 7.39383316040039 6.92719697952271 6.63774442672729 6.37216377258301 5.69107437133789 6.16420555114746 5.93572616577148 5.7154221534729 5.26134538650513 5.08962345123291 4.92797470092773 4.58898830413818 4.44297313690186 4.30979156494141 3.93192982673645 3.79161286354065 3.67367005348206 3.28188538551331 3.17082953453064 2.78818154335022 2.95663595199585 2.86216974258423 2.76539254188538 2.14410185813904 2.11274862289429 1.88299798965454 1.56632733345032 2.65250611305237 1.10558605194092 0.772639214992523 21.6987781524658 1.76756858825684 8.35901546478271 6.47877883911133 4.14146995544434 2.14794659614563 1.64124059677124 8.86299991607666 20.2414474487305 27.1158542633057
