NCOLS 172
NROWS 32
XLLCORNER 353808
YLLCORNER 6699520
CELLSIZE 16 
NODATA_value -3.4e+38 
0.422085672616959 0.494578510522842 0.565997898578644 0.647010564804077 0.72026139497757 0.785417497158051 0.837948620319366 0.901546955108643 1.02277994155884 1.27202832698822 1.70881104469299 1.44898891448975 1.47094595432281 1.59855282306671 1.85585391521454 2.42499995231628 2.47558236122131 2.80139756202698 2.82984805107117 3.11445116996765 3.16417098045349 2.94187998771667 2.99350619316101 2.91053199768066 2.85453677177429 2.6742308139801 2.44297242164612 2.2463686466217 2.07716059684753 1.89017927646637 1.79862248897552 1.81283342838287 1.79708814620972 1.66675460338593 1.6399359703064 1.53701913356781 1.53931140899658 2.18732261657715 2.3372437953949 2.59247946739197 2.46873903274536 2.7526319026947 2.50549840927124 2.48150968551636 2.08293485641479 2.13117957115173 2.41218614578247 2.27891182899475 2.25916051864624 2.35467982292175 2.12862586975098 1.79703414440155 0.996193528175354 0.435801982879639 0.411052882671356 0.450809568166733 0.705664336681366 0.613372266292572 0.0450271219015121 0.0408899672329426 0.0958591923117638 -0.141489207744598 -0.0921749919652939 -0.0640765354037285 0.0379784815013409 -0.130252197384834 -0.114027000963688 0.517610728740692 0.993004500865936 1.39859914779663 1.77669262886047 2.18900394439697 2.57177925109863 2.80837082862854 2.94120526313782 3.08427095413208 3.03571510314941 3.04698419570923 3.10616040229797 3.19692492485046 3.12761330604553 3.13187980651855 3.26036500930786 3.02740955352783 2.88346934318542 2.81191778182983 2.61493563652039 2.35601687431335 2.345534324646 2.33051490783691 2.5741286277771 2.63125443458557 2.55799508094788 2.80775356292725 3.08306765556335 3.21227240562439 3.23925948143005 3.21681237220764 3.29020214080811 3.19904327392578 2.96988439559937 2.52974557876587 2.31762099266052 2.16723012924194 2.25464010238647 2.18361210823059 2.17556190490723 2.321772813797 2.44077301025391 2.45017647743225 2.32386565208435 2.22609162330627 2.17035460472107 2.04583787918091 1.88886344432831 3.04703855514526 2.42631888389587 1.37324845790863 1.40715491771698 1.49815607070923 1.60856294631958 1.63419854640961 1.62557697296143 1.54048097133636 1.36436319351196 1.37670600414276 1.33465814590454 1.23661696910858 1.19293332099915 1.07552897930145 1.27636802196503 1.08504951000214 0.513148605823517 0.343413501977921 0.30094388127327 0.242278054356575 0.127321377396584 0.00227896287105978 -0.101197309792042 -0.193540304899216 -0.255819708108902 -0.251200705766678 -0.230098068714142 -0.17195437848568 0.0497047752141953 0.422104299068451 0.521393835544586 0.460530459880829 0.437344521284103 0.368351727724075 1.09284174442291 2.35867667198181 2.15001082420349 3.31445717811584 3.60707879066467 4.14937257766724 2.27680945396423 3.5579891204834 3.53092122077942 2.4736692905426 0.686109185218811 1.11908614635468 1.70749855041504 2.32378768920898 2.55220317840576 3.96119523048401 4.91199493408203 3.7307026386261 -0.590029954910278 -0.619487702846527 -0.619504570960999 0.0705824866890907
0.386732876300812 0.490838974714279 0.562486886978149 0.656286954879761 0.733178973197937 0.800979912281036 0.863691747188568 0.943977296352386 1.11970007419586 1.44049096107483 1.31931626796722 1.74729752540588 1.57544720172882 1.80085635185242 2.314621925354 2.57062578201294 2.62731790542603 2.65550374984741 2.90303444862366 2.92418956756592 2.72889137268066 2.77240180969238 2.72175216674805 2.75673413276672 2.56317615509033 2.3567430973053 2.13174247741699 1.9666006565094 1.84973084926605 1.72767198085785 1.73906016349792 1.61457812786102 1.59776699542999 1.56862771511078 1.49620401859283 1.51631450653076 2.11001372337341 2.20569324493408 2.40164136886597 2.29129076004028 2.48553705215454 2.24188041687012 2.16468811035156 1.85015189647675 1.90155243873596 1.98520350456238 1.78341090679169 1.78464365005493 1.82944095134735 1.84130656719208 1.78950238227844 1.12276494503021 0.607057511806488 0.42965891957283 0.618600130081177 0.647922813892365 3.28344750404358 2.02729749679565 -0.776613533496857 -0.71096134185791 -0.505374431610107 -0.316881060600281 -0.190341144800186 -0.00671495590358973 -0.309489279985428 -0.260414361953735 0.175869300961494 0.498154252767563 1.03733050823212 1.50821840763092 1.83773839473724 2.17874908447266 2.4538094997406 2.67827320098877 2.79066514968872 2.78131890296936 2.78864026069641 2.7974214553833 2.81135034561157 2.74447393417358 2.73759651184082 2.81741333007812 2.57146334648132 2.48446893692017 2.4232804775238 2.41468405723572 2.22367978096008 2.25982618331909 2.22919821739197 2.46972727775574 2.40120244026184 2.63454937934875 2.69493007659912 2.95392489433289 3.06825160980225 3.08732914924622 3.05315208435059 3.11155295372009 3.01336336135864 2.81171870231628 2.39576411247253 2.18726706504822 2.03175258636475 2.11659717559814 2.06346797943115 2.02698755264282 1.8450413942337 1.91761767864227 2.09917855262756 2.1445038318634 2.03106713294983 1.88636040687561 1.81327021121979 1.76652729511261 1.87513983249664 2.18178796768188 1.2876398563385 1.15317285060883 1.22913300991058 1.46697473526001 1.53032970428467 1.54423415660858 1.45777666568756 1.29743897914886 1.24310195446014 1.1496045589447 1.18156743049622 1.13499844074249 1.01027977466583 0.905369162559509 1.75937962532043 1.84281182289124 0.876710414886475 0.254937440156937 0.122848853468895 0.0515880286693573 -0.0321734622120857 -0.130924582481384 -0.210523158311844 -0.275613397359848 -0.300172507762909 -0.292423605918884 -0.21096134185791 0.000352639530319721 0.346177369356155 0.460030168294907 0.463674306869507 0.413529127836227 0.402160614728928 0.946108102798462 1.98197817802429 3.70938944816589 4.72887945175171 5.63952445983887 5.68601179122925 3.87741684913635 0.981261432170868 0.398518890142441 1.69942080974579 0.901625514030457 1.99137997627258 2.64888691902161 4.74309873580933 7.68628835678101 8.26902294158936 9.13532161712646 11.4822816848755 10.2055501937866 6.91816806793213 2.5156078338623 0.0190814696252346 0.511646807193756
0.296814441680908 0.457680225372314 0.562052071094513 0.645012319087982 0.723062217235565 0.802822530269623 0.87930029630661 0.998512089252472 1.17018890380859 1.35330283641815 1.46169984340668 1.85717964172363 1.7811461687088 2.24958324432373 2.46782851219177 2.45413517951965 2.67959547042847 2.71949601173401 2.73517298698425 2.55268383026123 2.54219460487366 2.51208662986755 2.49980878829956 2.41230344772339 2.33714842796326 3.04175543785095 2.79667854309082 3.20880818367004 2.79869270324707 1.6469190120697 1.46185839176178 1.41502106189728 1.3259459733963 1.33561277389526 1.45632314682007 1.96470022201538 2.04658579826355 2.23090267181396 2.10166382789612 2.23638010025024 2.0164897441864 1.94537019729614 1.65587973594666 1.59917986392975 1.44104087352753 1.45139455795288 1.4603796005249 1.5021014213562 1.52716481685638 1.50454807281494 1.47416412830353 1.01814246177673 0.427558243274689 0.618179321289062 0.76207160949707 1.51857161521912 2.30270671844482 5.43036460876465 -0.856038808822632 -1.07045412063599 -0.948580026626587 -0.695907711982727 -0.277225166559219 -0.310535341501236 0.368875682353973 0.0488740429282188 0.012956771068275 0.412158489227295 0.886090338230133 1.44032835960388 1.83195912837982 2.05964517593384 2.30463767051697 2.48248958587646 2.57286906242371 2.5537371635437 2.44073915481567 2.41890645027161 2.34469842910767 2.34885025024414 2.42001628875732 2.24074053764343 2.13263154029846 2.00281381607056 2.01163625717163 2.09525871276855 2.17698407173157 2.1563503742218 2.37938380241394 2.31074213981628 2.53184366226196 2.76914072036743 2.82957172393799 2.93460130691528 2.95213508605957 2.91269540786743 2.95734643936157 2.85502767562866 2.650719165802 2.25097131729126 2.06892538070679 1.93325102329254 2.01031899452209 1.9486471414566 1.91378843784332 1.74554038047791 1.62151920795441 1.68828690052032 1.80823087692261 1.88131809234619 1.78866016864777 1.67183578014374 1.53513443470001 1.41634607315063 1.32373940944672 1.18331921100616 0.97673362493515 0.868163526058197 1.08449470996857 1.238844871521 1.27636957168579 1.30028581619263 1.1353954076767 1.15550315380096 1.09194374084473 1.05825388431549 0.958859443664551 0.946096539497375 0.828640222549438 0.771242558956146 1.6037665605545 2.34592866897583 1.62026131153107 0.457263737916946 0.393109887838364 0.194799289107323 -0.161627933382988 -0.235634878277779 -0.305364787578583 -0.335321187973022 -0.322215497493744 -0.289566576480865 -0.0746821388602257 0.274996310472488 0.367170244455338 0.394703716039658 0.379979461431503 0.338613957166672 0.744150400161743 1.43762385845184 3.48769402503967 4.40133810043335 5.56356763839722 6.65857172012329 8.78425884246826 2.89028811454773 0.206100583076477 0.245680749416351 -0.0677377432584763 0.746953547000885 2.40645623207092 3.72257494926453 6.58997869491577 9.37473678588867 11.0675926208496 10.8582668304443 11.5602951049805 10.0016632080078 6.92972421646118 2.21239686012268 0.217529967427254 0.317394256591797
0.192661598324776 0.405625939369202 0.548299193382263 0.632371306419373 0.715663850307465 0.811401665210724 0.918234348297119 1.04890167713165 1.21288359165192 1.82164096832275 1.56145179271698 1.88652241230011 2.16419363021851 2.42765855789185 2.3826048374176 2.55839848518372 2.5161554813385 2.54672908782959 2.39184045791626 2.37158679962158 2.29149389266968 2.29105496406555 2.23352360725403 2.12037348747253 1.9545236825943 1.83014762401581 1.73442816734314 1.61094701290131 1.59227561950684 1.41622960567474 1.34879422187805 1.21557128429413 1.12917101383209 1.36553227901459 1.84811651706696 1.8959025144577 2.05443739891052 1.95571756362915 2.05912923812866 1.84446811676025 1.75196862220764 1.50108301639557 1.4452064037323 1.25261342525482 1.19906830787659 1.22605085372925 1.24077343940735 1.25930500030518 1.29189968109131 1.20628368854523 0.782382547855377 0.425778776407242 0.588699042797089 0.670161366462708 0.745038092136383 1.49656844139099 3.87762832641602 2.93083000183105 -1.18734157085419 -1.10258817672729 -0.964838266372681 -0.691232800483704 -0.415449649095535 -0.260847896337509 4.41843700408936 6.80345296859741 0.271423995494843 0.507326126098633 1.02243936061859 1.36931157112122 1.70494735240936 1.99550557136536 2.14138698577881 2.36037755012512 2.35339570045471 2.0664803981781 2.00836634635925 1.98192012310028 2.02538990974426 2.09438729286194 1.84242379665375 1.77352106571198 1.69437313079834 1.58709239959717 1.72767913341522 2.07867836952209 2.07141041755676 2.28756046295166 2.22433114051819 2.43450999259949 2.65976643562317 2.74929356575012 2.81097650527954 2.82205533981323 2.793292760849 2.82131910324097 2.71489334106445 2.51822257041931 2.1222710609436 1.94304955005646 1.81966316699982 1.90040826797485 1.8445508480072 1.80428123474121 1.64964234828949 1.53032600879669 1.42504036426544 1.52864277362823 1.58774542808533 1.61764585971832 1.50778877735138 1.2790230512619 1.08320999145508 0.961722433567047 0.904499769210815 0.805124759674072 0.613380968570709 0.606977105140686 0.754042863845825 0.82934707403183 0.650908470153809 0.574243068695068 0.66347998380661 0.614922225475311 0.829143226146698 0.795200228691101 0.76139771938324 0.661611080169678 0.636489987373352 0.81066769361496 1.41417908668518 2.07357406616211 2.30495357513428 1.40229558944702 0.406149387359619 0.153602555394173 0.0446358285844326 -0.321765601634979 -0.364402741193771 -0.363264709711075 -0.339180141687393 -0.191208973526955 0.103063300251961 0.237776860594749 0.27427139878273 0.277265667915344 0.755043208599091 1.21622717380524 1.57876133918762 3.02190542221069 4.09420251846313 5.15270948410034 5.0660662651062 7.02106714248657 11.8256673812866 7.9163064956665 2.18971157073975 -0.372140407562256 -0.121321208775043 1.3023499250412 2.9643235206604 5.23125171661377 7.66311454772949 9.96562957763672 10.2874822616577 9.9747371673584 8.86865520477295 6.48733472824097 3.66550397872925 0.82143247127533 0.419032663106918 0.747764825820923
0.110475316643715 0.325111240148544 0.50884747505188 0.628320455551147 0.718781054019928 0.825166940689087 0.963904500007629 1.09625720977783 1.35216021537781 1.60768520832062 1.75257647037506 2.99160814285278 2.37274360656738 2.35019254684448 2.49537324905396 2.43297123908997 2.23333096504211 2.19205164909363 2.22049260139465 2.14409923553467 2.12379097938538 2.0486204624176 1.96569514274597 1.8151980638504 1.67935907840729 1.61847293376923 1.5241539478302 1.50895380973816 1.37528645992279 1.32032978534698 1.17617762088776 1.3355975151062 1.31778013706207 1.74617886543274 1.78597474098206 1.91776919364929 1.82491624355316 1.9147013425827 1.70993316173553 1.59933543205261 1.35248196125031 1.25645160675049 1.1194099187851 1.05903124809265 1.04674637317657 1.07204437255859 1.02526378631592 1.0652756690979 1.06898927688599 1.59337162971497 0.987232327461243 0.57537853717804 0.664582133293152 0.428910434246063 0.893685102462769 2.49935030937195 2.37737917900085 5.36801958084106 -1.18572854995728 -1.17390620708466 -0.937659025192261 -0.602334856987 -0.352795422077179 2.04431509971619 5.0603199005127 7.89403629302979 3.77725338935852 0.779563963413239 1.11158955097198 1.35782814025879 1.63676500320435 1.84361958503723 2.06846261024475 2.27570915222168 2.68776822090149 1.54652416706085 1.41911375522614 1.54336404800415 1.72887706756592 1.56691706180573 1.41979217529297 1.26922047138214 1.22643303871155 1.40308082103729 1.78984940052032 1.97015488147736 2.20571112632751 2.13740253448486 2.34047698974609 2.5564546585083 2.63857197761536 2.64496231079102 2.70392656326294 2.67476081848145 2.70511627197266 2.59278845787048 2.39987516403198 2.0191638469696 1.84492623806 1.71406471729279 1.79080486297607 1.73885929584503 1.69589638710022 1.55044376850128 1.43323194980621 1.28898143768311 1.1930490732193 1.35961735248566 1.41482722759247 1.34478557109833 1.12770783901215 0.836764872074127 0.63513594865799 0.479384511709213 0.506780087947845 0.394743353128433 0.232659935951233 0.037334006279707 0.0284394770860672 -0.0115523878484964 -0.383297652006149 -0.946519732475281 -1.09242606163025 -0.878492832183838 -0.32448610663414 0.22276771068573 0.362562865018845 0.422063708305359 0.550557434558868 0.792642295360565 1.38117349147797 1.93026924133301 1.90313756465912 1.93817126750946 0.891572594642639 0.147555842995644 0.150028616189957 -0.222067251801491 -0.382219195365906 -0.352662414312363 -0.200897321105003 0.0150707671418786 0.0775253251194954 0.108078680932522 0.130362063646317 0.152265563607216 0.844570994377136 1.52797877788544 2.58491587638855 3.52894377708435 4.56036186218262 4.64987897872925 6.09406328201294 8.77825832366943 7.70904541015625 7.27442646026611 3.16213393211365 0.136105939745903 1.02324998378754 2.39804005622864 4.40552663803101 6.49614572525024 8.13063335418701 8.92237377166748 8.64607810974121 7.34034013748169 5.61694765090942 3.24273037910461 1.02579021453857 0.319964617490768 0.716048657894135 5.81726455688477
0.0948892757296562 0.252649903297424 0.463124603033066 0.615798890590668 0.719042360782623 0.864872097969055 1.01619672775269 1.24643158912659 1.42961966991425 1.73003542423248 2.15544176101685 2.35852408409119 2.31843876838684 2.45836067199707 2.38731527328491 2.1967031955719 2.1195375919342 1.99255359172821 2.00076746940613 1.99513339996338 1.91811740398407 1.83222019672394 1.694899559021 1.56135261058807 1.50646138191223 1.44371020793915 1.4413286447525 1.32507705688477 1.27487337589264 1.15978419780731 1.30458354949951 1.6853586435318 1.67026603221893 1.67831015586853 1.79083776473999 1.700434923172 1.76500141620636 1.58357548713684 1.46205568313599 1.23158574104309 1.10292291641235 0.960681557655334 0.88568651676178 0.915061116218567 0.920359790325165 0.860734164714813 0.851769089698792 0.905500054359436 1.12164485454559 1.91597020626068 2.33314156532288 2.16627335548401 2.11385774612427 0.579096734523773 1.07017457485199 0.329235196113586 2.51818680763245 3.0641303062439 -0.470109820365906 -1.22384142875671 -0.838640809059143 -0.396980613470078 1.05309784412384 4.4370288848877 5.82082080841064 6.73381471633911 7.31990098953247 1.07533967494965 1.18860411643982 1.33156716823578 1.53981709480286 1.77728474140167 2.04438376426697 2.17321801185608 5.61372375488281 1.21972978115082 1.0506489276886 0.881763100624084 1.00684261322021 1.02223265171051 0.940922617912292 0.968737900257111 1.05010437965393 1.3522082567215 1.61915552616119 2.09541893005371 2.06934404373169 2.25331544876099 2.45701336860657 2.54054164886475 2.53620624542236 2.51248359680176 2.53411889076233 2.59080839157104 2.48762392997742 2.30263423919678 1.9287496805191 1.7566112279892 1.63198804855347 1.7013224363327 1.65030157566071 1.60467290878296 1.46311593055725 1.34896540641785 1.21392500400543 1.04989731311798 0.977635204792023 1.08428430557251 1.15226244926453 1.62507748603821 0.745356380939484 0.289034783840179 0.0497825294733047 -0.0089534604921937 0.147452801465988 0.0689412653446198 -0.196952134370804 -0.460647583007812 -0.77514237165451 -0.994032919406891 -1.44363081455231 -1.93757164478302 -2.24026226997375 -1.97193491458893 -1.16767597198486 -0.595767498016357 -0.239597707986832 -0.0137757938355207 0.103638790547848 0.676968157291412 1.31172251701355 1.68577921390533 1.63377356529236 1.39966022968292 0.690126895904541 0.0902327075600624 -0.223612725734711 -0.370981335639954 -0.367500573396683 -0.224070623517036 0.512414634227753 0.065483994781971 -0.00149665237404406 0.00798248406499624 -0.0969770178198814 0.179348886013031 0.808024406433105 2.00137734413147 2.90104007720947 3.80920481681824 4.85795640945435 4.88230800628662 7.10431480407715 6.40533351898193 5.75711536407471 5.26600217819214 2.63095855712891 0.815367579460144 1.58378088474274 2.8560311794281 4.92486619949341 6.58089828491211 7.45109033584595 7.28979682922363 6.22350215911865 4.95504951477051 3.13532996177673 2.69740629196167 0.960667192935944 0.306938886642456 2.52334928512573 2.54739260673523
0.126230746507645 0.249927908182144 0.423543870449066 0.586411356925964 0.750632882118225 0.920068979263306 1.15453839302063 1.33173108100891 1.59008061885834 2.09614634513855 2.31365776062012 2.28477168083191 2.41590428352356 2.35665774345398 2.16168856620789 2.09432935714722 1.95532989501953 1.87574887275696 1.84061658382416 1.78581309318542 1.71525454521179 1.5846916437149 1.47790586948395 1.41435718536377 1.3462963104248 1.33384108543396 1.26165497303009 1.21073973178864 1.12159860134125 1.27127027511597 1.63299334049225 1.63968169689178 1.72840464115143 1.69513559341431 1.59254431724548 1.64588284492493 1.47219741344452 1.35502731800079 1.14032053947449 0.998542726039886 0.870831787586212 0.784449636936188 0.777042865753174 0.779327034950256 0.723789691925049 0.680783927440643 0.723109483718872 0.829994142055511 1.13251709938049 1.73754096031189 1.99196362495422 2.51482701301575 4.60387182235718 3.84532022476196 0.736378371715546 -0.00540923373773694 -1.08695650100708 0.879848957061768 0.303020536899567 -0.789292514324188 -0.277558743953705 0.647382855415344 3.37985897064209 5.03963184356689 5.52104377746582 6.11157846450806 5.71096467971802 3.79165053367615 1.30557155609131 1.36255824565887 1.49836206436157 1.79262232780457 1.90793478488922 3.83608412742615 5.05818748474121 0.928525984287262 0.572645723819733 0.331585675477982 0.17383237183094 0.222276464104652 0.395972669124603 0.649966061115265 0.95503705739975 1.17368960380554 1.6711699962616 1.90148735046387 2.17552065849304 2.36839532852173 2.43935227394104 2.43901944160461 2.41499352455139 2.43322896957397 2.32940936088562 2.38146686553955 2.21572399139404 1.86203050613403 1.67648577690125 1.55915415287018 1.62294161319733 1.57267451286316 1.52355813980103 1.39516007900238 1.28193747997284 1.14990150928497 0.998080015182495 0.869175314903259 0.732002854347229 0.854406416416168 0.898926436901093 1.99588537216187 5.01605224609375 -0.366220742464066 -0.556849539279938 -0.442939907312393 -0.15891595184803 -0.312638491392136 -0.576085567474365 -0.993351638317108 -1.5638701915741 -1.90088200569153 -2.05309271812439 -2.40345144271851 -2.64370441436768 -2.75365138053894 -2.18892359733582 -1.257075548172 -0.68027925491333 -0.402529835700989 -0.212175562977791 0.246849879622459 0.839804112911224 1.26778507232666 1.01374888420105 0.801567196846008 0.362239986658096 -0.268968969583511 -0.386173874139786 -0.388976126909256 -0.267376095056534 -0.00977705977857113 0.057342030107975 -0.0120801869779825 -0.0735164061188698 -0.154946550726891 -0.152753472328186 0.210980251431465 1.44580638408661 2.19715809822083 3.00656867027283 3.80756139755249 4.92614841461182 4.31034374237061 4.40234375 4.23497104644775 3.75897026062012 2.77951598167419 1.60998237133026 1.77678859233856 2.32983493804932 3.27006649971008 4.43780946731567 4.98269367218018 5.2420220375061 4.95300436019897 4.18901538848877 2.96144151687622 3.16311621665955 2.88982582092285 0.265961021184921 1.02495980262756 0.983830034732819 0.606511831283569
0.196783229708672 0.286562383174896 0.395321130752563 0.594940483570099 0.827321708202362 1.04206788539886 1.2381284236908 1.49070656299591 1.93694913387299 2.21813464164734 2.2521824836731 2.38933372497559 2.31996250152588 2.14500999450684 2.05495071411133 1.92939531803131 1.85651040077209 1.7259908914566 1.6187891960144 1.49707841873169 1.4672486782074 1.38495647907257 1.33908212184906 1.28658819198608 1.25576674938202 1.16904902458191 1.14870667457581 1.06208872795105 1.24753367900848 1.57061994075775 1.58262026309967 1.67172574996948 1.56871044635773 1.57772970199585 1.56073153018951 1.39059948921204 1.28110027313232 1.08285284042358 0.937635779380798 0.783421397209167 0.701175808906555 0.702950835227966 0.700836777687073 0.630582869052887 0.573862671852112 0.550460517406464 0.66863340139389 0.793625056743622 1.10897982120514 1.4571008682251 1.81219720840454 3.17275094985962 4.80395317077637 5.89810276031494 5.20960235595703 -0.631309330463409 -1.26314115524292 -0.46899425983429 -0.0396033115684986 0.426797956228256 2.40843725204468 2.62316250801086 3.76297616958618 3.94918155670166 4.75856590270996 4.38232660293579 3.64695644378662 2.86172032356262 1.33897733688354 1.4230238199234 1.63934123516083 1.73215818405151 2.40069007873535 4.28498363494873 5.42809581756592 0.528245329856873 0.183405414223671 -0.0724493712186813 -0.153427585959435 -0.230681926012039 0.0788980200886726 0.492616176605225 0.694727540016174 1.22980153560638 1.50303161144257 1.95748579502106 2.28551173210144 2.35511827468872 2.34665560722351 2.32255029678345 2.34081363677979 2.23427128791809 2.08001828193665 1.83908677101135 1.77974903583527 1.62404429912567 1.52773404121399 1.55665767192841 1.50857639312744 1.45608103275299 1.32362997531891 1.22008264064789 1.0940877199173 0.942504286766052 0.82027268409729 0.666131317615509 0.581663131713867 3.57985019683838 2.42869091033936 4.28003644943237 8.43710422515869 -1.01288485527039 -0.991282165050507 -0.719513595104218 -0.471037983894348 -0.603576242923737 -1.13139510154724 -1.63259315490723 -2.07938194274902 -2.43342685699463 -2.61560225486755 -2.84490084648132 -3.19064688682556 -3.31610465049744 -3.0603129863739 -2.56675124168396 -1.60178709030151 -0.796151459217072 -0.494315385818481 -0.271211534738541 0.361911922693253 0.588301301002502 0.0336268879473209 -0.0233933050185442 -0.401833653450012 -0.456984341144562 -0.451938033103943 -0.34679388999939 -0.11921439319849 -0.0254782419651747 -0.0373631082475185 -0.090343065559864 -0.229049071669579 -0.369774520397186 -0.103367127478123 1.07162952423096 1.77415359020233 2.408034324646 2.8725688457489 3.46424317359924 2.70640730857849 2.26457595825195 2.15352010726929 2.28080534934998 1.97045063972473 0.780060291290283 1.31504619121552 2.26105904579163 3.0741069316864 3.52922630310059 4.08272647857666 3.87211060523987 3.14567875862122 2.87972831726074 2.55127000808716 2.53384804725647 3.62656116485596 6.06770277023315 3.87416696548462 0.779794335365295 0.662215292453766 0.763992607593536
0.26886922121048 0.317129373550415 0.432068109512329 0.656982421875 0.932475090026855 1.27623355388641 1.39104211330414 1.82533895969391 2.0606062412262 2.14608883857727 2.35571527481079 2.30610084533691 2.11676907539368 2.05378890037537 1.89767479896545 1.83723556995392 1.72133350372314 1.59951102733612 1.42805075645447 1.30928874015808 1.26266002655029 1.22657716274261 1.20607614517212 1.1939982175827 1.12979543209076 1.08862054347992 0.986020982265472 1.19907343387604 1.51642322540283 1.52324986457825 1.60996174812317 1.53748595714569 1.54467570781708 1.36724197864532 1.27021944522858 1.22202408313751 1.02775943279266 0.873128294944763 0.74099987745285 0.62319803237915 0.598618030548096 0.605223953723907 0.542220950126648 0.493726491928101 0.451093286275864 0.480659514665604 0.646551311016083 0.921132385730743 1.01661670207977 1.33832216262817 2.22860980033875 3.27082848548889 5.09196519851685 6.07232570648193 9.23374652862549 5.91569709777832 1.82636916637421 0.737624168395996 0.569612205028534 2.21703004837036 3.00768089294434 3.17852187156677 3.16052198410034 3.46567726135254 3.31433510780334 3.09381461143494 2.5366051197052 2.34537887573242 1.3733092546463 1.48956871032715 1.62280642986298 1.65407288074493 3.41133117675781 4.7198338508606 3.93660378456116 0.161969780921936 -0.136253908276558 -0.232866019010544 -0.434610724449158 -0.398972868919373 0.079166479408741 0.299378097057343 0.736438572406769 1.09269642829895 1.58884060382843 2.05642509460449 2.27065181732178 2.26469469070435 2.23505640029907 2.25102281570435 2.1537036895752 1.99944281578064 1.68589413166046 1.52935898303986 1.42352247238159 1.47942471504211 1.42122626304626 1.38209772109985 1.39483392238617 1.26611125469208 1.15927994251251 1.03883111476898 0.894182205200195 0.778415203094482 0.624222815036774 1.22282159328461 2.52451586723328 8.53783893585205 4.78687953948975 10.5716304779053 10.8045930862427 -1.43256938457489 -1.54571926593781 -1.15483367443085 -0.876533389091492 3.6306209564209 1.64982378482819 -1.4512767791748 -1.37070870399475 -2.85880088806152 -3.12067842483521 -3.31290197372437 -3.50216341018677 -3.58861422538757 -3.43811559677124 -3.22237586975098 -2.76288604736328 -1.63873255252838 -0.741809904575348 -0.484987854957581 -0.357644379138947 -0.25560188293457 -0.504226207733154 -0.584807753562927 -0.604144811630249 -0.641293108463287 -0.495225548744202 -0.266798853874207 -0.200160175561905 -0.204644426703453 -0.205359309911728 -0.32612356543541 -0.464556306600571 -0.407072573900223 0.755569040775299 1.42565107345581 1.93843257427216 2.06777191162109 2.63859534263611 1.94641625881195 0.29827943444252 0.722682774066925 0.527470409870148 0.173621386289597 0.415879279375076 0.995595991611481 1.65248143672943 2.52293419837952 3.07602882385254 3.28339695930481 3.19370341300964 2.62887763977051 1.94886445999146 1.8670392036438 2.13396000862122 2.70076680183411 4.67539215087891 6.22498750686646 7.46692323684692 4.22505044937134 3.46425032615662 5.2822847366333
1.30847859382629 0.420224517583847 0.576485633850098 0.748594462871552 1.0449355840683 1.54431533813477 1.69559562206268 1.94179284572601 1.9983856678009 2.23735761642456 2.27171635627747 2.11623072624207 2.02197265625 2.34729790687561 1.81452167034149 1.69909918308258 1.58723616600037 1.4107381105423 1.28738760948181 1.20273983478546 1.14557135105133 1.1255429983139 1.12074887752533 1.06696724891663 1.05009782314301 0.966045916080475 1.13434374332428 1.43371748924255 1.46199595928192 1.54825603961945 1.47971725463867 1.51629614830017 1.34623754024506 1.21711468696594 1.02218413352966 0.899408102035522 0.848281919956207 0.685954391956329 0.591760516166687 0.548860490322113 0.509483635425568 0.43892428278923 0.372877925634384 0.345557868480682 0.385525107383728 0.418904989957809 0.605819463729858 0.922877490520477 1.14772057533264 1.74534046649933 2.48231029510498 3.66803407669067 4.7621374130249 6.96040105819702 6.50475645065308 4.85605049133301 1.84984624385834 0.712658762931824 1.94814693927765 2.7082245349884 2.87561440467834 2.88995456695557 3.07576727867126 2.35635757446289 2.35795831680298 1.89046549797058 1.8395744562149 2.2898416519165 1.45000088214874 1.4663108587265 1.49081230163574 2.9526002407074 4.37756538391113 3.45645475387573 3.20887565612793 -0.174644768238068 -0.320738703012466 -0.497000277042389 -0.610804438591003 -0.538102924823761 -0.110116228461266 0.228084906935692 0.420118123292923 1.1141163110733 1.68992125988007 2.03476476669312 2.18163275718689 2.16487050056458 2.17120480537415 2.07355403900146 1.92783308029175 1.62385678291321 1.46866428852081 1.36786758899689 1.4255588054657 1.37876844406128 1.32010006904602 1.1984977722168 1.13283109664917 1.11401653289795 0.994054555892944 0.855805516242981 0.743518888950348 0.594356834888458 1.18175840377808 2.94481039047241 5.7403712272644 13.9084196090698 8.79240036010742 16.9011631011963 19.8152847290039 3.70303916931152 -1.91994655132294 -1.76831150054932 -1.43557870388031 5.80990314483643 10.9012651443481 5.75896072387695 6.02754545211792 1.51938736438751 -3.47574329376221 -3.61545133590698 -3.73840713500977 -3.82484817504883 -3.71068286895752 -3.62050247192383 -3.23913145065308 -2.6499707698822 -1.29060614109039 -0.789491295814514 -0.590436518192291 -0.576866328716278 -0.814663648605347 -0.963097453117371 -0.985188543796539 -0.894074320793152 -0.4554822742939 -0.381042569875717 -0.368259131908417 -0.38572883605957 -0.484596133232117 -0.59764575958252 -0.186257272958755 0.458048641681671 1.15752637386322 1.61488103866577 1.46502327919006 1.77666211128235 1.66758096218109 2.87271404266357 -0.332238435745239 -0.512080013751984 -0.220135271549225 0.107931613922119 0.594837248325348 1.14969396591187 1.76022624969482 2.33072590827942 2.63579893112183 2.60404586791992 2.1975040435791 1.64652729034424 1.46163237094879 1.74759864807129 2.18812012672424 3.58764696121216 4.2702579498291 5.85091400146484 6.71806669235229 6.06772184371948 4.39540100097656 4.228187084198
2.56322169303894 1.54295861721039 0.727714598178864 0.931993961334229 1.32743060588837 1.60262870788574 1.76690626144409 1.86567199230194 2.08849263191223 2.14969611167908 2.09404301643372 2.32073068618774 1.95276415348053 2.25819945335388 2.10437536239624 1.572713971138 1.41059541702271 1.2885617017746 1.24804127216339 1.13237535953522 1.09929704666138 1.04171431064606 0.996041774749756 0.990774214267731 0.953012228012085 1.43977010250092 1.39226317405701 1.37143862247467 1.47872352600098 1.41753745079041 1.45189940929413 1.31718111038208 1.19882225990295 1.00440037250519 0.8653284907341 0.838174343109131 1.01115131378174 0.566877365112305 0.524034142494202 0.480968415737152 0.404507637023926 0.316143959760666 0.261823177337646 0.347864985466003 0.456344246864319 0.444517552852631 0.543039917945862 1.06349229812622 1.80830788612366 2.2375111579895 2.80044150352478 3.71204733848572 5.17624998092651 4.93301868438721 4.56060552597046 4.96900320053101 2.34737515449524 1.80044603347778 2.26141262054443 2.41311049461365 2.60773468017578 1.92603433132172 2.09172511100769 1.86250793933868 1.44364595413208 1.35214757919312 1.56873965263367 2.23954701423645 1.4493145942688 1.82309865951538 2.6619291305542 4.12185621261597 7.58108520507812 3.15224385261536 5.1840615272522 4.1929235458374 1.01505243778229 -0.63133293390274 -0.751846492290497 -0.66351443529129 -0.453643471002579 -0.136038884520531 0.336337804794312 1.2179046869278 1.69307553768158 1.98674809932709 2.08788061141968 2.09629940986633 1.99689221382141 1.85810351371765 1.56710731983185 1.41498613357544 1.31440484523773 1.36832582950592 1.32883870601654 1.27610278129578 1.15567374229431 1.051913022995 0.941540122032166 0.867015361785889 0.815828800201416 0.709485530853271 0.568155407905579 0.980797469615936 2.83543872833252 5.5897650718689 8.66306686401367 15.9221496582031 15.9297246932983 18.0169506072998 20.5874938964844 14.4134588241577 -1.19173347949982 -2.14914155006409 -0.64848792552948 4.1780891418457 7.30006837844849 13.333270072937 15.9312782287598 19.0610485076904 1.62671828269958 -1.19478452205658 0.170351728796959 -3.85275387763977 -3.78240251541138 -3.66030883789062 -3.51408362388611 -3.00375437736511 -1.84022152423859 -1.20784342288971 -0.888006031513214 -0.86557936668396 -1.05210471153259 -1.31244945526123 -1.50133717060089 -1.31559479236603 -0.899198353290558 -0.576363265514374 -0.531346440315247 -0.627775728702545 -0.739910006523132 0.0784503147006035 0.749247670173645 0.791404187679291 1.27438318729401 1.29476809501648 1.26994013786316 0.949365198612213 0.443731844425201 1.80666470527649 -0.696532666683197 -0.406318187713623 0.102352738380432 0.467497497797012 0.674882352352142 1.03249299526215 1.4127824306488 1.74096953868866 2.00932431221008 1.76922476291656 1.36254966259003 1.20983684062958 1.50094187259674 1.89685618877411 2.80095720291138 3.42563700675964 4.45036220550537 4.36731243133545 4.3343710899353 3.59365701675415 3.51860022544861 3.79676485061646
3.95070695877075 2.87832164764404 1.59496414661407 1.25995123386383 1.43474984169006 1.51242065429688 1.79513943195343 1.93912482261658 1.99990689754486 1.97526514530182 2.10215187072754 2.51060438156128 2.15485763549805 1.95739042758942 2.55738949775696 1.40643310546875 1.34406387805939 1.20022332668304 1.25173902511597 1.10496950149536 1.02974581718445 0.9792799949646 0.918214559555054 0.922689378261566 1.1198011636734 1.38995933532715 1.3682746887207 1.42141997814178 1.33394408226013 1.36467504501343 1.26244831085205 1.16310203075409 1.00261223316193 0.843755185604095 0.735965013504028 0.838434159755707 1.10893797874451 0.648780882358551 0.646733343601227 0.382092148065567 0.288426071405411 0.149237766861916 0.255655199289322 0.380386710166931 0.478682994842529 0.471644818782806 0.508154332637787 1.17874252796173 1.94893443584442 2.73026442527771 2.90681934356689 3.96795797348022 4.02351570129395 3.62346649169922 3.71603894233704 4.06238126754761 3.10603642463684 2.20088243484497 2.21315121650696 2.19397330284119 1.66138803958893 1.47004079818726 1.15372633934021 1.20819735527039 1.25420272350311 1.35263657569885 1.45079410076141 1.44347488880157 1.63475322723389 2.93007850646973 3.43587207794189 5.99471998214722 11.471492767334 6.14660501480103 5.07198858261108 5.46316862106323 5.32066869735718 4.19050264358521 1.53790080547333 -0.69853550195694 -0.498799115419388 -0.0979668870568275 0.541348695755005 1.2564058303833 1.67593455314636 1.96270883083344 2.01826190948486 1.92775130271912 1.79270267486572 1.51123428344727 1.36553001403809 1.27108228206635 1.31597542762756 1.2758983373642 1.22806620597839 1.11906063556671 1.01306533813477 0.904444932937622 0.771405816078186 0.667227625846863 0.548888266086578 0.536477029323578 0.857659697532654 2.46176147460938 4.71856307983398 8.51059150695801 9.8701868057251 14.3164262771606 16.8576107025146 19.7115859985352 19.3953533172607 15.2407646179199 7.11227941513062 -0.243369370698929 2.42835998535156 4.20492696762085 6.57024621963501 10.2805128097534 14.1055936813354 20.8736114501953 5.66110467910767 0.0465194024145603 2.85542845726013 1.93196737766266 -2.55883550643921 -3.69514799118042 -3.48059415817261 -3.03487801551819 -2.22924065589905 -1.68055856227875 -1.3090717792511 -1.16260874271393 1.95493018627167 -1.6171133518219 -2.08718538284302 -1.95424580574036 -1.56558930873871 -1.17324483394623 -1.018106341362 -0.964256286621094 -0.23698590695858 0.326675653457642 0.719362080097198 1.00049245357513 0.826520562171936 0.928110837936401 0.85521137714386 0.001629194826819 -0.375458389520645 -0.600634753704071 -0.0532422997057438 0.15310026705265 0.462095379829407 0.490185737609863 0.552088439464569 0.74822735786438 0.825920164585114 1.02017819881439 1.15218102931976 1.04468238353729 0.925083458423615 1.19989621639252 1.93794393539429 2.46466302871704 2.77667903900146 3.54355573654175 3.48655843734741 3.13993167877197 2.56751155853271 2.33016729354858 1.95317804813385 2.52747750282288
6.3536229133606 4.02035093307495 3.16951036453247 1.41447257995605 1.4057103395462 1.62801861763 1.70305728912354 1.83723962306976 1.83371102809906 1.89549100399017 2.03019165992737 2.24963521957397 2.05000686645508 2.11391067504883 2.92899942398071 1.69925677776337 1.33107912540436 1.13020312786102 1.09153294563293 1.04740071296692 1.11597692966461 0.896616518497467 0.903056621551514 1.08006417751312 1.34409272670746 1.35663306713104 1.41558945178986 1.32322287559509 1.30242955684662 1.18808400630951 1.10735285282135 0.965686917304993 0.978222846984863 0.718500673770905 0.702608168125153 0.774941384792328 0.937211036682129 0.644758284091949 0.889496386051178 0.275507211685181 1.27972781658173 0.209533184766769 0.304711401462555 0.375075131654739 0.169010981917381 0.334544777870178 0.808756351470947 1.10514581203461 1.9621170759201 2.76993012428284 3.04921245574951 3.18671107292175 2.95135021209717 2.89589238166809 2.72649765014648 2.65728211402893 3.00648140907288 2.11507368087769 2.03002166748047 1.46468424797058 1.28068721294403 0.923190951347351 0.746759474277496 0.811759650707245 1.08627665042877 1.20691025257111 1.37767386436462 1.29117929935455 2.1795027256012 3.29943561553955 4.03680610656738 7.64629888534546 11.2208404541016 9.37255573272705 7.33488607406616 7.7342848777771 9.1059045791626 8.74066829681396 5.80106925964355 2.30710411071777 -0.370893865823746 0.169745117425919 0.829662203788757 1.26785600185394 1.62810361385345 1.90169429779053 1.86028373241425 1.73373579978943 1.46080005168915 1.31674659252167 1.22900283336639 1.27399909496307 1.23371303081512 1.182368516922 1.07636404037476 0.977441549301147 0.874412775039673 0.743686676025391 0.638932347297668 0.510221719741821 0.43540957570076 0.737639963626862 2.05231285095215 4.05292463302612 7.22059154510498 11.227801322937 11.4860038757324 14.004096031189 15.6459665298462 15.347677230835 15.6824951171875 11.7781143188477 6.72391605377197 2.67177224159241 3.83787274360657 6.00310325622559 7.57262849807739 10.3299379348755 13.3730745315552 18.1883659362793 7.043616771698 0.768152117729187 0.425447732210159 -0.855194330215454 -3.46488547325134 -3.79496717453003 -3.67255783081055 -3.13506984710693 -2.57654309272766 -2.12782859802246 -1.71610009670258 -1.55171120166779 4.17914581298828 11.7239322662354 -2.37742948532104 -2.47939252853394 -2.26064419746399 -1.92650151252747 -1.69371652603149 -0.872645914554596 -0.269463211297989 0.178730130195618 0.444067895412445 0.799593567848206 0.834172666072845 0.778764605522156 6.10687971115112 0.056816253811121 -0.6626957654953 -0.343948692083359 0.315128296613693 2.00212740898132 4.51612424850464 3.21451830863953 0.455530524253845 0.376269102096558 0.524288058280945 0.464467853307724 0.449530333280563 0.524882853031158 0.826143264770508 1.52814936637878 2.0458550453186 2.57962775230408 2.87356972694397 2.90053558349609 2.41915106773376 1.76526057720184 1.45520031452179 0.691757261753082 0.814348578453064 0.877246677875519
9.59800815582275 8.40042877197266 5.71880674362183 2.95622491836548 1.58274829387665 1.58684313297272 1.57487690448761 1.6427059173584 1.75346267223358 1.80093038082123 1.99955248832703 2.21130704879761 2.08300852775574 2.27233791351318 2.32148289680481 2.65805315971375 1.47745585441589 1.08735239505768 1.01479017734528 0.976345837116241 0.917775750160217 1.0574254989624 1.03973746299744 1.29020512104034 1.29983568191528 1.37507343292236 1.30586779117584 1.29050374031067 1.15514945983887 1.06352770328522 0.920428037643433 0.81560754776001 0.837946474552155 0.731143832206726 0.803112387657166 0.836739301681519 1.17388093471527 1.06661629676819 1.38501560688019 0.962550222873688 2.57618737220764 1.68966376781464 0.33056116104126 0.109929040074348 0.0500761941075325 0.457765430212021 0.573983311653137 1.2189347743988 1.79404616355896 2.06145644187927 1.7402206659317 2.07544159889221 2.17482161521912 2.15858340263367 2.14044213294983 2.09422898292542 2.08514213562012 1.99417304992676 1.30746531486511 1.13814115524292 0.757915198802948 0.600908160209656 0.467813760042191 0.567082941532135 0.848854601383209 0.97424328327179 1.08773910999298 1.65404653549194 2.24331521987915 3.41091012954712 4.75962114334106 6.11256217956543 7.87281084060669 9.52915000915527 9.21396446228027 8.1965217590332 8.16833877563477 8.2480411529541 6.6111102104187 0.535401999950409 -0.348364323377609 0.270444750785828 0.961716651916504 1.29608142375946 1.59022307395935 1.73121798038483 1.6681193113327 1.41375195980072 1.27212452888489 1.18786978721619 1.2317681312561 1.1904593706131 1.14110445976257 1.03887379169464 0.941249072551727 0.841838181018829 0.713117241859436 0.615246176719666 0.486500442028046 0.416084408760071 0.655556917190552 1.80327486991882 3.56123399734497 6.24111080169678 9.63299560546875 12.4488229751587 12.097017288208 13.2822427749634 12.8486986160278 11.657054901123 9.91489219665527 8.3750171661377 5.18534517288208 4.90800189971924 5.56638479232788 6.62660789489746 8.24968719482422 9.56334018707275 11.2347345352173 9.76767158508301 3.2931809425354 -0.865166962146759 -3.13403940200806 -4.05944681167603 -4.04849338531494 -4.08201026916504 -3.91977119445801 -3.41327595710754 -2.9023277759552 -2.41166472434998 -2.08003520965576 -1.91396927833557 6.3722562789917 15.5461301803589 6.15453004837036 -2.67401909828186 -2.66286444664001 -2.55455493927002 -1.74912905693054 -0.873904824256897 -0.447594910860062 -0.0458707772195339 0.332776695489883 0.643705189228058 1.80919206142426 4.58870840072632 6.50199127197266 2.61489987373352 -0.456743210554123 0.0608715228736401 0.570771515369415 2.5060248374939 2.63749384880066 4.10875129699707 0.314059436321259 0.192298784852028 0.116325937211514 -0.0210251044481993 0.054563220590353 0.19651672244072 0.583944618701935 1.59731185436249 2.11655616760254 2.26562857627869 2.15710377693176 1.97673082351685 1.80643308162689 1.21619462966919 0.275183081626892 0.328272670507431 0.446671932935715 0.366011440753937
5.81438684463501 6.73935890197754 8.78724956512451 6.52272033691406 3.66883230209351 1.54728591442108 1.54179632663727 1.55251467227936 1.65534889698029 1.79977941513062 1.96922218799591 2.23213982582092 2.23947310447693 2.20022010803223 2.15373396873474 3.10727882385254 1.85639810562134 1.11713564395905 0.971386551856995 0.907125115394592 1.05221128463745 1.25362884998322 1.23562300205231 1.23167502880096 1.30776119232178 1.25404167175293 1.26180362701416 1.13179469108582 1.03262674808502 0.897950232028961 0.783655226230621 0.744884848594666 0.755482137203217 0.795879125595093 0.85341739654541 1.01549661159515 1.0215607881546 1.26762580871582 1.28026843070984 2.01450037956238 1.3437260389328 2.21861791610718 0.126227408647537 -0.02952472679317 0.22604712843895 0.126491710543633 0.597623527050018 1.24745762348175 1.4933375120163 1.05328643321991 0.800042688846588 1.22907912731171 1.51395869255066 1.75645124912262 2.00382304191589 1.91498720645905 1.82420516014099 1.29606866836548 1.03313553333282 0.642094910144806 0.48788046836853 0.381225168704987 0.14672264456749 0.178677171468735 0.543569922447205 0.671822965145111 1.1554434299469 1.73592436313629 2.39328598976135 3.62985587120056 4.51389598846436 5.67961645126343 6.98383522033691 8.20914459228516 8.29259490966797 7.93117713928223 8.70044612884521 10.8461542129517 9.1496524810791 5.37536334991455 -0.275963097810745 0.418990164995193 1.01795780658722 1.35120952129364 1.47236919403076 1.56411707401276 1.36076772212982 1.2294727563858 1.15168809890747 1.19216132164001 1.15205240249634 1.10528016090393 1.00330328941345 0.908737063407898 0.813872754573822 0.692276656627655 0.601035475730896 0.477495491504669 0.406264454126358 0.60192859172821 1.63210153579712 3.21012806892395 5.51497793197632 8.36518001556396 10.9491777420044 12.8792600631714 13.1692113876343 12.5964212417603 14.0751981735229 9.66130924224854 10.6626033782959 8.0842113494873 5.0134449005127 5.13856172561646 6.82733535766602 6.55008363723755 6.36021137237549 5.95562887191772 5.32657384872437 0.428659290075302 -2.0961856842041 -3.32957148551941 -3.18343496322632 -4.31208086013794 -4.37113571166992 -4.35524129867554 -4.19283580780029 -3.71677303314209 -3.21934580802917 -2.66754412651062 -2.35329341888428 1.13257825374603 6.23478126525879 7.56602191925049 7.79880714416504 -0.0661085322499275 -2.81584143638611 -2.02472448348999 -1.45828139781952 -1.00200796127319 -0.574948906898499 -0.128418698906898 0.26067042350769 1.23505830764771 3.16429758071899 6.07389211654663 5.86699151992798 0.994677484035492 -0.191068381071091 0.222008362412453 0.831366658210754 1.80057883262634 2.06147694587708 0.26491042971611 0.0825908929109573 -0.102109767496586 -0.264171123504639 -0.213028311729431 0.0526864416897297 -0.0540722645819187 0.534462869167328 1.30788958072662 1.79803133010864 1.84566140174866 1.56905949115753 1.7222011089325 4.19934177398682 5.49167203903198 5.06064081192017 0.104751601815224 0.109621934592724 0.308609277009964
4.5815258026123 5.05259990692139 5.09486436843872 5.63464593887329 6.9317421913147 5.67817831039429 2.74657702445984 1.58635723590851 1.63797950744629 1.93459141254425 2.01461410522461 2.18493485450745 2.44466757774353 2.24319267272949 2.35331535339355 2.57979273796082 2.33440494537354 1.06117033958435 1.03694319725037 1.04033529758453 1.23431718349457 1.21299874782562 1.27557075023651 1.26428008079529 1.20600235462189 1.20657062530518 1.08538377285004 1.00504159927368 0.883432328701019 0.766384601593018 0.69544529914856 0.736793398857117 0.777666389942169 0.889965415000916 1.01183688640594 1.19656109809875 1.19999182224274 1.23054671287537 1.73227500915527 2.3026487827301 2.31342077255249 2.34858059883118 0.927998483181 0.156997233629227 -0.00931524019688368 0.205697432160378 0.417188197374344 0.74038827419281 0.690344870090485 0.363423109054565 0.243110120296478 0.620948255062103 1.45765566825867 1.77631771564484 1.84921109676361 1.72815406322479 1.19164335727692 0.988549053668976 0.580975651741028 0.344590395689011 0.229785546660423 0.0919177159667015 0.947437524795532 -0.0390616059303284 0.446990877389908 0.874499976634979 1.09626817703247 1.65114212036133 2.43568873405457 3.00337433815002 4.20170259475708 5.3770580291748 6.654709815979 7.65556859970093 8.34355068206787 8.50610542297363 10.078031539917 12.4029941558838 11.2135076522827 9.72629451751709 1.46480071544647 0.537349760532379 1.06222891807556 1.32030415534973 1.38242363929749 1.30209481716156 1.18485915660858 1.11482679843903 1.15549159049988 1.11796998977661 1.06628930568695 0.959635436534882 0.864668428897858 0.785823047161102 0.669475972652435 0.580648601055145 0.464385241270065 0.395433157682419 0.563311040401459 1.49136102199554 2.91951370239258 4.94760608673096 7.39106464385986 9.51689052581787 11.2868499755859 12.6447381973267 13.5360527038574 14.8621349334717 19.6175231933594 14.1275873184204 11.6902198791504 7.50011920928955 4.98674345016479 5.30768346786499 5.06919574737549 4.38598918914795 3.45229339599609 2.05133819580078 -0.170919686555862 -1.04716897010803 -3.99027609825134 -4.25977182388306 -3.81585597991943 -4.47447109222412 -4.56094169616699 -4.549964427948 -4.44285869598389 -3.96024417877197 -3.51356744766235 -2.95655560493469 -1.86241912841797 1.48769426345825 2.9223518371582 4.55336856842041 3.53172945976257 0.103509441018105 -2.05442976951599 -1.53854048252106 -1.22222006320953 -0.877291560173035 -0.54987245798111 -0.140924766659737 0.371053397655487 1.80871510505676 4.07543611526489 6.87153816223145 7.83604669570923 0.704594492912292 -0.00722747063264251 0.264670342206955 0.368254452943802 1.45757699012756 1.123122215271 -0.479990154504776 -0.468822032213211 -0.446577548980713 -0.370513767004013 -0.0858036056160927 -0.094985619187355 0.29514417052269 0.578353762626648 0.602259576320648 1.17545223236084 1.33984518051147 1.51435434818268 1.6507021188736 3.89640641212463 6.47389793395996 11.3298416137695 9.32252311706543 0.163048580288887 0.689621388912201
3.79174661636353 4.01980638504028 3.70098543167114 4.09783935546875 3.70138931274414 2.66286778450012 3.39024519920349 2.47096967697144 1.71030163764954 2.06069707870483 2.11397528648376 2.15709543228149 2.66659283638 2.40421915054321 2.37079310417175 2.28719449043274 2.88991236686707 1.34434390068054 1.32075881958008 1.2337121963501 1.20074486732483 1.24475479125977 1.18975245952606 1.19238138198853 1.1794673204422 1.06755101680756 0.959179282188416 0.849912643432617 0.757116973400116 0.668799936771393 0.701061546802521 0.675084710121155 0.77155464887619 0.970796644687653 1.10702586174011 1.4361115694046 1.39463067054749 1.55703401565552 1.65207743644714 2.11906981468201 4.14070224761963 3.35275197029114 2.9410035610199 2.57243752479553 0.0867033302783966 0.173320740461349 0.213358283042908 -0.0180461332201958 -0.0445104166865349 0.116279162466526 0.903912246227264 1.06167018413544 1.37983870506287 1.50376844406128 1.49450361728668 1.10891032218933 0.940888285636902 0.549396753311157 0.335994333028793 0.107219643890858 -0.000357346289092675 0.36905437707901 0.991085290908813 0.421862632036209 0.699499070644379 0.936008810997009 1.1594043970108 1.57164824008942 1.94549632072449 2.60793876647949 3.88636946678162 4.8705735206604 6.20652914047241 7.37884330749512 8.90467357635498 10.0862617492676 11.2829456329346 11.3095579147339 10.5077991485596 9.26919364929199 5.94902896881104 0.639058113098145 0.966127753257751 1.08540070056915 1.17754280567169 1.13850545883179 1.07033729553223 1.11516284942627 1.08363127708435 1.01311755180359 0.780072927474976 0.523239135742188 0.37093710899353 0.336558014154434 0.520458400249481 0.440306335687637 0.381971687078476 0.521772682666779 1.36735153198242 2.6724853515625 4.47777605056763 6.62289714813232 8.41933917999268 9.82801818847656 11.1759834289551 12.5587339401245 13.3382577896118 15.664080619812 15.0856676101685 12.3328504562378 10.6471910476685 5.55603885650635 5.00936937332153 3.20544338226318 2.62482118606567 1.84898400306702 0.624710857868195 0.243336781859398 1.70033764839172 2.83746790885925 -2.32020020484924 -4.27113199234009 -3.86499381065369 -3.92020225524902 -3.41812968254089 -4.61735677719116 -4.52834558486938 -4.14585542678833 -3.68836045265198 -3.19287180900574 -1.54650104045868 0.664547681808472 1.82743704319 1.43267500400543 0.509652316570282 -2.10381865501404 -1.6920417547226 -1.435391664505 -1.16153907775879 -0.821290075778961 -0.534515798091888 -0.0925632938742638 1.47030889987946 2.62623763084412 4.16438150405884 6.38346576690674 7.74543857574463 2.47282099723816 0.165706604719162 0.20998926460743 0.812769770622253 0.712098598480225 2.33296799659729 0.898303508758545 -0.601369976997375 -0.430965453386307 -0.184715092182159 -0.37212073802948 0.146453723311424 0.534735560417175 1.24556958675385 0.661484837532043 0.855620384216309 1.48117482662201 1.19205594062805 1.37193155288696 3.52636003494263 7.68264579772949 10.5755786895752 14.8014326095581 5.85854196548462 0.943983137607574
3.10915207862854 2.95629954338074 3.14760541915894 2.93238091468811 2.30796885490417 2.06607842445374 1.5868102312088 1.56511795520782 1.80597376823425 2.08710432052612 2.23772764205933 2.35548496246338 2.94675493240356 2.76267099380493 2.42042779922485 2.46499681472778 2.95939421653748 1.84287941455841 1.61718249320984 1.45647978782654 1.2428605556488 1.17468881607056 1.16944670677185 1.06797230243683 0.993919491767883 0.95908397436142 0.820803284645081 0.716420590877533 0.649312496185303 0.61366480588913 0.614176213741302 0.701099574565887 0.817463755607605 1.04994893074036 1.18283915519714 1.71922850608826 1.64660143852234 1.51491045951843 1.87079691886902 2.71118831634521 3.26114916801453 4.78607368469238 4.23801946640015 2.15454435348511 0.0108494106680155 0.0524257868528366 -0.160393878817558 -0.345988392829895 -0.205015957355499 0.477915436029434 0.778717219829559 0.946096837520599 1.09001052379608 1.1650937795639 0.822170376777649 0.762888312339783 0.532038033008575 0.323804527521133 0.412804335355759 -0.0373899042606354 0.0201461762189865 0.608945727348328 0.944173574447632 1.74207663536072 0.7496058344841 1.00583791732788 1.21401071548462 1.36487722396851 1.39366340637207 2.38175082206726 3.45914936065674 4.60803937911987 5.70710277557373 7.14197731018066 8.60220527648926 9.67599010467529 10.0178537368774 9.09414768218994 7.84521865844727 5.6566424369812 3.74521660804749 0.715517520904541 0.537913382053375 0.655165553092957 0.821123003959656 0.893288135528564 0.897566378116608 0.953884184360504 0.887548387050629 0.678400814533234 0.351768463850021 0.0452467277646065 -0.29152837395668 -0.539024710655212 -0.228486075997353 0.0851994380354881 0.534019589424133 1.14925742149353 2.41507911682129 4.01298904418945 5.98270702362061 7.51973628997803 8.67624759674072 9.90678215026855 11.0533628463745 11.7484045028687 13.596607208252 12.8859815597534 11.1135282516479 8.55180931091309 6.34605693817139 4.65267038345337 3.77367568016052 1.74116253852844 0.740802705287933 0.240173786878586 -0.870240151882172 0.37563693523407 2.00045847892761 3.78435111045837 -1.28231525421143 -3.94906306266785 -4.23701095581055 -4.14508390426636 -4.19382667541504 -4.63022804260254 -4.59891653060913 -4.36387348175049 -4.02818250656128 -3.63597249984741 -1.98938870429993 0.0247858799993992 0.193418011069298 0.258801102638245 1.03973376750946 -1.74177956581116 -1.49269342422485 -1.19100034236908 -1.01194512844086 -0.845040738582611 -0.552517652511597 0.000524513307027519 1.87731277942657 2.41313815116882 3.92798972129822 4.38229322433472 3.16484951972961 1.54434847831726 0.146890923380852 0.242869287729263 0.689586043357849 1.25009775161743 1.84977865219116 1.55042946338654 0.424906849861145 1.24724960327148 5.19969654083252 3.51286864280701 0.397296220064163 0.623717963695526 2.71810817718506 2.75887393951416 1.68810033798218 6.34869050979614 6.99501371383667 2.81416821479797 4.65940284729004 7.47817277908325 11.4534282684326 13.107364654541 12.046576499939 2.26214385032654
2.38292837142944 2.39229130744934 2.34075021743774 1.94282412528992 1.78506183624268 1.56655240058899 1.52929162979126 1.65797162055969 1.81771171092987 2.12876343727112 2.42714834213257 3.20914530754089 3.74405288696289 3.23278403282166 2.74610495567322 2.58907103538513 2.28172159194946 2.32241821289062 1.89123106002808 1.64177453517914 1.16918277740479 1.14863908290863 1.04099893569946 0.961131274700165 0.85291576385498 0.907670795917511 0.707499980926514 0.614630997180939 0.551368534564972 0.531157910823822 0.592978537082672 0.752202808856964 0.903808176517487 1.03822028636932 1.46500647068024 1.56102013587952 1.96247708797455 1.95384347438812 2.28650259971619 2.86512470245361 3.58756184577942 3.05097818374634 3.92172122001648 3.13989806175232 -0.0063683120533824 -0.200526744127274 -0.368013054132462 -0.267585188150406 0.175409972667694 0.175831973552704 0.398808032274246 0.515758514404297 0.802884638309479 0.584039866924286 0.542315542697906 0.36211833357811 0.296943962574005 0.0877490341663361 0.2005755007267 0.320310235023499 0.1553895175457 0.419348478317261 1.41617739200592 1.9383739233017 0.974251568317413 2.74898648262024 1.08483159542084 0.881001889705658 1.32890832424164 2.2599036693573 3.12211871147156 4.27681303024292 5.46670627593994 6.66386651992798 7.69007539749146 7.95200681686401 7.78069400787354 6.48663854598999 4.60952758789062 2.88288855552673 1.16880226135254 0.0286399591714144 0.0493841581046581 0.393572479486465 0.568764746189117 0.568674266338348 0.528603553771973 0.540276646614075 0.453526228666306 0.203315258026123 -0.10478587448597 -0.415026247501373 -0.986283242702484 -1.3000146150589 -1.15231049060822 -0.700337886810303 0.0730556398630142 1.20725953578949 3.04575824737549 4.67770624160767 6.27119541168213 7.64890193939209 8.75549983978271 9.75914669036865 10.6036109924316 12.1775016784668 12.0632658004761 11.9430093765259 7.93144845962524 4.55328941345215 3.47548031806946 2.38994264602661 2.88574051856995 6.26889419555664 2.14281511306763 2.99886178970337 1.65910840034485 1.95514893531799 3.42759084701538 6.63177347183228 3.22102737426758 -0.969474017620087 -2.56839847564697 -2.42787146568298 -2.39148139953613 -2.78795766830444 -4.59341812133789 -4.36598062515259 -4.09993886947632 -3.79931688308716 -2.36552596092224 -0.843632698059082 -0.382171183824539 -0.237608894705772 0.805517077445984 -1.58154439926147 -1.28454220294952 -1.08441281318665 -0.897521197795868 -0.681912839412689 -0.594314754009247 0.15237520635128 1.12753593921661 1.78048932552338 2.78572845458984 1.89866054058075 0.987222671508789 0.213258057832718 -0.0916744470596313 -0.200082510709763 0.330275148153305 0.162218630313873 -0.401368230581284 -0.459796398878098 0.596220910549164 3.63838481903076 4.51643180847168 8.41188621520996 6.67524766921997 3.27159571647644 2.43271160125732 2.42339754104614 4.5245623588562 7.02220869064331 11.4246253967285 10.4173431396484 6.91748762130737 9.08524799346924 9.96148872375488 10.8913831710815 11.1510944366455 5.55374240875244
1.9161092042923 1.88515615463257 1.62455058097839 1.57650518417358 1.54167926311493 1.50214409828186 1.51746380329132 1.68752503395081 1.90544390678406 2.34938669204712 2.73971033096313 3.37934398651123 5.01947450637817 4.31504726409912 3.47976422309875 3.12861108779907 2.22390794754028 2.4023003578186 1.89939391613007 1.75655210018158 1.14525854587555 1.02798104286194 0.937795519828796 0.831806242465973 0.798018038272858 0.707520246505737 0.6552614569664 0.535052061080933 0.49972739815712 0.499550402164459 0.626369059085846 0.797695875167847 0.926103055477142 1.27679932117462 1.32607138156891 1.74583995342255 2.32338881492615 2.35266780853271 2.47180867195129 2.98123002052307 2.93596816062927 4.50261783599854 6.16192054748535 3.98500657081604 -0.113999456167221 0.102620780467987 1.05262470245361 1.24921917915344 0.953192949295044 0.0653308182954788 0.0505320578813553 -0.0755251124501228 0.231618106365204 0.38037320971489 0.209490358829498 0.176829546689987 0.0237974636256695 0.0633131936192513 0.164830088615417 0.613866567611694 0.568701446056366 0.90870726108551 2.52282881736755 3.02681565284729 1.73265779018402 5.00920820236206 2.14005637168884 0.914665222167969 1.39012324810028 2.29716634750366 3.16784882545471 3.93821716308594 4.91551923751831 5.42172574996948 6.13603639602661 5.97268390655518 4.82714939117432 4.3954873085022 3.97570133209229 2.69537258148193 2.38639974594116 1.14022219181061 -0.0970379337668419 0.0928151309490204 0.217547342181206 0.0847416818141937 0.0173593368381262 -0.0263925865292549 -0.123055666685104 -0.288656562566757 -0.568864643573761 2.98394989967346 -1.3762686252594 -1.8205041885376 -1.81032407283783 -1.67018640041351 -1.21921670436859 0.806827485561371 3.19204783439636 4.71840715408325 5.84632444381714 7.51714086532593 8.61872100830078 9.09622955322266 10.4628820419312 11.6810512542725 10.7572755813599 9.24136924743652 4.23329591751099 7.47087335586548 3.95659995079041 2.18566060066223 3.64921712875366 4.06150674819946 4.60880470275879 4.52939081192017 4.2016282081604 5.66785764694214 6.4142017364502 9.15622425079346 8.50820350646973 3.66054010391235 -0.512994170188904 -1.06615281105042 0.139770463109016 -0.112183503806591 -4.44188022613525 -4.25998258590698 -4.01288080215454 -3.50387811660767 -1.8634192943573 -0.379558920860291 0.883257925510406 -1.38024663925171 -0.329940289258957 -1.32797014713287 -1.15541481971741 -0.9357630610466 -0.697881162166595 0.157060578465462 -0.131122186779976 0.0177712216973305 0.329314649105072 0.632510781288147 0.968662858009338 0.558884918689728 0.0936520099639893 -0.234445318579674 -0.480519503355026 -0.747208118438721 -1.050621509552 -0.783052265644073 -0.62524539232254 -0.264687716960907 2.15741872787476 3.12523722648621 4.96137189865112 4.93627214431763 5.90405654907227 4.69649124145508 2.97822761535645 3.69086122512817 5.30486726760864 7.25077819824219 8.08892631530762 7.80132913589478 8.57824611663818 8.46074390411377 9.00011539459229 8.48751068115234 6.9268684387207 3.23034811019897
1.54648303985596 1.51455116271973 1.5312488079071 1.50894486904144 1.48750424385071 1.42508363723755 1.53636360168457 1.78039872646332 2.05980539321899 2.41244745254517 2.74806547164917 3.57159948348999 4.87822246551514 5.72438192367554 4.58448505401611 3.92981624603271 2.80271100997925 2.40864491462708 2.42004203796387 2.13893747329712 1.34498107433319 0.935936093330383 0.81812310218811 0.730462431907654 0.796863973140717 0.780890464782715 0.667363047599792 0.58915102481842 0.470509707927704 0.497938096523285 0.628087520599365 0.79392021894455 1.09571707248688 1.1905665397644 1.50763428211212 1.95144808292389 2.41104388237 2.76507568359375 2.74512696266174 2.57392930984497 3.42635893821716 4.97624588012695 7.08978414535522 6.00078678131104 0.409491360187531 0.287725359201431 2.66413521766663 1.51436793804169 2.44061803817749 -0.0622190684080124 -0.410917371511459 -0.237385973334312 -0.156338974833488 0.0245940648019314 0.0352123640477657 0.00878298096358776 -0.0229674596339464 -0.0439904555678368 0.364004850387573 0.75649482011795 0.889550089836121 1.72161436080933 2.63382148742676 4.04847431182861 3.34484887123108 3.06218481063843 3.933758020401 1.2708991765976 1.78650081157684 2.59664988517761 3.03043866157532 3.662442445755 4.01891040802002 3.91506505012512 3.92276740074158 4.0881609916687 3.28142166137695 2.39839029312134 2.46902704238892 1.89517259597778 0.12625227868557 -0.191469058394432 -0.288151353597641 -0.334790736436844 -0.309848695993423 -0.393284738063812 -0.479961425065994 -0.668507993221283 -0.819084048271179 -0.875424385070801 -0.099848560988903 1.51627922058105 7.88869094848633 -1.97219932079315 -2.05847597122192 -1.60451924800873 -0.924327909946442 0.248689889907837 2.24543905258179 3.7184374332428 5.59588813781738 6.96596956253052 8.06786251068115 9.01189422607422 9.89383506774902 10.8076333999634 9.60858154296875 20.2041072845459 10.2510709762573 10.2812976837158 7.39111137390137 2.59317255020142 2.37459707260132 3.74228310585022 6.51667547225952 6.46245384216309 5.95231628417969 7.75160264968872 9.06833457946777 10.9569892883301 10.9755344390869 5.57180786132812 0.823885440826416 0.232460543513298 0.777568280696869 0.322077840566635 -4.37850570678711 -4.14022159576416 -3.73583269119263 -2.93449306488037 -0.962132632732391 3.06765556335449 2.88643431663513 -1.36804962158203 -1.402787566185 -1.07741165161133 0.0452250503003597 -0.154665067791939 0.0651039630174637 1.94945001602173 2.94834446907043 0.254102826118469 0.285307675600052 0.293050408363342 0.133592829108238 0.0614358447492123 -0.288608253002167 -0.640425682067871 -0.970427274703979 -1.27569425106049 -1.27109384536743 -1.36248850822449 -1.08357977867126 -0.607731223106384 0.108815252780914 2.41576743125916 2.94024562835693 2.8793044090271 2.78833341598511 2.2712094783783 2.99732041358948 4.1774787902832 5.26956558227539 5.78916263580322 6.76417255401611 7.46482992172241 7.45129156112671 7.98671627044678 7.72607755661011 6.39489459991455 4.88568305969238 0.852882087230682
1.46381223201752 1.48117005825043 1.46294295787811 1.45001399517059 1.39874315261841 1.49077427387238 1.6490695476532 1.87043786048889 2.09065508842468 2.41339921951294 2.77776741981506 3.41614031791687 4.53802013397217 5.98938894271851 5.62877178192139 4.54540157318115 3.81540417671204 3.19927549362183 2.87536382675171 2.40685153007507 1.654900431633 0.931185245513916 0.72976279258728 1.08724141120911 1.41112864017487 1.44152700901031 0.807603061199188 0.548595488071442 0.444040477275848 0.485264211893082 0.631034910678864 0.912501037120819 0.996736884117126 1.30194127559662 1.70611989498138 2.01036310195923 2.39702367782593 2.52061057090759 2.99948120117188 3.02987170219421 3.93492460250854 4.90497589111328 5.96624279022217 7.83563947677612 2.24033784866333 0.836729645729065 2.89379525184631 2.7655234336853 3.176598072052 0.263099431991577 -0.537308275699615 -0.488038718700409 -0.311800748109818 -0.1622114777565 -0.110213451087475 0.53252375125885 0.447266936302185 0.275343418121338 0.645045697689056 0.939576327800751 1.46538472175598 1.970871925354 2.68158054351807 3.30111384391785 3.03000402450562 2.74915027618408 1.24955022335052 1.54571056365967 2.17538332939148 2.72107481956482 3.10145568847656 3.25599241256714 3.04939413070679 2.03533387184143 2.13565587997437 1.80264258384705 1.49551630020142 0.629458785057068 -0.116984181106091 -0.115145690739155 -0.345244586467743 -0.436512142419815 -0.4661725461483 -0.499190837144852 -0.560924768447876 -0.714840710163116 -1.00683760643005 -1.20407485961914 -1.39454317092896 -1.45965731143951 -0.512743055820465 1.76153171062469 6.43674087524414 -0.345356076955795 -1.87119376659393 -0.777123391628265 -0.45286637544632 0.516610026359558 1.63717174530029 3.18880867958069 4.6745777130127 5.95501804351807 7.36491775512695 8.86237716674805 9.4892578125 10.4692697525024 16.6622524261475 14.3881940841675 8.84858798980713 8.51729202270508 10.628101348877 1.84132587909698 2.4805965423584 4.20781517028809 6.33310890197754 7.38164949417114 7.14277982711792 8.29946804046631 9.06982231140137 9.73461723327637 10.710768699646 6.57006502151489 1.08716416358948 0.353604853153229 0.532485127449036 1.75067508220673 -4.32327270507812 -3.98354506492615 -3.1632091999054 -2.16721725463867 0.490129828453064 8.9726734161377 9.94765758514404 -1.1297459602356 -1.02319443225861 -0.337851047515869 0.919471502304077 0.236865133047104 0.877309143543243 1.66469645500183 1.84836983680725 1.71149396896362 1.13412952423096 0.58444744348526 0.35385599732399 0.345046997070312 0.312186986207962 -1.0220547914505 -1.34289515018463 -1.39448988437653 -1.47383248806 -1.55371105670929 -1.38660097122192 -0.843183934688568 -0.504851579666138 0.516400814056396 1.59291410446167 1.71470963954926 1.8552633523941 2.80672287940979 3.3025848865509 4.14251184463501 4.9758563041687 5.81377363204956 5.77271795272827 6.48153400421143 7.01141119003296 6.73876333236694 6.31821393966675 8.34485530853271 7.407639503479 4.44999742507935
1.43272423744202 1.41161739826202 1.40315616130829 1.35966885089874 1.41712152957916 1.56555593013763 1.73767840862274 1.91047608852386 2.10826468467712 2.42052888870239 2.80584955215454 3.2747848033905 4.1170220375061 5.07040691375732 5.74175786972046 4.96674060821533 3.70544385910034 3.45483803749084 3.62265491485596 2.58955788612366 1.88263392448425 0.829728126525879 0.815469026565552 1.05458009243011 1.14711141586304 1.18405759334564 0.979236781597137 0.735209763050079 0.392207384109497 0.489201873540878 0.725212275981903 0.817506909370422 1.07070159912109 1.42380106449127 1.68968939781189 2.11322236061096 2.20346617698669 2.74561214447021 3.39379143714905 3.45939016342163 3.93597888946533 4.53201103210449 5.74466991424561 6.92487907409668 3.59616827964783 1.1560925245285 2.53323578834534 3.02855920791626 4.48726749420166 3.98303580284119 -0.609341144561768 -0.578937470912933 -0.448331773281097 -0.272072583436966 -0.095657542347908 0.235450074076653 1.08664274215698 0.593622267246246 0.870699167251587 1.23657834529877 1.8557106256485 2.0395815372467 2.83617186546326 3.94363141059875 3.75344014167786 1.61171960830688 1.36981296539307 1.888716340065 2.33715200424194 2.74885988235474 2.74788427352905 2.40561556816101 1.4963937997818 1.46834433078766 0.165113091468811 -0.695213079452515 -0.630300998687744 -0.563562154769897 -0.370865046977997 0.862630367279053 0.179653584957123 -0.652474939823151 -0.687222838401794 -0.740887761116028 -0.871125042438507 -1.16006398200989 -1.42853307723999 -1.70528852939606 -1.81134736537933 -1.89748346805573 1.14884459972382 1.77592968940735 3.74670743942261 4.40966987609863 -0.226433217525482 -0.0559168122708797 0.681087136268616 1.04693913459778 2.01592135429382 2.70350670814514 3.6629114151001 4.36032247543335 4.71229028701782 6.94400882720947 10.2709522247314 15.7728862762451 22.0106220245361 17.2484874725342 8.56229400634766 7.31187105178833 9.2076587677002 4.38454961776733 2.65961503982544 4.10080575942993 6.04009056091309 6.52751636505127 7.69460821151733 8.22436428070068 8.82371425628662 9.51655197143555 10.3580942153931 7.93300247192383 3.3800323009491 0.169398680329323 0.278534710407257 0.798080861568451 -3.63481545448303 -3.58767533302307 -2.58084845542908 -1.29500424861908 2.67045164108276 9.55129241943359 15.1892290115356 2.51545357704163 -0.693153083324432 -0.449942409992218 -0.051643680781126 0.631850183010101 1.14551663398743 0.824271738529205 0.228046298027039 0.0837493315339088 0.122847035527229 1.57276463508606 2.80917692184448 2.42873907089233 2.85662317276001 0.595651090145111 0.34083566069603 3.15697240829468 1.23782646656036 -1.50454616546631 -1.21570944786072 -0.861940681934357 -0.401171416044235 0.272737950086594 0.952025592327118 1.17590665817261 2.15467429161072 2.64383172988892 3.5098283290863 4.2801308631897 4.98730134963989 5.01479959487915 5.56289339065552 5.26051568984985 5.68900728225708 5.2649564743042 5.93899536132812 6.80574798583984 5.15811634063721 5.70393514633179
1.369549036026 1.35659074783325 1.31440794467926 1.35403442382812 1.44683492183685 1.59731829166412 1.74304699897766 1.95922005176544 2.19558119773865 2.48214769363403 2.88941717147827 3.22145342826843 3.77394270896912 4.4839038848877 5.8874077796936 5.33383560180664 4.02677154541016 3.47659802436829 3.82898259162903 3.1051504611969 1.99292361736298 0.921300292015076 0.906218707561493 0.862829923629761 0.72657573223114 0.777027428150177 0.604512572288513 0.737498641014099 0.419361919164658 0.547531485557556 0.622525215148926 0.872874021530151 1.1949919462204 1.45666635036469 1.72849035263062 1.9275267124176 2.34004855155945 2.93741869926453 3.47488379478455 3.55326652526855 4.0232367515564 4.48963212966919 4.81991815567017 5.32839679718018 3.92996048927307 1.72393608093262 2.63777017593384 3.61333250999451 3.65346932411194 5.35895204544067 2.03110814094543 -0.572983384132385 -0.494914710521698 -0.357057720422745 -0.0484718568623066 0.621100604534149 0.873040735721588 0.863880574703217 1.08558011054993 1.45501899719238 2.2122688293457 2.54742956161499 2.69378709793091 4.39919376373291 4.33486127853394 1.24819910526276 1.66089940071106 1.95007002353668 2.26626515388489 2.35942625999451 2.03051590919495 1.30149805545807 0.977666974067688 -0.489441335201263 -0.945526659488678 -0.956095218658447 -0.842833638191223 -0.777683436870575 -0.748053789138794 -0.750101208686829 -0.778482913970947 -0.883334696292877 -0.944725573062897 -1.04183864593506 -1.01933014392853 -0.50998067855835 0.463928252458572 -0.503779888153076 -1.71892499923706 0.219473764300346 1.34047257900238 2.38130855560303 3.92328834533691 6.34725904464722 3.36401462554932 0.612183213233948 1.40098261833191 1.67132711410522 2.02751612663269 2.48730134963989 2.77414798736572 2.97001051902771 3.88387703895569 5.39963626861572 13.5124435424805 18.1332225799561 27.1548023223877 19.9674530029297 13.2345857620239 8.18243980407715 4.76836633682251 4.78459692001343 3.25418853759766 4.7755184173584 6.21556997299194 6.8679256439209 7.50211334228516 8.28054428100586 8.40746212005615 8.80245590209961 8.40984439849854 8.2559118270874 6.00415897369385 0.262075543403625 -0.611365139484406 -0.323855102062225 -1.74056148529053 -2.96950364112854 -2.31541562080383 -0.934439063072205 4.38353824615479 10.2617616653442 11.7350997924805 -0.0371498391032219 -0.619206726551056 -0.523101091384888 0.199078321456909 0.643493056297302 0.377977609634399 0.535672426223755 0.0757467821240425 0.00491738738492131 0.46681621670723 5.01969480514526 9.77164840698242 9.61091041564941 8.50519847869873 5.15625762939453 4.82062292098999 7.2479076385498 6.10947751998901 2.55607843399048 -1.13087785243988 -0.814044713973999 -0.226387053728104 0.422688990831375 0.8251131772995 1.48718750476837 2.22127795219421 3.00334239006042 3.59434652328491 4.05770921707153 4.22101497650146 4.72294235229492 4.46701717376709 4.30709314346313 4.43858337402344 4.48045587539673 5.41423368453979 5.50461196899414 4.08832025527954 3.34553241729736
1.32152342796326 1.27449488639832 1.2696989774704 1.36915099620819 1.47105884552002 1.61671674251556 1.78803753852844 2.00144529342651 2.2394688129425 2.50576019287109 2.85444760322571 3.1881959438324 3.64110016822815 4.33108329772949 5.63082885742188 5.82864999771118 4.68127393722534 4.04519701004028 3.8181254863739 3.97302889823914 2.51287961006165 1.04623174667358 0.95995044708252 0.767719745635986 0.665663182735443 1.34062707424164 0.753337264060974 0.368305832147598 0.49072927236557 0.483664005994797 0.650404214859009 0.935145914554596 1.16431641578674 1.53019261360168 1.63264429569244 1.96076250076294 2.52292823791504 2.95253491401672 3.42394113540649 3.51727986335754 4.10853719711304 4.29964447021484 4.33457279205322 4.21293592453003 4.2689995765686 1.88482654094696 2.5904221534729 3.2075788974762 3.97493720054626 2.59735608100891 3.40551090240479 0.28298756480217 -0.549791276454926 -0.167024582624435 0.204678535461426 0.555323362350464 0.818307995796204 1.05299603939056 1.32245194911957 1.83855545520782 2.10262513160706 2.63414573669434 2.78848123550415 3.59496068954468 6.54275178909302 2.22022867202759 1.82799303531647 1.984823346138 2.02252984046936 1.74127888679504 1.03322386741638 0.50577312707901 -0.72460812330246 -1.19102036952972 -1.39789807796478 -1.31398773193359 -1.15638220310211 -1.06499350070953 -1.0520886182785 -0.96038681268692 -1.04576432704926 -1.12576282024384 -1.18610572814941 -1.28038692474365 0.947292685508728 5.84313297271729 8.54812622070312 8.54088973999023 7.86814308166504 5.27468013763428 3.04430794715881 3.59216904640198 5.22908687591553 6.29802131652832 6.45093297958374 2.13814640045166 1.61246359348297 1.90470445156097 2.05326342582703 1.99177944660187 2.33978962898254 2.97055768966675 3.42390370368958 5.9944019317627 13.4375247955322 19.4813480377197 29.4491691589355 23.8839645385742 12.7465314865112 8.22164440155029 3.87030172348022 3.17072725296021 3.99449682235718 4.72221708297729 5.96561479568481 6.69589281082153 7.28200721740723 8.13870334625244 8.37365531921387 7.9482855796814 7.4849271774292 7.59316730499268 7.92877674102783 3.82341456413269 0.973529756069183 0.917057275772095 0.544384360313416 -2.39268732070923 -2.04049205780029 -1.15514957904816 3.88307046890259 8.26709365844727 14.1303491592407 1.99732291698456 -0.370411455631256 -0.235609576106071 0.160592004656792 0.0841414555907249 0.0509856715798378 0.824735283851624 2.09969687461853 2.3728711605072 3.77736878395081 7.65582513809204 8.7778434753418 10.5724239349365 11.5891075134277 9.20212459564209 8.83319568634033 9.38560676574707 8.90833187103271 8.85941410064697 2.32143449783325 -0.477618455886841 0.0346308909356594 0.452139049768448 0.886063754558563 1.80277764797211 2.53169727325439 3.07294225692749 3.18974828720093 3.01790308952332 3.40693211555481 3.36102867126465 3.65603041648865 3.53639030456543 3.92578220367432 4.39083957672119 3.95802283287048 3.6602258682251 2.56598854064941 1.69035863876343
1.23533391952515 1.2192462682724 1.2857985496521 1.3715295791626 1.48634076118469 1.61807096004486 1.7978390455246 2.00574421882629 2.20113396644592 2.45920300483704 2.75500869750977 3.23396229743958 3.57188630104065 4.11097431182861 5.30332088470459 5.7614278793335 4.72036170959473 4.82469892501831 3.90791034698486 3.87823414802551 3.46356701850891 2.23924803733826 1.28623497486115 0.797211647033691 0.799838483333588 1.53221547603607 1.4508810043335 0.385880917310715 0.412047833204269 0.539727032184601 0.678382754325867 0.87256246805191 1.23139083385468 1.35910165309906 1.68744027614594 2.15467810630798 2.54211640357971 2.88702845573425 3.27164936065674 3.38137221336365 3.77935481071472 4.09827947616577 3.83031582832336 3.24487280845642 2.07845520973206 1.65640842914581 2.29713726043701 2.94770550727844 2.3303210735321 2.56983971595764 2.91080021858215 3.10732698440552 -0.0701364800333977 0.13398864865303 0.45767480134964 0.69655430316925 0.953936278820038 1.24874794483185 1.61489427089691 1.75345170497894 2.24719262123108 2.13657641410828 2.67860865592957 3.19093155860901 1.64577043056488 1.74814462661743 1.67363882064819 1.75633931159973 1.43847978115082 0.596264481544495 -0.305177330970764 -0.804632127285004 8.09986209869385 5.90261363983154 -1.51878225803375 -1.4995973110199 -1.44270551204681 -1.33561015129089 -1.25839781761169 -1.15690302848816 -1.1656299829483 -1.28092122077942 -0.763202786445618 1.35884416103363 4.07399129867554 6.30447244644165 8.11115646362305 9.75010871887207 9.1498966217041 8.2902307510376 4.88307476043701 4.96659374237061 5.04139518737793 4.99537563323975 4.35514450073242 3.35469651222229 1.9929621219635 1.96951687335968 1.96850991249084 2.14269924163818 2.55357813835144 2.79918646812439 3.64583516120911 6.23604249954224 12.1493673324585 18.6641178131104 26.1971492767334 32.3872985839844 16.2812461853027 7.43396854400635 3.14545559883118 3.76738238334656 4.3804759979248 4.84485769271851 5.15029335021973 6.00796890258789 6.78560876846313 7.44745016098022 7.75693273544312 6.9768180847168 6.90841054916382 7.8890323638916 8.86648654937744 6.00564956665039 4.39073419570923 3.48295927047729 2.59417510032654 -0.0351986512541771 -1.73485624790192 -1.25345516204834 1.9102486371994 6.61953592300415 12.0534496307373 5.65911531448364 1.14222085475922 0.0465501770377159 0.0543248988687992 0.0103339096531272 0.245925441384315 1.449143409729 2.03263235092163 2.8764910697937 5.73882865905762 7.04711151123047 7.49915075302124 8.17561626434326 7.22523546218872 6.39563512802124 5.99217224121094 7.2885308265686 7.95959806442261 8.25002765655518 7.21769666671753 0.482608169317245 0.24974712729454 0.449481755495071 1.34011030197144 2.18173456192017 2.72361779212952 2.78769278526306 2.43453764915466 2.39107155799866 2.06927871704102 2.17743849754333 2.66584706306458 3.27387380599976 3.72734379768372 3.40385365486145 2.57693457603455 1.16941058635712 0.886966228485107 0.214267387986183
1.16364645957947 1.21745693683624 1.30372822284698 1.37007653713226 1.48885929584503 1.63976466655731 1.81471526622772 1.97771537303925 2.16690468788147 2.41056156158447 2.77215313911438 3.08369398117065 3.52491474151611 3.98402380943298 4.78380060195923 5.28563642501831 4.66635322570801 4.89631700515747 4.43145704269409 3.37288498878479 3.30603337287903 3.56444549560547 2.37386441230774 1.24880397319794 1.01919496059418 1.19790315628052 1.05028796195984 0.361099094152451 0.39884477853775 0.520126640796661 0.646154522895813 0.873386323451996 1.04666066169739 1.30586385726929 1.79018402099609 2.16144323348999 2.46328091621399 2.75886535644531 2.97063589096069 3.4029643535614 3.47724843025208 3.73171496391296 3.55407285690308 2.15492033958435 1.52923011779785 1.40610110759735 1.96673214435577 1.57831215858459 1.75895512104034 1.67253315448761 1.93838357925415 1.40189015865326 1.03161287307739 0.43921747803688 0.626941084861755 0.871736764907837 1.14399981498718 1.53122043609619 1.78221189975739 2.01744031906128 1.76654672622681 1.96667909622192 2.30396676063538 1.47718644142151 1.54033935070038 1.44341373443604 1.30659556388855 0.861679494380951 0.230324432253838 -0.441001743078232 -1.08052206039429 2.40247869491577 7.09226655960083 8.9377908706665 0.83624678850174 -1.52464401721954 -1.53478300571442 -1.45166826248169 -1.39775013923645 -1.33445680141449 -1.32176125049591 -0.160524010658264 1.21700870990753 3.3275306224823 5.09127044677734 6.16272878646851 6.96185731887817 7.66160297393799 8.08206176757812 8.10212421417236 4.90841817855835 4.62614917755127 4.09629678726196 2.86921644210815 2.2765908241272 1.89165949821472 2.10201191902161 2.5239953994751 3.79912304878235 3.45046854019165 2.57863759994507 3.06278872489929 4.35321712493896 6.87389755249023 11.226354598999 17.629825592041 24.2841854095459 34.6579360961914 24.2336025238037 13.3991193771362 3.7310254573822 3.97734522819519 4.79686117172241 4.6572732925415 4.72960233688354 5.35677623748779 6.06897878646851 6.6080756187439 6.62678909301758 6.04897499084473 7.23352813720703 8.31377124786377 9.4694185256958 7.812744140625 4.76838541030884 2.85186338424683 2.06280827522278 2.10857152938843 -1.41998744010925 -0.996813476085663 0.894208967685699 3.70090365409851 6.64961385726929 8.27995777130127 2.60790181159973 2.71014761924744 3.04299783706665 1.55212831497192 1.38563990592957 1.753737449646 2.4950532913208 4.4146728515625 5.87814140319824 6.66968774795532 6.8191032409668 6.18097114562988 5.71923685073853 5.14035701751709 5.38568496704102 6.71548175811768 7.48569631576538 7.01375961303711 6.79463386535645 4.14455556869507 0.428986370563507 1.08063697814941 1.82806956768036 2.57030344009399 4.48851537704468 6.2033748626709 2.34635949134827 1.67909836769104 1.6681090593338 1.53470635414124 2.12958312034607 2.62123727798462 2.70529007911682 2.47823548316956 1.08958780765533 0.420642465353012 -0.0457471236586571 0.58812141418457
1.14167022705078 1.24248802661896 1.32382500171661 1.38174498081207 1.51704502105713 1.66141951084137 1.79630744457245 1.96287310123444 2.16183829307556 2.41538095474243 2.68681693077087 3.04355049133301 3.47287130355835 3.96862816810608 4.41337966918945 4.57487773895264 4.50828647613525 4.72864103317261 5.05067348480225 3.56870818138123 3.13811635971069 3.25790452957153 3.21333384513855 2.3174421787262 1.03684663772583 0.922001600265503 0.497984707355499 0.348664045333862 0.393220990896225 0.40819051861763 0.613438665866852 0.773524820804596 0.987775981426239 1.36663234233856 1.69263446331024 1.99775528907776 2.26746225357056 2.43011283874512 2.85327768325806 3.21055746078491 3.24696683883667 3.25973391532898 2.90857481956482 2.19512248039246 1.05630278587341 0.971297144889832 1.07002103328705 1.17149603366852 0.715765416622162 0.946417152881622 0.554699599742889 0.406704783439636 0.401209533214569 0.580676317214966 0.785606145858765 1.05141317844391 1.33701610565186 1.57420492172241 1.94337475299835 2.44868803024292 1.93520927429199 2.14520716667175 1.59387350082397 1.2272652387619 1.30438852310181 1.12148427963257 0.666946172714233 -0.16666853427887 -0.832643687725067 -1.1205712556839 0.682970345020294 2.7696738243103 7.2455883026123 6.50437498092651 0.388009995222092 -0.336353898048401 -1.54084897041321 -1.55761623382568 -1.50195944309235 -1.43890368938446 0.101036243140697 1.82979238033295 2.60389304161072 3.45690727233887 4.70531797409058 5.58260536193848 5.74535036087036 6.20085477828979 5.82883167266846 4.81884288787842 4.38057422637939 3.71559166908264 2.20156240463257 1.65312457084656 1.78019332885742 1.84729373455048 1.90469372272491 2.71475434303284 3.3747091293335 5.27695941925049 3.01021575927734 3.55413436889648 5.04974603652954 7.542405128479 11.3231973648071 17.3394145965576 21.8743705749512 29.9230556488037 25.8472747802734 19.8919010162354 7.84512853622437 4.26232051849365 4.60895252227783 4.6732234954834 4.5131630897522 4.84952545166016 5.15454053878784 5.64123868942261 5.82647228240967 6.77269887924194 7.17067098617554 7.57975625991821 7.28376007080078 8.02123737335205 6.86521625518799 3.57075762748718 2.31134748458862 0.0729280263185501 -1.15287697315216 -0.845487654209137 -0.00564105808734894 2.84910130500793 6.23015165328979 9.15803146362305 5.5842080116272 2.79864454269409 3.1288902759552 1.38389098644257 1.61367404460907 2.2503674030304 3.72981762886047 5.08480739593506 5.89502334594727 6.55999326705933 7.65807342529297 7.42388200759888 7.23859214782715 5.24327278137207 5.51433038711548 5.5643253326416 5.4925274848938 4.93106603622437 3.32941746711731 2.13882160186768 1.12375938892365 1.44405543804169 2.19710159301758 2.7092125415802 5.14491319656372 9.32128143310547 7.65145111083984 2.52428460121155 1.31608128547668 1.54402959346771 1.89990746974945 1.91072762012482 1.48381125926971 1.87145066261292 0.577686607837677 -0.171690076589584 0.0826833844184875 0.287192851305008
1.16799926757812 1.25404942035675 1.33515119552612 1.42901134490967 1.52667129039764 1.65158843994141 1.79222226142883 1.95767819881439 2.15988039970398 2.38208508491516 2.67171430587769 3.0239429473877 3.44884204864502 3.97896909713745 4.33104228973389 4.08728551864624 4.11321973800659 4.59519624710083 5.1037859916687 4.26856756210327 3.13458204269409 2.84414052963257 2.76128315925598 3.90956878662109 1.60222232341766 0.828279554843903 0.675948977470398 0.345662891864777 0.4510198533535 0.463109910488129 0.507064580917358 0.657680153846741 0.993654131889343 1.23681342601776 1.47360336780548 1.74081826210022 1.95275473594666 2.32713317871094 2.60559225082397 2.8069167137146 2.84567737579346 3.80221962928772 2.40814352035522 1.67939507961273 0.311631917953491 0.261571198701859 0.880001544952393 0.594936370849609 0.686778008937836 0.0945148915052414 0.250516980886459 0.375538736581802 0.531383752822876 0.730107367038727 0.973748505115509 1.15091741085052 1.37786674499512 1.7118079662323 1.58952784538269 1.72707629203796 1.85014343261719 1.40584301948547 1.12576603889465 0.916002988815308 0.625538289546967 0.431490153074265 -0.354729622602463 -1.0035365819931 -1.31260871887207 -0.790509343147278 1.12251150608063 3.35693621635437 3.01469802856445 2.14426183700562 1.89954829216003 0.167705088853836 -1.09403908252716 -1.67255961894989 -1.5861850976944 -0.296073526144028 1.53627896308899 2.94272589683533 3.58604526519775 3.85251021385193 4.36577749252319 4.61279344558716 4.92636775970459 4.4936466217041 3.91900229454041 3.8891396522522 3.31362915039062 1.90767240524292 1.48587703704834 1.56549954414368 1.5511200428009 1.59505128860474 1.91688454151154 2.3427460193634 2.54611253738403 2.92419004440308 3.35318374633789 4.42919731140137 5.80366563796997 7.80416393280029 11.3619594573975 15.796070098877 20.1854915618896 23.7900238037109 23.1964683532715 20.0677032470703 7.40693664550781 3.93559098243713 4.29174184799194 5.05140161514282 4.40495824813843 4.19584703445435 4.45947122573853 5.00598335266113 6.04677677154541 6.64001703262329 6.63194513320923 6.55369997024536 6.70540475845337 6.63285970687866 8.86160182952881 7.81088590621948 5.60165929794312 -0.832306623458862 -1.02380406856537 -0.882454931735992 -0.512192904949188 1.68798446655273 5.41456890106201 6.35388088226318 7.74018430709839 3.94104528427124 3.36844277381897 1.4222629070282 1.99391412734985 2.86299586296082 3.90970277786255 4.7424488067627 5.8945951461792 6.72046756744385 10.8610057830811 10.9337301254272 9.32062339782715 6.62111806869507 4.98050260543823 4.64633655548096 3.20835566520691 1.53794574737549 0.727103173732758 1.23369073867798 1.64179074764252 1.63478565216064 2.08945226669312 2.80365204811096 5.31364917755127 6.74327421188354 9.01845169067383 7.52696895599365 1.95315492153168 1.532679438591 1.55895614624023 0.983839094638824 1.15220463275909 0.698567926883698 2.23652815818787 2.6133189201355 0.0688804984092712 -0.51602041721344
1.17238700389862 1.26555931568146 1.3616806268692 1.46289730072021 1.56124770641327 1.6511093378067 1.79568707942963 1.95472645759583 2.14898252487183 2.38987040519714 2.66631364822388 2.98983407020569 3.35583710670471 3.77811074256897 4.05518865585327 3.92223358154297 3.98599028587341 4.18149042129517 4.27750062942505 4.23983526229858 3.36826944351196 2.68578267097473 3.13597345352173 4.96025991439819 4.52097225189209 2.95870065689087 2.00114345550537 0.481554090976715 0.469949513673782 0.37776306271553 0.370440065860748 0.60597687959671 0.864013493061066 1.07245111465454 1.2593549489975 1.46351110935211 1.81729936599731 2.08557939529419 2.28409242630005 2.36036443710327 2.6106264591217 5.42366361618042 4.47725391387939 1.01877009868622 0.143409639596939 0.255620032548904 0.4023477435112 0.509797155857086 0.0903476551175117 0.312824577093124 0.432894885540009 0.501545667648315 0.673044204711914 0.898074269294739 1.02853763103485 1.17375004291534 1.42509829998016 1.24405372142792 1.23282945156097 1.30037820339203 1.21213591098785 0.885982573032379 0.638585984706879 0.160820573568344 -0.552322447299957 -0.859119415283203 -1.40986919403076 -1.56023669242859 -1.55035543441772 -1.0748393535614 0.959281444549561 1.50237619876862 1.95786809921265 1.59947156906128 2.75673460960388 2.05840921401978 2.62652468681335 -1.66675543785095 -0.946841299533844 0.823601067066193 2.20153713226318 3.12925171852112 3.71262407302856 3.69988632202148 3.71308517456055 4.06321001052856 3.78964829444885 3.28327989578247 2.93952298164368 2.17359614372253 1.56565296649933 1.37560772895813 1.39840626716614 1.24386477470398 1.17774832248688 1.266676902771 1.67412555217743 2.16618275642395 2.7269184589386 3.02783536911011 3.93192887306213 4.96339416503906 6.21282720565796 7.79433870315552 11.3358726501465 15.586633682251 18.1272068023682 19.9895515441895 18.1112461090088 16.5842514038086 7.70962429046631 3.74944615364075 3.83465790748596 4.14638519287109 3.96522092819214 3.82226753234863 4.31227922439575 4.90065383911133 5.86518335342407 6.07403516769409 5.84438514709473 5.63031530380249 5.86892223358154 6.43307828903198 6.58981657028198 6.29882287979126 7.35586500167847 2.89824652671814 -1.05071198940277 -0.961271524429321 -0.724847495555878 -0.0365918502211571 3.19269847869873 5.69613075256348 8.04819011688232 6.04567623138428 4.82503461837769 2.17101883888245 2.61656141281128 3.50056529045105 4.27841281890869 4.98687601089478 5.90803861618042 7.77707433700562 9.03629589080811 8.61605834960938 7.48128080368042 5.81911897659302 4.63189840316772 3.48786735534668 1.31268310546875 0.284090250730515 0.628940105438232 1.42111623287201 2.26877903938293 1.75823950767517 1.86827754974365 2.63674831390381 4.60627746582031 5.46854829788208 5.91347026824951 6.11952352523804 4.93147802352905 1.39927363395691 0.82370799779892 0.770112633705139 0.438982933759689 1.6445734500885 3.87991690635681 6.36538696289062 7.54944849014282 -0.258289158344269
1.18845450878143 1.27525746822357 1.37547373771667 1.48013532161713 1.59289586544037 1.68329858779907 1.79551124572754 1.95643997192383 2.15666842460632 2.38104295730591 2.63480424880981 2.94013619422913 3.29678225517273 3.63452243804932 3.6811466217041 3.63294434547424 3.66315150260925 3.79935693740845 4.02099466323853 4.03062582015991 3.11982798576355 3.11078786849976 3.92238473892212 4.4441499710083 5.09092569351196 3.97237515449524 2.40136504173279 0.467745959758759 0.449413627386093 0.342332124710083 0.362225592136383 0.469619929790497 0.62314110994339 0.811977207660675 1.00166881084442 1.28852319717407 1.50315153598785 1.72553324699402 1.90927267074585 2.13175773620605 2.75751042366028 4.07712888717651 6.13260650634766 1.67724287509918 -0.0105439191684127 0.258089929819107 -0.0726554319262505 0.0749651566147804 0.2884781062603 0.430599600076675 0.577497065067291 0.620654106140137 0.828347086906433 0.933344781398773 0.956445395946503 1.14859008789062 1.09928941726685 1.0567227602005 1.0434296131134 0.914252460002899 0.527339816093445 0.253403693437576 -0.266960710287094 -1.01991736888885 -1.68127012252808 -1.70657551288605 -1.73905754089355 -1.80664682388306 -1.98877322673798 -1.85879611968994 -1.55833268165588 -0.205815628170967 1.19383180141449 1.37292909622192 1.73423075675964 2.42393732070923 3.54550909996033 1.89927804470062 0.627947866916656 1.70155942440033 2.54237174987793 3.12269806861877 3.26878046989441 3.24968481063843 3.22133684158325 3.32443118095398 2.97148203849792 2.60576152801514 1.7414116859436 1.40133106708527 1.30169796943665 1.27311813831329 1.09831571578979 0.929698765277863 0.407336592674255 0.500327348709106 0.666034698486328 1.9524701833725 2.49175190925598 3.33008217811584 4.31906414031982 5.1880202293396 6.07483243942261 7.72964572906494 11.3958005905151 13.624228477478 16.2509765625 16.4778118133545 12.7262582778931 8.83106422424316 7.46642923355103 3.5642569065094 3.38862729072571 3.53985404968262 3.63856506347656 3.92152833938599 4.46049308776855 4.93910264968872 5.23444318771362 5.42969608306885 5.1856951713562 4.85331249237061 4.57458019256592 4.99588394165039 5.05747175216675 6.10799694061279 5.40305185317993 6.61499929428101 -0.968449771404266 -0.950235068798065 -0.751512408256531 -0.251693069934845 1.76562917232513 4.65370607376099 6.07643270492554 7.9875545501709 5.54367589950562 2.69777250289917 3.19476628303528 3.63507604598999 4.28616142272949 5.49017906188965 6.92686367034912 7.73275470733643 7.44553661346436 6.43948793411255 7.26093006134033 6.80665302276611 5.60812711715698 5.12770414352417 6.00410175323486 0.540571749210358 0.862206995487213 1.2563544511795 1.63990354537964 1.77984881401062 1.97923672199249 2.69239449501038 3.56687021255493 4.10764265060425 3.43419337272644 3.20803785324097 2.02584075927734 0.783982455730438 0.542831301689148 0.21073217689991 1.02907335758209 2.3555588722229 5.00922727584839 7.96735715866089 15.1857566833496 12.47083568573
1.20365738868713 1.29205286502838 1.38793063163757 1.49675214290619 1.60676121711731 1.69238948822021 1.80249524116516 1.98183047771454 2.17082118988037 2.38119721412659 2.63385033607483 2.93066906929016 3.21376872062683 3.37898182868958 3.35219883918762 3.35719108581543 3.41885566711426 3.46590566635132 3.69509363174438 3.98802495002747 3.04360961914062 3.66203117370605 4.05575942993164 4.43461132049561 5.12656402587891 4.8837456703186 3.62343430519104 0.936959981918335 1.03834331035614 0.37405452132225 0.287556648254395 0.280219256877899 0.371353149414062 0.617573976516724 0.914040684700012 1.10597240924835 1.37556827068329 1.53722393512726 1.80813324451447 2.05408549308777 2.77955770492554 4.0951771736145 4.33222007751465 2.28937888145447 0.216757789254189 -0.166935279965401 0.0470795556902885 0.256945848464966 0.39289665222168 0.557470321655273 0.667349576950073 0.763302683830261 0.859647572040558 0.830531597137451 0.92534077167511 0.959069192409515 0.873992621898651 0.78167325258255 0.646170020103455 0.258147329092026 -0.043862871825695 -0.584718823432922 -1.31308174133301 -1.8594251871109 -1.86865627765656 -1.93205404281616 -2.01721382141113 -2.06964635848999 -2.17959594726562 -2.16184496879578 -2.05827617645264 -1.9370002746582 -1.6582590341568 0.721148014068604 1.86838233470917 2.4933180809021 1.90580058097839 0.940928936004639 1.5779937505722 2.30493259429932 2.7147696018219 2.82431936264038 2.84150815010071 2.94691753387451 3.01974606513977 2.7038733959198 2.31756782531738 1.46312499046326 1.30391359329224 1.2181168794632 1.0153956413269 0.896360158920288 0.911296904087067 0.567020177841187 0.242294877767563 0.235595673322678 0.570522010326385 0.865151166915894 2.33396983146667 3.15808343887329 4.45126724243164 4.91878747940063 6.30069923400879 8.2743501663208 11.27587890625 12.7551765441895 14.3159036636353 12.7236299514771 8.75586032867432 8.11486721038818 5.91126251220703 3.25725674629211 3.21742129325867 3.49009418487549 3.70827221870422 4.05847930908203 4.7709755897522 4.89665555953979 4.6350622177124 4.92030620574951 4.79648685455322 4.56413745880127 3.84995031356812 3.87771010398865 4.35643148422241 4.31729459762573 5.25380945205688 6.77295589447021 3.55311059951782 -0.814571499824524 -0.674719214439392 -0.298094004392624 0.511123239994049 3.54632377624512 4.86138296127319 6.34277486801147 7.37606334686279 4.39870405197144 3.71987223625183 3.95931673049927 4.64893484115601 5.88261365890503 6.76559495925903 6.46133327484131 5.8889799118042 5.2757716178894 5.47094106674194 6.22059631347656 6.76722192764282 5.50647783279419 8.57553577423096 6.11133003234863 1.11332821846008 1.24467957019806 1.5543886423111 1.55750381946564 2.03600883483887 2.28977608680725 3.07225465774536 2.43370795249939 2.21358013153076 1.33599865436554 0.6988126039505 0.36303973197937 0.317078828811646 0.636988341808319 1.55621600151062 3.20069742202759 5.63097858428955 10.205662727356 11.2797966003418 14.4691686630249
