NCOLS 173
NROWS 32
XLLCORNER 353968
YLLCORNER 6700176
CELLSIZE 16 
NODATA_value -3.4e+38 
0.347298055887222 0.349814385175705 0.378247499465942 0.553798675537109 0.789482533931732 0.997398793697357 1.24565494060516 1.74899816513062 2.56164026260376 5.22041177749634 8.03164577484131 7.14865684509277 1.61069655418396 1.18157625198364 0.180755272507668 0.235510349273682 0.270627856254578 0.320633113384247 0.349620580673218 0.388771235942841 0.684380769729614 1.04171061515808 1.17928838729858 1.13634610176086 1.11158239841461 1.10973453521729 1.04100453853607 0.996213376522064 0.885432839393616 0.756031215190887 0.657144069671631 0.673457026481628 0.656904518604279 0.687168300151825 0.795767188072205 0.935863435268402 1.09759485721588 1.2009950876236 1.22567594051361 1.26912951469421 1.11448800563812 1.40614032745361 2.09283518791199 2.67100214958191 3.48645377159119 6.3101487159729 9.45082092285156 9.07033157348633 4.02058172225952 1.21952080726624 -0.300772905349731 -0.262950360774994 -0.0941362231969833 0.220893919467926 0.645421028137207 1.09270882606506 1.81790947914124 2.29792165756226 2.49032759666443 2.7763934135437 3.1033833026886 3.45036745071411 3.57727479934692 3.87740993499756 3.96797633171082 4.05727767944336 4.02618074417114 3.92934370040894 3.65781593322754 3.36061787605286 3.15733528137207 2.87815713882446 2.62557125091553 3.06023383140564 4.40319538116455 7.02592515945435 9.49944114685059 17.9951190948486 20.7892932891846 12.5343475341797 6.40466213226318 5.38035202026367 6.44627523422241 6.77627801895142 8.87917900085449 8.96524715423584 8.42322826385498 2.773521900177 0.68511176109314 2.48007130622864 2.11864686012268 2.38064932823181 2.69348549842834 2.64394211769104 3.76603627204895 5.88969135284424 3.88816070556641 2.56469488143921 2.01861357688904 2.62746262550354 4.21995449066162 5.86009216308594 7.0419716835022 8.71737957000732 10.1522407531738 10.8159284591675 11.8876180648804 13.7828769683838 14.5789041519165 8.25199508666992 6.73523378372192 5.27554178237915 4.262131690979 3.16951036453247 -3.17149806022644 -3.07687306404114 0.716870188713074 4.80139493942261 8.89633178710938 13.0487747192383 17.9687938690186 10.8312082290649 9.13905048370361 9.41019344329834 8.99333667755127 9.19456005096436 9.85442733764648 10.426908493042 11.3986940383911 12.1730852127075 9.29921436309814 6.5913987159729 3.88478207588196 1.95587575435638 1.50488913059235 1.91016185283661 2.03901886940002 2.01908755302429 -2.79782319068909 -2.32381629943848 -1.9793256521225 -1.78743624687195 -1.66120862960815 -1.56213641166687 -1.75969088077545 -1.68689560890198 -2.0283944606781 -1.86433863639832 -1.37253928184509 2.52963900566101 5.02909851074219 4.21359872817993 0.930325746536255 -0.528678774833679 0.0382934063673019 0.470523923635483 1.01227056980133 1.57191121578217 2.0513174533844 2.44980621337891 2.85369443893433 3.23039579391479 3.53019309043884 3.82076263427734 4.09356355667114 4.03012704849243 4.03742408752441 4.49217510223389 4.74584484100342 4.86899662017822 5.08888053894043 5.2403039932251 5.4187593460083
0.42652240395546 0.390429437160492 0.472685784101486 0.64398330450058 0.870402872562408 1.10651564598083 1.52078855037689 3.87216687202454 4.2682409286499 3.04671788215637 3.87567615509033 2.46424961090088 0.58546370267868 0.448363840579987 0.196750447154045 0.194078430533409 0.23787522315979 0.278280556201935 0.330745846033096 0.431408435106277 0.755742430686951 1.14213621616364 1.27248215675354 1.24142730236053 1.19400203227997 1.17938268184662 1.17336511611938 1.18324518203735 1.09116446971893 0.931538701057434 0.922688364982605 0.82308304309845 0.769376456737518 0.716943204402924 0.74860143661499 1.21023261547089 0.95386129617691 1.14291095733643 1.2188732624054 1.29748177528381 1.33225703239441 1.28630185127258 1.65395712852478 2.32643795013428 2.95206522941589 5.68991899490356 7.51507377624512 5.58330869674683 1.95686948299408 -0.217036634683609 -0.285877674818039 -0.23867130279541 -0.179991960525513 -0.00365483411587775 0.348058581352234 0.783819437026978 1.19071543216705 1.75784361362457 1.97406649589539 2.46581864356995 2.8707127571106 3.23439860343933 3.39408040046692 3.68372368812561 4.06608629226685 4.1856050491333 4.29033708572388 4.22768354415894 4.12821817398071 4.05706882476807 3.96977066993713 3.45258092880249 3.17451167106628 2.97909760475159 3.17872500419617 5.19344043731689 7.74606704711914 10.3473119735718 17.4254417419434 16.1502227783203 8.84850406646729 6.77815723419189 6.10837697982788 5.6034107208252 3.75186324119568 1.74680972099304 0.161426559090614 -0.77647477388382 0.339606046676636 1.05477797985077 1.49855482578278 2.63555598258972 3.11614561080933 2.95200848579407 2.80492043495178 3.53576898574829 2.70300531387329 2.2324423789978 2.56611156463623 3.619136095047 4.92479801177979 6.125 6.47987651824951 9.28983020782471 11.8753471374512 12.3117361068726 12.9044914245605 14.951605796814 13.5863370895386 11.5288419723511 5.09410715103149 4.18139219284058 5.19253063201904 0.324550569057465 -3.2347047328949 -2.88166451454163 -0.177164435386658 2.52720952033997 6.3805890083313 11.9396619796753 13.0183639526367 5.51897621154785 6.05686616897583 8.1606616973877 9.70750904083252 11.0299644470215 10.7152633666992 10.8853940963745 10.381365776062 8.02775287628174 5.36324167251587 3.5547080039978 0.463348746299744 -0.777934730052948 0.299031317234039 -0.218705847859383 -2.18334579467773 -3.24526929855347 -3.1388304233551 -2.60662603378296 -2.10239768028259 -1.83671092987061 -1.54033064842224 -1.34601855278015 -1.19838428497314 -1.12634670734406 -1.3111367225647 -1.84801840782166 -1.80868816375732 -0.642345666885376 -0.0189504493027925 -1.27963972091675 -1.0549111366272 -0.615761458873749 0.0265256483107805 0.450174331665039 0.856424510478973 1.36413645744324 1.92899692058563 2.41750979423523 2.8364953994751 3.27051377296448 3.6421046257019 3.92848539352417 4.17086219787598 4.44574451446533 4.45550155639648 4.60305976867676 4.97232675552368 5.15252447128296 5.34212160110474 5.53276014328003 5.68839740753174
0.502926111221313 0.536733686923981 0.614318430423737 0.726269721984863 0.934040069580078 1.2377016544342 3.46376919746399 2.78773593902588 1.79951572418213 2.11753273010254 2.76013827323914 2.10093283653259 1.03413283824921 0.85275000333786 0.817975103855133 0.196230605244637 0.213800832629204 0.271971523761749 0.365280419588089 0.524263143539429 0.730352342128754 1.04035925865173 1.2059485912323 1.33411145210266 1.30089807510376 1.28742778301239 1.29680359363556 1.243323802948 1.25227558612823 1.20214581489563 1.14769315719604 1.01636123657227 0.86239618062973 0.801147699356079 0.833918809890747 0.880033195018768 0.79188871383667 0.99462354183197 1.03079235553741 1.24065351486206 1.37034857273102 1.40797364711761 1.43937373161316 1.76142299175262 2.344895362854 4.20058155059814 5.0509819984436 4.14928817749023 1.73518264293671 -0.0729420259594917 -0.150102242827415 -0.161450117826462 -0.0647406056523323 0.119774706661701 0.301367402076721 0.745940029621124 1.07648956775665 1.18218803405762 1.30363690853119 2.03979539871216 2.5560290813446 2.99782705307007 3.15823221206665 3.45445728302002 3.85667157173157 4.15988683700562 4.40348243713379 4.50891590118408 4.65006256103516 4.60356187820435 4.49489545822144 4.20201826095581 3.83559131622314 3.60838794708252 3.2921187877655 3.7140645980835 5.65741586685181 6.93951034545898 11.7580070495605 16.0186767578125 13.447509765625 8.67957019805908 3.04419231414795 0.180474638938904 0.0323293916881084 -0.804313600063324 -1.24718010425568 -1.50927376747131 -0.576254487037659 0.616101145744324 0.982307136058807 1.72769248485565 3.16663527488708 3.37432146072388 3.83569049835205 3.7661509513855 3.18532991409302 2.51713466644287 2.73928117752075 3.70471787452698 4.92627954483032 5.79664850234985 6.77245092391968 9.29337310791016 14.04185962677 14.6659145355225 15.3906240463257 14.8025341033936 11.4587173461914 7.25245141983032 0.639093816280365 -0.125578597187996 -1.58218502998352 -3.43989062309265 -3.28477096557617 -2.85714745521545 -1.20569002628326 0.939860939979553 4.41026735305786 8.21102714538574 5.43443298339844 4.447585105896 5.75099897384644 7.16819095611572 9.53256130218506 10.4825096130371 7.25642442703247 6.68477630615234 5.67116022109985 3.99450421333313 2.19490075111389 -0.191582754254341 -1.69619345664978 -1.67153930664062 -1.50436782836914 -2.69411015510559 -3.18113827705383 -3.16976165771484 -3.02028560638428 -2.54581451416016 -2.09219861030579 -1.74515223503113 -1.39604771137238 -1.16424989700317 -1.01166665554047 -0.908436715602875 -0.881161451339722 -1.17398047447205 -1.25569367408752 -1.68476474285126 -1.52687382698059 -1.17103052139282 -0.833950161933899 -0.392826765775681 -0.0313245505094528 0.328145414590836 0.776528716087341 1.16539478302002 1.67124760150909 2.2755331993103 2.7824695110321 3.2038242816925 3.65914964675903 4.05142545700073 4.28907012939453 4.56883144378662 4.79091262817383 4.97587633132935 4.86208963394165 5.29565954208374 5.51788377761841 5.70750761032104 5.98391675949097
0.755914568901062 0.708987712860107 0.707326054573059 0.814565658569336 1.00892019271851 1.40070140361786 2.73735427856445 1.63104295730591 1.71523189544678 1.83145272731781 2.59527206420898 2.6744556427002 1.82765257358551 1.49791979789734 1.02996170520782 0.394578039646149 0.285374402999878 1.07965183258057 0.440260231494904 0.602458715438843 0.724080801010132 0.86023336648941 1.09189057350159 1.26854944229126 1.3971141576767 1.39443147182465 1.45236504077911 1.39831912517548 1.32882571220398 1.34700763225555 1.326455950737 1.21025192737579 1.0310469865799 0.881568372249603 0.776976704597473 0.918447136878967 0.766866743564606 0.791922569274902 0.894665896892548 1.07667648792267 1.30708909034729 1.39760994911194 1.50325560569763 1.53477036952972 1.65524232387543 3.13365983963013 4.59074211120605 3.95207953453064 1.89151060581207 0.170294895768166 0.0140525251626968 -0.02920201420784 0.0603433325886726 0.164536759257317 0.406445980072021 0.786185085773468 1.07432270050049 1.20433461666107 1.34492373466492 1.36732494831085 2.14486861228943 2.65781211853027 2.85416841506958 3.20821857452393 3.61056685447693 4.02707815170288 4.18208932876587 4.63786125183105 4.78955364227295 4.92632150650024 4.87917137145996 4.75981521606445 4.45606994628906 4.05368900299072 3.82182288169861 3.45233941078186 3.94389772415161 4.89214944839478 9.13331508636475 13.9187498092651 13.4171152114868 8.78954124450684 1.29686403274536 0.118735194206238 0.0503119379281998 -0.234742254018784 -0.607566356658936 -0.834040522575378 -1.02925884723663 -0.323182582855225 0.171073213219643 1.88706588745117 3.16646027565002 4.10646343231201 5.22040939331055 5.15587997436523 4.55100965499878 3.51421856880188 2.86749243736267 3.37020468711853 4.49425601959229 4.77561950683594 6.10497283935547 8.68376159667969 12.9129076004028 14.895320892334 9.94820117950439 5.41967153549194 2.36785674095154 -0.738256931304932 -3.16156244277954 -3.15516304969788 -3.13786816596985 -3.22695207595825 -3.10185289382935 -2.64816188812256 -2.16285538673401 -0.136639639735222 1.82999575138092 3.90009140968323 2.74482560157776 4.06197214126587 6.05418062210083 9.26874446868896 9.76645183563232 6.16690444946289 2.57964634895325 2.12555551528931 2.43745493888855 2.18789005279541 0.809341728687286 -0.966063678264618 -2.22255063056946 -1.39164960384369 -0.998037934303284 -3.08419108390808 -3.074143409729 -2.97812533378601 -2.82866597175598 -2.58812117576599 -2.26250243186951 -1.73814678192139 -1.29287528991699 -1.07886338233948 -0.948462784290314 -0.839719235897064 -0.763891577720642 -0.758724212646484 -0.763611435890198 -1.01620924472809 -1.40833234786987 -1.00242722034454 -0.7441126704216 -0.437153667211533 -0.201397433876991 0.174232482910156 0.583408534526825 0.99380350112915 1.36273217201233 1.84936428070068 2.4743320941925 3.04442548751831 3.47691130638123 3.87908482551575 4.20530366897583 4.58457231521606 4.84481573104858 5.02211952209473 5.22380685806274 5.10486555099487 5.3411021232605 5.87042570114136 6.07999610900879
1.06891906261444 0.856638312339783 0.784458220005035 0.860146999359131 1.07952964305878 1.86919283866882 1.52326560020447 1.48685848712921 1.58351337909698 1.75455045700073 2.01123833656311 2.14241766929626 1.59215426445007 1.28228902816772 1.13528823852539 0.872181236743927 0.689035534858704 1.39060509204865 0.440626591444016 0.619290292263031 0.711435198783875 1.20684373378754 0.905758380889893 1.15133810043335 1.33834958076477 1.46761953830719 1.56428515911102 1.50485074520111 1.43847239017487 1.46314072608948 1.37821805477142 1.37161815166473 1.25365281105042 1.06641864776611 1.05598747730255 0.948984503746033 0.963396310806274 0.774853050708771 0.815795660018921 0.895816683769226 1.14533424377441 1.18926739692688 1.42835986614227 1.57765161991119 1.58899402618408 1.94500303268433 3.59745717048645 3.83373212814331 1.98206627368927 0.362344950437546 0.279027253389359 0.249262318015099 0.302295207977295 0.375901341438293 0.590311586856842 0.841278731822968 1.05414760112762 1.19617390632629 1.38091158866882 1.55790817737579 1.66470420360565 2.05445551872253 2.27543759346008 2.83998942375183 3.35032558441162 3.77696657180786 3.97198915481567 4.39955902099609 4.7263650894165 5.06497144699097 5.23323631286621 5.15610122680664 5.11615037918091 5.03636646270752 4.88706541061401 4.24473571777344 3.87004494667053 4.02801990509033 6.74741506576538 11.1896514892578 13.0476675033569 7.89354515075684 1.7842230796814 0.731176912784576 0.537066638469696 0.4638552069664 0.216217368841171 -0.0311063174158335 -0.152075722813606 -0.398359894752502 -0.128148406744003 1.65598177909851 3.56181192398071 4.37912893295288 5.77837562561035 6.55579519271851 6.0841851234436 4.98401021957397 3.92138886451721 3.21496939659119 3.88897824287415 3.84004306793213 5.10933923721313 7.56938648223877 11.8674249649048 12.9345197677612 6.93827152252197 -0.224044248461723 -1.84376382827759 -2.90858221054077 -2.94642281532288 -2.88618779182434 -2.84527707099915 -2.81312394142151 -2.74493551254272 -2.44452428817749 -2.00964093208313 -1.32571887969971 0.778156399726868 1.79233372211456 1.62126171588898 3.4700562953949 7.89897537231445 9.45430469512939 7.31187105178833 -0.246158838272095 -0.587730824947357 0.997715830802917 2.43302774429321 3.11388254165649 1.705561876297 -0.240025401115417 -1.53899025917053 -2.13351082801819 -2.18004703521729 -3.02089881896973 -2.9362621307373 -2.84533405303955 -2.6763014793396 -2.42790722846985 -2.18061804771423 -1.77450251579285 -1.24476826190948 -0.930362105369568 -0.753129243850708 -0.755057215690613 -0.721465766429901 -0.646150588989258 -0.562820076942444 -0.518973648548126 -0.841879904270172 -0.790989220142365 -0.630348026752472 -0.498709321022034 -0.250022143125534 0.00525521580129862 0.389018148183823 0.755082070827484 1.13343298435211 1.51869678497314 1.97768306732178 2.57343935966492 3.00037431716919 3.51962828636169 4.01569080352783 4.48838806152344 4.84266710281372 5.04752445220947 5.2776780128479 5.48702955245972 5.45048761367798 5.71101427078247 6.26435422897339
1.12938058376312 1.12294292449951 0.90709125995636 0.826892137527466 1.06015181541443 1.64698910713196 1.45169472694397 1.48594915866852 1.58967328071594 1.7646290063858 2.09317398071289 2.28897929191589 2.09489297866821 2.01906061172485 1.68788802623749 1.18586313724518 0.473731845617294 0.446477711200714 0.471960723400116 0.570560455322266 0.654331684112549 0.742926716804504 0.765341460704803 0.911574304103851 1.2070187330246 1.32161903381348 1.47992205619812 1.62251043319702 1.56314826011658 1.59466779232025 1.52392244338989 1.43702924251556 1.41994380950928 1.3534140586853 1.29035615921021 1.15490520000458 0.993882954120636 1.01869893074036 1.07549917697906 0.916595101356506 0.917044878005981 1.04741036891937 1.2589807510376 1.47670161724091 1.6219083070755 1.65457665920258 2.03126358985901 2.8331937789917 1.80870258808136 0.430538982152939 0.431446850299835 0.472849518060684 0.563206076622009 0.628293871879578 1.00654077529907 1.77423131465912 3.82752084732056 2.82994246482849 1.3643661737442 1.43035352230072 1.62360382080078 1.87760508060455 1.78416609764099 2.36638474464417 2.97676372528076 3.50359010696411 3.68974137306213 4.08933877944946 4.57925987243652 4.78896522521973 5.36066102981567 5.55161952972412 5.74008131027222 5.61691236495972 5.45458459854126 5.16672658920288 4.67877912521362 4.36094951629639 5.42398166656494 8.54736042022705 10.0408325195312 6.61321210861206 1.23967504501343 1.14522540569305 0.999439895153046 0.965436279773712 1.00574445724487 0.947995126247406 0.684259533882141 0.498173981904984 0.504030466079712 1.08452177047729 2.42122054100037 3.9954526424408 6.06162357330322 7.47652673721313 7.98883867263794 7.49531745910645 6.86355972290039 5.40299224853516 4.26271343231201 3.79643988609314 4.34092903137207 6.28237581253052 10.4273223876953 10.648609161377 3.7452085018158 -1.80625534057617 -2.63214254379272 -2.60899639129639 -2.63850045204163 -2.60950374603271 -2.54179787635803 -2.40397429466248 -2.28316831588745 -2.08378577232361 -1.71346926689148 -1.47225522994995 -0.582353532314301 1.03075432777405 1.35583996772766 2.37456822395325 6.61867380142212 8.06579685211182 1.09457981586456 -0.369397610425949 -0.274341136217117 1.03301548957825 3.67871594429016 4.40568828582764 2.7530620098114 0.251974612474442 -1.52264988422394 -2.85745906829834 -2.88443160057068 -2.88067626953125 -2.83192753791809 -2.74829268455505 -2.55118370056152 -2.26624369621277 -1.99483454227448 -1.78005683422089 -1.5372622013092 -0.9878089427948 -0.673605740070343 -0.648504972457886 -0.658412337303162 -0.595845401287079 -0.444636642932892 -0.31636905670166 -0.284457296133041 -0.560495436191559 -0.642788529396057 -0.521097183227539 -0.361040264368057 -0.0843836888670921 0.166139379143715 0.513261079788208 0.828132331371307 1.13499271869659 1.43745899200439 1.93061530590057 2.50891709327698 3.20055556297302 3.78677535057068 4.24604606628418 4.65089511871338 4.96187353134155 5.32401752471924 5.55752658843994 5.77968883514404 5.968017578125 6.00293874740601
1.09078454971313 1.17947936058044 1.16664040088654 1.0290641784668 0.977643549442291 1.42097425460815 1.55555140972137 1.53329467773438 1.59715795516968 1.7671971321106 1.87989926338196 2.75225758552551 2.70269083976746 2.41106820106506 1.72572827339172 1.25090873241425 0.590445280075073 0.780330300331116 0.506333708763123 0.535915911197662 0.60177743434906 0.70415985584259 0.754163205623627 0.812983155250549 1.00506448745728 1.16306245326996 1.33509206771851 1.56388187408447 1.67387676239014 1.70899033546448 1.6577672958374 1.58430600166321 1.49605906009674 1.53885769844055 1.5398416519165 1.41422510147095 1.22358512878418 1.04833722114563 0.948762238025665 1.20762360095978 1.03390181064606 0.950880646705627 1.04242169857025 1.29829561710358 1.54550695419312 1.62604534626007 1.7522599697113 1.71914684772491 1.54792141914368 0.759498298168182 0.517317831516266 0.526463687419891 0.698654055595398 0.776057302951813 1.06852650642395 2.07831048965454 2.95087814331055 0.792859673500061 0.92976313829422 1.21601867675781 1.55793428421021 1.86357867717743 2.17125272750854 2.38470435142517 2.47840332984924 3.10053110122681 3.3364839553833 3.78374481201172 4.28673315048218 4.49071598052979 5.05138826370239 5.62467861175537 5.82082319259644 6.05299186706543 5.95907020568848 5.81633377075195 5.58681106567383 5.17387676239014 5.32701969146729 7.94339609146118 6.73117780685425 4.29573154449463 1.52944958209991 1.45993506908417 1.42024409770966 1.52818310260773 1.6496114730835 1.66830909252167 1.63607394695282 1.39642608165741 1.41070151329041 1.47950124740601 2.08556723594666 2.9950840473175 5.95897102355957 7.98767995834351 9.37628841400146 9.91397666931152 9.46555995941162 7.61571788787842 6.22664403915405 4.90038633346558 4.47763109207153 5.60209131240845 8.42699146270752 7.4320502281189 0.657335519790649 -2.24722099304199 -2.32675242424011 -2.31737494468689 -2.26292085647583 -2.28808045387268 -2.16638493537903 -2.04272484779358 -1.85341036319733 -1.62041342258453 -1.25374257564545 -0.853014349937439 -0.455020397901535 -0.233932435512543 0.118675731122494 2.23728346824646 4.48454427719116 4.8100118637085 0.620477735996246 0.0980489552021027 0.213243171572685 0.881633400917053 3.52572703361511 4.2709755897522 1.45665919780731 -1.7331258058548 -2.52896499633789 -2.64249968528748 -2.67810297012329 -2.67466640472412 -2.70188879966736 -2.59910202026367 -2.39756178855896 -2.15030097961426 -1.85487413406372 -1.58989191055298 -1.50875425338745 -1.40108740329742 -0.668634474277496 -0.458329200744629 -0.402746707201004 -0.360358446836472 -0.279919326305389 -0.139909744262695 -0.042481180280447 -0.0233369972556829 0.0584882572293282 -0.330004453659058 -0.39572662115097 -0.218344956636429 0.0549017675220966 0.270540744066238 0.498948693275452 0.667589902877808 1.12535631656647 1.64243388175964 2.13604092597961 2.65751719474792 3.27895450592041 3.70995450019836 4.3073296546936 4.80513668060303 5.22437286376953 5.59897375106812 5.83479833602905 6.01835775375366 6.26727533340454
0.915930092334747 1.14278149604797 1.23119711875916 1.23066425323486 1.27380621433258 1.24382483959198 2.20806312561035 1.58247077465057 1.58728992938995 1.77751338481903 1.9064177274704 2.20550727844238 2.37000107765198 1.70500648021698 1.71125054359436 1.15331506729126 0.614504039287567 0.505804419517517 0.476686656475067 0.526528775691986 0.565043210983276 0.704887270927429 0.775200247764587 0.9338698387146 0.915220260620117 1.05182683467865 1.12837564945221 1.41098785400391 1.53653585910797 1.6525901556015 1.78371834754944 1.73355197906494 1.66221153736115 1.71595001220703 1.62734651565552 1.61002612113953 1.46208333969116 1.24887371063232 1.27481770515442 1.12770450115204 1.33979177474976 1.42401933670044 1.20664536952972 1.09760105609894 1.35194230079651 1.39445376396179 1.69352555274963 1.88825011253357 1.84328079223633 1.62130260467529 1.25000488758087 0.885440766811371 0.766991496086121 0.948056697845459 1.27226984500885 1.92254102230072 1.12996804714203 0.686320960521698 0.81521737575531 1.15854322910309 1.4456422328949 1.82318234443665 2.2052640914917 2.58528709411621 2.97209191322327 2.91056942939758 2.63795208930969 3.32510089874268 3.93512511253357 4.10602378845215 4.58357906341553 5.28427267074585 5.67506313323975 6.20307159423828 6.49611043930054 6.42102575302124 6.58950614929199 6.54407644271851 6.36153316497803 8.07495403289795 6.17095279693604 3.40660858154297 2.64043831825256 2.11878633499146 1.79841458797455 1.9066389799118 2.17039608955383 2.12204813957214 2.27325296401978 2.30839014053345 2.1955783367157 2.27525448799133 3.17359900474548 3.72852778434753 4.68698024749756 7.99401140213013 10.0090856552124 11.1099767684937 11.5063905715942 10.3168487548828 9.15759944915771 7.55710077285767 5.91045999526978 5.61430740356445 5.8462381362915 4.24927854537964 -1.7221759557724 -1.86390042304993 -1.83956062793732 -1.88771307468414 -1.76205456256866 -1.52402985095978 -1.23189640045166 -1.14009010791779 -1.22798144817352 -1.01181471347809 -0.57341080904007 -0.163786813616753 0.202410340309143 0.374627500772476 0.495567798614502 1.27052414417267 4.77849102020264 4.97238826751709 1.23432517051697 0.580215752124786 0.45666179060936 0.368840605020523 0.743546545505524 -0.376926451921463 -0.971977055072784 -1.88451397418976 -2.0968062877655 -2.23689818382263 -2.29463005065918 -2.395348072052 -2.40434145927429 -2.33712148666382 -2.18687462806702 -1.97665119171143 -1.67390263080597 -1.47146821022034 -1.39541590213776 -1.30657529830933 -1.09429657459259 -0.366968929767609 -0.106290549039841 0.092731349170208 0.14894013106823 0.166937544941902 0.190643534064293 0.309531599283218 0.392679184675217 0.36332431435585 -0.0568943731486797 -0.27799266576767 -0.103311762213707 -0.00940882135182619 0.0839797556400299 0.328870922327042 0.814610779285431 1.2775274515152 1.70546686649323 2.10131907463074 2.60328936576843 3.22575044631958 3.95383453369141 4.54804658889771 5.05866861343384 5.49334573745728 5.82655096054077 6.0816478729248 6.31490421295166
0.950991928577423 0.991832554340363 1.19873476028442 1.31078553199768 1.35797655582428 1.37878835201263 1.95549249649048 1.61473619937897 1.57517075538635 1.78891777992249 1.93854200839996 1.99118232727051 2.28868913650513 2.2438817024231 2.07768201828003 1.38664925098419 0.557318568229675 0.530720055103302 0.517287850379944 0.507346212863922 0.554102003574371 0.647169291973114 0.788164019584656 0.82897812128067 0.791564166545868 0.936067044734955 1.03926110267639 1.18190038204193 1.3680773973465 1.52487874031067 1.73261964321136 1.87779605388641 1.82342743873596 1.85594165325165 1.7717422246933 1.67868721485138 1.66830599308014 1.61138141155243 1.53212547302246 1.37917304039001 1.26059460639954 1.30825591087341 1.64066004753113 1.33094251155853 1.12816798686981 1.20094323158264 1.51304316520691 1.83835995197296 2.0588915348053 2.07566928863525 2.00813627243042 1.64170503616333 1.2304105758667 0.984260439872742 1.2907886505127 1.82881188392639 1.26765954494476 0.78190952539444 0.874796569347382 1.17478382587433 1.53918433189392 1.86216366291046 2.20641613006592 2.54731488227844 3.17145133018494 3.73816823959351 3.13241720199585 2.6417293548584 3.33702921867371 3.63446068763733 4.21355009078979 4.82958841323853 5.47853755950928 5.84888792037964 6.66550302505493 7.03676223754883 7.4355583190918 7.41042900085449 7.23164367675781 6.93615055084229 6.01797676086426 4.49358463287354 3.78177380561829 3.20372843742371 2.84388494491577 2.69236254692078 2.52876567840576 2.43469953536987 2.57337188720703 2.77224516868591 2.92152070999146 2.96030306816101 3.33640289306641 4.69638824462891 5.33008050918579 5.890944480896 7.36861515045166 10.6830062866211 13.5359897613525 13.3886346817017 16.1483306884766 15.7853374481201 14.3321714401245 10.7028226852417 5.8651180267334 2.05204224586487 -1.45194602012634 -1.39818143844604 -1.23633301258087 -0.912446796894073 -0.59382963180542 -0.525479435920715 -0.446500271558762 -0.347704708576202 -0.33972030878067 -0.163071990013123 0.118083775043488 0.531204521656036 0.724551856517792 0.976980865001678 1.13152766227722 1.07733142375946 2.67134666442871 4.73969793319702 0.975890159606934 0.77700263261795 0.669964849948883 0.649939179420471 0.651378273963928 0.212742879986763 -0.0310516841709614 -0.587390065193176 -1.44537365436554 -1.69305789470673 -1.88217496871948 -1.97619819641113 -2.03711748123169 -1.97445344924927 -1.8923202753067 -1.65376341342926 -1.44001030921936 -1.414266705513 -1.39055526256561 -1.24187672138214 -1.13814496994019 -0.804957151412964 -0.370818346738815 0.247946426272392 0.493124693632126 0.505514323711395 0.483374208211899 0.512549936771393 0.642570793628693 0.699016094207764 0.677776694297791 0.41303351521492 0.21517089009285 -0.172116920351982 -0.0768741294741631 0.174878314137459 0.481916546821594 0.870828926563263 1.18082106113434 1.79754662513733 2.35265231132507 2.86579203605652 3.49321842193604 4.20337009429932 4.79371166229248 5.21812105178833 5.60490131378174 5.99348258972168 6.40213918685913
1.00788247585297 1.04717433452606 1.08542251586914 1.21442949771881 1.35405611991882 1.46038460731506 1.53603327274323 2.00946283340454 1.5740077495575 1.66948807239532 1.88030612468719 2.04665112495422 2.23536038398743 2.64752984046936 2.33703088760376 1.50590848922729 0.684525310993195 0.559047281742096 0.548386991024017 0.538700461387634 0.525700986385345 0.582603871822357 0.682118356227875 0.836964070796967 0.837442219257355 0.94730931520462 1.03490996360779 1.09125173091888 1.22512412071228 1.29952991008759 1.60096943378448 1.80040204524994 1.9227169752121 1.96449375152588 1.91149747371674 1.85271394252777 1.77575290203094 1.83651494979858 1.82583904266357 1.66020774841309 1.42935347557068 1.44234871864319 1.5043271780014 1.91654694080353 1.4749915599823 1.35387361049652 1.45657670497894 1.65765106678009 1.99950850009918 2.09382820129395 2.34376239776611 2.31099915504456 2.17922043800354 1.87660372257233 1.44135570526123 1.99448943138123 1.09353446960449 0.916649997234344 0.980691909790039 1.20751714706421 1.67713415622711 2.14712905883789 2.27720928192139 2.60143637657166 3.17722272872925 4.15784454345703 4.71418333053589 6.87125253677368 5.41613912582397 3.6667160987854 3.63351941108704 4.44058513641357 5.11061954498291 5.36379146575928 6.28393220901489 7.22127532958984 7.62746953964233 8.19397354125977 8.17865657806396 8.5492696762085 8.33407402038574 7.34706974029541 5.77536535263062 5.23603582382202 4.69937992095947 4.33042669296265 3.46837759017944 2.94265079498291 2.76941227912903 2.92733502388 3.1074583530426 3.1534276008606 3.29723310470581 4.22268915176392 4.67651176452637 6.40295457839966 7.60673236846924 8.79850196838379 13.156964302063 17.7790031433105 19.7540817260742 13.3609781265259 12.1436948776245 7.36380767822266 0.84596198797226 -1.44921886920929 -1.2250964641571 -1.06769216060638 -0.833376109600067 -0.185059577226639 0.258109927177429 0.386062532663345 0.271447151899338 0.412162065505981 0.418259501457214 0.460027933120728 0.703108012676239 1.15255844593048 1.26103460788727 1.36161470413208 1.44892120361328 1.43517923355103 2.16375732421875 2.81867742538452 1.20837414264679 1.02234983444214 0.901709318161011 0.955905079841614 1.01078546047211 0.953160166740417 0.821194708347321 0.324584245681763 -0.27369886636734 -0.588700413703918 -1.38983690738678 -1.48735678195953 -1.54317378997803 -1.56153607368469 -1.48746430873871 -1.3570476770401 -1.29931735992432 -1.31770861148834 -1.27379584312439 -1.15348470211029 -1.04433035850525 -0.978792011737823 -0.85137277841568 -0.274605572223663 0.601560473442078 0.825600683689117 0.96141642332077 0.819513082504272 0.847803115844727 0.976460933685303 1.01444602012634 1.04248416423798 1.11315524578094 0.53019243478775 -0.115180939435959 0.101225160062313 0.524109780788422 0.861451745033264 1.18352746963501 1.52556896209717 2.03775691986084 2.60969400405884 3.08170294761658 3.57490682601929 4.20232057571411 4.6565318107605 5.28699541091919 5.86068725585938 6.32542705535889
1.09384155273438 1.06209707260132 1.15822422504425 1.20770514011383 1.25695276260376 1.44789397716522 1.57811939716339 2.46592020988464 1.55468416213989 1.58500945568085 1.79916751384735 2.05608987808228 2.40451860427856 2.6737425327301 2.49514007568359 1.65505862236023 0.797254204750061 0.547200977802277 0.572259485721588 0.57147079706192 0.567342042922974 0.609167277812958 0.63385933637619 0.728115200996399 0.865190744400024 1.82226812839508 1.0201610326767 1.06078851222992 1.1391509771347 1.201899766922 1.37022173404694 1.6442152261734 1.74123513698578 1.91273951530457 2.06780481338501 2.03156042098999 1.95984995365143 2.00902724266052 1.90809059143066 1.88637924194336 1.83746719360352 1.73760759830475 1.5319287776947 1.6642119884491 2.31221961975098 2.50793027877808 1.94062149524689 1.78750050067902 2.18471789360046 2.64394283294678 2.77075505256653 2.51131796836853 2.51454448699951 2.48952913284302 2.15050315856934 1.72581374645233 1.19818770885468 1.09611594676971 1.11269092559814 1.35215091705322 1.87767922878265 2.31537795066833 2.63905048370361 3.03915739059448 3.1560070514679 4.00314283370972 3.81415438652039 3.00758910179138 2.43556571006775 1.57408690452576 2.68536758422852 3.89098930358887 4.69983100891113 4.95410490036011 5.75254487991333 6.80440711975098 7.34659671783447 8.39198684692383 9.13601112365723 9.70372772216797 9.65728282928467 9.34744071960449 8.84116363525391 7.42660140991211 7.03392124176025 6.44851732254028 6.50610065460205 5.14692878723145 3.53513669967651 3.5031590461731 3.70145559310913 3.80176782608032 3.73119592666626 3.46782326698303 3.71912240982056 4.96697664260864 8.09932041168213 10.1077947616577 10.3576221466064 15.9890766143799 17.5245895385742 8.06353092193604 2.07025551795959 -0.464585036039352 -1.71424126625061 -1.36736571788788 -1.02570021152496 -0.789849758148193 -0.552611589431763 -0.132197961211205 0.644033133983612 0.948738932609558 0.968062281608582 1.00165045261383 0.946923136711121 0.987571716308594 1.14922881126404 1.45898950099945 1.56322979927063 1.64660310745239 1.69955945014954 1.67859303951263 2.01302623748779 3.26344561576843 1.42100143432617 1.2731499671936 1.29341173171997 1.29254043102264 1.31074512004852 1.35153579711914 1.26039481163025 1.11032092571259 0.644090592861176 0.430900245904922 -0.07844627648592 -0.910018563270569 -1.0177366733551 -1.06957197189331 -1.14866662025452 -1.14630377292633 -1.15446484088898 -1.12481784820557 -1.08049643039703 -1.02083086967468 -0.941321790218353 -0.841031193733215 -0.814039051532745 -0.805622458457947 -0.0328967310488224 0.902592301368713 1.12786746025085 1.38513922691345 1.42752277851105 1.4358868598938 1.41990685462952 1.46234738826752 1.47568655014038 1.47594463825226 1.20437598228455 0.89879184961319 0.539780855178833 0.867889523506165 1.12716948986053 1.35890889167786 1.70768141746521 2.14585018157959 2.56549596786499 3.00870299339294 3.52913451194763 4.19382858276367 4.97434568405151 5.61043310165405 6.18210887908936
1.42314302921295 1.41609883308411 1.24980509281158 1.27120137214661 1.33317840099335 1.40051746368408 1.44360601902008 2.50420093536377 1.84980547428131 1.5521467924118 1.68976140022278 1.9564493894577 2.25360465049744 2.6643853187561 2.49638414382935 1.71074998378754 0.902637481689453 0.548255383968353 0.557374000549316 0.598235130310059 0.611388206481934 0.630624830722809 0.648090600967407 0.682187676429749 0.767875492572784 0.922947287559509 0.95789110660553 1.06861650943756 1.1060163974762 1.16819310188293 1.23859810829163 1.42321825027466 1.54933416843414 1.75543856620789 2.00655651092529 2.14442181587219 2.0950813293457 2.1551661491394 2.0881175994873 2.0049090385437 2.06481504440308 2.04049682617188 1.8663854598999 1.62267792224884 1.9788578748703 2.21592473983765 3.39159607887268 2.43661785125732 2.25276899337769 2.82656955718994 3.90904974937439 4.50189781188965 3.85772466659546 2.73598980903625 2.77835464477539 2.45986223220825 1.81795763969421 1.14433622360229 1.05439698696136 1.51132321357727 1.98735249042511 2.51773405075073 3.02343583106995 3.28252267837524 3.57933068275452 3.69776439666748 3.55930233001709 2.84366345405579 1.74706590175629 0.728666126728058 1.40786564350128 3.12706160545349 4.12308645248413 4.45282030105591 5.28448677062988 6.21723413467407 7.09731435775757 8.11197757720947 9.37774467468262 10.1744680404663 10.9396324157715 11.0200471878052 10.6097593307495 10.9497089385986 10.510066986084 9.49924945831299 10.9744920730591 7.10517406463623 7.17863941192627 7.72944784164429 4.79022741317749 4.73698759078979 4.19034481048584 4.13647747039795 3.87692809104919 4.22532510757446 6.57442474365234 11.3109149932861 9.63270378112793 6.53388214111328 8.51270771026611 -0.594810128211975 -1.80952310562134 -1.74313688278198 -1.59926879405975 -1.20956885814667 -0.749070227146149 -0.419157177209854 -0.11895777285099 0.210650146007538 0.745890200138092 1.20541954040527 1.36765229701996 1.49463260173798 1.36719536781311 1.3592175245285 1.49412357807159 1.94788706302643 1.74886918067932 1.79401767253876 1.82495307922363 1.82536399364471 1.78902316093445 1.72256171703339 1.50425398349762 1.43861937522888 1.47345721721649 1.61439120769501 1.65561783313751 1.62682008743286 1.57412695884705 1.4450751543045 1.27807629108429 1.15419328212738 0.720972299575806 0.37424024939537 -0.193442240357399 -0.600780069828033 -0.80834287405014 -0.959989011287689 -0.990529894828796 -0.989795207977295 -0.936001300811768 -0.900348663330078 -0.823203802108765 -0.747042596340179 -0.685486137866974 -0.685973823070526 -0.685108244419098 0.208244115114212 0.648911952972412 1.55014002323151 1.91155457496643 2.34677696228027 2.10974097251892 1.87401616573334 1.85358715057373 1.87497961521149 1.9491560459137 2.08239388465881 1.39902818202972 0.818873643875122 1.03249442577362 1.26046085357666 1.56875741481781 1.98767185211182 2.19960141181946 2.64036917686462 3.25700688362122 3.80310678482056 4.4985179901123 5.28351306915283 5.91579818725586
1.78535962104797 1.9030396938324 1.66222989559174 1.39317512512207 1.38010144233704 1.4556964635849 1.51535224914551 2.20565366744995 1.91751885414124 1.63452219963074 1.58806049823761 1.79536175727844 1.89742386341095 2.23609828948975 2.38558912277222 1.93606352806091 1.2181304693222 0.667603552341461 0.556295871734619 0.573167562484741 0.588658213615417 0.63976776599884 0.654979705810547 0.695517838001251 0.774813175201416 0.832969129085541 0.866666197776794 1.0354870557785 1.12181091308594 1.15742158889771 1.22056305408478 1.29374134540558 1.45691585540771 1.49175608158112 1.80493426322937 2.06569528579712 2.23567461967468 2.31416606903076 2.26579260826111 2.1998987197876 2.26839733123779 2.17863273620605 2.165367603302 1.97950220108032 2.01123094558716 2.30024170875549 3.16215205192566 4.13296461105347 2.5090537071228 2.51694798469543 1.94426894187927 1.58677041530609 1.6250958442688 2.10300326347351 2.93600964546204 3.15552663803101 3.45117163658142 2.76710987091064 1.89281868934631 1.68700969219208 1.83867013454437 2.40529608726501 3.03852128982544 3.63392186164856 4.1045184135437 4.00472927093506 3.87690734863281 3.31464004516602 1.62197935581207 0.392298579216003 0.643088579177856 1.93921041488647 3.10461378097534 3.60184907913208 4.72236013412476 5.71392345428467 6.62557792663574 7.27580070495605 8.81741142272949 9.93738460540771 11.684458732605 12.572075843811 13.6800212860107 14.2719488143921 13.9101648330688 12.8667030334473 11.2140846252441 6.63793230056763 6.38419103622437 6.92558336257935 3.47209620475769 3.66286063194275 4.07099056243896 4.37511920928955 4.54632091522217 4.01538038253784 4.94093656539917 7.6246542930603 6.24902772903442 1.12839913368225 0.0477293506264687 -1.03030490875244 -1.2367240190506 -1.19453167915344 -1.08618605136871 -0.904541075229645 -0.478146910667419 -0.0143735585734248 0.2374277561903 0.618195354938507 0.997597098350525 1.35484933853149 1.56103491783142 1.61519575119019 1.58805358409882 1.58346128463745 1.67882370948792 1.76175129413605 1.74691641330719 1.80677592754364 1.9502135515213 1.98764395713806 1.96711552143097 1.93758606910706 1.83592486381531 1.70499455928802 1.79507791996002 1.91768944263458 1.90450346469879 1.96953284740448 1.85767817497253 1.78181290626526 1.6828864812851 1.53910040855408 1.4428642988205 1.20186352729797 0.778130352497101 0.673321843147278 -0.212764590978622 -0.562797129154205 -0.68602466583252 -0.777978479862213 -0.782648384571075 -0.723041236400604 -0.685572862625122 -0.632864475250244 -0.576744019985199 -0.538164615631104 -0.521860957145691 -0.417490899562836 0.0148453935980797 0.829263389110565 2.18784093856812 2.64412260055542 3.11090731620789 2.79615521430969 2.60173296928406 2.46231508255005 2.43631601333618 2.46931409835815 2.57326602935791 1.87048697471619 1.01849663257599 1.19687747955322 1.49411606788635 1.9075323343277 2.14434766769409 2.34139800071716 2.86339664459229 3.45472264289856 3.96577715873718 4.52580690383911 5.24453830718994
1.95857203006744 2.04748487472534 2.08020114898682 1.82598638534546 1.5448009967804 1.56118988990784 1.57891440391541 1.70019161701202 1.8738499879837 1.62479054927826 1.66059553623199 1.63373994827271 1.71582436561584 1.90853023529053 2.36584782600403 2.49304270744324 1.68554282188416 0.762685894966125 0.664670467376709 0.656469225883484 0.583586633205414 0.605223178863525 0.663932740688324 0.713604927062988 0.769752383232117 0.823027968406677 0.851248204708099 0.950565278530121 1.13614761829376 1.18514764308929 1.19109082221985 1.26736259460449 1.35083663463593 2.16198110580444 1.92967104911804 1.91748428344727 2.03860378265381 2.26783275604248 2.44362831115723 2.41446876525879 2.48821115493774 2.42053127288818 2.32105326652527 2.33897161483765 2.72538471221924 2.55326342582703 2.30973148345947 3.46721267700195 5.35375547409058 6.31408214569092 2.64430856704712 1.05297076702118 1.21871614456177 1.76786839962006 2.58823156356812 3.37705063819885 3.8222599029541 4.05392456054688 3.50916695594788 2.52844929695129 1.62279009819031 1.87410497665405 2.70227670669556 3.67198586463928 4.46849203109741 4.96137714385986 5.31530570983887 4.0852255821228 1.54261112213135 0.0671215355396271 0.383736550807953 0.928828716278076 1.67075109481812 2.28643751144409 3.8689329624176 5.11208152770996 6.10037088394165 6.6524224281311 8.0611457824707 9.22859573364258 11.4234428405762 13.7517919540405 15.2565584182739 17.2571487426758 18.0633716583252 17.0592021942139 14.1245899200439 12.3316240310669 9.92823886871338 6.82100486755371 3.97043633460999 3.61378836631775 3.85926961898804 4.53074884414673 4.78395700454712 4.78351402282715 4.90858125686646 3.88844537734985 3.29723358154297 2.42125368118286 1.51143109798431 0.779126703739166 0.991506814956665 1.00379455089569 -0.535849630832672 -0.476075500249863 -0.185978725552559 0.288504809141159 0.761926770210266 0.976437509059906 1.23226988315582 1.50324749946594 1.63098978996277 1.63882625102997 1.66283595561981 1.65119183063507 1.68714094161987 1.79643893241882 1.79801571369171 1.89785349369049 2.02978944778442 2.12096643447876 2.14730596542358 2.23468279838562 2.27765083312988 2.21905279159546 2.18176436424255 2.16650891304016 2.24994921684265 2.31208443641663 2.31416821479797 2.28981995582581 1.99728572368622 1.89215111732483 1.88940382003784 1.8648167848587 1.52497446537018 1.53399837017059 1.02689850330353 -0.0285233817994595 -0.266697108745575 -0.433669298887253 -0.535011112689972 -0.535377383232117 -0.503428041934967 -0.484284579753876 -0.439755886793137 -0.356214374303818 -0.348824679851532 -0.347811460494995 -0.372323572635651 0.311748474836349 1.51153898239136 2.08528590202332 3.5151059627533 4.00696229934692 3.47088861465454 3.15885901451111 2.91620898246765 2.92124056816101 2.96319985389709 3.0847704410553 3.29013442993164 3.08184194564819 1.45555651187897 1.74477505683899 2.04609417915344 2.28690671920776 2.48512434959412 2.90789103507996 3.32970333099365 3.94749188423157 4.55181407928467
1.87912178039551 2.14061641693115 2.21260905265808 2.23923826217651 1.97608852386475 2.0141658782959 1.79476487636566 1.71074545383453 2.04527235031128 1.68088829517365 1.81284654140472 1.83230268955231 1.74803042411804 1.7295857667923 2.22675943374634 2.72167801856995 1.87646794319153 0.818426549434662 0.943166494369507 0.95826780796051 0.794128656387329 0.663756370544434 0.620395541191101 0.665352165699005 0.758258998394012 0.811579406261444 0.879901945590973 0.935343503952026 0.968996703624725 1.10605537891388 1.22528207302094 1.27167892456055 1.32560384273529 1.42136716842651 1.54426324367523 1.65698409080505 1.76717269420624 2.03343343734741 2.35534310340881 2.56049537658691 2.65985059738159 2.63701605796814 2.5899703502655 3.07150816917419 2.53007793426514 2.40628886222839 2.32961535453796 2.63158369064331 3.98497748374939 2.17492532730103 0.649925649166107 0.789095163345337 1.03969705104828 1.370964884758 2.19807624816895 3.01117539405823 3.43156838417053 4.76175975799561 5.68986034393311 4.60892581939697 3.40604043006897 1.66084563732147 1.90628302097321 3.35131478309631 4.48812580108643 5.47272109985352 5.29205322265625 2.83255362510681 0.279645502567291 0.106172516942024 0.18903736770153 0.527130484580994 1.02618110179901 1.50121235847473 2.4503161907196 4.19148445129395 5.35176658630371 5.96520233154297 7.40854454040527 8.59962558746338 10.3336715698242 13.4611339569092 15.304591178894 20.2485771179199 25.6834449768066 29.1080570220947 22.8985042572021 19.2275524139404 14.0014429092407 8.09990882873535 6.2131028175354 5.3752293586731 4.13085317611694 4.75438976287842 4.85924434661865 5.09200859069824 4.37111520767212 3.20995235443115 3.23682737350464 3.51244401931763 3.46492052078247 3.43370866775513 2.22226405143738 0.976640820503235 -0.227710291743279 -0.149560377001762 0.153319135308266 0.599672079086304 1.06009697914124 1.27064394950867 1.4280925989151 1.60019218921661 1.62602877616882 1.71120369434357 1.74181723594666 1.79312098026276 1.79593420028687 1.91388690471649 1.98898684978485 2.05028319358826 2.12882494926453 2.21824932098389 2.30999946594238 2.56123566627502 2.59118461608887 2.60400295257568 2.6045298576355 2.61042070388794 2.58243680000305 2.66613554954529 2.74925804138184 2.60734534263611 2.50892949104309 2.31600761413574 2.21989750862122 2.13708281517029 2.09880566596985 2.13301467895508 2.49241185188293 1.16303730010986 0.538241982460022 0.0576362945139408 -0.185360342264175 -0.285549879074097 -0.301530808210373 -0.277356415987015 -0.224247947335243 -0.189480021595955 -0.140758112072945 -0.14751809835434 -0.116013579070568 0.033831562846899 0.833950579166412 1.31610083580017 2.78080415725708 4.32382011413574 4.98651790618896 5.58719348907471 4.77200603485107 4.18921184539795 3.98411560058594 3.88222646713257 4.04185962677002 4.36493110656738 4.24042987823486 1.88576006889343 1.84032690525055 2.15916848182678 2.41095280647278 2.60522222518921 2.79095149040222 3.49855995178223 4.14238691329956
1.65517902374268 2.06714558601379 2.09172511100769 2.44967007637024 2.47248864173889 2.53392338752747 2.2574737071991 1.99402546882629 1.97977197170258 1.78442883491516 1.83847880363464 1.94863379001617 1.83338904380798 1.68255686759949 2.02319121360779 2.62338280677795 2.0796160697937 1.09156727790833 1.37875390052795 1.30996537208557 1.12558448314667 0.856670737266541 0.68022096157074 0.630596995353699 0.708746731281281 0.805000722408295 0.855851769447327 0.936817228794098 1.01911520957947 1.12711811065674 1.27380526065826 1.38157594203949 1.43485772609711 1.45007109642029 1.53782689571381 1.64426755905151 1.71389615535736 1.79581296443939 2.04849863052368 2.21002244949341 2.51225543022156 2.72134900093079 2.69700407981873 2.60707640647888 2.63990068435669 2.56347012519836 2.6971492767334 2.78970193862915 3.15736722946167 3.05115628242493 1.14649724960327 0.917878985404968 0.92866462469101 0.973244309425354 1.49040830135345 2.35734391212463 3.08418655395508 4.43609428405762 6.48601531982422 8.43803215026855 9.19456577301025 5.36754083633423 3.53642535209656 2.06990838050842 3.88105845451355 5.20614385604858 4.43167781829834 1.68440401554108 0.179959461092949 0.247794613242149 0.289481818675995 0.359151095151901 0.56581723690033 1.08610963821411 1.32574021816254 2.6466212272644 3.99923896789551 4.86559057235718 6.64063405990601 7.92977857589722 9.09578418731689 12.2191677093506 14.5343561172485 20.3495597839355 28.7783641815186 25.364688873291 18.6125717163086 18.5154037475586 13.4692621231079 12.9503831863403 10.1393604278564 9.43685150146484 8.71293258666992 6.47235298156738 4.94747066497803 4.18934011459351 2.85143947601318 2.74068975448608 2.86177396774292 3.61642217636108 4.18105888366699 4.08632946014404 5.64756298065186 3.85397553443909 2.68718361854553 0.751338124275208 0.422258257865906 0.983801305294037 1.27764987945557 1.4171656370163 1.54309058189392 1.59221601486206 1.73209297657013 1.78549182415009 1.89100658893585 1.94330084323883 2.01280665397644 2.08392834663391 2.1596508026123 2.22405385971069 2.24873399734497 2.39111804962158 2.54490637779236 2.69413685798645 2.8891396522522 2.94265508651733 3.07615184783936 3.14826273918152 3.12876319885254 3.07651329040527 3.07412099838257 3.02249145507812 2.8702564239502 2.8306303024292 2.60490608215332 2.53530645370483 2.59400105476379 4.50141763687134 4.07023334503174 1.71939599514008 1.26336646080017 1.48352074623108 0.598976373672485 0.169431537389755 0.131643638014793 0.0423285253345966 -0.0247797295451164 -0.0271010622382164 0.012302809394896 0.407925099134445 0.676640152931213 0.689441561698914 0.54689085483551 0.822053849697113 1.61639404296875 3.39756655693054 5.25001287460327 6.18809938430786 7.16737794876099 6.07049560546875 5.23713397979736 5.18743371963501 4.41531610488892 4.57568693161011 5.21803331375122 5.38385629653931 5.47443437576294 2.2117121219635 2.30842781066895 2.724200963974 2.9640941619873 3.03969597816467 3.49757480621338
1.53495395183563 1.821662068367 1.95218575000763 2.42155432701111 2.69647526741028 2.80004096031189 2.74632000923157 2.47571039199829 2.16290950775146 1.94421601295471 1.83067202568054 1.97209584712982 1.90539360046387 1.71380794048309 1.75332820415497 2.15073275566101 2.05189824104309 1.24033141136169 1.44964373111725 1.44689905643463 1.33651661872864 1.15150332450867 0.875796496868134 0.720908463001251 0.670047044754028 0.750038743019104 0.843566119670868 0.944936573505402 1.10893797874451 2.04983305931091 1.61910319328308 1.52513384819031 1.57825541496277 1.51966118812561 1.67676031589508 2.34444355964661 1.98448181152344 1.8679062128067 1.97847044467926 2.15710544586182 2.32278919219971 2.62937450408936 2.76973366737366 2.79861545562744 3.39371991157532 3.32135009765625 3.13446640968323 3.18988680839539 3.02155637741089 2.1657235622406 1.63019025325775 1.28622448444366 1.0611674785614 1.09600651264191 1.11915493011475 1.53134334087372 2.07460427284241 4.14101886749268 6.94650506973267 9.73130512237549 8.90985870361328 2.82827544212341 1.20127272605896 0.161977142095566 1.76004707813263 4.54509305953979 3.80952835083008 1.04193544387817 0.414038449525833 0.486515611410141 0.483943849802017 0.611865043640137 0.688271582126617 0.616450428962708 0.923275709152222 1.26192045211792 2.1404492855072 3.06426572799683 5.42338609695435 6.94954013824463 8.15470123291016 10.5826759338379 13.4256153106689 18.0135345458984 29.3367576599121 25.9462490081787 16.2415962219238 13.1163806915283 8.57317447662354 7.78164482116699 3.85530138015747 6.77577543258667 7.5827841758728 5.57603693008423 5.32490158081055 4.01082563400269 2.45176386833191 2.15629410743713 2.39946126937866 3.30145072937012 4.20811700820923 5.05266618728638 5.63098239898682 9.64385795593262 10.6350440979004 3.78462028503418 0.670775175094604 1.06196296215057 1.39001727104187 1.53112411499023 1.51244592666626 1.63662970066071 1.76419794559479 1.96112501621246 2.00245690345764 2.13680195808411 2.21674799919128 2.27766966819763 2.35122108459473 2.41070103645325 2.45165514945984 2.49753332138062 2.69351196289062 2.8388364315033 3.02061247825623 3.27067613601685 3.49069786071777 3.50762271881104 3.52944183349609 3.49569773674011 3.41247034072876 3.34915590286255 3.30967473983765 3.15020823478699 3.0909059047699 3.08995461463928 2.95063781738281 4.30340385437012 2.56968331336975 2.22907567024231 1.86133289337158 2.2659330368042 1.94421207904816 1.45341694355011 0.87165504693985 0.381935000419617 0.250270307064056 0.170686960220337 0.188162013888359 0.616222739219666 1.06914472579956 1.4660587310791 1.50081825256348 1.2478095293045 0.919686555862427 1.89888274669647 3.58296084403992 4.80273818969727 8.47918891906738 9.59059047698975 9.43601512908936 8.64906692504883 6.08474206924438 5.49121284484863 5.67119598388672 6.85161018371582 10.2122583389282 10.2831125259399 3.43225884437561 2.60971426963806 2.83760976791382 3.07010865211487 3.14787983894348
1.55987632274628 1.75133883953094 1.88202238082886 2.1066198348999 2.62035489082336 2.88507223129272 3.02718162536621 3.10587334632874 2.57842111587524 2.65518236160278 2.22000670433044 2.09469771385193 2.10525226593018 1.86725914478302 1.65841579437256 1.69021093845367 1.82540643215179 1.61354100704193 1.52986311912537 1.484250664711 1.47588562965393 1.36190819740295 1.1833153963089 1.04523026943207 0.893996894359589 0.768501460552216 0.766442656517029 1.06034004688263 1.1534720659256 1.0563348531723 1.08944809436798 1.22757375240326 1.65257954597473 2.34315133094788 1.82852101325989 1.61833453178406 1.62452709674835 1.77140998840332 2.0152382850647 2.21725797653198 2.37586045265198 2.73389434814453 3.10629653930664 3.46260476112366 3.67042922973633 3.3707914352417 3.08993315696716 2.99308204650879 2.5754451751709 2.44792819023132 2.09159994125366 1.77699363231659 1.87142145633698 1.54314255714417 1.23522317409515 1.34149086475372 1.58600604534149 2.73811507225037 6.60294008255005 7.83315563201904 3.9489381313324 0.291217118501663 -0.283422410488129 0.0998392105102539 0.44239330291748 2.44534587860107 1.94426894187927 0.585519671440125 0.766384541988373 0.963004648685455 1.07957065105438 1.16630566120148 1.44157731533051 1.82781267166138 1.89446020126343 1.63247299194336 1.26424670219421 1.91758799552917 3.42807793617249 5.21680307388306 6.6878662109375 9.45166492462158 12.4328584671021 14.9391984939575 27.160831451416 28.0604972839355 15.7766799926758 8.72964572906494 4.51762199401855 3.18844246864319 2.04704523086548 4.10471487045288 2.62076044082642 2.05482053756714 2.33038377761841 2.64489650726318 2.34957385063171 1.50942087173462 1.78711032867432 2.60653352737427 3.84014320373535 5.06985139846802 5.63367080688477 8.80533313751221 9.10969543457031 3.00697255134583 2.39805769920349 2.14632606506348 1.47662174701691 1.57184302806854 1.60770189762115 1.72210395336151 1.88478720188141 2.0732159614563 2.22962999343872 2.31182789802551 2.34810256958008 2.50157833099365 2.58813333511353 2.68536067008972 2.76215291023254 2.82699418067932 2.89183402061462 3.02219939231873 3.19715595245361 3.42129850387573 3.69107723236084 3.89113211631775 3.88328886032104 3.86532855033875 3.78105425834656 3.830237865448 3.67992949485779 3.50779294967651 3.44559550285339 3.43001103401184 3.40998935699463 3.20421004295349 2.9191997051239 2.5940089225769 2.53376126289368 2.82777690887451 2.75129985809326 2.4412956237793 2.49374532699585 1.44560980796814 0.60052078962326 0.515774548053741 0.47610941529274 0.432965010404587 0.552184581756592 1.81550514698029 2.56156325340271 2.65074706077576 1.50779449939728 0.478343486785889 1.69079172611237 2.57852292060852 6.50479125976562 12.9950885772705 17.6514263153076 13.4598159790039 8.38068008422852 6.32939720153809 5.93753337860107 5.93521118164062 6.61758232116699 4.54749393463135 1.87588369846344 2.6823034286499 2.64061045646667 2.9120659828186 3.16116833686829
1.46067571640015 1.71007609367371 1.83012652397156 2.0029890537262 2.28234195709229 2.79661989212036 3.02849841117859 3.32847714424133 3.25431632995605 3.28134441375732 2.8059995174408 2.32702493667603 2.12701988220215 1.92933893203735 1.74747884273529 1.69667387008667 1.6856324672699 1.77556872367859 1.69056677818298 1.59845185279846 1.51124918460846 1.49885249137878 1.4837327003479 1.42321717739105 1.24492168426514 0.95119708776474 0.81579178571701 1.19355475902557 1.3133761882782 1.28366994857788 1.2790013551712 1.36481440067291 1.94087517261505 2.30798172950745 1.82098472118378 1.71414792537689 1.97567331790924 2.06548047065735 2.12045550346375 2.17216682434082 2.31549406051636 2.44878458976746 2.72352457046509 3.08081221580505 3.13469743728638 3.08495378494263 2.759770154953 2.61844849586487 2.72874474525452 2.56691408157349 2.49401450157166 2.63655471801758 2.53097081184387 2.13390731811523 1.78810369968414 1.44776737689972 1.55063092708588 1.75372064113617 4.24897050857544 5.16472291946411 1.1292382478714 -0.272917866706848 0.00422125263139606 0.461401075124741 0.860017240047455 1.0315260887146 0.893669366836548 0.964673697948456 1.17974138259888 1.45630145072937 1.70475351810455 1.87404763698578 2.26683211326599 2.70164608955383 2.92607092857361 2.58740639686584 1.74882996082306 1.37481534481049 1.71968722343445 2.7950394153595 4.24492692947388 7.77541542053223 11.2087326049805 13.2402906417847 21.6699352264404 29.7976894378662 17.2965812683105 7.69427299499512 2.09723377227783 0.444013208150864 3.02623772621155 2.77649021148682 -1.06578183174133 -0.753315329551697 -0.528554081916809 0.296941071748734 2.15327501296997 5.73573350906372 5.24358892440796 2.67935419082642 3.01404047012329 4.59063673019409 5.13638305664062 7.06065893173218 8.38959312438965 4.64704895019531 1.4472804069519 2.24285507202148 1.43530237674713 1.55292546749115 1.76411926746368 1.96041429042816 2.11830735206604 2.28471493721008 2.46035599708557 2.49519181251526 2.60701012611389 2.65024542808533 2.8381621837616 2.94888377189636 3.05811762809753 3.14015412330627 3.18683409690857 3.26701402664185 3.38913941383362 3.58752751350403 3.83547019958496 4.10034608840942 4.24556064605713 4.2364559173584 4.28316736221313 4.23615837097168 4.04843044281006 3.84467887878418 3.74100494384766 3.75632452964783 3.73979496955872 3.70213556289673 3.38723397254944 3.16679382324219 3.16429305076599 3.12440848350525 3.30403208732605 3.16855716705322 3.48494076728821 2.98467350006104 1.81480586528778 1.06127309799194 0.93532806634903 0.736768305301666 0.55184680223465 0.931794881820679 2.96793246269226 2.83790135383606 1.56589233875275 0.339966356754303 0.236796647310257 1.28820478916168 3.58862161636353 9.9263219833374 13.2015190124512 4.627854347229 1.68604469299316 3.09455633163452 3.61301493644714 3.22191333770752 3.3887243270874 2.26184487342834 1.51344013214111 1.90600335597992 2.34496927261353 2.66900634765625 2.99264860153198
1.32962548732758 1.59662270545959 1.68216907978058 1.93758118152618 2.10705161094666 2.48160767555237 2.55171012878418 3.11969470977783 3.48291110992432 3.62194538116455 3.57636046409607 2.93092894554138 3.01326465606689 2.36068844795227 1.91779351234436 1.83878302574158 1.75062167644501 1.66399478912354 1.76163494586945 1.73468363285065 1.64287805557251 1.53770351409912 1.54695427417755 1.56734752655029 1.47009718418121 1.27183485031128 1.13047122955322 1.31758081912994 1.40554738044739 1.44871068000793 1.47117936611176 1.64669299125671 1.91545736789703 2.67285799980164 2.3645396232605 2.26902985572815 2.23525500297546 2.19184327125549 2.06435179710388 2.09927248954773 2.0717990398407 2.07172179222107 2.33693146705627 2.64427947998047 2.71589159965515 3.01943731307983 2.77841663360596 2.7193820476532 2.90174388885498 2.83514785766602 2.70780563354492 2.910489320755 3.16502237319946 2.86950302124023 2.49720048904419 2.01795840263367 1.79054081439972 1.80882084369659 2.27240967750549 3.33723044395447 1.52698838710785 0.0904665812849998 0.427573770284653 1.06310987472534 1.3514484167099 1.35052812099457 1.23224091529846 1.36776459217072 1.64512753486633 1.93840217590332 2.39625120162964 2.65058350563049 2.77024984359741 3.06214785575867 3.24367427825928 3.27245497703552 2.66175866127014 1.80118274688721 1.18885004520416 1.62647879123688 2.54440021514893 4.95791053771973 9.25262451171875 11.6842985153198 17.8373107910156 27.9827747344971 20.2127361297607 10.3728322982788 4.2203049659729 2.3097620010376 3.13958024978638 -0.321865350008011 -1.16732478141785 -0.82880973815918 -0.547224819660187 -0.371231198310852 0.773304879665375 3.73828196525574 2.49779152870178 0.177109137177467 1.74085354804993 3.49795699119568 4.09990119934082 6.38109922409058 8.62537384033203 10.6360054016113 9.58029651641846 1.57106578350067 1.27142381668091 1.5668648481369 1.79433000087738 2.09358978271484 2.27215909957886 2.44210767745972 2.57291626930237 2.74298977851868 2.80192112922668 2.95510458946228 3.07899498939514 3.15559792518616 3.34533095359802 3.45560598373413 3.53297281265259 3.59723997116089 3.68599653244019 3.80111074447632 4.00463676452637 4.2440710067749 4.44877052307129 4.58117341995239 4.63704586029053 4.53602123260498 4.39255332946777 4.1889705657959 4.03921937942505 4.02349948883057 4.06873512268066 4.07659578323364 4.08814668655396 3.96223044395447 3.67178964614868 3.56326985359192 3.51581335067749 3.71475625038147 4.08973932266235 3.98129940032959 3.46773505210876 2.98205280303955 2.09040546417236 1.04057085514069 0.886610150337219 0.720964372158051 1.63862037658691 2.42122173309326 0.580094873905182 0.0610732771456242 0.176123723387718 0.316375404596329 1.99074900150299 5.00554609298706 7.60958957672119 2.68284940719604 0.122346103191376 0.250194013118744 0.482390731573105 0.763415813446045 0.994385719299316 1.22135734558105 1.36537790298462 1.54942643642426 2.05624723434448 2.4029700756073 2.76333570480347
1.29353356361389 1.51376235485077 2.54052877426147 1.84249448776245 2.08917593955994 2.26743006706238 2.29911708831787 2.59852457046509 3.33813762664795 3.66457438468933 3.90740728378296 3.88154435157776 3.87009716033936 3.17287945747375 2.45170712471008 1.9516726732254 1.86653232574463 1.78078007698059 1.76641023159027 1.71793460845947 1.7768737077713 1.72571885585785 1.69898271560669 1.59441733360291 1.60959196090698 1.60290110111237 1.53667974472046 1.37881922721863 1.48321866989136 1.54882955551147 1.60439419746399 1.60870611667633 1.90422785282135 2.60210847854614 2.4528534412384 2.18481183052063 1.8157160282135 1.87008059024811 1.87429714202881 2.01605844497681 1.91279590129852 1.94259977340698 2.15131282806396 2.16228008270264 1.96267759799957 2.11277842521667 2.52371215820312 2.78767204284668 3.01767301559448 3.07813477516174 3.0583324432373 3.30835580825806 3.40332174301147 3.66364765167236 3.34812998771667 3.07294154167175 3.21079134941101 2.59155130386353 2.366379737854 3.42283797264099 2.39394998550415 0.503374218940735 0.90299254655838 1.64579081535339 1.70079386234283 1.55082321166992 1.51518750190735 1.6920725107193 2.13404726982117 2.54944133758545 2.88544821739197 3.15795969963074 3.26283073425293 3.43544983863831 3.72519040107727 3.77363538742065 3.44041132926941 2.91628670692444 2.10335040092468 1.82881963253021 1.83721280097961 2.41466426849365 5.92299890518188 8.85270404815674 13.493857383728 26.160249710083 23.277660369873 12.5747184753418 5.41188716888428 2.97618198394775 1.51346063613892 -1.2700731754303 -1.14591467380524 -0.882693469524384 -0.494186282157898 -0.247981563210487 -0.0774318352341652 0.0553642027080059 0.10320670902729 0.212091937661171 0.462248682975769 2.28547644615173 3.12500381469727 5.10577774047852 7.91037845611572 10.522439956665 9.97100830078125 1.14928781986237 1.18945527076721 1.50645768642426 1.87624096870422 2.11034774780273 2.32982611656189 2.46868205070496 2.61246538162231 2.72921276092529 2.90490007400513 3.11189341545105 3.2133629322052 3.43718814849854 3.54056549072266 3.72534656524658 3.85887885093689 3.98150849342346 4.06912565231323 4.12340116500854 4.2301664352417 4.40639162063599 4.59489679336548 4.70822858810425 4.83731842041016 4.8812141418457 4.73868322372437 4.57242870330811 4.4711766242981 4.53638792037964 4.46790552139282 4.41678428649902 4.4310827255249 4.42643165588379 4.31835269927979 4.01178073883057 3.97966885566711 4.20460033416748 4.29531049728394 4.64876508712769 4.55071592330933 4.1662859916687 4.01933670043945 2.51777052879333 1.38527810573578 1.1624550819397 0.903193116188049 1.06377875804901 0.347996056079865 0.0831122398376465 0.166621804237366 0.349366694688797 0.505245923995972 0.880271375179291 3.20849275588989 1.78265452384949 0.326292425394058 0.371740251779556 0.463526040315628 0.631188035011292 0.854310214519501 1.05500137805939 1.29158568382263 1.45380961894989 1.76430070400238 2.22685146331787 2.5722336769104
1.218954205513 1.54688370227814 1.54052019119263 1.59065687656403 1.95306348800659 2.16516709327698 2.20354032516479 2.41480946540833 2.80025672912598 3.47655153274536 3.74292421340942 4.17101669311523 4.23375225067139 4.19570350646973 3.36195206642151 2.54896354675293 2.15425062179565 1.89158380031586 1.90365707874298 1.8254576921463 1.74159944057465 1.82236301898956 1.8267275094986 1.80004835128784 1.64078724384308 1.65043139457703 1.67521679401398 1.5802845954895 1.54578983783722 1.59754014015198 1.65012955665588 1.69602143764496 1.80236089229584 2.17898607254028 2.13454842567444 2.02949714660645 1.60186517238617 1.7130960226059 1.85525941848755 2.04601287841797 2.06199789047241 1.93935799598694 1.82619547843933 1.39282548427582 1.29814672470093 1.54833090305328 2.11203408241272 2.28978991508484 2.83701515197754 3.30305862426758 3.41490054130554 3.75630569458008 3.94798636436462 4.22775220870972 4.25594758987427 4.79693269729614 4.34215497970581 4.04970550537109 3.35126304626465 2.96352124214172 2.94953203201294 1.47752332687378 1.36511480808258 1.95832490921021 2.15918183326721 1.93732190132141 1.81037139892578 1.99775636196136 2.49095678329468 2.95666790008545 3.21009397506714 3.55397701263428 3.71288204193115 3.82727527618408 3.95730686187744 3.98097133636475 3.89015197753906 3.55262899398804 3.26022958755493 2.89141798019409 1.96794033050537 1.61298620700836 2.89742493629456 4.81696844100952 8.4111852645874 20.6253204345703 25.0757122039795 13.4007568359375 5.20726442337036 1.37738704681396 -0.877665400505066 -1.02887952327728 -0.926199793815613 -0.834701299667358 -0.402472138404846 -0.141357555985451 0.0897783786058426 0.266362994909286 0.419828563928604 0.607812106609344 0.856096982955933 1.3382328748703 1.88868391513824 4.14818048477173 7.11031723022461 10.1003570556641 8.17533206939697 1.15303981304169 1.26680362224579 1.53913819789886 1.85171675682068 2.17962121963501 2.31412482261658 2.40810871124268 2.58848285675049 2.77473473548889 2.95441102981567 3.09553933143616 3.35256791114807 3.5074622631073 3.76905560493469 3.89643025398254 4.0987868309021 4.24127721786499 4.39635324478149 4.47637605667114 4.53539371490479 4.6326732635498 4.74736070632935 4.85882711410522 4.94303131103516 5.12990760803223 5.19160890579224 5.09777688980103 5.07924795150757 5.02863788604736 4.91784381866455 4.81271409988403 4.76006555557251 4.7640700340271 4.77679920196533 4.78895568847656 4.68299102783203 4.52818012237549 4.71219730377197 4.83346033096313 5.19681978225708 4.97356081008911 5.21873092651367 4.39120388031006 2.76666975021362 1.67230653762817 1.26569414138794 0.981176018714905 0.682054579257965 0.435359358787537 0.297750741243362 0.442239344120026 0.549185037612915 0.608226776123047 0.644299626350403 0.673288226127625 0.545895278453827 0.537205636501312 0.674099028110504 0.734142899513245 0.839980721473694 1.06128668785095 1.2611231803894 1.45966863632202 1.62640047073364 1.97489881515503 2.33574771881104
1.18911111354828 1.71921575069427 1.430659532547 1.55302810668945 1.77764272689819 2.01483035087585 2.05024838447571 2.35403633117676 2.57904410362244 2.98335647583008 3.09873795509338 3.97640514373779 4.2182240486145 4.56903171539307 4.6357274055481 3.65374445915222 3.78517055511475 2.71571469306946 2.02862071990967 1.96545159816742 1.89883363246918 1.78565311431885 1.79170143604279 1.93854403495789 1.90577101707458 1.55224049091339 1.6907651424408 1.72103214263916 1.64765191078186 1.72670340538025 1.8375529050827 1.69961762428284 1.71082198619843 1.83466780185699 1.5894935131073 1.5339697599411 1.48610484600067 1.69075429439545 1.95685982704163 2.50529217720032 2.28973579406738 1.77340137958527 1.48229193687439 1.18715500831604 1.28664684295654 1.33937156200409 1.61529290676117 1.88820600509644 2.47841548919678 3.30772590637207 3.83599591255188 4.24930763244629 4.5583815574646 4.87981224060059 5.080002784729 5.67864990234375 6.10669660568237 5.936842918396 5.55481719970703 4.70911741256714 4.39083003997803 2.66960024833679 1.34599387645721 2.05148553848267 2.41623258590698 2.4065465927124 2.2242648601532 2.29766821861267 2.59878706932068 3.03591203689575 3.37136363983154 3.66457271575928 4.019690990448 4.06293630599976 4.11257362365723 4.15995597839355 4.10353755950928 4.00917720794678 3.66004681587219 3.6544816493988 2.9903872013092 2.32280683517456 2.01956796646118 2.65053462982178 4.3281397819519 11.4903440475464 24.7375926971436 15.5276441574097 4.80273246765137 -0.403181731700897 -0.514260709285736 -0.594887018203735 -0.566889405250549 -0.535482108592987 -0.263728320598602 0.0232478547841311 0.269126743078232 0.515348196029663 0.846564650535583 1.10682547092438 1.39730226993561 1.79335451126099 2.18400263786316 4.10215902328491 6.87161350250244 8.94332218170166 5.70368671417236 1.35894703865051 1.28929734230042 1.61723566055298 1.87783372402191 2.14016008377075 2.28176379203796 2.43455219268799 2.54189229011536 2.79154992103577 2.98923182487488 3.23454666137695 3.41993808746338 3.70225214958191 3.83287143707275 4.07200622558594 4.26741313934326 4.3943247795105 4.57420349121094 4.74622678756714 4.8220067024231 4.86110782623291 4.97095489501953 5.01714324951172 5.12336826324463 5.27407550811768 5.44488668441772 5.55132627487183 5.55836057662964 5.4911003112793 5.42170333862305 5.38479232788086 5.41281223297119 5.2583327293396 5.16757535934448 5.17796850204468 5.19349384307861 5.16512250900269 5.03155612945557 5.30257654190063 5.39920568466187 5.67314481735229 5.96725225448608 5.67397165298462 4.78958511352539 4.22944068908691 2.98533487319946 1.55451560020447 1.24314320087433 0.992524564266205 0.741233587265015 0.51631897687912 0.616875231266022 0.67464542388916 0.683351099491119 0.727800309658051 0.751875877380371 0.758118748664856 1.32702112197876 0.851284682750702 0.982592523097992 1.02820730209351 1.23270738124847 1.41396689414978 1.6351774930954 1.82227909564972 2.16750311851501
1.22547423839569 2.77965092658997 1.50225389003754 1.4713077545166 1.6491265296936 1.81762337684631 1.90323042869568 2.17271971702576 2.49978876113892 2.73536896705627 2.82078504562378 3.27187752723694 3.99211502075195 4.3577094078064 5.04901075363159 5.15398836135864 5.40228605270386 4.33787059783936 2.99691915512085 2.16467761993408 2.1180055141449 2.46503067016602 2.17656493186951 1.91341066360474 1.97048044204712 2.00803160667419 2.06898188591003 1.87038636207581 1.87618267536163 2.3774995803833 2.15378212928772 1.72793626785278 1.7076975107193 1.89358532428741 1.67570567131042 1.64487016201019 1.62907326221466 1.92661249637604 1.98194444179535 2.14935493469238 1.51078689098358 1.40394639968872 1.43557095527649 1.27434051036835 1.2334303855896 1.36275625228882 1.45839023590088 1.67680609226227 1.9875727891922 3.0037055015564 3.45442700386047 4.50433778762817 5.05684661865234 5.4533863067627 5.86103487014771 6.44995784759521 7.19955587387085 8.41663837432861 8.99977588653564 9.42069244384766 8.35007476806641 3.90406942367554 1.36545038223267 1.94062602519989 2.46502494812012 2.63992476463318 2.63551902770996 2.70084452629089 2.8007333278656 2.96328377723694 3.17363977432251 3.4737811088562 4.0120210647583 4.14519262313843 4.18733215332031 4.24004459381104 4.28905487060547 4.2309718132019 4.16312170028687 4.22251653671265 3.84928369522095 3.57905149459839 3.18510556221008 2.16662240028381 3.14435362815857 5.61948919296265 17.7777462005615 16.503381729126 2.39854216575623 0.0684551075100899 -0.101262494921684 -0.0729541778564453 -0.0618092305958271 -0.0129242213442922 0.144833281636238 0.341250628232956 0.591010570526123 0.907153427600861 1.25745618343353 1.69025230407715 2.09221839904785 2.29403066635132 2.49516701698303 3.43268013000488 10.5748767852783 9.72994327545166 4.16592502593994 1.57219552993774 1.48812127113342 1.59582388401031 1.9581960439682 2.21029186248779 2.32657361030579 2.38790678977966 2.57839298248291 2.78720164299011 2.9928023815155 3.30011677742004 3.58328056335449 3.7702910900116 4.06799221038818 4.31003332138062 4.35082483291626 4.55838871002197 4.6680383682251 4.83537149429321 5.01174068450928 5.14690685272217 5.22711515426636 5.28268146514893 5.35657072067261 5.46963882446289 5.60594654083252 5.74635028839111 5.89006567001343 5.94116735458374 5.99952268600464 6.03453493118286 5.93698501586914 5.80797815322876 5.64368772506714 5.57972240447998 5.63964939117432 5.75847434997559 5.74766063690186 5.60958385467529 5.90501976013184 6.19076681137085 6.20074367523193 6.47202920913696 6.17310857772827 5.77432012557983 5.57227373123169 3.60362148284912 2.48143577575684 1.64652645587921 1.28583836555481 0.952377378940582 0.714917719364166 0.695243060588837 0.739386379718781 0.766868889331818 0.821845948696136 1.16391181945801 2.01996970176697 1.08062624931335 1.07555830478668 1.08529424667358 1.15353357791901 1.28131926059723 1.47687244415283 1.62454557418823 2.01975727081299
1.14906442165375 1.54339289665222 1.30556952953339 1.39129388332367 1.52108716964722 1.67795169353485 1.76196277141571 1.99958097934723 2.2970769405365 2.63216257095337 2.71674537658691 2.93596649169922 3.37546682357788 3.51294350624084 4.75988101959229 5.59621429443359 5.90294504165649 6.31811809539795 5.10694599151611 3.5025429725647 3.60434627532959 2.48260688781738 2.11430931091309 2.07678437232971 2.03565263748169 2.04095458984375 2.39587831497192 2.15778279304504 2.14992666244507 2.53615188598633 2.19816088676453 1.70446836948395 1.73291480541229 1.71013104915619 1.72531068325043 1.76533603668213 2.28070902824402 2.19838261604309 1.73795592784882 1.65814328193665 1.21792769432068 1.31344091892242 1.25565886497498 1.17610430717468 1.24432075023651 1.27403569221497 1.42350590229034 1.67980945110321 1.91119790077209 2.43681645393372 2.97938442230225 4.05595111846924 5.35129928588867 5.92396211624146 6.59355068206787 7.23499441146851 7.96520566940308 9.50410842895508 9.58773136138916 11.1609869003296 6.14232730865479 1.85173749923706 1.18196213245392 1.9062352180481 2.40534734725952 2.71248292922974 2.80853009223938 2.83298540115356 2.9742865562439 3.03894853591919 3.15652370452881 3.35963034629822 3.97416734695435 4.15304136276245 4.27481889724731 4.31915760040283 4.3653621673584 4.41709423065186 4.42636775970459 4.45354509353638 4.36555194854736 3.98306083679199 4.01003217697144 3.30224919319153 2.24431443214417 2.66781711578369 8.80275630950928 10.4941034317017 1.4546993970871 0.851100027561188 0.619473218917847 0.618803560733795 0.678725779056549 0.69577556848526 0.757172107696533 0.89821857213974 1.1286541223526 1.42381155490875 1.79254353046417 2.32339644432068 2.64044642448425 2.80832362174988 2.82370018959045 5.65729427337646 13.2752504348755 7.98633337020874 2.1034848690033 1.7920116186142 1.71676540374756 1.88516521453857 2.14764022827148 2.24156904220581 2.37536644935608 2.43119072914124 2.57748556137085 2.77091860771179 3.10245370864868 3.3336660861969 3.64402174949646 3.94399380683899 4.24280548095703 4.44018030166626 4.63834524154663 4.63771057128906 4.80798768997192 4.91690063476562 5.08865404129028 5.22271871566772 5.43204498291016 5.51909589767456 5.62863397598267 5.77193641662598 5.81256341934204 5.90262842178345 6.07112550735474 6.25106763839722 6.41929817199707 6.46563577651978 6.45199346542358 6.35406827926636 6.23247051239014 6.10805130004883 6.20939064025879 6.12756681442261 6.26997232437134 6.41109228134155 6.424485206604 6.40150928497314 6.70972347259521 6.74996519088745 7.03753137588501 6.86181402206421 7.21311712265015 6.29807662963867 5.87572622299194 4.2208046913147 2.29218912124634 1.45871603488922 1.12988829612732 0.921189308166504 0.738101601600647 0.781978070735931 0.805519223213196 0.863688170909882 1.14855980873108 0.974846065044403 1.11753976345062 1.18011343479156 1.19681704044342 1.2339950799942 1.40200972557068 1.55150675773621 1.83763015270233
1.22101664543152 1.26399278640747 1.30429863929749 1.36230289936066 1.44184577465057 1.53429293632507 1.66063010692596 1.83828580379486 2.08174800872803 2.38911485671997 2.46173334121704 2.84854459762573 3.06230401992798 3.0945725440979 3.75948786735535 5.26975870132446 5.6749119758606 6.86550521850586 7.76242828369141 6.68505048751831 8.6505012512207 4.22160148620605 2.42358064651489 2.18184304237366 2.27075409889221 2.53933334350586 3.17382454872131 2.09156489372253 2.36106514930725 2.77199935913086 2.65368700027466 1.75334870815277 1.71838021278381 1.7420060634613 1.76966226100922 2.37629437446594 2.74738669395447 1.70952141284943 1.64792084693909 1.47138833999634 1.18632841110229 0.975161910057068 0.940361559391022 1.02236080169678 1.10617744922638 1.33442676067352 1.41453564167023 1.73930287361145 2.07800793647766 2.3479061126709 2.68409013748169 3.25835704803467 4.7423357963562 6.36733770370483 7.17071771621704 8.12301921844482 8.8243236541748 10.3223371505737 11.0771188735962 9.77953815460205 3.81693315505981 2.37966918945312 1.15441334247589 1.84854567050934 2.41071701049805 2.67319750785828 2.84251928329468 2.916339635849 2.9770679473877 3.07870364189148 3.19804286956787 3.4153425693512 3.94048666954041 4.11724615097046 4.27945375442505 4.40342664718628 4.48679494857788 4.54008150100708 4.59821653366089 4.65085363388062 4.60374593734741 4.54887962341309 4.61420059204102 4.22053623199463 3.5967390537262 2.66792416572571 3.09457015991211 5.66541910171509 4.73885488510132 1.94146454334259 1.5769259929657 1.44117295742035 1.43737232685089 1.47325265407562 1.49356424808502 1.50051093101501 1.686847448349 1.93177282810211 2.31686353683472 2.80424094200134 3.16406655311584 3.1996476650238 3.39226007461548 9.63844776153564 10.0470170974731 2.78492307662964 2.42703676223755 2.29890155792236 2.31112408638 2.31277894973755 2.43705987930298 2.51517605781555 2.38149428367615 2.49799752235413 2.69815111160278 2.90015935897827 3.1085638999939 3.45523357391357 3.70642423629761 4.0263204574585 4.30023527145386 4.63683938980103 4.75982761383057 4.90283298492432 4.88467216491699 5.05917119979858 5.20708322525024 5.33028888702393 5.50818681716919 5.74588775634766 5.92698431015015 6.02786779403687 6.12958002090454 6.17667293548584 6.28014612197876 6.41480350494385 6.63912773132324 6.83087158203125 6.89726257324219 6.93118143081665 6.85166025161743 6.90788984298706 6.95589113235474 6.80439472198486 6.7207670211792 6.76369524002075 6.97417736053467 6.99861574172974 6.99933338165283 7.32896327972412 7.41248989105225 7.87907123565674 8.15364742279053 7.96958160400391 7.81875896453857 7.48987817764282 4.84293603897095 2.59316444396973 1.80120849609375 1.48692798614502 1.18353164196014 0.836880922317505 0.806985914707184 0.811069786548615 0.835318207740784 0.875801801681519 1.00816512107849 1.20992767810822 1.26277458667755 1.2702876329422 1.36003589630127 1.57469308376312 1.68581688404083
1.30173635482788 1.32000291347504 1.34505152702332 1.36007416248322 1.43884134292603 1.55306684970856 1.7264723777771 1.7039737701416 1.88777112960815 2.06165194511414 2.18344473838806 2.55689692497253 2.93033504486084 3.03545594215393 3.30989837646484 4.07234621047974 5.22338390350342 6.43518686294556 8.55662822723389 9.62751007080078 12.1955032348633 2.86730885505676 1.35186421871185 1.96726036071777 2.31063842773438 3.03420376777649 2.86086273193359 1.79157567024231 2.15252923965454 2.63899755477905 2.38884902000427 1.72184419631958 1.77339065074921 1.85027396678925 1.80528342723846 1.82288789749146 1.77104341983795 1.76455998420715 1.79121553897858 1.67835557460785 1.49465441703796 1.20980453491211 1.05591797828674 1.07674264907837 1.12688481807709 1.27541220188141 1.52890634536743 1.79086852073669 2.08692622184753 2.47672748565674 2.74059224128723 3.13323569297791 3.76492714881897 5.64271354675293 6.25364828109741 8.80568313598633 10.4674835205078 11.7593250274658 13.317346572876 9.07456016540527 1.47816050052643 0.773797750473022 1.24171078205109 1.81176435947418 2.35473108291626 2.66263771057129 2.81292223930359 2.93416619300842 3.02303886413574 3.14660906791687 3.29512286186218 3.64750623703003 4.01925420761108 4.15826797485352 4.23927593231201 4.408287525177 4.54367733001709 4.63649082183838 4.69021224975586 4.7509560585022 4.80609750747681 4.83527565002441 4.85985612869263 4.78272771835327 4.37872362136841 4.12742805480957 3.64761424064636 4.70602226257324 7.18255233764648 4.97937297821045 2.33847999572754 2.0943341255188 2.08907151222229 2.02248501777649 1.99751555919647 2.00196719169617 2.15420699119568 2.3602032661438 2.8218138217926 3.27880930900574 3.49526643753052 3.63356065750122 3.64110064506531 3.74571824073792 3.58568596839905 3.18615102767944 3.07638907432556 2.96547174453735 3.04953551292419 2.90530133247375 2.78745722770691 2.80227255821228 2.77861905097961 2.74591827392578 2.78429341316223 3.02457094192505 3.2473566532135 3.47996830940247 3.83420634269714 4.08888149261475 4.36987161636353 4.67915916442871 4.95321178436279 5.02214670181274 5.16843032836914 5.30537176132202 5.30594539642334 5.47978591918945 5.63293981552124 5.81839799880981 6.00213050842285 6.28763628005981 6.39370918273926 6.52050876617432 6.5525074005127 6.66828441619873 6.82059955596924 7.05845785140991 7.24900770187378 7.48334693908691 7.56246471405029 7.62032604217529 7.52533102035522 7.50898313522339 7.35159254074097 7.28608894348145 7.33827686309814 7.62845516204834 7.64822196960449 7.80015659332275 8.27546405792236 8.62528324127197 8.675537109375 9.00890064239502 9.11274337768555 9.50866603851318 8.5416841506958 5.57884550094604 4.4716591835022 2.7785861492157 1.73413610458374 1.42321598529816 1.12130677700043 0.830813050270081 0.837041258811951 0.862129628658295 0.913689076900482 1.06511795520782 1.29019606113434 1.3514096736908 1.35379385948181 1.47022998332977 1.61332511901855
1.33325338363647 1.41326081752777 1.47353935241699 1.37803685665131 1.44671356678009 1.54935133457184 1.78282952308655 2.02731585502625 1.9257447719574 1.80735206604004 1.93242466449738 2.24557399749756 2.59235787391663 2.72033762931824 3.24167799949646 3.58879733085632 4.21724987030029 4.57305383682251 7.50269794464111 11.4170083999634 12.0851888656616 1.08671033382416 0.804246783256531 1.44937515258789 3.0129930973053 2.84249758720398 2.54808664321899 1.82720875740051 1.52238929271698 2.06565880775452 2.42148041725159 2.37018465995789 1.87661814689636 1.89620900154114 1.96443212032318 1.8911030292511 1.8483704328537 1.84154689311981 1.84465968608856 1.83831930160522 1.72298812866211 1.60959672927856 1.46170723438263 1.32342731952667 1.242023229599 1.35887551307678 1.57476568222046 1.89104902744293 2.21299767494202 2.44950485229492 2.9140796661377 3.18990159034729 3.75928688049316 4.37964820861816 5.12050628662109 7.52624416351318 11.1523065567017 13.6359891891479 14.5276756286621 8.13462352752686 0.22488197684288 0.822172999382019 1.23874282836914 1.71042799949646 2.24450469017029 2.71365904808044 2.87961888313293 3.02910780906677 3.24949502944946 3.43823719024658 3.67321181297302 4.11051034927368 4.32922315597534 4.35069179534912 4.40672397613525 4.5623083114624 4.59605121612549 4.62740182876587 4.8016414642334 4.89927911758423 4.95543146133423 5.02303647994995 5.07347059249878 5.04023694992065 4.97220754623413 4.56906700134277 4.61953830718994 3.79360365867615 4.55292415618896 3.51450443267822 2.7436625957489 2.59875416755676 2.52579569816589 2.41118693351746 2.38591623306274 2.43617129325867 2.5534245967865 2.7503936290741 3.20887780189514 3.56344938278198 3.60732412338257 3.72814965248108 3.80701804161072 3.7734375 3.88313221931458 3.90652203559875 3.76594376564026 5.18178033828735 3.46374797821045 3.35004186630249 3.40003085136414 3.28033185005188 3.15396571159363 3.11136937141418 3.10808491706848 3.15345191955566 3.39192581176758 3.63009214401245 3.89658856391907 4.09003782272339 4.46274518966675 4.74392414093018 4.99206447601318 5.22055339813232 5.37313032150269 5.45282316207886 5.59268426895142 5.6182918548584 5.79028177261353 5.96747207641602 6.15588569641113 6.36484432220459 6.69026613235474 6.79928588867188 7.07881498336792 7.23397159576416 7.28109502792358 7.33502292633057 7.53076648712158 7.8158802986145 8.03998184204102 8.12308979034424 8.16992664337158 8.0762186050415 8.10950660705566 8.00945472717285 8.36115264892578 8.12229061126709 8.40946578979492 8.84305953979492 8.95743560791016 9.18657875061035 9.4644136428833 9.59902286529541 10.2985363006592 10.6657180786133 10.751992225647 9.82065582275391 10.2268333435059 7.31432867050171 3.89576411247253 2.27204871177673 1.90436327457428 1.44141435623169 1.03153049945831 0.855341196060181 0.859399616718292 0.924599945545197 1.13202750682831 1.24519622325897 1.37158215045929 1.50955879688263 1.63200330734253
1.41355955600739 1.50071752071381 1.54784488677979 1.5210622549057 1.43927264213562 1.55814218521118 1.87491798400879 2.09901714324951 1.79814386367798 1.56549668312073 1.71325254440308 2.01210522651672 2.2183473110199 2.43349623680115 2.9458212852478 3.63561534881592 3.75793623924255 3.74055194854736 5.30596971511841 10.417932510376 10.1092376708984 2.472088098526 0.568658053874969 0.931617081165314 2.35565853118896 1.81632399559021 1.64236831665039 1.44028174877167 1.02606642246246 1.19477903842926 2.10663247108459 2.64111089706421 3.02064251899719 3.46201658248901 2.13786458969116 2.03406524658203 2.10919427871704 2.01618838310242 1.95727229118347 1.8754186630249 1.84801733493805 1.87191438674927 1.8522390127182 1.6850243806839 1.38493585586548 1.51051533222198 1.68013441562653 2.02448034286499 2.38204550743103 2.67836093902588 2.85047054290771 3.43062663078308 3.8411111831665 4.3591833114624 4.93155288696289 6.27043056488037 9.49906539916992 14.3440752029419 13.9734210968018 6.57108497619629 0.0375892855226994 0.710807323455811 1.26113414764404 1.7572910785675 2.26494097709656 2.82422733306885 3.15951490402222 3.41620540618896 3.62820672988892 3.90377330780029 4.18681573867798 4.35755157470703 4.54779386520386 4.63264226913452 4.67437934875488 4.75523853302002 4.77841281890869 4.75640821456909 4.78582191467285 4.94734811782837 5.08587026596069 5.14560413360596 5.20641136169434 5.26451683044434 5.23774719238281 5.23414373397827 5.32170343399048 4.85184335708618 4.11018705368042 3.25139093399048 3.08714246749878 2.91741704940796 2.80025720596313 2.79577350616455 2.78788280487061 2.79169774055481 2.90965986251831 3.07038545608521 3.34770083427429 3.57357931137085 3.69780731201172 3.72551608085632 3.84455537796021 3.92537546157837 3.99708819389343 3.96978735923767 4.09832382202148 4.00172567367554 3.92110800743103 3.75293707847595 3.77367806434631 3.82136964797974 3.64122819900513 3.47820854187012 3.48487520217896 3.50879883766174 3.56336736679077 3.79175758361816 4.01540374755859 4.27727174758911 4.43981313705444 4.82010793685913 5.06687784194946 5.26032876968384 5.41110467910767 5.67055463790894 5.76180934906006 5.9420599937439 6.08597755432129 6.12199068069458 6.32696723937988 6.55277538299561 6.77420663833618 7.14580821990967 7.41329956054688 7.59252166748047 7.77741479873657 7.8201732635498 7.86730766296387 8.05689811706543 8.38621044158936 8.67801094055176 8.73755264282227 9.14657974243164 9.03775215148926 9.09647560119629 9.15363788604736 9.10815048217773 8.91304492950439 9.01546764373779 9.62189769744873 9.74578762054443 10.3359050750732 10.8656072616577 11.2198572158813 11.6329317092896 12.0503101348877 12.3470735549927 13.5448703765869 12.9727344512939 9.27105140686035 4.9716649055481 4.09762287139893 2.77389788627625 1.61688923835754 1.13301479816437 0.85423082113266 0.891392886638641 0.93282550573349 1.00721418857574 1.19425678253174 1.49270176887512 1.64180588722229
1.53808450698853 1.56753873825073 1.57536852359772 1.6205552816391 1.54102313518524 1.61571753025055 1.92959523200989 1.91153872013092 1.55777311325073 1.49742901325226 1.58506393432617 1.94162428379059 2.06819462776184 2.25282168388367 2.67114186286926 3.16369104385376 3.64595627784729 3.75381922721863 4.24940633773804 6.75071668624878 8.61882209777832 2.06138062477112 0.41852793097496 0.770449221134186 1.88703382015228 0.988818526268005 1.01960849761963 1.16256535053253 1.11644160747528 1.0356320142746 1.12568020820618 2.43010568618774 3.12592005729675 4.18541479110718 4.43229055404663 2.76977610588074 2.15028190612793 2.22819018363953 2.04683685302734 1.96956992149353 1.96736133098602 1.99666023254395 2.00568723678589 1.90456604957581 1.75739943981171 1.6286712884903 1.85902214050293 2.25854897499084 2.89857602119446 3.07620477676392 3.18825626373291 3.34228944778442 3.53615641593933 4.42530012130737 5.24644565582275 5.70440816879272 7.4688572883606 11.451060295105 8.45982360839844 -0.31541895866394 -0.0104081397876143 0.734292805194855 1.30962717533112 1.89578008651733 2.4380419254303 3.18552303314209 3.60150408744812 3.84245729446411 4.05560731887817 4.1779842376709 4.30936002731323 4.46249866485596 4.69650173187256 4.8199143409729 4.87369060516357 4.90040493011475 4.89934110641479 4.92602062225342 4.90129423141479 4.95629835128784 5.0739574432373 5.28157091140747 5.34490251541138 5.40597295761108 5.46981143951416 5.54904508590698 5.59105777740479 5.5318431854248 5.05185222625732 4.82460355758667 4.22515773773193 3.30088758468628 3.19882345199585 3.19782090187073 3.1957004070282 3.13373565673828 3.15866923332214 3.21433401107788 3.3453094959259 3.47852468490601 3.68798518180847 3.81902384757996 3.85240721702576 3.97086429595947 4.04419708251953 4.14188671112061 4.10535621643066 4.24020338058472 4.32404708862305 4.15279531478882 4.33829259872437 4.14843559265137 4.12493133544922 3.98155403137207 3.89532780647278 3.9316611289978 4.0395188331604 4.08897733688354 4.16243457794189 4.37996101379395 4.6340217590332 4.79296588897705 5.13083696365356 5.29720735549927 5.51454257965088 5.70645618438721 5.99018144607544 6.17593574523926 6.29763126373291 6.44249820709229 6.51528358459473 6.72992944717407 6.9720287322998 7.24763536453247 7.50482845306396 7.94832944869995 8.17497062683105 8.49489879608154 8.43456935882568 8.57075214385986 8.6694278717041 8.99572467803955 9.34250831604004 9.78545665740967 9.99173831939697 9.94278049468994 9.94421291351318 10.0186405181885 10.249906539917 10.7044792175293 10.4370307922363 10.7472076416016 11.5119066238403 11.7523584365845 12.279013633728 12.6056423187256 13.2715148925781 13.9177942276001 15.4868412017822 16.8252296447754 17.2530841827393 18.972749710083 15.713773727417 7.26900911331177 2.80723023414612 1.90139198303223 1.52294969558716 1.16663813591003 0.947824716567993 0.960834801197052 1.05614006519318 1.26097774505615 1.43764996528625
1.65132462978363 1.67777645587921 1.65619874000549 1.64219045639038 1.82950150966644 1.88259494304657 1.801677942276 1.67846727371216 1.5268965959549 1.50955271720886 1.67333567142487 2.14363169670105 2.81520962715149 2.51206970214844 2.28530812263489 2.71076583862305 3.20946455001831 3.87717819213867 4.24191188812256 4.95524072647095 6.42846155166626 2.83614945411682 0.588174045085907 0.692009031772614 0.864306688308716 0.938496768474579 0.994338989257812 1.08313882350922 1.09805393218994 1.20339345932007 1.11244535446167 1.46686577796936 2.4217004776001 3.91758394241333 5.56942415237427 5.72843027114868 7.74173021316528 5.27692127227783 2.27176904678345 2.20862245559692 2.07378506660461 2.08744978904724 2.07524085044861 2.07734656333923 2.01437783241272 1.96962451934814 2.00346517562866 2.60480666160583 2.87607264518738 3.43729114532471 3.44901037216187 3.54127049446106 3.69892430305481 5.00172185897827 5.85122919082642 5.80979204177856 7.30593156814575 6.04999399185181 4.55700969696045 -0.104104436933994 0.339229792356491 1.00471222400665 1.63132154941559 2.23756980895996 2.85466861724854 3.5555636882782 3.96512484550476 4.10296106338501 4.27097749710083 4.33542680740356 4.42987298965454 4.58904504776001 4.86040258407593 4.99826574325562 5.03434133529663 5.0154447555542 5.04848527908325 5.05392980575562 5.0773663520813 5.09974241256714 5.14340257644653 5.27341222763062 5.49567890167236 5.62933015823364 5.69263553619385 5.76253700256348 5.83027124404907 5.82680511474609 5.77270460128784 5.34430360794067 5.39313268661499 4.47332382202148 3.53479051589966 3.53264904022217 3.5881450176239 3.52235627174377 3.47360801696777 3.37143039703369 3.38749837875366 3.45065069198608 3.58738780021667 3.80412197113037 3.94261240959167 4.01593017578125 4.05613946914673 4.1834568977356 4.28962182998657 4.37578964233398 4.33508348464966 4.48763370513916 4.39507532119751 4.61162853240967 4.42259073257446 4.4591236114502 4.5485954284668 4.45378398895264 4.34903860092163 4.43128824234009 4.45233106613159 4.52400541305542 4.72257471084595 4.97917652130127 5.15612888336182 5.2515606880188 5.58173513412476 5.82687711715698 6.02880668640137 6.21622753143311 6.54590749740601 6.69966697692871 6.84146499633789 6.99549627304077 7.18404150009155 7.40989017486572 7.75981330871582 8.07167148590088 8.53907775878906 8.9276294708252 9.28978061676025 9.475266456604 9.46730995178223 9.49937725067139 9.72536373138428 10.1117343902588 10.6565256118774 10.9731292724609 11.6099309921265 11.4958581924438 11.617959022522 11.7375764846802 12.1163177490234 11.853892326355 12.1255712509155 13.0104370117188 13.4601573944092 13.9923601150513 15.1762571334839 16.0203742980957 17.0679607391357 19.4064140319824 22.7868576049805 30.4176845550537 23.6390151977539 13.1238384246826 5.45964622497559 3.28304314613342 2.40847134590149 1.95829319953918 1.4864137172699 1.09173178672791 0.944477498531342 1.00634396076202 1.12201118469238
1.78552615642548 1.85952436923981 1.80136799812317 1.73009037971497 1.70375776290894 2.17611169815063 1.66068708896637 1.56121289730072 1.49423801898956 1.5587100982666 1.6907879114151 2.43815636634827 2.8269350528717 1.92041742801666 1.92414605617523 2.28360605239868 2.63984870910645 3.55097126960754 3.74643731117249 4.9642391204834 5.38078832626343 3.01441192626953 0.936854243278503 0.871433615684509 0.914527416229248 0.888070583343506 1.05520009994507 1.15725839138031 1.22074544429779 1.24603986740112 1.37748742103577 1.3223363161087 1.6082569360733 2.33728837966919 5.46852588653564 8.55976295471191 10.2346172332764 5.85212802886963 1.96129620075226 2.30897498130798 2.47658848762512 2.36327981948853 2.15003371238708 2.14324021339417 2.19802355766296 2.25068235397339 2.26885867118835 2.7308201789856 3.06864500045776 3.04055738449097 3.7129967212677 3.8404541015625 5.85966968536377 5.93317604064941 3.87592649459839 4.330246925354 5.68019676208496 3.20338702201843 2.42943596839905 0.508435308933258 0.79398775100708 1.56408035755157 2.39391279220581 2.89609909057617 3.32299590110779 3.66121983528137 4.01311922073364 4.1734790802002 4.28430128097534 4.40102005004883 4.49828290939331 4.6640944480896 4.9061918258667 5.07057428359985 5.14341402053833 5.18531703948975 5.17446374893188 5.20200204849243 5.22152185440063 5.31942558288574 5.35073852539062 5.32783842086792 5.48856353759766 5.67435550689697 5.87151002883911 5.9356369972229 6.00997877120972 6.07820129394531 6.08578300476074 6.12787437438965 6.21689414978027 5.67206811904907 5.49434471130371 4.86271095275879 3.71772885322571 3.74394059181213 3.68756318092346 3.61942076683044 3.48230314254761 3.49041867256165 3.5595531463623 3.69734716415405 3.92718935012817 3.99935102462769 4.15388441085815 4.19969129562378 4.3318772315979 4.42141914367676 4.54302263259888 4.50210237503052 4.66418409347534 4.58430147171021 4.82198619842529 4.85324573516846 4.804762840271 4.92418241500854 4.81044006347656 4.69046401977539 4.79483842849731 4.81429672241211 4.88294076919556 5.08242082595825 5.2404522895813 5.4441967010498 5.55457067489624 5.90166330337524 6.07425785064697 6.36510562896729 6.57771921157837 6.93884515762329 7.10428190231323 7.3611478805542 7.52569961547852 7.6866250038147 7.92366743087769 8.33462715148926 8.71650695800781 9.22246074676514 9.72336769104004 10.1408967971802 10.7106866836548 10.5372552871704 10.6722068786621 10.8360261917114 11.0077781677246 11.5941743850708 12.2595176696777 12.8967552185059 12.8160886764526 12.9144926071167 13.1460657119751 13.8776884078979 13.8842887878418 14.601245880127 14.8897924423218 16.2291812896729 17.5470676422119 18.4867858886719 19.4812812805176 21.06325340271 26.5308246612549 26.0282096862793 18.9236278533936 13.1874561309814 5.27581977844238 2.07854175567627 3.00850415229797 3.27759385108948 3.09614539146423 1.93310594558716 1.60479938983917 1.44696176052094 1.15391361713409
