NCOLS 175
NROWS 31
XLLCORNER 353728
YLLCORNER 6701200
CELLSIZE 16 
NODATA_value -3.4e+38 
4.48511505126953 1.82817888259888 -1.20016586780548 43.5241966247559 8.66010284423828 5.15082406997681 1.71065557003021 3.03912615776062 12.2277278900146 21.3051300048828 7.37916421890259 25.6963920593262 43.0478668212891 34.4913864135742 18.7758769989014 12.6835641860962 32.5041923522949 21.8270626068115 10.3772993087769 4.77715396881104 0.247211888432503 -0.775522470474243 -1.1358894109726 -2.49932456016541 -1.74074029922485 2.48755884170532 6.12835884094238 15.4701862335205 5.73734283447266 5.79193210601807 6.47196006774902 6.84394550323486 8.61414909362793 10.5944395065308 18.5397796630859 18.4879951477051 16.258150100708 24.9284896850586 11.3865833282471 13.4187211990356 11.6083278656006 16.5781192779541 10.1541919708252 5.74160051345825 6.47484731674194 6.73054552078247 5.37510061264038 19.1686897277832 0.655292391777039 -1.28147923946381 0.192641794681549 4.23532104492188 1.97639298439026 4.89469766616821 6.10680961608887 -1.61641573905945 -2.90580272674561 -0.543629050254822 5.30285215377808 7.43562793731689 17.4054183959961 10.8371019363403 1.99237501621246 3.70303797721863 3.67200493812561 15.6608209609985 42.1735916137695 7.40027713775635 6.4339861869812 -2.03406047821045 -2.5079710483551 13.093692779541 -2.92427253723145 -0.935068249702454 -2.8029625415802 6.20365571975708 -1.61787557601929 19.7664623260498 -1.04171240329742 5.6034893989563 -0.714555621147156 3.38210129737854 0.141123503446579 0.375452190637589 0.587554633617401 0.713584244251251 -0.367262721061707 -0.01446374040097 1.00917875766754 1.41874039173126 1.67181873321533 2.30285143852234 2.53809642791748 3.0777530670166 3.1962628364563 3.45998930931091 3.79509806632996 3.3017053604126 3.59245729446411 2.71062469482422 3.5584123134613 3.32323932647705 2.7160062789917 2.84969878196716 1.78637862205505 4.13623857498169 3.00689697265625 16.1336326599121 19.0547275543213 2.87669634819031 2.72466921806335 9.13652038574219 3.29062056541443 3.0144157409668 3.21395182609558 3.17957019805908 2.4394371509552 2.4238908290863 2.22944092750549 2.39381313323975 1.74834895133972 1.74918138980865 1.77562761306763 1.73583030700684 1.69464159011841 1.84554123878479 1.36013722419739 6.44056606292725 25.9333362579346 7.48704624176025 3.27210927009583 14.6979656219482 12.8167028427124 6.38272380828857 5.05255126953125 8.7565746307373 5.15030384063721 3.71817255020142 18.0402851104736 6.86568593978882 1.18103218078613 3.4806113243103 1.64993965625763 1.85687398910522 1.89400148391724 1.9250613451004 2.09835433959961 2.08165073394775 2.35391855239868 2.67064666748047 2.58045959472656 2.68611335754395 3.92123556137085 3.76579761505127 4.24091482162476 6.12041091918945 5.91771173477173 6.02571105957031 6.24461555480957 4.97918033599854 4.13383626937866 3.57157254219055 3.43167757987976 3.60238552093506 3.59559488296509 3.46984195709229 2.11957859992981 9.96286392211914 2.02397584915161 2.31167721748352 2.01470947265625 2.35218048095703 2.32565236091614 2.19108080863953 2.3095109462738
4.31698656082153 5.96480226516724 -0.332746207714081 -1.76961386203766 13.2849674224854 6.89568853378296 6.38518142700195 7.86664247512817 16.3756370544434 30.9303302764893 33.121826171875 16.1115474700928 17.919734954834 21.7606716156006 19.4805679321289 15.1191139221191 6.76899003982544 4.88356351852417 13.8671083450317 6.96509695053101 3.31518197059631 26.1733551025391 3.17054653167725 -1.24005663394928 0.780054092407227 3.5057361125946 4.77131414413452 16.9863395690918 19.4097518920898 7.24175930023193 11.1863803863525 14.6112880706787 8.06506824493408 13.0195560455322 20.2325077056885 44.6179275512695 20.0452461242676 43.320556640625 28.9569396972656 16.5101890563965 13.5950565338135 12.5320882797241 11.3589468002319 8.94564533233643 10.2027425765991 12.9414157867432 8.1248607635498 2.85007762908936 7.88801050186157 8.06181812286377 22.3838500976562 18.3993301391602 28.8566474914551 6.73039245605469 9.19969367980957 4.84068727493286 4.338210105896 1.4238908290863 21.4209747314453 14.4100494384766 11.6385221481323 16.6865978240967 4.77220821380615 2.75600671768188 2.50670719146729 5.39418792724609 12.5981473922729 45.4976615905762 -1.43306279182434 -2.97073602676392 -2.39803242683411 -2.87960648536682 -1.32513725757599 -2.87960410118103 -2.50032734870911 -2.12495422363281 -1.08085715770721 -1.40625166893005 -0.916998624801636 -1.12159860134125 2.84076070785522 14.5853519439697 0.292248755693436 0.490581452846527 0.706697046756744 0.845297574996948 0.692139804363251 1.01834988594055 1.09631884098053 1.46610486507416 1.72379672527313 2.68020391464233 3.64188933372498 3.84121584892273 4.02100467681885 3.82473230361938 3.68594074249268 3.70644879341125 3.68132281303406 3.42979907989502 3.72950267791748 3.731764793396 2.77555990219116 2.89856743812561 2.1123263835907 4.81883859634399 1.78174471855164 29.5242557525635 2.52189612388611 2.83574843406677 4.61615514755249 13.62451171875 3.09091925621033 3.29649662971497 3.26279211044312 2.38126754760742 3.16314244270325 3.40604639053345 2.8034520149231 2.85667157173157 3.1534435749054 3.42876696586609 1.81254661083221 1.77517437934875 1.72809600830078 1.98835909366608 2.74579668045044 2.57725214958191 0.989980757236481 10.986629486084 3.36578869819641 27.3773212432861 18.8235874176025 9.07826709747314 11.1655368804932 3.84785652160645 6.1436448097229 4.28477144241333 32.8912582397461 1.9558357000351 6.18911218643188 1.34180843830109 1.71285593509674 1.90980875492096 1.93925738334656 1.97264683246613 2.15581274032593 2.43134212493896 2.37165260314941 3.04380035400391 3.07756757736206 2.75159120559692 4.00794315338135 3.84923720359802 4.34952878952026 6.26094627380371 6.06142425537109 6.42854690551758 6.33188819885254 4.749596118927 4.81214237213135 4.33175945281982 4.51870918273926 3.83177947998047 3.86090517044067 4.15868091583252 3.37127923965454 2.40486264228821 2.44701147079468 2.39658856391907 2.08384990692139 2.48198223114014 2.61308431625366 2.67857360839844 2.82397270202637
7.46182441711426 4.84996700286865 4.37006759643555 3.30562782287598 19.5778350830078 8.51088809967041 7.62327194213867 11.1998662948608 25.4637622833252 50.1435928344727 52.1020088195801 20.2903957366943 22.4033184051514 30.6722316741943 22.9235019683838 31.5988712310791 14.8541688919067 10.6671361923218 3.50450348854065 9.4743709564209 6.04079532623291 -0.472794830799103 5.01175546646118 24.3738346099854 15.1189193725586 19.8401927947998 25.0735969543457 4.60733079910278 8.11472034454346 12.779221534729 16.4894504547119 8.31409931182861 7.59150791168213 14.8363838195801 21.5259227752686 12.7554378509521 20.2613487243652 10.4163751602173 14.482439994812 16.4540863037109 13.1036758422852 16.8346843719482 15.5174026489258 14.4731788635254 21.2216186523438 11.6637926101685 12.5687522888184 6.75159597396851 1.91404151916504 3.42942667007446 0.518646717071533 7.90118217468262 4.5004711151123 14.3626670837402 -1.48233389854431 -2.20537829399109 -2.36530637741089 4.15453433990479 7.06256484985352 14.283350944519 24.1996250152588 34.2481117248535 5.47255611419678 3.0043408870697 2.04579734802246 4.78091192245483 11.3708238601685 17.9828872680664 37.9500885009766 -2.74772882461548 -2.04502964019775 -2.75037288665771 -2.32242941856384 -1.98930752277374 -1.73639357089996 -0.91709703207016 -0.637303948402405 -0.510563313961029 8.64035797119141 -0.0173695906996727 16.5926685333252 0.0148704368621111 0.992677330970764 0.77319347858429 0.8431116938591 0.986233115196228 0.795367300510406 1.10666358470917 1.16508042812347 1.54233241081238 1.78737986087799 2.33944487571716 2.85243630409241 3.49596309661865 4.33305692672729 4.24773645401001 3.89305686950684 3.67748975753784 3.48954772949219 3.47214651107788 3.81122446060181 3.78516054153442 2.91329336166382 3.29316854476929 5.95825815200806 4.80487203598022 3.17230892181396 5.6698145866394 2.93260359764099 2.89828014373779 2.35414814949036 25.8416328430176 3.21381855010986 3.37727904319763 3.34255194664001 2.55914330482483 3.22983169555664 3.47840642929077 2.86493802070618 2.91880798339844 3.22306418418884 3.5043683052063 2.81833028793335 2.40924072265625 1.78536021709442 2.19862794876099 3.03339338302612 2.79861807823181 1.36833965778351 18.9668521881104 3.88445353507996 2.41102743148804 26.3843402862549 8.17825984954834 14.7603092193604 7.82232666015625 2.50509643554688 4.96493005752563 0.841379284858704 2.12370181083679 4.605055809021 1.3804988861084 2.85517501831055 2.37785410881042 1.98715376853943 2.72668027877808 2.6766939163208 3.01312065124512 3.22196841239929 3.1081645488739 3.14393186569214 2.81868863105774 4.09766292572021 3.93630433082581 4.45399570465088 6.41550350189209 6.21598052978516 6.57768964767456 6.49609136581421 5.4217414855957 5.67088890075684 4.53920030593872 5.11900901794434 4.23090744018555 4.16609525680542 4.08801364898682 3.79446697235107 3.10788011550903 2.7456202507019 2.60853576660156 2.34241390228271 2.83248829841614 2.88950514793396 2.74696445465088 2.89546799659729
17.0790596008301 2.36814975738525 6.77487850189209 -0.106347061693668 34.8629035949707 11.2838745117188 11.4678087234497 16.4584560394287 44.948371887207 4.02872943878174 1.31636786460876 14.9153175354004 16.0444965362549 7.16865015029907 18.6119117736816 20.0074806213379 41.8951835632324 14.5881252288818 10.9917793273926 5.4089412689209 7.28425979614258 4.15921449661255 -0.124041266739368 -3.00229907035828 3.23179936408997 5.12498331069946 6.33377981185913 17.5098533630371 9.11695861816406 21.755802154541 20.5426025390625 24.0675468444824 9.01595783233643 5.05838775634766 37.625804901123 16.9802398681641 25.0496845245361 15.9188175201416 26.6619548797607 20.7685127258301 18.4810180664062 34.9675712585449 32.756290435791 15.4160232543945 22.4116172790527 16.4685325622559 8.9070348739624 14.8666734695435 15.6441679000854 4.13397169113159 9.55335521697998 6.68458080291748 14.1175107955933 13.2902364730835 -1.04013991355896 -3.18296599388123 24.0127429962158 14.8930778503418 20.9729537963867 24.7922706604004 1.07514500617981 -3.21281051635742 1.28258538246155 1.21508061885834 3.7708375453949 -1.15644943714142 -3.0133056640625 -2.94620013237 13.3433294296265 29.6153869628906 -2.01812434196472 -2.0086977481842 -1.93825054168701 -0.847693026065826 -0.345633387565613 -0.439328730106354 -0.437356352806091 18.5477676391602 26.1992378234863 0.853788793087006 0.058725792914629 0.810541391372681 1.11180186271667 0.914984226226807 1.06705641746521 0.890867292881012 0.900577068328857 1.19191336631775 1.22759306430817 1.63749349117279 1.92097949981689 2.34945750236511 2.87481212615967 3.07824492454529 3.38725090026855 4.2334303855896 4.23260164260864 3.68753457069397 3.1390974521637 3.49738359451294 3.85621881484985 3.83951807022095 3.36133408546448 3.34903311729431 7.79832410812378 6.84567022323608 2.23363542556763 1.61406123638153 2.99952101707458 2.96992897987366 9.70530605316162 4.90005588531494 4.2746844291687 3.96860814094543 3.42348480224609 4.02846908569336 3.73356127738953 3.97282648086548 3.76393389701843 3.40117645263672 3.29308772087097 3.58076071739197 2.88232350349426 2.46558475494385 1.84453690052032 2.45282077789307 3.33372974395752 4.32231569290161 1.41082465648651 3.9406361579895 3.58129072189331 2.41747426986694 2.04213190078735 17.9069042205811 21.4392681121826 10.3678607940674 5.71412038803101 5.91675424575806 1.8820196390152 3.18082809448242 1.34341084957123 1.58929944038391 2.91293549537659 2.42954182624817 2.03989028930664 2.78306269645691 2.73416090011597 3.07761287689209 3.29102754592896 3.17597889900208 3.21251463890076 2.92054510116577 4.18936252593994 3.92626070976257 4.56761884689331 6.57868385314941 6.36933708190918 6.72632074356079 6.66787576675415 6.20141506195068 6.1575345993042 5.59167194366455 5.48132467269897 4.66173124313354 4.42658948898315 4.06754112243652 3.76652574539185 3.41654562950134 3.13905239105225 2.61434412002563 2.77079916000366 2.90284466743469 3.12973523139954 2.83689522743225 3.35217499732971
0.214354917407036 -0.515159487724304 10.8746213912964 0.241539284586906 -1.24280226230621 17.2317638397217 21.9785442352295 31.677827835083 10.4956512451172 -2.03953456878662 11.4732904434204 14.7124900817871 6.54727268218994 1.56664061546326 4.08989238739014 13.3105554580688 5.79041814804077 22.7944526672363 11.8068370819092 14.5015230178833 5.75899696350098 0.193444922566414 0.127508223056793 -2.82236242294312 -2.93632578849792 6.672523021698 16.3226699829102 5.86688995361328 15.6684904098511 4.6031665802002 5.97611808776855 13.3588628768921 6.25306940078735 8.47842788696289 13.0434160232544 18.3449153900146 25.2775402069092 15.7671613693237 17.973445892334 32.2063903808594 41.5344085693359 49.652717590332 48.5428695678711 20.3921241760254 17.5093307495117 19.289571762085 12.3960447311401 4.94952535629272 3.05503106117249 1.16608417034149 14.127984046936 1.67743170261383 -2.32862114906311 -3.29990196228027 10.2211437225342 0.641819715499878 3.20063734054565 26.0417823791504 9.76367664337158 2.60798144340515 5.18408346176147 -3.13619947433472 12.8855676651001 10.6345243453979 6.6794548034668 0.840348064899445 -2.6460976600647 -2.70626449584961 -2.44991087913513 -1.5511577129364 -1.3192310333252 9.59265518188477 -0.74305248260498 -0.882008969783783 -0.105625107884407 -0.26053112745285 28.6966819763184 -0.152266606688499 -0.22279791533947 1.22555005550385 0.856610774993896 0.867554545402527 1.18066322803497 0.980928838253021 1.13727045059204 0.937371492385864 0.876529157161713 1.27101731300354 1.31157505512238 1.68649125099182 1.961709856987 2.41222047805786 2.91857171058655 3.10662984848022 3.21013045310974 3.83055329322815 3.89782500267029 3.6890549659729 3.05395579338074 3.52246856689453 3.89583444595337 3.88401031494141 3.40734457969666 3.64582777023315 11.2831478118896 11.3146238327026 2.65151119232178 2.41925072669983 3.46723246574402 3.04515814781189 18.3208103179932 2.30778574943542 5.5636134147644 5.90868473052979 3.54682946205139 4.11483430862427 4.59341955184937 4.450035572052 4.18308639526367 4.05013990402222 3.44944763183594 3.65879344940186 2.94637775421143 2.51909685134888 2.25214433670044 2.77240967750549 5.57696771621704 5.23651790618896 4.91298246383667 6.55290460586548 3.69922804832458 4.90807390213013 2.42603206634521 1.22366893291473 32.3131256103516 15.3502779006958 7.60055446624756 6.8574800491333 4.48979425430298 5.01283693313599 1.55122780799866 1.96307551860809 2.97226881980896 2.48144936561584 2.09361863136292 2.84374260902405 3.00726580619812 3.1466748714447 3.36342859268188 3.35001039505005 3.28502774238586 4.29817152023315 4.13361978530884 4.10056304931641 4.69294404983521 6.74647665023804 6.5268349647522 6.89042806625366 6.83794450759888 6.36655712127686 6.61105489730835 5.91402578353882 5.9534273147583 5.15992164611816 4.83433485031128 4.21874666213989 3.70585417747498 3.49288177490234 3.20532751083374 3.24611902236938 2.85412096977234 2.96722435951233 3.19598770141602 3.41272735595703 3.78754162788391
-1.12013554573059 0.489724904298782 21.5640888214111 15.4368810653687 16.5113620758057 15.8865566253662 -0.771321654319763 4.61722326278687 -1.75972318649292 -1.10427570343018 0.553460359573364 3.06833720207214 -1.00462698936462 1.08335745334625 6.29438734054565 14.4034471511841 13.7106666564941 24.4055480957031 21.2765998840332 19.0203113555908 6.57944250106812 0.280516237020493 8.63416385650635 -2.63121771812439 -3.35550165176392 -3.62025928497314 -4.54179430007935 6.94098711013794 1.72813105583191 5.66654109954834 16.2828750610352 1.07303106784821 6.48674392700195 20.5184745788574 0.115675926208496 9.2696008682251 3.07969164848328 8.20614147186279 5.13942909240723 28.3190422058105 24.7447299957275 4.83645009994507 4.86498594284058 21.5674934387207 16.5876407623291 28.8669700622559 16.6828956604004 12.0467185974121 4.04602241516113 3.71532583236694 -3.1491322517395 3.94126605987549 -1.93884813785553 -1.3587943315506 -3.26427912712097 -3.06239676475525 1.14244091510773 4.36127853393555 6.1457200050354 1.84146630764008 -3.15762686729431 1.45716071128845 -3.2698335647583 -3.26545858383179 -2.29133892059326 5.83108711242676 -2.36211323738098 -2.32436394691467 -2.25244283676147 -1.19981753826141 1.06590557098389 -1.30249285697937 6.30277109146118 -0.211581513285637 1.49439871311188 -0.0542434863746166 -0.39176994562149 0.295544236898422 1.40964257717133 1.31300115585327 0.889161705970764 0.880576848983765 1.21581292152405 1.0213885307312 1.20284831523895 1.00137114524841 1.23797535896301 1.36196947097778 1.36812782287598 1.76574599742889 2.0453417301178 2.52664589881897 2.99688339233398 3.19529151916504 2.92442584037781 3.84751439094543 2.49480152130127 3.69226622581482 3.11424160003662 3.71628093719482 3.92728614807129 3.91971802711487 3.43894076347351 3.88087177276611 21.0814056396484 3.29295825958252 4.75996732711792 3.1488196849823 4.62070608139038 3.12401580810547 2.48636078834534 2.78379607200623 7.03237676620483 7.06939840316772 3.62504458427429 4.20294761657715 4.69162321090698 4.54607534408569 4.6090235710144 4.1368293762207 3.5233268737793 3.74203658103943 3.01426005363464 3.11937117576599 3.39984846115112 3.22038745880127 7.3955249786377 7.94599056243896 6.75762605667114 9.80980396270752 3.76628565788269 9.95069789886475 3.2804696559906 1.23946237564087 0.696478366851807 28.5776786804199 11.2719688415527 7.41263055801392 6.10114431381226 2.37852239608765 1.98791074752808 2.02330327033997 3.04209613800049 2.53744316101074 2.15114760398865 2.90661120414734 3.07069778442383 3.21692895889282 3.43748879432678 3.42308974266052 4.1838846206665 4.40151453018188 4.24054193496704 4.20039796829224 4.82229804992676 6.92681312561035 6.6798849105835 7.07203102111816 7.01681232452393 6.53905534744263 6.78568029403687 6.44254970550537 6.11176204681396 5.28841924667358 4.95845222473145 4.32828378677368 3.56430125236511 3.57373952865601 3.3245701789856 3.31926870346069 3.06461453437805 3.44520473480225 3.26625037193298 3.48404335975647 3.87944769859314
-0.581683397293091 0.582751393318176 0.027240501716733 0.347511112689972 -1.05529820919037 -1.00151658058167 -0.391989767551422 7.36062526702881 0.0973646268248558 0.546472311019897 3.11244225502014 10.3364534378052 9.23544406890869 -1.41113221645355 9.07845115661621 4.78352165222168 6.84475994110107 8.6594352722168 29.0946083068848 28.4304485321045 11.3209733963013 6.94097757339478 -1.33937776088715 3.01016044616699 -3.05924153327942 -2.55562496185303 0.00275393226183951 -2.15735983848572 -1.48302733898163 -2.61798095703125 -1.29207456111908 2.26851296424866 12.2670583724976 5.30811262130737 4.15478992462158 3.11597490310669 4.5088939666748 8.68856716156006 0.930976688861847 -3.05882835388184 7.0241551399231 -1.09124660491943 8.51782512664795 6.74749183654785 14.6400184631348 23.968864440918 25.8296928405762 18.2617568969727 6.48505020141602 6.70217704772949 23.046329498291 19.4373111724854 5.04802417755127 -3.13463425636292 -2.78768944740295 -1.93984091281891 7.98916006088257 5.00227880477905 8.48174667358398 5.42239952087402 -3.22744226455688 -3.04696655273438 -2.71370077133179 -3.03354334831238 8.44252777099609 12.857442855835 13.8683137893677 -1.62745559215546 -1.67983174324036 -0.970824301242828 3.42745423316956 1.24768102169037 1.2293998003006 16.2396125793457 0.15893292427063 0.587654232978821 0.367748290300369 1.57173979282379 1.51370298862457 1.37974977493286 0.919620215892792 0.908036231994629 1.24905908107758 1.05639827251434 1.26500856876373 1.0567375421524 1.37639605998993 1.33513450622559 1.43459630012512 1.8581748008728 2.13885521888733 2.64411592483521 3.10368299484253 3.27441668510437 2.99736857414246 3.92296576499939 2.27971887588501 3.71527934074402 3.47534227371216 3.85050988197327 3.94943380355835 3.91397547721863 3.46364879608154 3.91913080215454 3.28468418121338 3.5295991897583 9.80469417572021 3.22472834587097 6.87757539749146 3.20731568336487 3.08439683914185 2.93480157852173 3.15859222412109 3.41701698303223 3.68356204032898 4.2807297706604 4.78372097015381 4.63826036453247 4.70596122741699 4.22651052474976 3.84270000457764 3.45790123939514 3.08211827278137 3.18862724304199 3.47859597206116 3.85226488113403 11.0384731292725 13.2385053634644 14.0000381469727 7.4475884437561 3.89343905448914 3.56480884552002 3.40289568901062 1.4326856136322 11.3843231201172 1.12353909015656 13.9595861434937 13.5226430892944 12.0630445480347 2.42800068855286 2.07973146438599 2.11440110206604 3.10604906082153 2.59392213821411 2.24863457679749 2.97701787948608 3.14026021957397 3.28798770904541 3.51369976997375 3.49492168426514 4.27041816711426 4.50434827804565 4.34110689163208 4.30661725997925 4.98709964752197 7.09443807601929 6.8625955581665 7.25964736938477 7.21064519882202 6.72480821609497 6.97210454940796 6.62920522689819 6.28149843215942 5.43023586273193 5.08677196502686 4.44504594802856 3.66936349868774 3.7035915851593 3.63607573509216 3.39398741722107 3.17607855796814 3.52265310287476 3.51353073120117 3.56388735771179 3.97593116760254
0.1443952023983 0.637643039226532 0.449768662452698 0.995575368404388 -0.401660650968552 0.0296576116234064 0.0263102352619171 11.110068321228 3.60533380508423 -0.812423884868622 9.60516262054443 16.0201416015625 5.49441337585449 0.834672033786774 -0.470316261053085 -2.61406254768372 3.89785218238831 9.37173938751221 6.6156587600708 18.2836589813232 11.8001127243042 8.28597450256348 7.27929353713989 -1.41341841220856 -2.88528537750244 -3.52140974998474 5.60785961151123 10.2951040267944 5.75982046127319 9.52287864685059 -3.75652647018433 -4.17574596405029 0.774381577968597 2.90181660652161 -3.79891657829285 6.14808034896851 1.53964567184448 27.3980979919434 -0.57985782623291 2.5398485660553 -1.72243714332581 1.22598481178284 10.7046012878418 6.9070200920105 -4.32236909866333 -2.18466138839722 0.12629272043705 0.232766106724739 0.805428445339203 7.06340074539185 0.27296507358551 6.1794285774231 -1.00711417198181 -2.52618384361267 -2.6970694065094 0.853870332241058 15.0252532958984 17.3561229705811 20.4373893737793 5.48056936264038 17.246675491333 -2.83342552185059 21.7932453155518 -2.82866168022156 -2.88729286193848 -2.86965847015381 -1.99349451065063 -1.29064857959747 -0.870398938655853 8.47574710845947 5.92978572845459 6.31661176681519 5.27207660675049 0.0415471382439137 0.57958722114563 1.66478514671326 1.67950010299683 1.52941048145294 1.60176908969879 1.45589637756348 0.945236206054688 0.998330593109131 1.33381152153015 1.10872364044189 1.30778634548187 1.09711635112762 1.42520070075989 1.45024442672729 1.35580825805664 1.95840179920197 2.73133945465088 2.4501314163208 3.21710920333862 3.38995003700256 3.1068286895752 4.06377267837524 2.31877636909485 3.78781819343567 3.50047540664673 3.90924024581909 3.91450238227844 3.64420604705811 3.48782467842102 3.96575713157654 3.78397417068481 3.67210459709167 2.57835602760315 4.16271209716797 13.6139116287231 3.29385566711426 3.10675168037415 3.30621314048767 3.51616597175598 3.75885319709778 3.74840068817139 4.36284399032593 4.87206125259399 4.73250532150269 4.92346286773682 4.314612865448 3.93127250671387 3.5334906578064 3.21038937568665 3.2596743106842 4.90099859237671 6.08798265457153 21.4010524749756 3.7527163028717 2.45706009864807 4.65990400314331 4.22473049163818 4.03016996383667 4.27884292602539 4.93937397003174 1.40242624282837 6.68181848526001 7.36940670013428 4.12665510177612 3.69765377044678 2.51292610168457 2.15345692634583 3.17299842834473 2.6521782875061 2.33867835998535 3.04147744178772 3.01351356506348 3.37341523170471 3.6045253276825 3.48982119560242 3.57525253295898 4.36036586761475 4.61990356445312 4.4554615020752 4.66426372528076 5.99341440200806 7.26355075836182 7.17328882217407 7.45588493347168 7.41048336029053 6.91633558273315 7.1655592918396 6.76283645629883 6.45580625534058 5.57447910308838 5.22586822509766 4.56408309936523 3.75793480873108 4.049391746521 4.00200939178467 3.47020435333252 3.50283193588257 3.67329454421997 3.58897995948792 3.64530467987061 4.07841014862061
0.679543972015381 0.80469286441803 0.917067646980286 1.19034337997437 0.0437046363949776 0.0434124320745468 0.066472090780735 27.1526889801025 25.0273704528809 9.03384876251221 -1.22414481639862 -3.31423377990723 -1.77271330356598 12.5697755813599 0.315786510705948 0.739539980888367 6.49792098999023 -1.73460698127747 -2.12907409667969 -4.2461142539978 5.29805469512939 21.1845607757568 17.1802368164062 7.81299829483032 -2.87203192710876 -3.46026349067688 -4.35198402404785 6.2114052772522 10.1695528030396 -2.58037495613098 5.06393146514893 8.52885246276855 0.323501646518707 7.40995454788208 -0.261244714260101 21.5005779266357 -2.19569373130798 3.46900987625122 -1.0101021528244 -2.84548616409302 1.39996743202209 5.93376159667969 -5.5557279586792 -4.73969125747681 -4.3113169670105 14.748215675354 4.18701028823853 1.28043639659882 6.57189655303955 9.99100971221924 -1.21615922451019 -3.20500826835632 -2.83432912826538 12.7432670593262 3.34831285476685 1.69220900535583 -2.77837586402893 19.5826892852783 25.470817565918 18.49587059021 -2.15322470664978 -2.0858781337738 -1.72037589550018 16.1876850128174 8.78059959411621 -1.73847460746765 -1.80460786819458 -1.00096774101257 7.58509969711304 25.6011486053467 12.912467956543 11.6029968261719 0.0565694458782673 0.100293762981892 1.76271092891693 1.7779403924942 1.78131914138794 1.3902872800827 1.69681525230408 1.5734041929245 1.03494036197662 1.09854531288147 1.435227394104 1.1674417257309 1.33977246284485 1.10116755962372 1.46513056755066 1.51789093017578 1.45319819450378 2.07778644561768 2.88451290130615 2.58601140975952 3.353440284729 3.53935718536377 3.246248960495 4.22615146636963 2.39368009567261 3.92103147506714 3.56852126121521 3.97616124153137 3.98127961158752 3.4806649684906 3.52696561813354 4.0058536529541 3.82565927505493 3.73140358924866 2.80604982376099 3.27430200576782 2.38877463340759 3.37709069252014 3.25664162635803 3.3805673122406 3.59477281570435 3.83925414085388 4.43927526473999 4.17352294921875 4.97426223754883 4.83268642425537 5.022873878479 4.40283060073853 4.0978479385376 3.60750770568848 3.57771158218384 3.33444976806641 6.54214572906494 8.05861282348633 2.27425789833069 4.54797267913818 2.67418599128723 5.03039026260376 5.90434980392456 4.40727567672729 5.35579776763916 7.63674163818359 14.4668664932251 1.67524361610413 1.18315756320953 13.5788040161133 16.1419334411621 3.16911864280701 2.21746635437012 3.24834871292114 2.71678686141968 2.42841958999634 3.23879337310791 3.50355172157288 3.44408798217773 3.68238091468811 3.56596755981445 3.64623975753784 4.45428276062012 4.7335147857666 4.56601190567017 5.25801038742065 6.72012805938721 7.47072553634644 7.38912105560303 7.66405391693115 7.62181520462036 7.09271192550659 7.37217950820923 6.95919704437256 6.6416335105896 5.72646856307983 5.3700704574585 4.68913555145264 3.84622812271118 4.45419549942017 4.43042135238647 3.62226915359497 3.94886302947998 3.75248169898987 3.66801905632019 3.72686266899109 4.18523836135864
0.806409955024719 0.906207859516144 1.23490810394287 0.0271423105150461 0.0473508350551128 0.0701261088252068 0.100326135754585 -0.125713527202606 5.2979736328125 8.68142318725586 -0.895802021026611 -2.86286044120789 1.24156677722931 -3.84147167205811 -4.20455932617188 5.4749059677124 9.34856224060059 1.73996376991272 1.17786133289337 13.7597579956055 10.2269172668457 27.1540946960449 11.2199401855469 -1.71578228473663 -2.85716533660889 -3.29282569885254 -4.07788944244385 -2.98840522766113 -3.12628507614136 -0.787741661071777 2.82378149032593 -4.62840032577515 -4.72736167907715 -4.86634635925293 -2.41843867301941 -3.47942447662354 2.7620415687561 -5.3540186882019 14.630687713623 -3.52066040039062 3.13588333129883 -2.32116794586182 -5.41073131561279 -4.64664125442505 -1.82932794094086 -3.77801537513733 -3.40308713912964 -3.535884141922 -3.93306398391724 -3.88753032684326 -3.5690643787384 -0.779125392436981 0.814808487892151 -2.39969372749329 9.28678607940674 3.14661264419556 11.7296123504639 -2.8398334980011 -3.21522998809814 -3.09688353538513 5.25133848190308 -0.472687542438507 12.094033241272 -1.93105137348175 -1.79760849475861 -1.71320819854736 -1.39054918289185 -0.67499715089798 9.15493297576904 -0.306168556213379 25.9736595153809 6.47535848617554 1.82519125938416 2.02791285514832 1.94928479194641 1.92010080814362 1.90486252307892 1.86490118503571 1.6418149471283 1.73276245594025 1.14875113964081 1.20082700252533 1.53106701374054 1.26943218708038 1.41376733779907 1.1254460811615 1.49090075492859 1.55660200119019 1.62019467353821 2.20499920845032 3.07929253578186 2.73930859565735 3.55967330932617 3.70814633369446 3.39363121986389 4.40433597564697 2.46387720108032 4.08340120315552 3.67710137367249 4.10012435913086 4.11180639266968 3.59639692306519 3.86437106132507 4.07817268371582 3.87762331962585 3.70938396453857 2.84318542480469 3.41593813896179 2.76636075973511 3.45168137550354 3.33249235153198 3.45736789703369 3.67964673042297 3.94502329826355 4.53626585006714 5.07007503509521 4.93275165557861 4.9231538772583 5.12557411193848 4.36449670791626 4.17722320556641 3.82298612594604 3.65146684646606 3.41058421134949 9.75779438018799 11.9005708694458 5.01984357833862 4.45063352584839 5.26976680755615 4.10794544219971 8.69762516021729 6.40115785598755 7.68430995941162 4.38468027114868 1.71062982082367 4.52177047729492 1.4003883600235 1.25211703777313 2.19755434989929 2.40986108779907 2.28937649726868 3.32765054702759 2.77757382392883 2.50993919372559 3.44868302345276 3.57696962356567 3.52591395378113 3.77083039283752 3.7332935333252 3.68904304504395 4.5511212348938 4.85540199279785 4.6846170425415 5.40952444076538 7.70210599899292 7.52778959274292 7.62558555603027 7.88382196426392 7.74254989624023 7.61217260360718 7.28089618682861 6.94931602478027 6.23161840438843 5.88689041137695 5.51769495010376 4.81667423248291 3.94482183456421 4.93635988235474 4.97632837295532 3.87780404090881 4.03115892410278 3.83512806892395 3.8272647857666 3.84206819534302 4.30218648910522
0.896537303924561 0.971908211708069 1.29325413703918 0.0653760954737663 0.0616662316024303 0.0942985936999321 0.120900124311447 6.76816463470459 25.41721534729 13.2436780929565 10.1116456985474 11.555046081543 13.9771747589111 -3.67720508575439 -3.98847389221191 -1.35842847824097 18.954475402832 3.47935914993286 1.40351164340973 -4.70658493041992 1.33400082588196 -3.70877861976624 0.912234008312225 -2.98913192749023 -0.767670035362244 12.610954284668 -2.48928785324097 -2.37259769439697 -2.59950375556946 0.515911221504211 -3.55809497833252 5.00599145889282 -4.05122184753418 12.503885269165 5.8376145362854 -0.807157456874847 -4.14496231079102 -2.76272559165955 -3.48217368125916 4.35869121551514 -3.02317953109741 -5.28821229934692 -5.31788873672485 -4.55709409713745 -4.19602727890015 -3.29396891593933 -3.08593845367432 -3.40483427047729 -3.74803948402405 -2.96746921539307 -2.71211266517639 0.40686759352684 -0.703079640865326 -0.0303957052528858 17.473934173584 11.6027402877808 -2.20404767990112 -2.4585120677948 -2.95770573616028 -2.54991888999939 -2.23537755012512 -1.74509239196777 -1.52585005760193 6.00454092025757 -1.10852134227753 -1.25233685970306 6.06906127929688 8.76663780212402 4.12859296798706 2.25142312049866 -0.308538138866425 38.697998046875 2.09304594993591 2.27169036865234 2.14836144447327 2.11563682556152 2.09328842163086 2.03253102302551 1.91412973403931 1.55666399002075 1.33630573749542 1.30631494522095 1.69693970680237 1.38174033164978 1.52842569351196 1.20181453227997 1.53889560699463 1.58703219890594 2.20164895057678 2.43776655197144 3.27317404747009 2.93072247505188 3.88234567642212 3.80017828941345 3.50975108146667 4.61651754379272 2.55578207969666 4.27785062789917 3.80659508705139 4.24713706970215 4.26955366134644 3.69211983680725 4.16207551956177 3.94267582893372 3.82890748977661 3.7823269367218 2.88608622550964 3.48741602897644 3.53803396224976 3.41112089157104 3.54724764823914 3.78514623641968 4.05171871185303 4.01431703567505 4.63305711746216 5.18563461303711 5.04231452941895 5.11743688583374 5.22796010971069 4.43173789978027 4.26811218261719 3.90070199966431 3.72630572319031 3.81469678878784 18.9403285980225 13.0232906341553 6.7693338394165 5.43939971923828 11.9416275024414 8.85296058654785 10.5571041107178 13.891152381897 14.0763416290283 8.86178112030029 2.15788626670837 9.0932788848877 5.56107473373413 1.60841953754425 3.45369720458984 2.3315315246582 2.36499166488647 3.4091100692749 2.83866405487061 3.66671085357666 3.5943808555603 3.84588956832886 3.72860050201416 3.85909056663513 3.81688213348389 4.65765142440796 4.36025857925415 4.98045539855957 4.81704568862915 5.55327844619751 7.94554328918457 7.76495695114136 8.14070320129395 8.10928249359131 7.59124279022217 7.84153318405151 7.51469612121582 7.06950235366821 6.09103441238403 6.05562973022461 5.67836999893188 4.95884275436401 4.15324687957764 5.53098344802856 5.68506479263306 3.96256518363953 4.12087917327881 4.13340759277344 3.91385984420776 3.93108320236206 4.41498756408691
0.970790266990662 1.0207245349884 1.35742139816284 0.105496801435947 0.101480305194855 0.118346624076366 0.144647821784019 -0.318460494279861 -0.511319398880005 24.4342212677002 15.6775751113892 -1.99762904644012 -3.55124568939209 -3.35405278205872 -3.75834250450134 -3.72705554962158 -4.66733741760254 -1.00990009307861 2.14678335189819 -4.6855731010437 6.95172071456909 -3.60850048065186 -1.47579765319824 -2.86524176597595 8.54876327514648 -2.59860324859619 -2.42199635505676 -1.99729883670807 -2.44596028327942 -3.87475967407227 -1.99047768115997 -4.53190851211548 -3.96319913864136 -4.64086580276489 -4.6179518699646 4.63921594619751 -4.98257064819336 -1.87153995037079 -1.43808937072754 -3.74133086204529 -1.67986154556274 -5.18473958969116 -4.87686443328857 -4.02461528778076 -3.8671293258667 -2.6814546585083 -2.46810269355774 -2.62068128585815 -1.20469772815704 1.5665123462677 1.72562968730927 3.34873795509338 1.93964064121246 2.0998797416687 32.7417221069336 -2.24098873138428 -1.50407958030701 -1.66397595405579 -2.33347082138062 -1.95796418190002 -1.55737841129303 -1.44904661178589 -1.08911383152008 -1.29021692276001 -0.699605941772461 -1.04428625106812 7.24221277236938 -0.464861422777176 -0.50892847776413 -0.153519034385681 1.48717999458313 -0.214008942246437 2.57121968269348 2.19139742851257 2.4344003200531 2.42210507392883 2.3269157409668 2.19811606407166 2.03910136222839 1.4984986782074 1.50287783145905 1.82882487773895 1.22675037384033 1.49245262145996 1.65453660488129 1.32035720348358 1.62410855293274 1.64337706565857 2.28906083106995 2.5526123046875 3.46761989593506 3.12745451927185 4.10988426208496 3.97206354141235 4.80269813537598 2.82279896736145 2.61473822593689 4.51627111434937 3.94095087051392 4.38168096542358 4.38355255126953 3.78943037986755 4.26491165161133 4.04437637329102 3.92851376533508 3.03882217407227 2.92779541015625 3.55511975288391 3.61923766136169 3.50221562385559 3.65033483505249 3.88078880310059 4.16532897949219 4.1354513168335 4.7435998916626 5.30809116363525 5.1611328125 5.23024129867554 5.33264970779419 4.52167940139771 4.38454580307007 3.97733306884766 3.8017578125 3.89800691604614 3.43679141998291 4.80029392242432 23.5606269836426 9.26156234741211 5.56195402145386 3.9031240940094 4.00614786148071 3.72346448898315 3.68995380401611 3.57365942001343 14.3321104049683 3.8194363117218 1.7335125207901 1.69555032253265 3.6073784828186 2.39997053146362 2.44544982910156 3.49698162078857 2.90424013137817 3.73435378074646 3.78770995140076 3.99247574806213 3.90208959579468 3.94670867919922 4.033531665802 4.76119422912598 4.52715969085693 5.1074595451355 4.93331050872803 5.70104742050171 8.2096061706543 7.95971488952637 8.38583755493164 8.36550140380859 7.84073877334595 8.08759784698486 7.76448917388916 7.29207754135132 6.28738784790039 5.86869525909424 5.63965559005737 5.29052019119263 4.15631198883057 6.3037371635437 6.59632635116577 4.04854583740234 4.21416234970093 4.22377824783325 4.01140022277832 4.02662706375122 4.53784036636353
1.0204998254776 1.07684171199799 1.4394656419754 0.131715908646584 0.142834842205048 0.149727791547775 0.167776897549629 9.22835826873779 9.74400424957275 18.4232425689697 15.0460395812988 9.229172706604 22.8979167938232 -2.94445157051086 -3.59717702865601 -4.05489921569824 7.16532039642334 -4.61831712722778 -4.76918315887451 -4.24009418487549 9.93656730651855 -3.56102061271667 -2.9116804599762 -2.53943181037903 -2.32142281532288 2.18278169631958 15.8933725357056 -1.39651894569397 1.66261315345764 -3.28502869606018 -4.33497524261475 -4.36676931381226 -3.26571702957153 16.2796077728271 -4.70555973052979 -5.09118270874023 1.92089092731476 9.24498844146729 3.90733480453491 -3.60867214202881 7.40707731246948 2.70822501182556 -1.59918761253357 -3.54778122901917 -3.09202432632446 -1.95984792709351 -2.13706755638123 -1.46894574165344 1.86891949176788 1.70429408550262 3.94508290290833 6.08153486251831 1.96858870983124 5.26338052749634 -2.31386923789978 12.9698905944824 -1.46683025360107 -1.22796821594238 -1.16310179233551 -1.45081579685211 -1.17740678787231 -1.16084444522858 -0.658052623271942 -0.744261145591736 14.1472826004028 -0.937723875045776 -0.608824014663696 -0.214711561799049 3.58564424514771 0.35944402217865 3.60626649856567 2.86269402503967 3.01718354225159 2.81204390525818 2.45850777626038 2.66954135894775 2.46017479896545 2.34122276306152 2.22477555274963 1.48237979412079 1.61535811424255 1.94791173934937 1.55170071125031 1.61194849014282 1.78467357158661 1.44029402732849 1.75400531291962 1.74045920372009 2.41810011863708 2.66146945953369 3.65507912635803 4.03914642333984 4.3401951789856 4.15243721008301 5.0488109588623 2.72288346290588 4.65283346176147 2.85997438430786 4.07152509689331 4.50337553024292 4.49209928512573 3.878422498703 4.35815143585205 4.13129997253418 4.00362682342529 2.95561027526855 2.79052877426147 3.62285232543945 3.69899034500122 3.58668851852417 3.75542092323303 4.00022888183594 4.28119325637817 4.24436473846436 4.85293579101562 5.43262624740601 5.27866458892822 5.45794534683228 4.93506193161011 4.60654401779175 4.46838092803955 4.35946130752563 3.8651978969574 5.1330680847168 3.45123672485352 14.0617561340332 12.4416131973267 17.7214679718018 6.81844520568848 4.18600177764893 4.34197092056274 7.03900241851807 3.96978878974915 3.9185471534729 3.93340635299683 14.2557811737061 2.45818877220154 2.44727230072021 3.79103302955627 2.47820568084717 2.51387357711792 3.58335256576538 2.97351717948914 3.8065710067749 3.85464406013489 4.06337070465088 3.97661185264587 4.18952083587646 4.48172187805176 4.87841176986694 4.63477325439453 5.24285221099854 5.01563596725464 5.8993878364563 8.30960941314697 9.52123355865479 8.7809009552002 8.63757705688477 8.10221862792969 8.35283088684082 8.04109382629395 7.52930450439453 6.4920015335083 6.04856586456299 5.28253412246704 7.04042863845825 5.38742876052856 7.31911993026733 7.84911012649536 4.13825464248657 4.31103849411011 4.31491994857788 4.11070442199707 4.28247451782227 4.75647401809692
1.06700801849365 1.14050078392029 1.5068382024765 0.153251811861992 0.171510383486748 0.196240276098251 0.210006669163704 -0.230423912405968 -0.413837641477585 -1.0311861038208 -0.0530323050916195 21.577995300293 -2.426194190979 -3.04891085624695 -3.46987104415894 -3.89518785476685 -4.28282785415649 2.66235876083374 -4.4532470703125 -1.4361971616745 -4.52741050720215 1.7257399559021 -2.61074233055115 -1.81466698646545 -1.83816730976105 15.7258682250977 -2.38472080230713 -1.61038947105408 -1.64713048934937 -3.28464126586914 -3.9380886554718 -4.16762971878052 0.104419820010662 -4.13563823699951 -1.16533052921295 -4.8683705329895 -3.1291389465332 1.87112879753113 -5.05243492126465 0.12538568675518 9.51566600799561 7.25725269317627 -4.5654444694519 -3.43314480781555 -1.78993928432465 -2.16285300254822 -1.78259754180908 1.13915145397186 17.5238800048828 4.83050632476807 7.26891899108887 7.6178879737854 6.90498447418213 20.9051055908203 8.56846332550049 -1.728071808815 3.31902575492859 0.855513215065002 5.66693592071533 9.335862159729 -0.356347739696503 -0.230267390608788 19.5739974975586 -0.603214859962463 1.01528334617615 -0.87197607755661 -0.567394852638245 0.0900574401021004 0.230405196547508 3.58015251159668 4.79196643829346 3.56330299377441 3.54895496368408 3.22453165054321 2.98372554779053 2.66394948959351 2.67987728118896 2.53717756271362 2.37547850608826 1.55546641349792 1.71068096160889 2.06823539733887 1.69404900074005 1.90139532089233 1.58748996257782 1.58643448352814 1.90235304832458 1.86921739578247 2.57095289230347 2.84679293632507 3.85381674766541 4.21138429641724 4.55550622940063 4.33671712875366 5.30583906173706 2.82830286026001 4.91159105300903 3.07788157463074 4.18289422988892 4.60785675048828 4.59668350219727 3.95853734016418 4.44292068481445 4.20584726333618 4.07719135284424 3.01155185699463 2.837073802948 3.69653797149658 3.77938723564148 3.65499091148376 3.83452653884888 4.09933662414551 4.40283632278442 4.36516094207764 4.97092390060425 5.55526399612427 5.39855241775513 5.57302045822144 4.9432430267334 4.69900798797607 4.55184125900269 4.43479442596436 3.72503232955933 3.95034050941467 3.94838166236877 3.06308841705322 2.93486738204956 3.25501036643982 6.9962420463562 4.65673589706421 27.81982421875 10.3394861221313 4.60331249237061 4.09408855438232 4.49086380004883 3.82258129119873 2.5596489906311 2.53999543190002 3.97807598114014 2.57740020751953 2.60996413230896 3.66949248313904 3.80457496643066 3.90719699859619 3.96120429039001 4.18326711654663 4.05569267272949 4.274742603302 4.57392311096191 4.99822759628296 5.40977334976196 5.23389768600464 5.15521287918091 6.11581754684448 8.33688259124756 8.1368989944458 8.57723140716553 8.80254173278809 8.30933380126953 10.7728281021118 10.389331817627 7.78576231002808 6.70807313919067 6.23082685470581 5.46192359924316 11.7620286941528 8.0272388458252 9.94962882995605 4.95729780197144 4.42250347137451 4.2872633934021 4.40949296951294 4.20816469192505 4.80485868453979 4.98537635803223
1.13231444358826 1.21798431873322 1.57274663448334 0.180761069059372 0.20460832118988 0.240525245666504 0.269590258598328 0.426376402378082 3.06547141075134 6.46539449691772 -1.70727300643921 5.76029348373413 7.67373752593994 27.8298740386963 8.76021671295166 -3.55448412895203 -3.74759411811829 -4.29332542419434 -2.96320772171021 8.15317153930664 -4.00898933410645 -3.57267832756042 -1.82937455177307 -1.81007301807404 0.421218365430832 -0.351009964942932 0.149209246039391 -1.27736186981201 -1.36293148994446 -2.55062079429626 -3.53266859054565 0.782537996768951 2.03439903259277 0.658073425292969 10.1656179428101 -1.09133493900299 -4.41297960281372 -4.94463157653809 -4.77402257919312 -4.76424503326416 -5.04097127914429 -4.69517517089844 -4.22996807098389 -2.84013295173645 -1.0470222234726 -0.731129348278046 7.70709705352783 5.206298828125 9.55129718780518 17.4917964935303 8.80274105072021 9.11268329620361 6.45562028884888 -2.03599572181702 8.94920825958252 25.9201622009277 5.55830860137939 3.72628831863403 13.3443641662598 17.513744354248 0.427515476942062 -0.224853083491325 -0.740199863910675 -0.264964818954468 -0.57527107000351 -0.441352844238281 -0.146087408065796 2.23463344573975 2.29034638404846 4.90160799026489 6.66508722305298 4.35712194442749 4.12524461746216 3.67913007736206 3.32924389839172 2.9388644695282 2.90450739860535 2.70500159263611 2.53456449508667 1.67679476737976 1.82712018489838 2.21433448791504 1.84170734882355 2.05511069297791 1.67970752716064 1.50703680515289 2.04701852798462 1.99742770195007 2.75374698638916 2.98971843719482 4.08312511444092 4.39463758468628 4.77585124969482 4.51209115982056 5.60702228546143 2.95036768913269 5.15108060836792 3.15820837020874 4.49981832504272 4.68795156478882 4.68403959274292 4.01271677017212 4.51615047454834 4.27682542800903 4.15916872024536 3.05846285820007 3.76428365707397 3.5117027759552 3.85792922973633 3.72492814064026 3.90742301940918 4.19512224197388 4.51485443115234 4.46920204162598 5.08415174484253 5.6831636428833 5.51212120056152 5.68691205978394 5.02557945251465 4.70815086364746 4.63729953765869 4.51696920394897 3.76323795318604 4.09889316558838 4.0236029624939 3.82637286186218 3.9107506275177 4.10150051116943 7.4777193069458 5.53852844238281 4.09073066711426 20.9886512756348 11.9054069519043 4.67493963241577 4.5982403755188 4.32360076904297 2.98580312728882 2.64385461807251 4.2160005569458 3.17731785774231 3.32623410224915 3.77323651313782 3.8904173374176 3.98583102226257 4.00693321228027 4.22630071640015 4.15795135498047 4.367844581604 4.67195844650269 5.12184715270996 5.55911874771118 5.38999366760254 5.33206367492676 6.32196092605591 9.03808879852295 8.85675144195557 8.83161354064941 9.06380844116211 8.54976654052734 8.55770111083984 8.24726104736328 7.9777889251709 6.86843299865723 6.38293409347534 7.23234128952026 9.21300983428955 15.5421504974365 17.0604724884033 7.38958883285522 4.52343225479126 4.30849981307983 4.50354480743408 4.31435966491699 4.94014835357666 5.13329458236694
1.16835522651672 1.25926172733307 1.63203990459442 0.203013554215431 0.23186132311821 0.275220215320587 0.310602605342865 1.52109432220459 7.60950708389282 23.8945751190186 2.07963848114014 0.578419029712677 22.5313816070557 -1.12374079227448 -3.12130665779114 -3.12178373336792 -3.69959306716919 6.66482543945312 1.84475922584534 -4.48415231704712 -3.34393811225891 -2.31250834465027 -2.36237788200378 -1.09384369850159 0.161911934614182 3.67252731323242 4.99678897857666 -1.16056847572327 0.561221420764923 -2.28065299987793 -2.90222382545471 12.1347608566284 -2.68659114837646 3.58341550827026 14.0080299377441 2.05471611022949 -4.28725147247314 13.5091276168823 -4.63485097885132 -4.51539611816406 -4.56425333023071 17.1906757354736 -1.33657848834991 -1.49038803577423 8.24601078033447 13.0979385375977 4.0912766456604 16.2177867889404 29.4407386779785 8.78887367248535 14.2416334152222 9.1077823638916 16.7066879272461 3.98603200912476 3.68638181686401 -1.35865068435669 7.18953084945679 6.23285627365112 -0.967400372028351 -1.00418519973755 -0.277336150407791 -0.0105591164901853 -0.0571009181439877 1.26355636119843 -0.222525522112846 -0.000689540582243353 0.446599721908569 2.31649041175842 6.11544370651245 9.58041477203369 6.2765736579895 5.2818169593811 4.82900667190552 4.20383405685425 3.75033020973206 3.25632214546204 3.17285442352295 2.90095496177673 2.70015668869019 1.82905697822571 1.98107254505157 2.38912534713745 1.99539637565613 2.22925853729248 1.82137930393219 2.09752631187439 2.17440247535706 2.11698889732361 2.96461534500122 3.15834355354309 4.35535049438477 4.59504842758179 5.01340532302856 4.63255500793457 5.90673542022705 3.02907586097717 5.30787086486816 4.28008460998535 4.68669557571411 4.75202465057373 4.68278408050537 4.07047510147095 4.58415412902832 4.34983158111572 4.23324060440063 3.65471601486206 3.83829855918884 3.90235829353333 3.94022655487061 3.80571675300598 3.99196553230286 4.2933988571167 4.62274599075317 4.6071605682373 5.18261432647705 5.8087100982666 5.63720369338989 5.79874801635742 5.13024806976318 4.74250602722168 4.71999168395996 4.59071397781372 3.84293293952942 4.18916082382202 4.09596633911133 4.06439638137817 3.96917986869812 4.24242639541626 7.82778978347778 5.85680770874023 4.7205228805542 4.29515075683594 14.2378530502319 9.65416717529297 5.19930839538574 5.10231828689575 3.59055685997009 2.87870383262634 4.44054794311523 3.24781489372253 3.89008760452271 3.88336706161499 4.08956527709961 4.07906293869019 4.27442407608032 4.32854700088501 4.25443983078003 4.45949506759644 4.77185249328613 5.24018096923828 5.7681713104248 5.56886386871338 5.59647941589355 6.56640481948853 9.35025787353516 9.16640853881836 9.51979923248291 9.54360103607178 8.99240207672119 9.02491760253906 16.4746036529541 8.12376594543457 7.0576868057251 6.53763580322266 12.7729978561401 4.34730911254883 9.42942714691162 11.0188884735107 7.592453956604 4.62869501113892 4.61871719360352 4.35086011886597 4.42455244064331 5.08454084396362 5.29796981811523
1.21220314502716 1.31901562213898 1.7166246175766 0.236834049224854 0.259600609540939 0.313173770904541 0.355620265007019 1.62069749832153 0.0145489685237408 -0.936577439308167 0.532165706157684 12.8164377212524 4.69523525238037 9.69534492492676 9.0409984588623 3.03550910949707 -3.4679696559906 -4.04029512405396 -2.16303253173828 -4.11809682846069 -2.93076777458191 -2.05638837814331 -1.35747826099396 -1.08064293861389 1.39956796169281 -3.35746049880981 10.081937789917 -0.652424693107605 -0.737093687057495 -1.38528215885162 -2.17644476890564 -1.73828232288361 -1.18892335891724 -2.42131996154785 28.0456390380859 -3.50304174423218 -3.92919230461121 -4.48061752319336 -4.40482902526855 -4.31510210037231 -4.1996374130249 -4.02250051498413 -3.15652990341187 5.68039798736572 20.027774810791 3.31562924385071 9.55524826049805 7.53458976745605 9.89862632751465 23.5643901824951 11.9995861053467 7.99575567245483 0.471092522144318 6.6970911026001 -1.72172033786774 11.3646211624146 -0.633370220661163 28.8460578918457 2.4052197933197 0.281734198331833 1.61287999153137 5.25624990463257 6.01322031021118 3.25315189361572 1.05275392532349 0.356246322393417 5.18087816238403 7.15283536911011 9.10213851928711 14.0584287643433 7.50872325897217 6.46302080154419 5.54089498519897 4.7149019241333 4.24649095535278 3.68773698806763 3.14813494682312 3.16701006889343 2.89437389373779 1.9841388463974 2.19096541404724 2.59456491470337 2.16146492958069 2.39705491065979 1.96264231204987 2.2671902179718 2.16178941726685 2.23089456558228 3.16721677780151 4.63794851303101 4.13290882110596 4.81744527816772 5.28888893127441 4.85837697982788 6.12632846832275 3.06501793861389 5.4845724105835 4.36134433746338 4.79608011245728 4.78167915344238 4.35589170455933 4.12351512908936 4.65501737594604 4.41658496856689 4.29621696472168 3.87474179267883 4.18376779556274 3.94842290878296 4.03592872619629 3.88549137115479 4.09208297729492 4.39095830917358 4.75069665908813 4.72963428497314 5.31589126586914 5.91646862030029 5.76834774017334 5.91749811172485 5.23944568634033 4.85197925567627 4.42698574066162 4.66922950744629 3.92228722572327 4.28298139572144 3.95052289962769 4.12200498580933 4.01056575775146 4.25289249420166 8.03301811218262 6.1183123588562 6.29425525665283 5.54815435409546 4.97351408004761 5.11163949966431 5.34638690948486 5.21182727813721 4.11984157562256 3.95866417884827 4.71835041046143 3.32144737243652 4.02189064025879 3.72728276252747 4.1862964630127 4.23408985137939 4.4546971321106 4.39229297637939 4.54084014892578 4.75120210647583 4.87170267105103 5.41463851928711 5.92010498046875 5.74086952209473 6.06024122238159 7.06970167160034 9.73306369781494 9.54454898834229 9.85207271575928 9.88731479644775 9.32456111907959 9.57687091827393 8.40968704223633 8.15567111968994 7.21612501144409 6.66195869445801 5.44631814956665 6.96689796447754 13.5576133728027 22.0783405303955 4.18998622894287 4.73927116394043 4.72218179702759 4.44176197052002 4.53867292404175 5.2497181892395 5.49303150177002
1.31357216835022 1.42614495754242 1.79899752140045 0.288264632225037 0.296356946229935 0.352617472410202 0.399479001760483 1.70598137378693 0.365551501512527 -0.430945992469788 -1.65841603279114 8.33854293823242 6.67004060745239 24.2672843933105 29.2392177581787 -2.71580123901367 -3.23586702346802 -3.92996764183044 17.2868614196777 14.8654527664185 -2.29461455345154 -1.65761613845825 1.04284656047821 -0.443195760250092 11.9044933319092 6.69275236129761 -1.78382420539856 -0.321696072816849 -0.696965098381042 -0.137468680739403 -1.74803137779236 -1.70105850696564 2.06410765647888 4.18354511260986 -3.72658753395081 -3.36012315750122 -2.44367575645447 -4.01785278320312 -2.29504299163818 -4.0754599571228 -4.01181840896606 -3.84757494926453 -2.64693784713745 -2.05768728256226 -0.973364353179932 15.7784261703491 10.5332231521606 15.5162982940674 -0.553441226482391 2.09325337409973 11.1968698501587 23.0337619781494 10.3623924255371 -0.885285973548889 -1.66060507297516 -1.30026519298553 -0.732814908027649 -0.917851567268372 0.00707520265132189 1.90294337272644 3.70734429359436 17.0376529693604 5.6513090133667 14.0014886856079 4.55560398101807 6.11586952209473 21.4309577941895 16.2041778564453 14.8166799545288 23.983003616333 8.73696899414062 7.67871284484863 6.25926733016968 5.33035278320312 4.76947927474976 4.14876365661621 3.07789421081543 3.45351004600525 3.1440749168396 2.16759848594666 2.39874768257141 2.84713912010193 2.3407735824585 2.5630247592926 2.09251809120178 2.38912582397461 2.29559564590454 2.36284971237183 3.36117696762085 4.99831533432007 4.44765281677246 5.07402658462524 5.58554983139038 5.04745483398438 6.38354539871216 3.11178755760193 5.67026662826538 4.43892097473145 4.89161682128906 4.86877584457397 4.14176893234253 4.17066621780396 4.71517562866211 4.47158193588257 4.3552303314209 3.91422438621521 4.22978210449219 3.99054050445557 4.11497497558594 3.9723334312439 4.17802810668945 4.49867248535156 4.86628866195679 5.42491149902344 5.03370761871338 6.0688328742981 5.89633274078369 6.04314947128296 5.35602855682373 4.95962905883789 4.75580453872681 4.24910497665405 3.98997807502747 4.37118291854858 4.0204062461853 4.17890596389771 4.22588348388672 4.27704477310181 8.27370071411133 6.31378555297852 5.82485675811768 5.57526826858521 5.56716585159302 5.2071270942688 5.46668720245361 5.65002727508545 4.31949949264526 4.10142993927002 5.04107141494751 3.39374589920044 4.1517539024353 4.23739767074585 4.45787811279297 4.33125352859497 4.56794023513794 4.63976955413818 4.68067455291748 5.01845788955688 5.23043870925903 5.5353627204895 6.11706733703613 5.95869159698486 6.57829523086548 8.45821857452393 10.0800533294678 10.2026338577271 10.262583732605 10.3022050857544 9.7256383895874 9.92715549468994 9.13944530487061 8.23912239074707 7.46107959747314 6.92200994491577 5.55933856964111 4.33033847808838 30.9791774749756 4.11343860626221 4.64367246627808 4.84114646911621 4.82146024703979 4.53740501403809 4.66695165634155 5.43321228027344 5.70810174942017
1.34301853179932 1.78740656375885 0.293119609355927 0.348917156457901 0.353577584028244 0.399537801742554 0.445143759250641 1.81654810905457 1.0482120513916 0.014879978261888 13.6803312301636 -2.11141681671143 -2.43785500526428 -2.62208223342896 0.206789910793304 -2.554368019104 -2.12580275535583 -3.61516761779785 -4.02826070785522 7.55456590652466 16.17626953125 -0.640172839164734 8.10960483551025 2.46379327774048 7.13096141815186 -2.74534273147583 0.410656720399857 -0.617227971553802 0.136096030473709 2.49533605575562 0.925740659236908 2.05566549301147 10.089898109436 4.6345853805542 2.04220819473267 -2.90144443511963 -3.33357954025269 14.9346885681152 7.71236658096313 -0.551310420036316 -0.684210360050201 -3.49497079849243 -2.63407683372498 -1.36469507217407 -0.228416100144386 23.1490249633789 17.0852527618408 -0.231924638152122 7.04498434066772 2.22912263870239 18.6979942321777 16.5317687988281 15.0222721099854 -1.66484665870667 -0.668676853179932 8.7812671661377 -0.513057053089142 -0.120369769632816 3.62188100814819 5.60591125488281 15.8555812835693 8.698166847229 1.49068593978882 3.31427049636841 23.4209461212158 37.2575225830078 41.4154357910156 20.8879795074463 15.8751621246338 18.4422149658203 10.5392713546753 9.48416233062744 7.34182691574097 6.09311008453369 5.36800527572632 4.63463973999023 3.83480596542358 3.4543731212616 3.41572308540344 2.23528242111206 2.60782790184021 3.06999492645264 2.51693344116211 2.71637892723083 2.22302889823914 2.53024363517761 2.40457963943481 2.48953437805176 3.5444176197052 5.38477468490601 4.80456972122192 5.83440017700195 5.87516736984253 5.31661987304688 6.69254636764526 3.16397023200989 5.89631748199463 4.51732206344604 4.98070335388184 4.96334505081177 4.20490217208862 4.52444839477539 4.77437543869019 4.51403284072876 4.27699899673462 3.93963932991028 4.2648983001709 4.03457832336426 4.19536542892456 4.04133558273315 4.24192523956299 4.58526229858398 4.97207117080688 5.53059148788452 6.19810628890991 6.02692651748657 5.97015762329102 6.16917276382446 5.27577066421509 5.06852006912231 4.83429098129272 4.31296825408936 4.06493520736694 4.45556020736694 4.09138584136963 4.40335559844971 4.38101100921631 8.97396469116211 6.20476531982422 6.58141851425171 5.26030921936035 5.58699226379395 5.65043926239014 5.86766529083252 6.09014797210693 5.77178573608398 4.99653625488281 5.41521787643433 3.90661525726318 3.81531023979187 4.28031396865845 4.32902574539185 4.56444263458252 4.45118188858032 4.69088506698608 4.77561950683594 5.03141689300537 5.12543630599976 5.32766532897949 5.70089054107666 6.35690546035767 6.1890983581543 7.45629215240479 9.54300022125244 10.4910020828247 10.6428146362305 10.6121234893799 10.6662645339966 10.0091867446899 10.3683452606201 9.62780666351318 8.50073432922363 7.76224136352539 6.95940399169922 6.23732995986938 5.8779091835022 3.68255400657654 5.1947169303894 4.78567934036255 4.99829006195068 4.97642469406128 4.83406019210815 4.88856363296509 5.66080856323242 5.88413190841675
1.39649188518524 1.85832512378693 0.353040963411331 0.408453285694122 0.410699337720871 0.461902439594269 0.505095779895782 1.91064941883087 2.19689559936523 1.19226729869843 -1.43786334991455 -1.50218284130096 -2.08506464958191 -1.00586605072021 -2.97714877128601 19.7839450836182 -2.62670850753784 -3.43491673469543 -3.79642367362976 -3.72429442405701 -2.06593155860901 -0.512476623058319 -1.21647310256958 25.2228412628174 -1.30135428905487 -1.05370688438416 -1.01885378360748 -0.0247700903564692 5.6463794708252 8.20014381408691 1.35884356498718 8.72553443908691 -0.835567951202393 -2.08283686637878 -2.6333441734314 3.12344598770142 -3.06865835189819 0.499836951494217 -3.73351216316223 -3.80063056945801 -3.71925139427185 -3.3178882598877 -2.42007207870483 0.984585464000702 -0.175352737307549 -0.321723103523254 -2.47922325134277 -3.4607994556427 -3.61204695701599 -3.55021977424622 0.762870669364929 -2.79956245422363 -1.87606656551361 -1.44687104225159 0.201465263962746 16.3839282989502 -0.379318952560425 9.55070304870605 16.8147201538086 7.32222270965576 3.72414684295654 0.77758401632309 18.4146156311035 26.0701675415039 43.0232620239258 2.0479519367218 4.12758255004883 6.07145214080811 7.98180913925171 1.62431287765503 11.8997707366943 8.5877571105957 8.86268424987793 7.10404443740845 6.12341499328613 5.18794584274292 4.17164897918701 3.77137303352356 3.03628468513489 2.78568577766418 2.65278172492981 3.29604291915894 2.70544242858887 2.91790223121643 2.35972356796265 2.67496609687805 2.54067969322205 3.76027250289917 3.97832846641541 5.83015012741089 5.19038105010986 6.26705408096313 5.66599369049072 5.55144166946411 7.06014966964722 3.2389018535614 6.14361333847046 4.61730575561523 5.07722568511963 5.06929016113281 4.27200889587402 4.81567192077637 4.53643989562988 4.4074387550354 4.3112587928772 3.95299434661865 4.29132080078125 4.06334066390991 4.25912809371948 4.05962562561035 4.30656290054321 4.66049337387085 5.07089138031006 5.62363004684448 6.31533908843994 6.13821744918823 6.21182441711426 6.27784872055054 5.24889326095581 5.17237091064453 4.90406847000122 4.37537956237793 4.54729270935059 4.37819290161133 4.1591591835022 4.47516393661499 4.49083042144775 9.63233280181885 6.75964021682739 7.11974620819092 5.33304071426392 5.62796640396118 5.67026662826538 5.9089617729187 6.17700576782227 5.90039205551147 5.11836099624634 5.82310676574707 3.98487782478333 3.88706588745117 4.40761613845825 4.42146492004395 4.71054029464722 4.57414484024048 4.81289720535278 4.87936401367188 5.22728061676025 5.32023429870605 5.91356801986694 5.72110271453857 6.59604454040527 6.56117820739746 7.8103494644165 11.0052576065063 10.8581848144531 11.1542749404907 11.1952133178711 10.8563451766968 10.8099212646484 18.2980194091797 10.2881155014038 8.69439220428467 7.73932266235352 14.7863349914551 11.6300039291382 5.28380155563354 4.78034400939941 5.42617177963257 4.88532495498657 5.11445283889771 5.08528566360474 5.00767135620117 5.03290224075317 5.85353326797485 6.12144660949707
1.47910726070404 1.95232594013214 0.417532622814178 0.453453689813614 0.485425293445587 0.505928456783295 2.01557397842407 1.88797807693481 2.36354780197144 1.4954479932785 -0.684582889080048 -1.24598217010498 -1.8531905412674 -2.16383934020996 -2.71828436851501 -2.54836511611938 -2.55719351768494 2.87443995475769 -3.11478638648987 -2.41814184188843 -1.5033655166626 -0.494799375534058 6.44003486633301 -0.855562031269073 22.7637348175049 -0.897141098976135 -0.548042953014374 0.307990461587906 -1.60943555831909 -1.33883893489838 -1.73071229457855 12.8442344665527 9.28518676757812 4.81626176834106 4.95287847518921 -2.10228562355042 -2.1984875202179 -3.52400708198547 -3.08175730705261 -3.15350151062012 -3.11438798904419 -2.96480989456177 -1.78679597377777 1.05845236778259 -0.0832974165678024 4.6491494178772 5.54928016662598 -3.35205054283142 -3.3624415397644 0.730774223804474 -3.50094938278198 5.1546459197998 -1.83119809627533 -0.630630493164062 0.030584217980504 29.5045108795166 -0.0661221593618393 0.000524750910699368 0.0259292982518673 19.6578464508057 11.7774982452393 20.3701953887939 36.1839485168457 14.0843868255615 1.18524980545044 45.2568664550781 6.21045589447021 10.325177192688 21.7123546600342 38.9067153930664 18.5266571044922 10.7142639160156 10.9058294296265 8.56800746917725 7.10743141174316 5.88999223709106 4.53304576873779 4.12522268295288 2.90342473983765 3.01692390441895 3.48512172698975 2.4826066493988 2.89756178855896 3.13130950927734 2.52760171890259 2.81442713737488 2.89114165306091 4.09198999404907 4.28925037384033 6.34135580062866 5.59864091873169 6.66910123825073 6.03108930587769 7.54459190368652 4.08776712417603 3.34217643737793 6.44991683959961 4.71745109558105 5.2013053894043 5.18060731887817 4.33830165863037 4.89581537246704 4.60198354721069 4.46349573135376 3.76565313339233 3.95955991744995 4.31867218017578 4.28701686859131 4.11798191070557 4.30682563781738 4.6760401725769 5.10802316665649 5.10684299468994 5.71177196502686 6.41976976394653 6.24990940093994 6.32589244842529 6.39987468719482 5.29745483398438 5.27791929244995 4.96252298355103 4.43386888504028 4.60720443725586 4.44497728347778 4.3863377571106 4.54892349243164 4.57344484329224 10.393274307251 7.31962203979492 7.80442905426025 5.46694993972778 5.75173330307007 5.75637674331665 5.96342802047729 6.24410963058472 5.99550485610962 5.22620868682861 6.31372594833374 4.08455467224121 4.35654258728027 4.56203842163086 4.51692008972168 4.82134437561035 4.6975564956665 4.94486904144287 5.65750455856323 5.26962757110596 5.43953227996826 6.10462951660156 5.8571515083313 6.86321067810059 6.87596654891968 8.18144416809082 11.5166454315186 11.3893203735352 11.7070159912109 11.7002477645874 11.1187171936035 11.3026990890503 10.2089910507202 13.1326522827148 13.3612966537476 8.44118976593018 8.63849925994873 7.15426445007324 11.7843818664551 5.44306659698486 5.56119632720947 5.03584623336792 5.28736209869385 5.24790811538696 5.17383050918579 5.18715333938599 6.10176372528076 6.37011194229126
1.75017833709717 2.0731942653656 0.476626425981522 0.506124079227448 0.527700364589691 0.561454892158508 2.12233424186707 1.87723922729492 2.56291031837463 1.98356890678406 0.263091444969177 -0.976025998592377 -1.65184986591339 -1.38108313083649 -2.43828105926514 -2.48009181022644 -2.41482639312744 -2.28512954711914 -2.42706370353699 -2.33835697174072 -1.1899151802063 1.19072389602661 0.0917919799685478 -0.473026603460312 -1.2231330871582 -0.812036752700806 0.496515989303589 0.580900251865387 -1.13561880588531 -0.620003998279572 -1.01524496078491 -2.01658034324646 20.3001174926758 8.43261051177979 3.69828486442566 0.525696694850922 -1.98717844486237 -2.58599209785461 -2.48115921020508 -2.80552339553833 -2.79197406768799 -2.47285962104797 -1.42679488658905 -1.57098186016083 0.0593630559742451 -1.48734617233276 -2.04657936096191 -3.23910045623779 11.440465927124 -3.33522629737854 -2.86617684364319 10.7708377838135 13.860897064209 0.591215670108795 3.91948223114014 -1.18375706672668 0.0581417270004749 2.57069706916809 3.82092642784119 3.59680557250977 23.405574798584 37.683032989502 7.02352285385132 2.24973344802856 1.90705287456512 1.44521915912628 50.7171630859375 47.1298980712891 1.57744896411896 8.92023849487305 19.7204551696777 15.1528053283691 9.31087112426758 10.4953145980835 8.4808235168457 6.81236267089844 4.98223781585693 4.51709222793579 3.19946837425232 3.31504702568054 3.76653003692627 3.04393553733826 3.0352942943573 3.34463620185852 2.70941424369812 2.97968864440918 3.10571694374084 4.44424104690552 4.64132261276245 6.96278762817383 6.2768931388855 7.12889719009399 6.41700649261475 8.02335166931152 3.52188944816589 6.86428546905518 3.31414222717285 4.8270206451416 5.32239198684692 5.30410289764404 4.40624570846558 4.98362827301025 4.6828727722168 4.53990888595581 3.99193358421326 4.31907081604004 4.109215259552 4.32257652282715 4.161208152771 4.38630294799805 4.75292873382568 5.17857313156128 5.15929794311523 5.77119398117065 6.50847196578979 6.34757041931152 6.51096200942993 5.82772397994995 5.39412212371826 5.35758972167969 5.0382137298584 4.49054288864136 4.68181753158569 4.51091289520264 4.45230484008789 4.60957145690918 4.65555858612061 11.2443723678589 7.92760229110718 8.68014621734619 5.91772031784058 5.8264012336731 5.89837503433228 6.06195640563965 6.33173990249634 6.07962989807129 5.31596422195435 6.88448762893677 4.18343496322632 4.45887279510498 4.71834230422974 4.61931085586548 4.92449951171875 4.81985235214233 5.08002996444702 6.09454298019409 5.3895959854126 5.55741024017334 6.30064916610718 5.98873472213745 7.13986778259277 7.20273923873901 8.59322738647461 12.0489854812622 11.9373846054077 12.3054895401001 12.2778635025024 11.6526098251343 11.8129806518555 10.7414665222168 9.83132171630859 8.60845947265625 12.0215711593628 31.7411956787109 20.66579246521 7.25341081619263 8.04979705810547 5.72929668426514 5.19858360290527 5.46007919311523 5.40492677688599 5.36442041397095 5.38183498382568 6.35449981689453 6.63352489471436
2.1092255115509 2.20809626579285 0.557098507881165 0.555568158626556 0.599500954151154 0.649248361587524 2.24022507667542 1.99980175495148 2.81560039520264 0.781542003154755 0.65960818529129 -0.517472863197327 -1.50676989555359 -1.28559327125549 -1.71737432479858 -1.50558137893677 -1.72274398803711 -1.87280988693237 -1.44303011894226 -0.650779783725739 -0.134553149342537 0.63168340921402 2.59703874588013 0.160311356186867 -0.40623465180397 -0.345320969820023 0.678575336933136 1.22910857200623 -0.711845099925995 -1.70524477958679 -0.730957806110382 -1.68343544006348 -2.15309691429138 -1.71183526515961 16.4863014221191 -1.67888641357422 -1.76798069477081 -2.36043286323547 -1.40466332435608 -1.38003385066986 -2.13694453239441 3.00684189796448 1.5792533159256 -0.688189148902893 0.244183227419853 -1.34046185016632 -2.35405349731445 -2.74300718307495 -3.28795051574707 -3.27056097984314 -2.29300761222839 -2.24829864501953 -1.76180684566498 4.4716477394104 1.29696798324585 1.91122472286224 6.52154636383057 6.36055135726929 7.3255500793457 23.3378238677979 42.4876823425293 2.73351812362671 1.92521297931671 4.16101789474487 12.2683448791504 42.4173164367676 0.237693816423416 1.01115918159485 45.6985702514648 10.4409484863281 30.8571872711182 20.3514442443848 14.3751964569092 10.3466205596924 10.3678779602051 8.09713459014893 5.57262086868286 5.01538038253784 3.54429864883423 3.65441274642944 4.09839200973511 3.26204252243042 3.52941513061523 2.93320727348328 2.89322352409363 3.16977381706238 3.35756015777588 4.80838680267334 5.0476713180542 7.77014589309692 6.72287702560425 7.670823097229 6.83601522445679 8.53681373596191 3.68060159683228 7.27362775802612 3.39928197860718 4.94678258895874 5.43786668777466 5.4226450920105 4.48607110977173 5.06654977798462 4.76428174972534 4.62012529373169 4.02133226394653 4.36880826950073 4.14934921264648 4.38004112243652 4.21993923187256 4.48980855941772 4.84692907333374 5.2783203125 5.23507070541382 5.83007717132568 6.57318353652954 6.39931869506836 6.57612037658691 5.8817253112793 5.49125862121582 5.50530052185059 5.11801290512085 4.3077073097229 4.76013278961182 4.56872272491455 4.51295852661133 4.67393779754639 4.73630475997925 12.246545791626 8.61437225341797 9.70215320587158 6.05310010910034 5.97096633911133 6.042724609375 6.18829822540283 6.43494415283203 5.89174127578735 5.40965032577515 7.4921407699585 4.58244752883911 4.57586765289307 4.90179824829102 4.99283170700073 5.02835655212402 4.98320722579956 5.21676731109619 6.59618473052979 5.60464572906494 5.89287567138672 6.50476217269897 6.2616171836853 7.42370748519897 7.60789966583252 9.03321075439453 12.6175394058228 12.5310735702515 12.9578332901001 12.9213800430298 12.2377510070801 12.201247215271 11.3322715759277 10.3503398895264 9.02668285369873 8.22737216949463 5.89899635314941 10.9293937683105 8.77922534942627 15.4564962387085 7.25117158889771 5.6140398979187 5.42187929153442 5.5565972328186 5.55386924743652 6.17448329925537 6.87398433685303 7.43227529525757
2.60314893722534 2.35260820388794 0.613155841827393 0.611420929431915 0.656046688556671 0.713120877742767 2.36274528503418 2.12921357154846 3.07710528373718 0.892838299274445 0.965006649494171 5.54571294784546 -0.647299468517303 -0.295801520347595 -1.13091897964478 -1.16082310676575 -1.64667665958405 -1.78096055984497 -1.2880345582962 -0.696249485015869 0.13753816485405 0.834562361240387 0.800384044647217 1.33640468120575 1.00320029258728 0.430203706026077 1.26537799835205 1.75634491443634 -0.576951920986176 -1.40461003780365 -0.670738995075226 -1.33324694633484 -1.60606968402863 5.91914939880371 -2.2370011806488 -1.67468369007111 -1.49142622947693 -2.11683583259583 -0.815150082111359 -0.978891372680664 -0.996954023838043 -2.1008038520813 -1.2129989862442 1.32928907871246 0.380033850669861 0.125687569379807 -1.42124426364899 -2.5957727432251 -2.75065660476685 -2.37388944625854 -1.91810917854309 -1.78496432304382 -1.39626026153564 2.65619206428528 16.336877822876 -0.469560503959656 21.988302230835 14.9677133560181 12.0716390609741 44.3295783996582 1.79157888889313 3.64972758293152 2.29759883880615 38.2469520568848 48.3491172790527 10.2769041061401 3.93464207649231 0.915037512779236 2.37588334083557 52.0981025695801 2.29076600074768 29.4917697906494 19.1743412017822 14.0463628768921 9.39286613464355 9.94091320037842 6.30587911605835 5.65634632110596 3.98778581619263 4.06897878646851 4.49639797210693 3.52113342285156 3.7843234539032 3.07544231414795 2.57946586608887 3.3664665222168 3.65542364120483 5.23141288757324 5.47159671783447 8.76197147369385 7.52465486526489 8.36521244049072 7.33451795578003 9.1425952911377 3.83321475982666 7.72507047653198 3.66232848167419 5.08397102355957 5.57336282730103 5.53523921966553 4.56819915771484 5.16169023513794 4.83880233764648 4.69430446624756 4.05838012695312 4.41567230224609 4.21933221817017 4.45552110671997 4.29012155532837 4.54605388641357 4.92452001571655 5.37737655639648 5.31805419921875 5.90393018722534 6.67395162582397 6.47647142410278 6.64188861846924 5.93979835510254 5.42944955825806 5.63592958450317 5.1792311668396 4.37125730514526 4.8372049331665 4.64931344985962 4.73131275177002 4.75075578689575 4.82778453826904 13.4219665527344 9.43999290466309 10.9051723480225 6.18162631988525 6.1271915435791 6.29069519042969 6.53167867660522 6.23489618301392 5.54429578781128 5.16825532913208 8.23437786102295 5.02478837966919 4.68900299072266 5.08443021774292 5.349937915802 5.14686918258667 5.49179220199585 5.36456298828125 7.18740463256836 5.77111673355103 6.27474927902222 6.72636318206787 7.77478408813477 7.73374843597412 8.22389793395996 9.51358318328857 13.2628917694092 13.2121086120605 13.6984424591064 13.658073425293 12.8866968154907 13.0260934829712 12.3633289337158 11.8077526092529 9.41166210174561 15.0835666656494 22.5610599517822 4.99377202987671 4.90299510955811 5.61911296844482 14.6432638168335 6.1214485168457 5.57725238800049 5.70525979995728 5.73169279098511 6.93157052993774 7.21654510498047 7.76515245437622
3.21191000938416 2.5094358921051 0.690886616706848 0.664902627468109 0.714265823364258 0.772329032421112 2.48383212089539 2.24705171585083 3.34753847122192 1.0151698589325 1.04257893562317 0.194195121526718 -0.522996842861176 3.16534161567688 -0.635928213596344 -0.934091985225677 -0.973598420619965 -1.13568162918091 -1.00166201591492 0.51578164100647 0.426563650369644 1.23244774341583 1.32105493545532 1.76931524276733 -0.267733007669449 0.962638854980469 1.94494724273682 2.04589819908142 0.31778347492218 -0.58122056722641 0.475742161273956 -0.170719385147095 -1.41935563087463 -1.38401472568512 -1.58023691177368 -1.64376819133759 3.17269563674927 -1.56033575534821 -0.570525705814362 -0.842929840087891 4.51392507553101 -1.74083316326141 0.214864760637283 1.81475245952606 0.789197206497192 0.677769303321838 -0.168226107954979 -1.4133208990097 -1.24713122844696 -1.52105057239532 -1.30098092556 -0.559961676597595 -0.737943351268768 -0.594594419002533 12.4730892181396 11.7122716903687 3.76603078842163 34.0932884216309 25.7535076141357 0.982633292675018 8.21112728118896 35.2844467163086 47.5421752929688 7.85254907608032 1.10810089111328 0.599957764148712 1.91713130474091 2.14632368087769 5.0442099571228 0.232101425528526 46.8757781982422 37.1435394287109 27.8804225921631 18.5900096893311 13.4401988983154 9.69706630706787 7.25197076797485 6.50851392745972 4.59609365463257 4.57647848129272 4.98742437362671 3.85178542137146 4.06335306167603 3.25682497024536 3.56916809082031 3.52524065971375 3.94936513900757 5.72853803634644 5.94623708724976 9.89224147796631 8.51312351226807 9.22912883758545 8.00061130523682 9.85100364685059 4.02026271820068 8.24776554107666 3.75389456748962 5.62514591217041 5.7349967956543 5.68210411071777 4.65262031555176 5.26830625534058 4.92903518676758 4.77054119110107 4.09847545623779 4.463782787323 4.18409633636475 4.55817794799805 4.36297655105591 4.60084247589111 5.00950002670288 5.48948574066162 5.41855955123901 5.99244070053101 6.78883218765259 6.59486532211304 6.75806379318237 6.03343534469604 5.42728853225708 5.72851085662842 5.25900077819824 4.4274959564209 4.96807241439819 4.72171878814697 4.79256105422974 4.84048318862915 5.04602241516113 14.7801237106323 10.4060382843018 12.4275913238525 6.38073492050171 6.2324686050415 6.40442180633545 6.6524395942688 6.36310434341431 5.5764741897583 5.07112646102905 9.10323905944824 5.6372013092041 4.78420686721802 5.2794771194458 5.8329005241394 5.13444709777832 5.90157651901245 5.59272193908691 7.88827085494995 6.77030372619629 6.83139896392822 6.96315479278564 8.12330150604248 8.15878295898438 8.9579496383667 10.0462436676025 13.9022064208984 13.9258604049683 14.5030241012573 14.4558086395264 13.6133031845093 13.7286357879639 13.838397026062 12.4961051940918 10.40869140625 8.50948238372803 7.23981809616089 14.4028062820435 16.6217098236084 6.423171043396 5.21213006973267 8.85968208312988 5.87855052947998 5.68395090103149 5.92673444747925 7.22251033782959 7.52755451202393 8.10420322418213
3.97342228889465 2.70886373519897 0.730526566505432 0.73185795545578 0.779085695743561 0.831678032875061 2.60761308670044 2.36192083358765 3.64113187789917 1.14685094356537 1.13704550266266 1.23756754398346 0.743551552295685 -0.076526902616024 1.5804899930954 0.0497030913829803 0.359034240245819 -1.05976104736328 -0.275347590446472 1.44102239608765 1.6533567905426 1.94564211368561 2.62467837333679 2.59960317611694 0.73688930273056 2.63991689682007 3.51811814308167 3.26658844947815 0.771906614303589 0.200416043400764 0.823285341262817 0.277424961328506 0.211585223674774 -0.595155000686646 -0.68061226606369 -1.14003705978394 -1.58508920669556 16.1195583343506 -0.473235100507736 -0.560269057750702 -1.74264764785767 -1.44704222679138 0.693124294281006 2.31026196479797 1.62896704673767 1.12338745594025 0.238889575004578 -0.626806795597076 -0.397181987762451 0.35203018784523 2.41476511955261 2.9378068447113 11.3693523406982 6.44930267333984 -0.527737736701965 43.7530632019043 41.2635154724121 5.39902019500732 13.9441814422607 47.9820251464844 46.6283111572266 24.262544631958 2.78456282615662 8.45963668823242 20.5962238311768 9.18546390533447 8.03711700439453 10.4458103179932 12.0688314437866 4.56812381744385 5.24118137359619 0.143906742334366 47.6176490783691 27.6012840270996 18.1180210113525 11.8676176071167 8.72743892669678 7.6257529258728 5.41869449615479 5.2514271736145 5.56849479675293 4.26846647262573 4.41393041610718 3.43698120117188 3.72039127349854 3.46914529800415 4.19109392166138 6.25441789627075 6.47837686538696 11.3814516067505 9.7379674911499 10.3015775680542 8.80148029327393 10.7373008728027 4.28365850448608 8.87147998809814 5.36869955062866 5.92745780944824 5.8998851776123 5.72698163986206 4.76212024688721 5.37849378585815 5.03911018371582 4.8590612411499 4.14110040664673 4.52104663848877 4.23057794570923 4.65984725952148 4.44435453414917 4.67941474914551 5.11774015426636 5.62668132781982 5.5482234954834 6.1011905670166 6.91089582443237 6.70519781112671 6.86883163452148 6.14681005477905 5.79609680175781 4.98725175857544 5.32450199127197 4.51488876342773 5.03173160552979 4.53141593933105 4.86551475524902 4.91482543945312 5.11474847793579 16.4094295501709 11.4798040390015 14.3461780548096 6.42403936386108 6.36360597610474 6.52121686935425 6.76766967773438 6.4887843132019 5.64375305175781 4.91673707962036 10.1481189727783 6.33205461502075 5.10657978057861 5.49197101593018 6.41164207458496 5.62353086471558 6.37291240692139 6.01371145248413 8.74038982391357 7.27656316757202 7.3431978225708 7.21632623672485 8.50014972686768 8.61985111236572 10.0120391845703 11.5266647338867 14.6515531539917 14.7204475402832 15.3997678756714 15.3430433273315 14.4255895614624 14.4905786514282 14.7024011611938 13.6113166809082 11.290657043457 9.82996082305908 11.1112823486328 8.04357051849365 7.43543767929077 7.80515050888062 5.68149948120117 5.76566886901855 6.06051969528198 5.86798143386841 6.13735246658325 7.55164623260498 7.85946083068848 8.47358131408691
4.89783239364624 2.89475870132446 0.762639582157135 0.792570173740387 0.887759625911713 0.918441712856293 2.73769736289978 3.99444651603699 2.59890961647034 1.27013385295868 1.24573230743408 1.33930230140686 1.28567051887512 3.31910920143127 -0.233497083187103 0.289982408285141 0.546658456325531 -0.292510956525803 1.12480890750885 2.59917140007019 3.15738987922668 3.31379365921021 2.67667269706726 4.05797719955444 3.63642525672913 3.00553894042969 3.88612818717957 3.95631122589111 1.80327439308167 0.425294309854507 1.07783019542694 0.60068142414093 1.29498362541199 -0.643532931804657 -0.0976721420884132 -0.564067900180817 -1.51161646842957 -0.898866951465607 0.237851068377495 0.0484917759895325 -0.84671550989151 1.87888526916504 3.48761248588562 3.51692271232605 5.19606828689575 1.98796057701111 11.8831491470337 -0.0436312407255173 -0.353007704019547 5.60220289230347 0.701876103878021 18.3245487213135 49.277400970459 47.48486328125 36.9994850158691 0.269769608974457 0.379778444766998 13.4086561203003 50.4996490478516 5.62403011322021 9.02389335632324 2.93989682197571 17.2892227172852 10.3992729187012 1.87433552742004 13.6616802215576 9.6969747543335 19.9304847717285 17.9911403656006 0.494829952716827 0.424710035324097 11.3162269592285 0.501191973686218 47.7941780090332 27.197696685791 11.8678483963013 10.6417303085327 9.44794940948486 6.53991079330444 6.13756227493286 6.34091901779175 4.7866907119751 4.86133098602295 3.67483186721802 3.88581323623657 3.55459356307983 4.40743684768677 6.76883888244629 14.1821889877319 12.0991172790527 8.90993213653564 11.593282699585 9.73704814910889 11.8149690628052 4.59401082992554 9.61167907714844 5.5177583694458 6.10522413253784 6.07742595672607 5.29938745498657 4.93614387512207 5.5105562210083 5.14158773422241 4.96353673934937 4.19246196746826 4.5891170501709 4.29333353042603 4.78150415420532 4.53152275085449 4.76845788955688 5.23138761520386 5.75756740570068 5.68342113494873 6.21433305740356 7.04195404052734 6.82424020767212 6.96841669082642 6.23719644546509 5.88782978057861 5.35980224609375 4.8201756477356 4.60613679885864 5.19834089279175 4.54659652709961 5.0640549659729 5.06543731689453 5.25747966766357 18.5055370330811 17.3555603027344 15.2788534164429 6.5388560295105 6.47540378570557 6.63901138305664 6.88913536071777 6.59836292266846 5.72707319259644 4.9747109413147 11.3447885513306 7.13227033615112 5.64858913421631 5.7818021774292 7.07979822158813 6.22300148010254 6.94227027893066 6.50744438171387 9.79510116577148 7.86546421051025 7.94379615783691 7.48615789413452 8.9139289855957 9.13647842407227 10.8627729415894 13.8244733810425 15.5628786087036 16.497257232666 16.4789142608643 15.8412351608276 15.5340747833252 15.808632850647 14.6466112136841 13.8666286468506 13.5872535705566 15.2198619842529 13.6136150360107 11.8011713027954 11.9836578369141 11.5074396133423 6.04988765716553 6.36189365386963 6.25969362258911 6.09912443161011 6.3877387046814 7.91815996170044 8.23791313171387 8.90060520172119
6.10506439208984 3.06408643722534 0.827235460281372 0.889065444469452 1.04353427886963 1.2133367061615 2.88090038299561 4.38126134872437 2.72637152671814 1.39170789718628 1.44280827045441 1.54029810428619 1.50550663471222 0.758696973323822 1.21446454524994 1.04475736618042 1.93217265605927 0.491209268569946 2.85610818862915 4.22393846511841 5.0419020652771 3.47584772109985 4.78662824630737 4.69376373291016 8.27693653106689 3.28521800041199 4.19304943084717 4.26874446868896 2.01270937919617 0.553987085819244 1.26398921012878 1.15395057201385 2.52162909507751 -0.387835264205933 0.164710059762001 0.0253405850380659 0.290962934494019 0.602712452411652 0.39001402258873 0.767280280590057 0.583712637424469 2.76389980316162 7.64412021636963 6.00197219848633 7.2961254119873 13.9237766265869 46.4779624938965 47.976936340332 38.2004013061523 34.5048065185547 39.6309394836426 36.1766700744629 -0.560531497001648 -0.480628311634064 4.03959274291992 13.2730731964111 49.0946044921875 0.220100119709969 0.537722766399384 6.21589517593384 1.78232145309448 13.0392589569092 4.02155542373657 3.20935797691345 1.92724394798279 16.0497589111328 20.5697689056396 5.92179012298584 0.389935523271561 1.68905758857727 2.54842519760132 0.116761513054371 1.54569292068481 1.58258211612701 47.2134246826172 14.756085395813 12.7773303985596 11.6481800079346 8.36154747009277 7.32774972915649 7.42282772064209 5.49399852752686 5.44934892654419 4.03563356399536 4.1629695892334 3.70031929016113 4.67455053329468 7.46831274032593 17.8169860839844 15.2699642181396 9.76727867126465 13.3457937240601 10.9106845855713 13.1584987640381 4.99430370330811 10.5490446090698 5.69376087188721 6.30505990982056 6.28035497665405 5.07617807388306 5.10363245010376 5.67526960372925 5.25730228424072 5.07272958755493 4.25929021835327 4.65779113769531 4.35888481140137 4.95318031311035 4.66215801239014 4.90632152557373 5.37629556655884 5.91951036453247 6.37005519866943 5.77812051773071 7.19027853012085 6.9507360458374 7.07108068466187 6.32245779037476 5.95106744766235 5.38737058639526 4.85117435455322 4.69175004959106 5.25760173797607 5.07701873779297 6.77448225021362 7.8890528678894 6.58837985992432 21.2515754699707 21.8764190673828 14.2379684448242 6.64936447143555 6.58574295043945 6.75527286529541 7.01460218429565 6.71358108520508 5.80411434173584 8.33683013916016 12.799934387207 7.52863359451294 5.93879652023315 6.27506160736084 7.82798910140991 6.91538286209106 7.598219871521 7.03980922698975 11.1328182220459 8.56854057312012 8.64971828460693 7.77627754211426 9.63830280303955 9.71727848052979 12.183798789978 15.5285387039185 16.8169612884521 17.7087326049805 17.6652164459229 16.8215084075928 16.6623306274414 16.9535121917725 15.7143297195435 15.9853649139404 17.9119453430176 19.9514980316162 17.8805332183838 15.1872329711914 14.5689067840576 8.61759090423584 6.30860614776611 6.60174226760864 6.46931552886963 6.32537317276001 6.94698429107666 8.32550144195557 8.69022846221924 9.38663291931152
3.19031977653503 0.99417370557785 0.921151399612427 1.05292475223541 1.22870278358459 1.38891422748566 3.02857995033264 4.79360198974609 2.86107635498047 1.51629984378815 1.53641605377197 1.63933432102203 1.61107683181763 1.68329334259033 1.90115714073181 1.92130398750305 3.20354008674622 0.606249928474426 4.47407627105713 5.36478233337402 5.8334321975708 4.42031145095825 5.67330598831177 5.21092891693115 19.2657985687256 4.49269151687622 3.74274849891663 4.55877542495728 2.19252848625183 0.677007079124451 1.39291954040527 1.69556558132172 3.27098441123962 -0.300821274518967 1.19630718231201 3.19529938697815 2.80813407897949 4.01243495941162 1.20828831195831 0.815644025802612 0.842256367206573 3.17652463912964 10.121561050415 7.84542846679688 9.64130306243896 23.6361427307129 0.178002074360847 -0.349191159009933 0.648253679275513 7.42255973815918 0.595631122589111 7.99005746841431 1.08913373947144 10.0675668716431 50.3640670776367 0.521019101142883 2.91626739501953 1.20136761665344 0.618923246860504 0.504424571990967 6.40417146682739 1.73033928871155 1.36033987998962 0.179417714476585 0.434099435806274 3.8633246421814 5.25680017471313 0.660499215126038 0.425994336605072 2.2800624370575 3.17579507827759 1.3768185377121 6.61412477493286 5.94965553283691 2.90930509567261 22.5067920684814 15.3859395980835 12.5216779708862 8.73744010925293 9.18067646026611 8.87050628662109 6.47604417800903 6.2242603302002 4.5591893196106 4.61267375946045 3.99107909202576 5.14691400527954 8.41264343261719 24.7558307647705 21.1578750610352 16.4768562316895 14.2364921569824 12.5862169265747 14.9424314498901 5.50262689590454 11.7803163528442 5.89893770217896 6.53918647766113 6.51555728912354 5.23346614837646 5.6176290512085 5.86050605773926 5.42858934402466 4.98964977264404 4.32698726654053 4.75639581680298 4.42969417572021 5.15747594833374 4.85129594802856 5.09880638122559 5.56842231750488 6.13945198059082 6.54730892181396 7.4131293296814 7.12444496154785 6.99780368804932 7.20568466186523 6.12090587615967 6.04767513275146 5.42000579833984 4.87467765808105 4.69495582580566 5.32189750671387 4.6246509552002 4.92735052108765 5.21535539627075 25.4208946228027 17.5018730163574 28.4062843322754 12.2186346054077 6.73814916610718 6.6901798248291 6.87099313735962 7.13260984420776 6.82366991043091 5.87793922424316 14.8820476531982 9.27096843719482 6.38041496276855 6.55346775054932 6.96291494369507 8.74560070037842 7.7886528968811 8.37412357330322 7.69162797927856 12.7984056472778 9.35923862457275 9.48116874694824 8.12300205230713 10.735894203186 10.7075576782227 13.7446975708008 17.758731842041 18.0213871002197 19.0788097381592 19.0364227294922 17.6448554992676 17.9534740447998 18.2677440643311 16.9496078491211 23.2305679321289 25.9505653381348 28.6337127685547 25.9270477294922 19.9311752319336 19.1368389129639 10.1337747573853 6.47981405258179 6.8585524559021 6.7274112701416 6.97526502609253 7.56821393966675 8.78701019287109 9.18974304199219 9.92576313018799
3.45714998245239 1.07302331924438 1.09218573570251 1.23329293727875 1.41815912723541 1.54838216304779 3.17634439468384 5.2769603729248 2.99564576148987 1.63423001766205 1.6332631111145 1.7405549287796 1.79161882400513 1.90620458126068 2.01845002174377 2.11357498168945 3.69735145568848 1.68283438682556 5.29637813568115 6.00266551971436 6.45156669616699 6.31306886672974 6.27938318252563 5.43374538421631 2.85045957565308 4.60779094696045 4.73744916915894 3.62242960929871 2.35891222953796 0.912013292312622 1.47323310375214 1.90540611743927 3.61493992805481 1.76109147071838 1.41731822490692 4.12312889099121 4.9231538772583 2.53081345558167 1.401850938797 1.17107498645782 1.16466045379639 3.60123538970947 13.0522527694702 9.94253730773926 12.4126501083374 44.1256065368652 0.973825573921204 5.7521185874939 9.8301887512207 11.2923278808594 0.254447013139725 -0.00364649156108499 50.5772972106934 0.145620003342628 0.132307961583138 0.538491427898407 0.327735394239426 8.20376300811768 9.33727264404297 0.865357995033264 0.479440003633499 -0.191020280122757 0.303499072790146 -0.0116494409739971 4.79933881759644 0.347597897052765 0.375819951295853 0.796217679977417 0.473211973905563 0.553072333335876 0.2768814265728 1.74191951751709 2.79664087295532 14.154200553894 14.9896230697632 40.5942840576172 23.1672325134277 15.6576633453369 12.5800437927246 9.69711875915527 10.7876605987549 7.74258756637573 7.28219985961914 5.22466468811035 5.20271587371826 4.41701936721802 10.8023023605347 10.8876142501831 41.3162040710449 36.3759422302246 20.8373146057129 16.9733924865723 15.0874862670898 17.3365325927734 6.20682764053345 13.4080572128296 6.12409591674805 6.79530668258667 6.78232431411743 5.41868305206299 6.08088731765747 5.64747285842896 5.4536075592041 5.16245794296265 4.37638139724731 4.94484996795654 5.43424463272095 5.13809871673584 5.44666147232056 5.92283344268799 6.49963712692261 6.38061046600342 6.75540208816528 7.64082193374634 7.33698654174805 7.35433769226074 7.39111995697021 5.96020603179932 6.21866941452026 5.50421142578125 4.90509176254272 5.31389331817627 4.9724555015564 4.7645435333252 4.96666193008423 5.7299485206604 30.3937702178955 21.2440490722656 45.909122467041 11.7815256118774 6.78653383255005 6.82292127609253 6.92807102203369 7.20899248123169 6.87765073776245 5.90944337844849 18.3368434906006 15.8248138427734 6.91180276870728 7.38810634613037 8.01168727874756 9.93008804321289 8.82517910003662 9.21468448638916 11.2471885681152 15.0211534500122 10.2961235046387 10.3910264968872 8.69509601593018 11.5654830932617 11.3621082305908 15.6171388626099 18.935962677002 19.3715686798096 20.6431446075439 20.612190246582 19.0036296844482 19.4563083648682 19.7886695861816 18.3822345733643 40.6592445373535 44.1109161376953 47.4262390136719 44.066650390625 28.5606136322021 27.5007820129395 11.3863592147827 6.72270584106445 7.31593656539917 7.01332330703735 7.29358720779419 8.32082366943359 9.29658222198486 9.75774669647217 10.5270071029663
3.68997812271118 1.21528017520905 1.29252660274506 1.42001926898956 1.61881160736084 3.35452795028687 3.12021827697754 5.83614110946655 3.10252952575684 1.76855313777924 1.73232734203339 1.84231472015381 1.88747692108154 2.03674507141113 2.28247880935669 2.23702764511108 4.05375194549561 6.23351907730103 5.34473371505737 6.59908246994019 7.06064081192017 6.95242738723755 6.88448524475098 5.83303451538086 17.4523639678955 4.71535301208496 4.87773847579956 2.21814227104187 2.50889492034912 1.48415982723236 1.18818891048431 2.26125049591064 4.73047637939453 2.46776223182678 1.68538653850555 4.65732288360596 5.44056463241577 2.80519723892212 1.60228884220123 1.46303331851959 1.49591827392578 16.9925708770752 9.51309776306152 16.4121971130371 15.3366928100586 5.60576915740967 16.4459419250488 24.8705558776855 0.500457644462585 0.171941474080086 48.5870819091797 14.7058601379395 0.129685029387474 4.39482593536377 0.810828685760498 0.699921190738678 0.363917171955109 0.399497658014297 0.662295818328857 1.06297564506531 1.08327114582062 2.25735902786255 0.461455404758453 0.235810369253159 0.439037799835205 0.531574487686157 0.638089597225189 0.781573832035065 0.548547148704529 2.30653882026672 0.769360899925232 4.16052150726318 -0.117962174117565 -0.301750212907791 -0.227720201015472 12.3626680374146 41.5286445617676 23.5261268615723 16.989953994751 14.6272945404053 8.82237148284912 9.27269744873047 8.6362829208374 6.07488536834717 5.88214731216431 8.54964256286621 14.3611707687378 14.148645401001 0.31278932094574 1.5187474489212 28.8444900512695 23.6984252929688 21.1882152557373 8.63397789001465 4.9902458190918 15.556978225708 6.37887668609619 7.07971668243408 7.05364608764648 5.59770345687866 6.29065752029419 5.84316492080688 5.67057609558105 4.54824686050415 4.96040010452271 5.16968154907227 5.74101829528809 5.42926025390625 5.76011896133423 6.28478765487671 6.90402889251709 6.76251649856567 6.9998664855957 7.90116548538208 7.57818222045898 7.59283685684204 7.62210607528687 6.09059715270996 6.38694524765015 5.54603099822998 4.96338081359863 5.47671365737915 5.02932024002075 4.77995634078979 4.93479251861572 6.01591396331787 40.3281021118164 27.5244178771973 7.76038694381714 10.1809940338135 6.78218936920166 6.88814353942871 6.99469661712646 7.27618741989136 6.91151857376099 5.90965700149536 24.6179370880127 9.42497730255127 7.21707820892334 7.94168663024902 8.32731437683105 11.0166301727295 9.76609802246094 9.99055957794189 18.1451721191406 11.3671627044678 11.3277273178101 11.362964630127 9.28854560852051 13.167989730835 11.9339370727539 19.7639503479004 22.8723487854004 22.510555267334 22.4474411010742 34.6498756408691 20.5749130249023 29.8632297515869 28.240743637085 28.9107990264893 12.031548500061 9.8112211227417 8.57707405090332 7.51912450790405 47.3134460449219 46.0991172790527 13.5113725662231 6.99175596237183 8.01874542236328 7.65940713882446 7.64073896408081 9.22511959075928 10.1637077331543 10.391713142395 11.2064695358276
