NCOLS 171
NROWS 32
XLLCORNER 353696
YLLCORNER 6701088
CELLSIZE 16 
NODATA_value -3.4e+38 
7.46751070022583 6.81552314758301 6.60589838027954 6.63305044174194 5.83344697952271 5.62062549591064 5.23500442504883 5.2052001953125 6.9157977104187 5.39315271377563 4.06902599334717 2.96554565429688 1.6309015750885 -0.30514994263649 -1.24951362609863 -1.48242568969727 -1.6545250415802 -1.70092344284058 -1.63494765758514 -1.53252899646759 -1.31480503082275 -1.08982813358307 1.32675862312317 2.77656388282776 0.483304411172867 0.534453868865967 2.23079347610474 3.26936888694763 2.91307306289673 2.72142004966736 2.56035757064819 2.36435770988464 1.70273220539093 0.992299199104309 2.18070292472839 0.605594456195831 0.287410289049149 0.31303608417511 0.569557785987854 0.839261710643768 1.04237806797028 1.10653448104858 0.852816939353943 0.714382171630859 0.614833891391754 0.538352131843567 0.681959509849548 0.97392213344574 1.40570271015167 1.85776102542877 1.94221234321594 1.84299087524414 5.40827894210815 7.30500984191895 11.9447107315063 12.9099922180176 13.733362197876 9.61727714538574 7.36145544052124 6.62804746627808 5.68559789657593 4.38889980316162 3.67227029800415 3.23377799987793 2.67377853393555 1.82928073406219 1.43620681762695 3.79212164878845 6.44686985015869 8.06290626525879 12.3015947341919 19.8178825378418 16.1646194458008 16.0764713287354 15.2281589508057 15.586030960083 14.6649703979492 12.0569791793823 11.3186187744141 11.0422163009644 10.4557285308838 9.48234367370605 8.82424736022949 8.24469947814941 7.56156635284424 6.62655162811279 5.59088277816772 5.07195138931274 5.06540727615356 5.16509819030762 5.48426246643066 6.16463041305542 6.36195373535156 6.47258806228638 6.53931856155396 6.7740592956543 6.29810810089111 5.86800861358643 5.40592765808105 6.19596290588379 6.73379611968994 7.08619785308838 7.07022714614868 6.77231073379517 6.5245418548584 6.22846508026123 5.14577150344849 4.59796905517578 4.12254858016968 3.65533518791199 3.29901432991028 3.21191716194153 3.14949202537537 3.04980325698853 2.85989236831665 2.63017010688782 2.11925220489502 1.7298104763031 1.47397232055664 1.15525698661804 0.861294209957123 0.853089690208435 0.816940784454346 0.764201462268829 0.695084273815155 0.620094180107117 1.12205922603607 2.09310626983643 2.50990843772888 2.93619346618652 3.02011132240295 3.03258061408997 3.10490584373474 3.13583588600159 3.20955228805542 3.20066571235657 3.00296854972839 2.57963848114014 2.20457220077515 1.72141814231873 1.9467442035675 1.98010814189911 1.84668266773224 1.69317746162415 1.50263440608978 1.113440990448 1.11628365516663 1.2199090719223 1.52195191383362 1.82337439060211 1.92858302593231 1.9932873249054 1.9819221496582 1.86811923980713 1.61256289482117 1.29312753677368 1.10464954376221 0.972616016864777 0.897492229938507 0.919208288192749 0.907536745071411 0.897448122501373 0.800477862358093 0.624236226081848 0.342870861291885 0.340794533491135 0.388857662677765 0.314116209745407 0.394351303577423 0.511328041553497 0.623006343841553
7.57477617263794 6.86217403411865 6.60970449447632 6.18508720397949 5.74426555633545 5.82481098175049 9.33796691894531 8.74155521392822 5.5698504447937 4.59704685211182 3.96472954750061 3.03647041320801 1.66799437999725 -0.464528977870941 -1.35589814186096 -1.6028665304184 -1.67572140693665 -1.67322385311127 -1.66397702693939 -1.69982874393463 -1.61808896064758 -1.37176525592804 -1.38698744773865 2.30450439453125 5.1696252822876 4.57213735580444 3.6334855556488 3.13751983642578 2.97133493423462 5.99523591995239 3.75286293029785 2.45151400566101 1.91445064544678 1.34347343444824 3.91426062583923 1.07246780395508 0.278069853782654 0.145332455635071 0.384384959936142 0.676619172096252 0.842093348503113 0.797239065170288 0.528016030788422 0.424011677503586 0.221098646521568 0.20649491250515 0.383230954408646 0.579627215862274 0.800609529018402 1.37412333488464 1.78615379333496 2.63045740127563 4.17236280441284 5.35637187957764 8.07115077972412 10.3314847946167 10.1412982940674 8.25382804870605 6.82114315032959 6.29139184951782 5.59628582000732 4.51671409606934 3.78105616569519 3.35760569572449 2.93065738677979 2.28543138504028 2.73054075241089 6.28622579574585 8.84870147705078 14.5872182846069 17.4289169311523 18.673511505127 14.3258676528931 14.9753971099854 14.4347410202026 13.5550861358643 12.8305826187134 10.7746524810791 10.0252056121826 9.75935840606689 9.10869407653809 8.67764854431152 8.00192070007324 7.79408073425293 7.32595682144165 6.52324962615967 5.88906288146973 4.75918483734131 4.75856351852417 4.79065895080566 5.16135835647583 5.20268869400024 5.74074506759644 5.88023376464844 6.15958642959595 6.41696977615356 6.26310014724731 5.90375995635986 5.14083671569824 5.41335439682007 6.28887796401978 6.59803009033203 6.58127498626709 6.57900524139404 6.23962259292603 5.8976469039917 5.55594825744629 4.75362014770508 4.12636375427246 3.64105939865112 3.31598019599915 3.12321877479553 3.0304434299469 3.024573802948 2.94341135025024 2.64547109603882 2.42445015907288 1.99737930297852 1.57074928283691 1.1879221200943 0.917707443237305 0.781778395175934 0.764701128005981 0.719536304473877 0.659918248653412 0.592180132865906 0.582934498786926 1.53776836395264 2.28877019882202 2.67941331863403 2.80983757972717 2.97154569625854 3.02768301963806 3.05517721176147 3.13180494308472 3.12922644615173 3.03010225296021 2.81427931785583 2.48831486701965 1.88047564029694 1.44465243816376 1.73500967025757 1.83072245121002 1.68191766738892 1.58472216129303 1.37489247322083 1.0346052646637 1.13706624507904 1.30556833744049 1.6250878572464 1.82849979400635 1.89282524585724 1.86654686927795 1.77276968955994 1.55000126361847 1.31411910057068 1.07547664642334 0.856624782085419 0.881549894809723 0.868397057056427 0.854155004024506 0.851900041103363 0.760442495346069 0.611598014831543 0.372059434652328 0.181054994463921 0.359966248273849 0.343571722507477 0.278919696807861 0.336118280887604 0.533921241760254
7.30530023574829 7.01748418807983 6.61566543579102 6.35001993179321 6.07964324951172 8.32269859313965 7.14857864379883 5.73294878005981 5.04839134216309 4.64887428283691 3.99936890602112 3.10405707359314 1.72843134403229 -0.20128233730793 -1.13735437393188 -1.57784044742584 -1.68479442596436 -1.67116689682007 -0.720543384552002 -1.72216880321503 -1.74463105201721 -0.610061228275299 -1.67002165317535 -0.00617427052929997 5.02475786209106 9.13676929473877 9.19589328765869 5.65745162963867 3.26194834709167 5.30371809005737 3.0822811126709 2.64665293693542 2.09955334663391 1.94043874740601 3.45420265197754 2.68543577194214 0.58644825220108 0.222432389855385 1.2599937915802 1.82054090499878 2.29312062263489 0.625142872333527 0.452903002500534 0.36601859331131 0.259619295597076 0.203360632061958 3.83993530273438 3.47123742103577 1.90674614906311 2.63666486740112 4.8637228012085 3.57046890258789 3.41422176361084 3.66949796676636 5.43019199371338 11.2518129348755 10.3150272369385 8.95847129821777 6.30674171447754 5.7395453453064 4.61062240600586 4.14661312103271 3.6917552947998 3.40400409698486 3.14525008201599 3.30992937088013 4.71814584732056 7.2434778213501 12.6206703186035 19.427848815918 16.5292625427246 15.2366905212402 14.7996482849121 14.3367052078247 12.8854465484619 11.9221630096436 10.990553855896 10.4628343582153 8.5079460144043 8.50602912902832 8.17166137695312 7.84066486358643 7.63643455505371 7.29534578323364 6.84610462188721 6.38868284225464 5.55578851699829 4.65246486663818 4.47655725479126 4.5812554359436 4.71146249771118 4.91670608520508 5.03397703170776 5.52669811248779 5.70388841629028 5.77250242233276 6.01662492752075 5.63977098464966 5.32044124603271 4.89328908920288 5.4986400604248 5.95099592208862 6.23953151702881 6.24475240707397 6.05465650558472 5.78775691986084 5.5270528793335 5.23612689971924 4.15170574188232 3.73797345161438 3.31385803222656 3.02306056022644 2.96924352645874 2.88064932823181 2.87907123565674 2.67496395111084 2.4429132938385 1.95449757575989 1.59795773029327 1.36585652828217 1.07210695743561 0.77126669883728 0.678924322128296 0.675569772720337 0.644847989082336 0.604591250419617 0.540169358253479 1.04487788677216 1.91514241695404 2.30359411239624 2.7468409538269 2.85054564476013 2.86369919776917 2.91652059555054 2.94795656204224 3.02059459686279 3.01509213447571 2.92376518249512 2.67307949066162 2.08555912971497 1.63047862052917 1.33457100391388 1.62820613384247 1.65861296653748 1.57203018665314 1.30876219272614 0.946585774421692 0.957851409912109 1.03507971763611 1.30640983581543 1.58195900917053 1.67534446716309 1.72434866428375 1.71113586425781 1.61868298053741 1.39257335662842 1.05144929885864 0.852353155612946 0.812285244464874 0.807098686695099 0.805699348449707 0.794186353683472 0.790359735488892 0.709634125232697 0.551807820796967 0.299098968505859 0.1890639513731 0.303940176963806 0.281964778900146 0.313126146793365 0.374276131391525
6.79279184341431 6.80324411392212 6.59808111190796 6.2969183921814 6.04467821121216 6.00924348831177 5.55899333953857 5.26780033111572 4.99657297134399 4.6788854598999 4.12700605392456 3.17106413841248 1.90556991100311 0.0164937824010849 -0.913001179695129 -1.41737842559814 -1.31784403324127 -1.39153969287872 -0.656761288642883 -1.71914160251617 -1.40533804893494 0.275115370750427 2.0722234249115 2.88986420631409 1.18237197399139 5.39891719818115 10.1278057098389 9.58767795562744 8.85205841064453 6.15654706954956 3.05306315422058 2.64315581321716 2.29376125335693 2.32372903823853 2.04173970222473 1.51792371273041 0.747037291526794 0.960469365119934 1.27534639835358 2.73100328445435 3.13690280914307 0.620016515254974 0.517881870269775 0.426681458950043 0.517050743103027 1.78148877620697 5.4275598526001 5.64296817779541 8.9147424697876 10.9640836715698 12.5919504165649 7.80057048797607 8.13889312744141 9.84283638000488 14.5212488174438 19.0241069793701 13.2164239883423 8.19573020935059 5.50397205352783 4.35349702835083 3.71549677848816 3.65037608146667 3.50038433074951 3.48531651496887 3.67702460289001 4.38587713241577 5.96926546096802 10.7365989685059 21.9779357910156 21.2464828491211 16.4719142913818 15.1794147491455 14.4542284011841 12.8777561187744 11.5175189971924 10.7571487426758 9.79119873046875 9.23679256439209 8.14395618438721 7.47453117370605 7.36826181411743 7.41100454330444 7.23373746871948 6.76725721359253 6.60775947570801 6.24372959136963 5.48924541473389 4.90760326385498 4.36402463912964 4.28548097610474 4.38924407958984 4.74124240875244 4.76828145980835 5.11474132537842 5.20222139358521 5.52349662780762 5.75408935546875 5.67603063583374 5.36022281646729 4.71726131439209 4.98921632766724 5.75201272964478 6.03486394882202 6.02436923980713 5.97323894500732 5.73802852630615 5.48354530334473 5.22283744812012 4.2803807258606 3.71793413162231 3.32013463973999 3.03096580505371 2.86762022972107 2.81475353240967 2.78167152404785 2.72084474563599 2.45343732833862 2.24213194847107 1.85567426681519 1.46587693691254 1.11031031608582 0.870513021945953 0.721980690956116 0.616296708583832 0.607791185379028 0.587856292724609 0.542195200920105 0.536428213119507 1.39330327510834 2.1071445941925 2.52193427085876 2.64763689041138 2.74752616882324 2.75761914253235 2.82331538200378 2.85125708580017 2.91317462921143 2.91127681732178 2.72131991386414 2.36382794380188 1.78250396251678 1.27054154872894 1.53912901878357 1.56784343719482 1.47231483459473 1.37903165817261 1.20300996303558 0.908509612083435 0.979255497455597 1.11788320541382 1.39209926128387 1.5659396648407 1.63141655921936 1.62244069576263 1.53026688098907 1.34116411209106 1.04766297340393 0.889853000640869 0.779624223709106 0.769363760948181 0.763925850391388 0.755366086959839 0.755214154720306 0.677263498306274 0.549567222595215 0.330152630805969 0.150668352842331 0.206293359398842 0.263305574655533 0.225198984146118 0.263513714075089
6.35679244995117 7.17717504501343 6.68643045425415 6.25908899307251 5.85328388214111 5.58705759048462 5.34207439422607 5.22573518753052 4.97758531570435 4.58223676681519 4.03290033340454 3.18449521064758 2.12498354911804 0.231322959065437 -0.699842870235443 -0.747125864028931 0.413261711597443 -0.0856862664222717 -1.18292152881622 -1.80235779285431 -1.66491043567657 -0.975859880447388 3.38461422920227 4.84103202819824 3.81693315505981 2.48177433013916 6.99466419219971 8.61801528930664 9.0596342086792 6.95020151138306 4.34264707565308 3.14395236968994 2.98680114746094 2.50666451454163 1.87961077690125 1.84534871578217 0.827304124832153 0.53629744052887 1.71115291118622 4.09816122055054 3.87622451782227 1.068852186203 0.560120224952698 1.87620556354523 6.17899179458618 8.66599369049072 10.7333536148071 14.1578874588013 15.5376310348511 14.238429069519 15.0624141693115 14.0017614364624 16.1093940734863 16.5671081542969 17.9906234741211 16.1618576049805 10.4503555297852 7.79297971725464 4.42249584197998 3.50422525405884 3.23446536064148 3.33058547973633 3.37930798530579 3.48875069618225 3.76400470733643 5.52045345306396 9.3721981048584 19.3908500671387 21.6340026855469 17.9165534973145 16.6865348815918 14.4685516357422 13.1185245513916 13.0347957611084 11.1994371414185 9.6211404800415 9.22864055633545 8.44586277008057 8.083909034729 7.26779985427856 7.01281976699829 6.80127620697021 6.74005556106567 6.58757019042969 6.35038709640503 5.94686651229858 5.61559057235718 4.95860433578491 4.65213394165039 4.05114030838013 4.17178583145142 4.3118200302124 4.53395700454712 4.64134836196899 4.98260021209717 5.1383695602417 5.26341867446899 5.4758939743042 5.16934108734131 4.94188070297241 4.61367273330688 5.16433477401733 5.62766122817993 5.81899404525757 5.72971296310425 5.69081687927246 5.3337345123291 5.0161714553833 4.74124193191528 3.78209662437439 3.44411492347717 3.16340637207031 2.88126420974731 2.73176717758179 2.65762042999268 2.66574478149414 2.50102734565735 2.28288292884827 1.8205714225769 1.5007187128067 1.27281582355499 1.06193351745605 0.817458271980286 0.628144681453705 0.565230369567871 0.560778260231018 0.522826790809631 0.455187290906906 0.940684020519257 1.79123675823212 2.16648697853088 2.42983412742615 2.55438446998596 2.70446014404297 2.75344681739807 2.77539038658142 2.84709215164185 2.85157537460327 2.76256799697876 2.52138209342957 1.98221433162689 1.56717097759247 1.17140996456146 1.41389203071594 1.45060229301453 1.34725022315979 1.1251505613327 0.799365103244781 0.823732018470764 0.899176061153412 1.13848340511322 1.38037693500519 1.47294497489929 1.50753104686737 1.48717331886292 1.37253355979919 1.14110612869263 0.923742890357971 0.778520405292511 0.718019604682922 0.713163733482361 0.708487451076508 0.703806579113007 0.70457923412323 0.628042459487915 0.512310981750488 0.308867961168289 0.126964345574379 0.239118218421936 0.236216694116592 0.254060298204422
6.19674682617188 9.79020404815674 6.65244674682617 6.21830797195435 5.69886112213135 5.43528890609741 5.19238901138306 5.05684947967529 4.9339656829834 4.48460674285889 4.0189151763916 3.23329329490662 2.15479445457458 0.608103156089783 -0.420985817909241 -0.938463807106018 0.925485849380493 -0.457855612039566 -1.75906348228455 -1.84711956977844 -1.93317890167236 -1.50219058990479 4.64953231811523 6.25650548934937 6.20856809616089 5.33622026443481 4.98815727233887 7.64636087417603 8.04042053222656 7.19246244430542 5.72504377365112 4.15458106994629 2.65607595443726 3.17172026634216 2.8885018825531 2.13686633110046 1.36287760734558 1.85076296329498 2.94331550598145 6.33745050430298 5.07610940933228 2.72891807556152 2.68514752388 6.81427192687988 11.9464483261108 11.5798645019531 13.5151538848877 14.8184757232666 15.8492851257324 15.8645906448364 17.0255546569824 17.25514793396 17.5061779022217 16.8715744018555 16.2005615234375 13.276683807373 10.6744251251221 6.54547786712646 4.10253810882568 3.23046040534973 3.27285647392273 3.28409242630005 3.25177574157715 3.62246251106262 3.43033695220947 6.90811538696289 17.6219062805176 18.9448699951172 18.9802913665771 17.8321323394775 16.8261070251465 13.7483587265015 12.9289712905884 11.9321165084839 10.4404001235962 9.36999607086182 8.40321350097656 8.30325603485107 7.65397119522095 7.17221832275391 6.3195948600769 6.36522531509399 6.46227121353149 6.27294254302979 5.99286460876465 5.86683464050293 5.49701929092407 5.24704647064209 4.5859260559082 3.99526047706604 3.9141538143158 4.03630971908569 4.36614561080933 4.38517665863037 4.64798021316528 4.72797822952271 5.0552921295166 5.28867816925049 5.29055452346802 5.04317474365234 4.85610437393188 4.5341911315918 4.99969053268433 5.36963558197021 5.54470205307007 5.50047492980957 5.30242490768433 5.03586959838867 4.74947786331177 3.90401244163513 3.41322374343872 3.28880071640015 2.91536641120911 2.63547921180725 2.61574149131775 2.59622883796692 2.54197812080383 2.29824352264404 2.12071108818054 1.74389374256134 1.43950963020325 1.22436583042145 0.946978569030762 0.674931049346924 0.580720007419586 0.525319814682007 0.477823466062546 0.436928242444992 0.440482437610626 0.911159992218018 1.7309662103653 2.08958506584167 2.5012378692627 2.59572887420654 2.60824108123779 2.67065620422363 2.69913625717163 2.75772285461426 2.74984407424927 2.57577013969421 2.23919916152954 1.92276561260223 1.5191844701767 1.34595322608948 1.36521685123444 1.25616991519928 1.18898093700409 1.02173471450806 0.76918238401413 0.837926983833313 0.958933711051941 1.21101629734039 1.37112843990326 1.42202591896057 1.40448009967804 1.26393485069275 1.15533685684204 0.982918858528137 0.792279481887817 0.697851598262787 0.684424638748169 0.669135212898254 0.660376012325287 0.662645995616913 0.663879871368408 0.596379220485687 0.465303897857666 0.252952307462692 0.179549410939217 0.22173810005188 0.187072291970253
6.49550676345825 9.80847454071045 6.35773658752441 5.99135828018188 5.65073537826538 5.21099138259888 5.00535821914673 4.91278553009033 4.79490041732788 4.4570689201355 3.91765546798706 3.24328279495239 2.33680772781372 1.14645910263062 -0.173575788736343 -0.431453615427017 -0.994548261165619 -1.55770552158356 -1.42033898830414 -1.48787450790405 -0.885334610939026 -1.03958261013031 5.21345329284668 7.69446563720703 8.28780841827393 9.02649784088135 7.42323589324951 6.65929079055786 7.14966344833374 6.81255197525024 6.40001678466797 4.75684404373169 4.65289926528931 5.74612808227539 4.22517776489258 3.27692723274231 3.62977433204651 4.72095632553101 4.06458234786987 5.12467241287231 4.0922417640686 3.31383609771729 4.49717330932617 8.1386079788208 9.59696769714355 11.9085025787354 13.2841901779175 15.1821250915527 14.9061717987061 17.9276180267334 17.891206741333 17.3741416931152 16.6434135437012 16.1551742553711 14.761815071106 12.2400388717651 9.27506351470947 6.69768810272217 4.61732864379883 3.40302991867065 6.84219264984131 8.0709924697876 5.82837295532227 5.18365907669067 5.90657997131348 15.1680850982666 20.1955146789551 17.3893432617188 16.7240543365479 17.5375900268555 15.6232662200928 14.4976930618286 12.1683073043823 11.0791091918945 10.4738283157349 9.35890960693359 8.15505409240723 7.74548244476318 7.10713720321655 6.64380121231079 6.15511894226074 6.02593946456909 5.86572885513306 5.89203929901123 5.73455715179443 5.58915662765503 5.46678495407104 5.14229202270508 4.6155047416687 4.31427383422852 3.78687500953674 3.85494709014893 3.96128368377686 4.17948389053345 4.18756771087646 4.56767845153809 4.7052960395813 4.85874319076538 5.11285209655762 5.15424871444702 4.92093944549561 4.37363243103027 4.56544589996338 5.16439008712769 5.3282585144043 5.25356721878052 5.21774196624756 4.85724639892578 4.55670928955078 4.32048416137695 3.53950977325439 3.26094722747803 2.93940091133118 2.68282961845398 2.5348916053772 2.47325921058655 2.49108815193176 2.3583300113678 2.15274882316589 2.04686760902405 1.67916297912598 1.30949735641479 0.985090315341949 0.750601589679718 0.61286449432373 0.556692779064178 0.430104911327362 0.430320084095001 0.434007257223129 0.459643959999084 1.27781307697296 1.92005133628845 2.29546332359314 2.41805100440979 2.56408643722534 2.61406803131104 2.63321042060852 2.69564843177795 2.6962366104126 2.62917590141296 2.44893455505371 2.17047905921936 1.64109241962433 1.04462194442749 1.23299586772919 1.24861586093903 1.14438080787659 0.945679843425751 0.677378237247467 0.704157412052155 0.777947008609772 0.898207485675812 1.13886904716492 1.26961231231689 1.29247212409973 1.26442313194275 1.2175886631012 1.07506120204926 0.907540857791901 0.749403655529022 0.655150830745697 0.635120511054993 0.633101642131805 0.638047516345978 0.638705968856812 0.574263095855713 0.469432920217514 0.283891171216965 0.130768924951553 0.195967897772789 0.200153917074203
9.80250072479248 7.4294285774231 6.11307191848755 5.94618511199951 5.62620258331299 5.04546308517456 4.83569622039795 4.77456712722778 4.66279554367065 4.42189645767212 3.91320705413818 3.31692385673523 2.54857635498047 1.43111073970795 0.108978644013405 -0.355821758508682 -0.854468822479248 -0.960078477859497 0.117071114480495 1.37609267234802 1.48142147064209 1.90730369091034 6.09203863143921 10.0970764160156 10.7885437011719 12.0056991577148 8.61542510986328 6.38542795181274 5.77180528640747 6.1016001701355 6.40641593933105 5.7505784034729 7.74068069458008 9.56481838226318 9.50198841094971 6.38922929763794 5.6031928062439 5.73975276947021 4.2700400352478 3.59011244773865 3.77500629425049 3.11453413963318 3.44756412506104 6.01203489303589 6.77162981033325 13.217321395874 14.883113861084 16.2567462921143 17.1632328033447 19.7528839111328 16.7671451568604 15.7270498275757 14.8475360870361 14.7764568328857 13.4261789321899 11.4389533996582 10.0811138153076 7.8172812461853 6.01861190795898 8.36544895172119 14.9124135971069 14.7177019119263 14.6549205780029 17.8375434875488 21.3787536621094 22.1053409576416 17.0763339996338 15.4056482315063 16.208215713501 16.3884429931641 16.0072994232178 14.6861591339111 11.8954277038574 10.8712749481201 9.95931053161621 9.31789493560791 8.05084800720215 7.17955493927002 6.95529890060425 6.38519144058228 6.02194547653198 5.50719928741455 5.45793676376343 5.3332052230835 5.45892715454102 5.3740029335022 5.26878309249878 4.99904489517212 4.85911703109741 4.30760908126831 3.76784205436707 3.6431143283844 3.7207465171814 3.79226136207581 3.98769497871399 4.23793888092041 4.34184694290161 4.52560186386108 4.77167654037476 4.99560308456421 4.75151014328003 4.53404378890991 4.20139694213867 4.55743551254272 4.89945602416992 5.04481601715088 5.00393390655518 4.83648586273193 4.58510971069336 4.32766580581665 3.7021152973175 3.29834389686584 3.03027033805847 2.6917040348053 2.44790577888489 2.4317991733551 2.42100381851196 2.38551616668701 2.27849507331848 2.07369542121887 1.63949835300446 1.34301137924194 1.13088321685791 0.869888484477997 0.634398996829987 0.513584971427917 0.440826386213303 0.535604774951935 0.415019541978836 0.413506865501404 0.85518741607666 1.63256084918976 1.97447609901428 2.36979699134827 2.45775318145752 2.48091602325439 2.53357148170471 2.5433304309845 2.61596941947937 2.6113965511322 2.54613542556763 2.32423758506775 1.82853519916534 1.43429827690125 1.16017878055573 1.22938168048859 1.14516794681549 1.10138630867004 0.883883893489838 0.627756893634796 0.665315210819244 0.732327342033386 0.936497986316681 1.13655960559845 1.16504275798798 1.2115273475647 1.19888627529144 1.14194822311401 0.979977905750275 0.772161066532135 0.654791831970215 0.606943309307098 0.602744579315186 0.606217086315155 0.601233422756195 0.59416127204895 0.542498886585236 0.423852741718292 0.228076577186584 0.0934892818331718 0.176766484975815
10.3254413604736 6.00909614562988 5.95195817947388 5.75824737548828 5.4444842338562 5.0301628112793 4.68605327606201 4.61193943023682 4.5674934387207 4.37924861907959 3.9499180316925 3.33227682113647 2.69014739990234 1.83942151069641 0.577156722545624 1.57957363128662 0.657970786094666 -0.241344943642616 2.86172604560852 2.26548051834106 2.04215455055237 3.33651208877563 6.75621700286865 12.0984878540039 12.8081941604614 14.3340215682983 8.78104114532471 5.89050388336182 4.06018304824829 4.77239942550659 6.38426971435547 8.57811260223389 12.5737981796265 15.0901880264282 13.2089996337891 10.9332056045532 8.12662220001221 6.50356149673462 4.67048454284668 4.0022029876709 3.82123994827271 3.58123707771301 3.06345582008362 4.65068340301514 11.2442865371704 19.540771484375 20.2184829711914 18.5362892150879 18.750940322876 17.7068157196045 15.1434278488159 13.9461317062378 13.667914390564 12.7943925857544 12.2745304107666 11.0109357833862 9.87537288665771 8.54096794128418 8.26434803009033 12.6010780334473 15.2379760742188 15.217113494873 15.3199405670166 17.4838943481445 19.4991683959961 19.7729644775391 15.8616714477539 16.2636184692383 15.3061046600342 15.4611511230469 15.5581226348877 13.6589250564575 12.2458276748657 10.7198619842529 9.64065361022949 8.76620388031006 7.87773370742798 6.96781444549561 6.65590238571167 6.16121530532837 5.72847080230713 5.28033542633057 5.04165267944336 5.09731340408325 5.26633596420288 5.18146419525146 5.08571910858154 5.01942586898804 4.77025604248047 4.3248085975647 4.04283809661865 3.54056406021118 3.5119686126709 3.57067584991455 3.83335757255554 3.84670257568359 4.04503726959229 4.21170234680176 4.56597661972046 4.74077272415161 4.73699283599854 4.49303674697876 3.98812866210938 4.13805389404297 4.67900371551514 4.82528734207153 4.78433227539062 4.75302600860596 4.43527984619141 4.15818071365356 3.94519972801208 3.38783836364746 2.97945833206177 2.70235419273376 2.4725182056427 2.33901762962341 2.30876970291138 2.3320004940033 2.29389619827271 2.06917023658752 1.90228796005249 1.55449843406677 1.21138215065002 0.905234277248383 0.690439701080322 0.54913330078125 0.470304250717163 0.404930293560028 0.371366530656815 0.379203081130981 0.41577473282814 1.19656419754028 1.81726205348969 2.17529797554016 2.29294180870056 2.37976336479187 2.40313100814819 2.45613837242126 2.49859404563904 2.54600071907043 2.53924107551575 2.3805091381073 2.06921029090881 1.56287825107574 0.903411030769348 1.08321309089661 1.07826459407806 0.989010393619537 0.995420157909393 0.839599192142487 0.637921631336212 0.696959257125854 0.774370908737183 0.993624150753021 1.08994376659393 1.15028178691864 1.14298093318939 1.08771204948425 0.978159248828888 0.82809579372406 0.673738598823547 0.591375887393951 0.570799052715302 0.56900942325592 0.582534193992615 0.582525908946991 0.520819306373596 0.427067816257477 0.250197976827621 0.104577116668224 0.13816474378109
10.2535963058472 5.79459857940674 5.6812858581543 5.55954933166504 5.40631246566772 4.98564767837524 4.60253143310547 4.45604276657104 4.45945882797241 4.32932806015015 4.02314138412476 3.49162244796753 2.86363077163696 2.12396693229675 1.03319752216339 0.112922251224518 0.836460590362549 2.45513916015625 4.04335594177246 4.03247451782227 3.21729874610901 4.29695224761963 8.88162994384766 13.2737913131714 15.9379053115845 15.1172885894775 9.81612968444824 5.44225549697876 3.29328155517578 4.58022546768188 5.49074745178223 8.78844261169434 12.592396736145 14.5777025222778 12.2026538848877 9.66607189178467 8.67356491088867 6.20148420333862 4.93201684951782 4.40181350708008 3.76384663581848 4.20457983016968 5.49685955047607 11.9395322799683 19.4068336486816 21.2073707580566 18.7495746612549 15.8856868743896 15.3769102096558 14.5256462097168 13.4630784988403 12.5157413482666 12.2014007568359 11.5325307846069 10.7524309158325 9.86808300018311 9.16232013702393 8.81527042388916 7.41775417327881 9.06784439086914 12.3114070892334 13.7331829071045 14.6723556518555 15.5967769622803 17.1840991973877 18.3534488677979 18.3113555908203 15.8547687530518 14.5019750595093 14.7217779159546 14.4397983551025 13.6944923400879 12.1280975341797 10.8430166244507 9.13165283203125 8.44639682769775 7.77536821365356 6.98728799819946 6.39147758483887 6.00792121887207 5.6718897819519 5.27835273742676 4.85581684112549 4.84547901153564 4.86742687225342 5.00792789459229 4.9262318611145 4.8543176651001 4.61417198181152 4.50414276123047 4.00251436233521 3.51972651481628 3.41151356697083 3.43002080917358 3.47253942489624 3.68186020851135 3.82113552093506 4.03574514389038 4.15885496139526 4.33647441864014 4.48528909683228 4.28716373443604 4.08899831771851 3.79417896270752 4.08171844482422 4.43870544433594 4.589928150177 4.55871677398682 4.42311859130859 4.20948171615601 3.93714475631714 3.7480309009552 3.01459074020386 2.78622388839722 2.46811103820801 2.25827026367188 2.24351692199707 2.22008991241455 2.23749375343323 2.11537933349609 1.91515588760376 1.50799882411957 1.23777949810028 1.03079926967621 0.850058257579803 0.617221832275391 0.466782987117767 0.389394164085388 0.318136632442474 0.295753508806229 0.285078883171082 0.76444673538208 1.53004825115204 1.86678838729858 2.10554814338684 2.22393417358398 2.35666108131409 2.41483116149902 2.43662405014038 2.4991934299469 2.48459267616272 2.43552160263062 2.21627831459045 1.58695721626282 0.88428658246994 0.8527712225914 1.01845264434814 1.02716314792633 0.988651633262634 0.798643112182617 0.568934857845306 0.579210877418518 0.674910187721252 0.841953933238983 1.06742691993713 1.08619856834412 1.07658660411835 1.06941521167755 1.0202054977417 0.876229763031006 0.689656913280487 0.582413673400879 0.540889024734497 0.536093831062317 0.54247522354126 0.541025102138519 0.548294425010681 0.494752019643784 0.385559111833572 0.196650475263596 0.067456990480423
9.86879920959473 5.70938682556152 5.37822771072388 5.39075136184692 5.24514150619507 4.89304304122925 4.5741171836853 4.35993385314941 4.32441139221191 4.27486991882324 4.00889253616333 3.60440278053284 3.10018754005432 2.34081983566284 1.27378046512604 0.296050161123276 0.143765315413475 0.815999329090118 3.08782410621643 4.33225774765015 3.74171686172485 5.01328802108765 9.4804515838623 12.3034391403198 15.0337858200073 12.1993761062622 9.44526481628418 5.09380865097046 3.31421160697937 3.87467241287231 5.66659879684448 8.7691068649292 10.7495450973511 10.9743432998657 10.7581596374512 9.07085227966309 6.89173126220703 4.80403089523315 4.5539927482605 4.25935888290405 4.26476669311523 5.07691335678101 5.36184644699097 9.26249599456787 15.0466499328613 17.6797695159912 17.0628890991211 14.3166990280151 13.0607795715332 12.7284631729126 11.8674030303955 11.4459409713745 10.9692716598511 10.5998821258545 10.022852897644 9.36503505706787 8.56804275512695 8.20787620544434 7.74823093414307 6.83317470550537 11.0915908813477 14.2562589645386 15.7050647735596 17.0322742462158 17.3314819335938 17.9215278625488 17.4966373443604 15.1279306411743 14.8025150299072 13.9947786331177 13.6762561798096 12.8231544494629 12.1130256652832 10.5128469467163 9.05152797698975 8.02857494354248 7.3812518119812 6.85829830169678 6.39479112625122 5.9473295211792 5.51145172119141 5.06057977676392 4.80632781982422 4.57764482498169 4.70765733718872 4.8358097076416 4.743483543396 4.67546606063843 4.58811950683594 4.35995674133301 4.00473022460938 3.74462723731995 3.36766195297241 3.24794435501099 3.2904634475708 3.53434634208679 3.51839995384216 3.65030527114868 3.7845287322998 4.07895612716675 4.2382116317749 4.25675487518311 4.0361499786377 3.57442164421082 3.73115634918213 4.23674964904785 4.37549781799316 4.35289525985718 4.32294607162476 4.19933700561523 3.98182010650635 3.7372260093689 3.10864067077637 2.74064350128174 2.49571323394775 2.28471803665161 2.16521120071411 2.14729332923889 2.16589260101318 2.1279628276825 1.90386211872101 1.76212811470032 1.42794299125671 1.17205011844635 0.977871119976044 0.728839039802551 0.486964523792267 0.349490851163864 0.251733720302582 0.200160637497902 0.169854611158371 0.194545641541481 0.681398332118988 1.46578359603882 1.80483829975128 2.18063712120056 2.25878238677979 2.29091286659241 2.34511208534241 2.36841726303101 2.41922044754028 2.42355537414551 2.27049732208252 1.65599274635315 0.838199555873871 0.835530936717987 0.996531367301941 1.01526749134064 0.95217901468277 0.87515926361084 0.750599205493927 0.603772938251495 0.609982550144196 0.69597589969635 0.897659718990326 1.05122697353363 1.07642102241516 1.05699324607849 0.978747963905334 0.882094860076904 0.740012645721436 0.602556526660919 0.518594622612 0.49356809258461 0.504510104656219 0.520533800125122 0.51578813791275 0.472499549388885 0.388555347919464 0.222048416733742 0.0889970287680626
7.22842025756836 5.861572265625 5.23847150802612 5.16269826889038 5.13827466964722 4.90811443328857 4.63134145736694 4.37137937545776 4.18820428848267 4.17722940444946 4.00049924850464 3.72359943389893 3.26953291893005 2.48433685302734 1.53067910671234 0.599300861358643 0.0928583815693855 0.519663035869598 1.32871854305267 3.07982015609741 2.8439621925354 4.05653429031372 9.42387008666992 12.5290603637695 13.9382133483887 11.8731708526611 9.31984806060791 5.32120275497437 3.40163493156433 3.81416344642639 10.492241859436 15.8269567489624 11.3384590148926 10.7778930664062 9.23786926269531 7.27347946166992 5.20080995559692 4.54139566421509 4.82071256637573 4.57403898239136 4.19389343261719 5.45182180404663 7.43493747711182 15.0276231765747 19.4641456604004 18.8019256591797 15.0257024765015 12.625940322876 11.1117544174194 10.1794672012329 9.6232328414917 9.72986793518066 9.98068141937256 9.56465244293213 9.10442352294922 8.30682468414307 8.05264186859131 7.70318984985352 7.6713752746582 7.08511638641357 12.872350692749 14.3203105926514 14.8819808959961 14.5527019500732 15.1448860168457 16.0764789581299 16.4700241088867 16.2542152404785 14.3521537780762 13.2043905258179 12.4709882736206 11.9540920257568 11.2543659210205 10.1434154510498 8.91473007202148 7.63077449798584 7.17191457748413 6.70243453979492 6.25900316238403 5.73410034179688 5.44006443023682 5.06465244293213 4.75663280487061 4.45956516265869 4.48413467407227 4.48092031478882 4.57149839401245 4.500328540802 4.40991163253784 4.21541309356689 4.11887359619141 3.81031370162964 3.56017422676086 3.14822125434875 3.16630625724792 3.15334868431091 3.32363677024841 3.4367949962616 3.58264303207397 3.7074236869812 3.92019104957581 4.0574164390564 3.88712859153748 3.68849158287048 3.38919591903687 3.66821980476379 4.01230621337891 4.1467661857605 4.12472820281982 4.096595287323 3.84448003768921 3.59899067878723 3.43366169929504 2.77261328697205 2.56714940071106 2.39584493637085 2.19205904006958 2.08578109741211 2.05952858924866 2.06845331192017 1.95734190940857 1.76804256439209 1.68103110790253 1.36311638355255 1.03467679023743 0.758351922035217 0.544700562953949 0.355778515338898 0.176936358213425 0.114631056785583 0.061586257070303 0.0699706003069878 0.200931087136269 0.991356194019318 1.63155221939087 1.99307715892792 2.11263084411621 2.18572735786438 2.1325204372406 2.08030366897583 2.22368979454041 2.21806335449219 2.00508999824524 1.35523796081543 0.78242814540863 0.523736238479614 0.786422431468964 0.97164523601532 0.956094682216644 0.904995083808899 0.758962988853455 0.506345570087433 0.526230752468109 0.59076064825058 0.765553772449493 0.925852298736572 0.990661263465881 1.01243185997009 1.02880108356476 0.967063426971436 0.820032179355621 0.608525454998016 0.508354365825653 0.481311202049255 0.480646193027496 0.483819216489792 0.486862003803253 0.485666543245316 0.437424808740616 0.352802187204361 0.192526429891586
6.93773889541626 5.93631172180176 5.15382862091064 4.87563562393188 4.988440990448 4.85963916778564 4.65164661407471 4.36562013626099 4.11664915084839 4.07700634002686 3.99664092063904 3.80829334259033 3.4046471118927 2.74596309661865 1.90658223628998 0.94372683763504 0.274957478046417 0.03048443980515 0.468916445970535 2.00754690170288 2.6253297328949 3.15601897239685 6.28014516830444 11.4895172119141 11.4152717590332 10.8771181106567 9.29202747344971 6.42165374755859 4.61211776733398 8.21371459960938 17.663293838501 13.8549995422363 10.9456672668457 9.49814414978027 8.29217052459717 6.85303211212158 5.5639181137085 4.96478462219238 4.59426879882812 5.27780485153198 5.01310586929321 7.71076250076294 11.2629070281982 17.7389812469482 20.5487308502197 17.0588245391846 13.1481885910034 11.952862739563 9.68921089172363 8.21057033538818 7.56579256057739 7.31130933761597 7.55352306365967 8.10591316223145 8.07786750793457 7.73388385772705 7.26316356658936 7.47774934768677 7.45019388198853 7.52408218383789 11.0151395797729 14.4559917449951 13.6320714950562 14.0278816223145 14.4050807952881 15.2178211212158 15.8234777450562 15.1405715942383 13.5584201812744 12.9049215316772 11.8724155426025 11.3412656784058 10.4761199951172 9.96445178985596 8.5057544708252 7.58569145202637 6.93616342544556 6.54994583129883 6.12328290939331 5.68420314788818 5.36527156829834 4.97997760772705 4.62810516357422 4.36778545379639 4.23895597457886 4.30398654937744 4.39952802658081 4.30983781814575 4.25073003768921 4.16008424758911 3.99026489257812 3.90528917312622 3.47456622123718 3.09439921379089 2.98227548599243 3.00841522216797 3.17737507820129 3.16080188751221 3.24898719787598 3.37960290908813 3.6671154499054 3.82194542884827 3.8639178276062 3.68694543838501 3.49752759933472 3.23977041244507 3.471195936203 3.81246829032898 3.93389678001404 3.92505860328674 3.82568740844727 3.61803698539734 3.39607930183411 2.83186316490173 2.54129409790039 2.45708060264587 2.17783141136169 1.99585819244385 1.99236118793488 1.99318611621857 1.96647202968597 1.86727964878082 1.68622624874115 1.30289435386658 1.05944740772247 0.869510233402252 0.642973780632019 0.362065315246582 0.14767774939537 0.0619491301476955 -0.00196561752818525 -0.0247415900230408 -0.00811205338686705 0.516363084316254 1.28539776802063 1.66951894760132 1.9352217912674 2.01108241081238 1.6740814447403 1.61441421508789 1.74249339103699 1.81235682964325 1.57773578166962 1.07452416419983 0.649023950099945 0.259998828172684 0.776518940925598 0.947625637054443 0.942300379276276 0.853905022144318 0.815960645675659 0.698287189006805 0.535688400268555 0.584091126918793 0.667032480239868 0.822917282581329 0.936881363391876 0.974141478538513 0.95566737651825 0.900362312793732 0.804776608943939 0.710566520690918 0.546381950378418 0.467863619327545 0.458380103111267 0.455165058374405 0.453930020332336 0.466435104608536 0.457105576992035 0.397098451852798 0.376979529857635
6.7240571975708 5.98851919174194 5.25705671310425 4.80305910110474 4.754310131073 4.72978353500366 4.55461692810059 4.37277412414551 4.12758111953735 3.9532196521759 3.92060446739197 3.85099720954895 3.51775598526001 2.93572878837585 2.17245650291443 1.48570477962494 1.33717513084412 0.261700093746185 0.239882856607437 2.86990404129028 3.57111430168152 5.9920449256897 11.0640754699707 16.8084259033203 10.1403408050537 10.067419052124 8.72293567657471 7.36123895645142 5.59407520294189 9.09666347503662 15.4959478378296 10.2448205947876 10.0545721054077 8.59424018859863 8.20552730560303 7.06116914749146 5.99188470840454 6.79849338531494 5.99736404418945 6.14776992797852 8.47845458984375 13.5861368179321 16.7040786743164 20.3366050720215 18.8259162902832 16.0840377807617 12.7535533905029 10.1987581253052 8.1374044418335 6.73425674438477 6.47307920455933 6.59049558639526 6.56430006027222 6.82684850692749 6.73874473571777 6.86333513259888 6.85095071792603 7.85722351074219 7.04743242263794 7.07825803756714 8.06387233734131 14.1698741912842 13.30553150177 13.1276121139526 13.3752593994141 13.4149408340454 13.9729852676392 14.4100379943848 13.7900295257568 12.2389888763428 11.4838962554932 10.5466213226318 10.1362495422363 9.45792865753174 8.58831024169922 7.67318868637085 6.88875389099121 6.22958040237427 5.85312080383301 5.60631275177002 5.16761493682861 4.96617841720581 4.65606164932251 4.33273553848267 4.0872106552124 4.0878119468689 4.0842981338501 4.17060947418213 4.06645202636719 4.01641893386841 3.93697619438171 3.74933433532715 3.48248696327209 3.24674582481384 2.86959910392761 2.85977339744568 2.86530494689941 2.99970841407776 2.98321676254272 3.22281217575073 3.32016730308533 3.48234081268311 3.63548684120178 3.65485334396362 3.42935633659363 3.03805541992188 3.1567690372467 3.58869171142578 3.7095308303833 3.73438215255737 3.71172094345093 3.46626305580139 3.25798082351685 3.1112961769104 2.6058783531189 2.39065909385681 2.18806338310242 1.99852883815765 1.91442799568176 1.87583768367767 1.8947526216507 1.86118590831757 1.65897333621979 1.52997672557831 1.22304844856262 0.914731740951538 0.605651557445526 0.299717426300049 0.105457156896591 0.0371652878820896 -0.0343928374350071 -0.0675351470708847 -0.0849803984165192 -0.0553731173276901 0.491516798734665 1.25068044662476 1.61941885948181 1.53680169582367 1.25021946430206 1.27923357486725 1.28033137321472 1.35354673862457 1.03006172180176 0.719292223453522 0.458922475576401 0.349259436130524 0.503795146942139 0.750534117221832 0.895356357097626 0.916910707950592 0.839204847812653 0.699400663375854 0.492599368095398 0.520709633827209 0.569642305374146 0.635737717151642 0.805609285831451 0.912361025810242 0.940871119499207 0.925441145896912 0.868374705314636 0.761410892009735 0.682718694210052 0.529559373855591 0.4428531229496 0.427165657281876 0.432697802782059 0.445531398057938 0.451541364192963 0.410375356674194 0.314465194940567
6.68171548843384 6.24724864959717 5.38453722000122 4.70066452026367 4.71390962600708 4.59094190597534 4.51458930969238 4.36461925506592 4.09921598434448 3.89183068275452 3.79402375221252 3.80173635482788 3.60182809829712 3.1921169757843 2.5744035243988 1.86337757110596 3.08608198165894 3.1430823802948 3.64090847969055 5.5061206817627 6.44097900390625 8.97123718261719 12.7976913452148 18.6974697113037 11.7885370254517 8.80578899383545 7.84839296340942 7.80784463882446 6.65170860290527 10.1791849136353 8.72638130187988 9.61972522735596 9.01262283325195 7.70345306396484 6.93706178665161 6.65628290176392 7.20167446136475 8.59555435180664 8.39793682098389 9.67227268218994 14.9069652557373 16.70969581604 18.4773120880127 18.4581069946289 16.5913639068604 14.4054708480835 11.6543703079224 8.81321239471436 7.38682889938354 6.7064151763916 6.44728183746338 6.34144258499146 6.10941696166992 6.16009759902954 6.59770536422729 9.46169281005859 9.29866790771484 6.81117105484009 6.6590051651001 6.7840313911438 7.85510063171387 11.2648487091064 11.7191305160522 11.7076654434204 12.0918893814087 12.4994535446167 12.6840181350708 12.8572425842285 12.6404838562012 11.9087743759155 10.6072216033936 9.99900054931641 9.65633010864258 8.98318004608154 8.44588851928711 7.74580907821655 6.82355213165283 6.08931398391724 5.73871898651123 5.43320274353027 5.10068893432617 4.86779403686523 4.71147203445435 4.37886762619019 3.97896862030029 3.88598203659058 3.87128257751465 3.87490367889404 3.94654655456543 3.89784479141235 3.80109524726868 3.64911794662476 3.5404486656189 3.13543105125427 2.80117464065552 2.71489953994751 2.76614284515381 2.68931794166565 2.8409378528595 2.95169496536255 3.05524468421936 3.15574645996094 3.37730503082275 3.48881483078003 3.33104276657104 3.1396815776825 2.90321803092957 3.08374428749084 3.41504335403442 3.55084419250488 3.51873970031738 3.41725182533264 3.23947811126709 3.05188989639282 2.68435883522034 2.38441038131714 2.22138166427612 1.96663057804108 1.80691850185394 1.80867922306061 1.75778269767761 1.78469550609589 1.69073975086212 1.51820909976959 1.1497255563736 0.792007386684418 0.467067927122116 0.197936832904816 0.0466877184808254 0.0122247254475951 -0.0315962322056293 -0.0615638270974159 -0.092756874859333 0.21049553155899 0.81868976354599 1.00054860115051 0.913010656833649 0.896451711654663 0.841913223266602 0.796980619430542 0.826535999774933 0.858416318893433 0.636859118938446 0.423660486936569 0.703068494796753 0.300006896257401 0.210863336920738 0.731579661369324 0.882966876029968 0.898343145847321 0.824223279953003 0.794716954231262 0.680935680866241 0.487957328557968 0.505545675754547 0.551908850669861 0.713979661464691 0.85787832736969 0.907436788082123 0.909501254558563 0.887507975101471 0.821702361106873 0.690453410148621 0.575798392295837 0.451797962188721 0.413130253553391 0.41904029250145 0.407247304916382 0.640146553516388 0.423073261976242 0.388491928577423
6.40848970413208 6.12843704223633 5.50543212890625 4.88168478012085 4.58846426010132 4.38527059555054 4.39611530303955 4.26289987564087 4.10929203033447 3.87032628059387 3.75110149383545 3.7171094417572 3.6528332233429 3.38830542564392 2.90990209579468 2.8539502620697 3.184978723526 4.43663501739502 4.75276708602905 8.03671264648438 9.56252765655518 10.5155658721924 13.1301593780518 16.018627166748 13.9702548980713 8.96133995056152 7.3957633972168 7.54416751861572 7.38965320587158 10.9572677612305 8.8359956741333 8.69893550872803 8.13758087158203 7.28608179092407 6.01387786865234 6.11596775054932 6.62664794921875 9.26193618774414 9.61410713195801 12.881573677063 15.4881019592285 16.9797992706299 17.4409446716309 16.536262512207 15.9154300689697 14.0196104049683 11.6598358154297 8.78561115264893 6.90469598770142 6.55362510681152 5.79004859924316 5.48493242263794 5.67318344116211 6.25284051895142 12.5845708847046 12.0860195159912 10.9952869415283 12.1160974502563 12.5320606231689 12.0540504455566 12.5844058990479 14.4400310516357 15.0229921340942 10.5017385482788 11.739972114563 11.8445539474487 11.760106086731 11.8646974563599 11.6385746002197 10.9728002548218 10.0508403778076 9.42307376861572 8.87197208404541 8.56848049163818 8.06118774414062 7.59418869018555 6.75512742996216 6.04435968399048 5.49547910690308 5.2167911529541 5.066330909729 4.81070518493652 4.61405181884766 4.31993913650513 3.96875977516174 3.73162508010864 3.68754744529724 3.74529600143433 3.80285358428955 3.73256850242615 3.69054102897644 3.58874154090881 3.38051676750183 3.13571071624756 2.91522097587585 2.59369707107544 2.5614914894104 2.62912464141846 2.7228672504425 2.70850563049316 2.81318354606628 2.89744663238525 3.14459800720215 3.27484226226807 3.31136751174927 3.09700632095337 2.73972082138062 2.7916955947876 3.20466923713684 3.32872986793518 3.34469699859619 3.31275773048401 3.13475728034973 2.94507479667664 2.77511286735535 2.39606761932373 2.13190889358521 1.96700441837311 1.79899752140045 1.70324814319611 1.69679617881775 1.68463063240051 1.68429148197174 1.48246729373932 1.06100332736969 0.658490240573883 0.319821566343307 0.102799437940121 -0.0263081025332212 -0.0262523200362921 -0.0480526648461819 -0.0435273796319962 0.0699309110641479 0.386700600385666 1.07281541824341 1.40279757976532 1.29648792743683 0.821953952312469 0.472575932741165 0.448618292808533 0.528892517089844 0.441971361637115 0.337281227111816 0.17838180065155 0.738657593727112 0.207991540431976 0.201214820146561 0.47868686914444 0.704579770565033 0.841690242290497 0.855957508087158 0.789032101631165 0.763399243354797 0.655870139598846 0.500001430511475 0.536967217922211 0.609641253948212 0.764972686767578 0.863434553146362 0.883802831172943 0.857905864715576 0.816030740737915 0.724064707756042 0.594951152801514 0.520373582839966 0.4177565574646 0.391940236091614 0.400473892688751 0.791822791099548 0.420257568359375 0.844552040100098
6.01981592178345 6.18019104003906 5.83918714523315 5.0714168548584 4.56860256195068 4.37107753753662 4.29028129577637 4.24478054046631 4.11709880828857 3.8794002532959 3.72434973716736 3.61323857307434 3.63827538490295 3.48044657707214 3.11496233940125 3.12898802757263 4.21332359313965 5.43775796890259 5.50514030456543 6.77219343185425 8.922043800354 10.3813552856445 12.5822830200195 14.6666793823242 14.3585786819458 10.3296718597412 8.7003927230835 11.6823644638062 12.370475769043 11.9090642929077 11.4117555618286 13.3056840896606 11.7407388687134 6.91948318481445 5.72168493270874 5.76927900314331 6.19670963287354 7.11205577850342 8.83298397064209 9.83691024780273 13.8000364303589 14.632194519043 15.6322832107544 16.2245769500732 15.5764455795288 14.4833326339722 11.4730339050293 9.06664180755615 7.61783695220947 6.2952880859375 5.836266040802 5.22219562530518 9.8279447555542 17.6295757293701 17.9869174957275 13.842453956604 13.7227249145508 14.8475971221924 14.1567153930664 14.6253433227539 16.017484664917 16.4433517456055 13.4031410217285 10.0281591415405 10.3281593322754 10.7362012863159 10.6123027801514 10.4364528656006 10.4984836578369 10.2901124954224 9.70820903778076 8.79831790924072 8.43678569793701 7.94802856445312 7.6937518119812 7.32018136978149 6.78870439529419 6.00001907348633 5.4458966255188 5.12096786499023 4.90027475357056 4.78139495849609 4.48563480377197 4.34175682067871 4.03813886642456 3.77008676528931 3.56040287017822 3.54219484329224 3.55028295516968 3.59876918792725 3.56563520431519 3.45893597602844 3.29969310760498 3.16918563842773 2.78536486625671 2.50114417076111 2.44351816177368 2.52737188339233 2.47082138061523 2.58022618293762 2.6806435585022 2.7532320022583 2.83316683769226 3.05064272880554 3.16475176811218 3.03190445899963 2.83164739608765 2.59658765792847 2.77263426780701 3.0747492313385 3.18690347671509 3.17541360855103 3.1001410484314 2.96938180923462 2.75489115715027 2.61593723297119 2.08620309829712 1.95783126354218 1.84540677070618 1.68728256225586 1.62132513523102 1.60264503955841 1.61414158344269 1.35440635681152 0.952190756797791 0.51971298456192 0.19089449942112 0.0417894907295704 -0.0751776397228241 -0.0682114362716675 -0.0866325944662094 -0.101277500391006 -0.129200592637062 0.172056376934052 0.667652428150177 0.926482379436493 1.11527216434479 1.05626499652863 1.12571954727173 0.438786536455154 0.310658246278763 0.25408861041069 0.202361598610878 0.276380717754364 0.57189154624939 0.286007136106491 0.144624650478363 0.156421363353729 0.457084536552429 0.670984089374542 0.802610635757446 0.815530776977539 0.75173944234848 0.637661397457123 0.45428055524826 0.467912435531616 0.509138345718384 0.661231994628906 0.801706373691559 0.84480494260788 0.836593091487885 0.830817997455597 0.77421498298645 0.641456604003906 0.50806188583374 0.449992179870605 0.388844341039658 0.397171646356583 0.402806371450424 0.400559216737747 0.420193880796432
5.74578475952148 6.00839996337891 5.79177570343018 5.20934963226318 4.6644868850708 4.273024559021 4.10876750946045 4.15531253814697 4.04378509521484 3.91690182685852 3.70794296264648 3.58711886405945 3.56276917457581 3.51856231689453 3.28315877914429 2.88012361526489 2.83954691886902 4.96851348876953 6.78572940826416 7.27303886413574 8.16760540008545 8.9178409576416 11.8473081588745 15.1003084182739 14.1516819000244 13.1221504211426 14.4737005233765 16.9274806976318 15.1690216064453 15.5766086578369 13.8257064819336 15.447211265564 13.3373050689697 7.29729413986206 5.79413795471191 5.57339572906494 6.41271018981934 7.9721097946167 9.09258937835693 9.75100994110107 12.9539794921875 16.6868419647217 15.4301824569702 15.4877815246582 15.2325553894043 14.4885902404785 12.3803339004517 10.4716358184814 8.76804161071777 9.21021556854248 10.7702178955078 16.8392944335938 23.0643615722656 18.9874076843262 17.2292308807373 15.2580547332764 15.2516889572144 14.5213842391968 13.3797178268433 14.2844696044922 14.9153909683228 13.3672103881836 13.4189109802246 10.3043880462646 9.58357524871826 10.0336618423462 9.84976005554199 9.68238544464111 9.69052886962891 9.51246070861816 8.96492290496826 8.43889999389648 7.91233110427856 7.58580207824707 7.29201984405518 7.02058935165405 6.68163967132568 6.0403413772583 5.42644214630127 4.94731760025024 4.73796606063843 4.63574647903442 4.42336797714233 4.23997259140015 3.98398947715759 3.68867897987366 3.42637038230896 3.37195801734924 3.43246722221375 3.46175026893616 3.39709544181824 3.35383439064026 3.23307704925537 3.02943658828735 2.80176115036011 2.59401798248291 2.33697104454041 2.29300999641418 2.40229964256287 2.4736750125885 2.44531011581421 2.53447842597961 2.59200572967529 2.83501744270325 2.95199990272522 3.00101613998413 2.7810652256012 2.45567440986633 2.5138623714447 2.89108753204346 2.9971387386322 3.01887607574463 2.98252868652344 2.92297148704529 2.73732781410217 2.55225920677185 2.10350513458252 1.90890347957611 1.84343481063843 1.62254130840302 1.51127016544342 1.53778183460236 1.47665357589722 1.11430847644806 0.697970747947693 0.342539280653 0.095012329518795 -8.13735750853084e-05 -0.0992906093597412 -0.126120209693909 -0.1233831346035 -0.149215221405029 -0.175473362207413 -0.180584609508514 0.148808345198631 0.539552807807922 0.72997522354126 1.61155557632446 1.69021391868591 0.835367977619171 0.136486306786537 0.110562928020954 0.148353219032288 0.129014953970909 0.530437469482422 0.317816227674484 0.130872011184692 0.138248816132545 0.175883054733276 0.652363657951355 0.782599747180939 0.794760823249817 0.732625246047974 0.707832276821136 0.605215787887573 0.462592393159866 0.501629292964935 0.57213306427002 0.718109309673309 0.795018494129181 0.821994841098785 0.816155076026917 0.767760038375854 0.677256047725677 0.562619090080261 0.583819627761841 0.391547948122025 0.54431676864624 0.38831439614296 0.401719212532043 0.571814298629761
5.70211791992188 5.99532175064087 5.93284273147583 5.54301118850708 4.95851230621338 4.37070798873901 4.11435031890869 4.0524582862854 4.02221727371216 3.9122416973114 3.77556705474854 3.55527424812317 3.47225451469421 3.52318739891052 3.40223360061646 3.31935453414917 3.31437397003174 4.19825744628906 6.63512945175171 8.90035820007324 9.62889385223389 11.1654748916626 15.2338857650757 15.1134738922119 13.9921073913574 13.5966672897339 14.237340927124 16.9426422119141 17.4450149536133 16.0597743988037 13.6688079833984 13.3686790466309 12.697925567627 9.47513484954834 6.79031372070312 5.65528964996338 6.69533729553223 9.42313003540039 13.6517505645752 15.9433622360229 18.3448829650879 17.952018737793 15.3176383972168 15.1123962402344 14.7981557846069 14.0374402999878 12.8358383178711 11.3507585525513 12.4551115036011 13.7370347976685 17.6579990386963 20.7966976165771 23.1437683105469 23.1363296508789 18.349048614502 16.7628364562988 14.9900007247925 13.8609857559204 14.1348085403442 13.1407442092896 12.8623094558716 13.8090267181396 12.3399600982666 9.23405265808105 8.41890144348145 8.63219833374023 8.95701694488525 8.70346641540527 8.58096218109131 8.64650249481201 8.51549816131592 8.06384658813477 7.6528697013855 7.21555614471436 6.85427522659302 6.68577432632446 6.49153232574463 6.12251853942871 5.40025424957275 4.9509482383728 4.65084743499756 4.50803852081299 4.39765024185181 4.14806842803955 4.0190486907959 3.72954988479614 3.49645829200745 3.25514578819275 3.20955657958984 3.22417807579041 3.25553393363953 3.19444561004639 3.08841800689697 2.95699071884155 2.84613537788391 2.63106727600098 2.41889309883118 2.18171119689941 2.18178558349609 2.28071618080139 2.33645391464233 2.42228746414185 2.45966553688049 2.543869972229 2.76605844497681 2.85976147651672 2.73057079315186 2.54902911186218 2.32530927658081 2.44571757316589 2.74289441108704 2.81779527664185 2.83941316604614 2.81093645095825 2.65869641304016 2.45699453353882 2.32566547393799 1.9504771232605 1.7746821641922 1.63718569278717 1.49208641052246 1.41628241539001 1.21792137622833 0.852438867092133 0.534741997718811 0.244191125035286 0.0759614631533623 -0.0133205372840166 -0.108361288905144 -0.182486370205879 -0.176718398928642 -0.19932447373867 -0.218950778245926 -0.241854339838028 -0.228203937411308 0.129379689693451 0.637847900390625 1.4860372543335 1.57783198356628 0.909747004508972 0.181904196739197 0.0156450029462576 0.025254687294364 0.119886972010136 0.597862839698792 0.300744831562042 0.155604109168053 0.106515116989613 0.131745681166649 0.4251828789711 0.625421941280365 0.751090824604034 0.765653908252716 0.702595353126526 0.58562570810318 0.385985374450684 0.431622475385666 0.482808351516724 0.619871854782104 0.748376667499542 0.7983677983284 0.796054363250732 0.775506317615509 0.725114643573761 0.615677535533905 0.474756002426147 0.423097521066666 0.715845882892609 0.363540828227997 0.361009776592255 0.375943511724472
6.37379217147827 5.66317081451416 5.73891448974609 5.76729774475098 5.3165168762207 4.50649881362915 4.03424739837646 3.88307547569275 3.91829109191895 3.88744354248047 3.76891875267029 3.5571768283844 3.45709848403931 3.45035982131958 3.40824580192566 3.26639175415039 4.57161521911621 5.910484790802 6.46593904495239 9.00631809234619 11.1683912277222 14.5903310775757 15.6778860092163 14.6104793548584 13.5862083435059 12.9957189559937 12.3060369491577 13.0739812850952 15.24880027771 14.5927486419678 13.5132789611816 12.4175386428833 13.0423135757446 11.4226665496826 11.938627243042 11.5368881225586 13.6263313293457 14.6934204101562 13.4027938842773 15.7910318374634 17.9520111083984 17.4404010772705 16.0068798065186 14.5027370452881 13.9570302963257 13.6608228683472 12.7119855880737 11.7446002960205 10.9425811767578 13.9058046340942 17.1633052825928 20.0422096252441 20.5463771820068 22.0061092376709 19.8285808563232 16.4660663604736 15.3759870529175 14.9659280776978 13.3176736831665 12.7094106674194 12.825457572937 12.1132555007935 10.696587562561 8.88252830505371 7.52270746231079 7.36401748657227 7.596839427948 7.98523235321045 7.98995304107666 7.87211036682129 7.80896997451782 7.73474264144897 7.34902763366699 6.83903455734253 6.59428310394287 6.38868951797485 6.29067420959473 6.01569557189941 5.57811737060547 5.05147838592529 4.66968536376953 4.40191602706909 4.26665067672729 4.0920934677124 3.92403674125671 3.67284560203552 3.50978541374207 3.22099566459656 3.01068115234375 3.0772078037262 3.09441566467285 3.01465845108032 2.96017241477966 2.87923073768616 2.77914905548096 2.66046404838562 2.3077278137207 2.09829878807068 2.07736897468567 2.18812704086304 2.24342179298401 2.21722030639648 2.29942274093628 2.32850456237793 2.57320213317871 2.66378045082092 2.70293402671814 2.59225940704346 2.41736125946045 2.21889328956604 2.37670731544495 2.613196849823 2.70388960838318 2.68504500389099 2.62017416954041 2.44847083091736 2.2713987827301 2.01049494743347 1.7571382522583 1.66650116443634 1.45557475090027 1.29301524162292 0.987918138504028 0.64763218164444 0.412995934486389 0.193428561091423 0.0514490753412247 -0.0266062803566456 -0.130656108260155 -0.228316932916641 -0.261209934949875 -0.260132849216461 -0.276921302080154 -0.280237704515457 -0.287167519330978 -0.178796693682671 0.723794281482697 1.16763401031494 1.06527411937714 0.674480974674225 0.0339847020804882 -0.0236291009932756 0.598838329315186 0.143875658512115 0.451874166727066 0.206166192889214 0.172792628407478 0.0953348502516747 0.102522745728493 0.160962983965874 0.610513031482697 0.731534242630005 0.74359655380249 0.68469512462616 0.64400589466095 0.521550059318542 0.409009456634521 0.462736874818802 0.520864963531494 0.666760504245758 0.751018643379211 0.772499680519104 0.761992990970612 0.723786890506744 0.647861301898956 0.539484977722168 0.425857454538345 0.369191616773605 0.360842287540436 0.354025423526764 0.354238510131836
5.66547966003418 5.28961563110352 5.55120038986206 5.64472532272339 5.18265151977539 4.5716118812561 4.09324979782104 3.89679312705994 3.75216341018677 3.81234931945801 3.70693492889404 3.59523963928223 3.41232824325562 3.34855651855469 3.34531760215759 3.32305836677551 3.28396010398865 5.89918756484985 6.97993659973145 8.89232063293457 10.2044486999512 14.6557130813599 15.1140327453613 13.6396293640137 12.9122285842896 12.176381111145 11.7680997848511 11.3784866333008 12.428882598877 13.2682037353516 12.6428174972534 11.5051956176758 11.2728338241577 11.2857303619385 11.8073596954346 14.192419052124 15.9403944015503 15.8796787261963 15.1676025390625 13.7936601638794 15.5244007110596 15.8131856918335 15.1066970825195 13.6225624084473 13.111852645874 12.9159898757935 12.4926462173462 11.7716617584229 11.0131549835205 12.2454900741577 14.2014045715332 16.3835315704346 18.4579772949219 19.8803768157959 18.1370620727539 16.4337825775146 15.6886758804321 14.1831951141357 13.7000589370728 12.8642044067383 11.483021736145 10.4855880737305 9.04513263702393 7.5034441947937 6.77012586593628 6.50389814376831 7.12755632400513 7.46551990509033 7.33662939071655 7.3252100944519 7.32154989242554 7.22219800949097 6.88046312332153 6.71768379211426 6.37290525436401 6.21096563339233 6.09557867050171 5.96001052856445 5.69655752182007 5.27445220947266 4.66901159286499 4.29102373123169 4.17562866210938 4.06791687011719 3.86124229431152 3.69242000579834 3.45869612693787 3.14982962608337 2.91644191741943 2.80669665336609 2.84332537651062 2.85587406158447 2.79754972457886 2.76169037818909 2.6862576007843 2.53491640090942 2.35432934761047 2.15333080291748 1.94905471801758 1.97805142402649 2.08716177940369 2.129634141922 2.10412955284119 2.22258305549622 2.29430508613586 2.42786502838135 2.51955080032349 2.57799243927002 2.38615393638611 2.10035014152527 2.12852048873901 2.43877816200256 2.52230048179626 2.55194115638733 2.51434350013733 2.38977360725403 2.23991417884827 2.07472658157349 1.76582467556 1.58546841144562 1.37548243999481 1.14910554885864 0.843760550022125 0.497768878936768 0.325717657804489 0.052977055311203 -0.0237984620034695 -0.132470473647118 -0.209255948662758 -0.26743072271347 -0.335290372371674 -0.333384901285172 -0.339135199785233 -0.336219102144241 -0.34377908706665 -0.326667636632919 0.521677196025848 0.483883112668991 0.332210183143616 0.226500824093819 -0.0690474137663841 -0.0667259469628334 0.467646867036819 0.0514603592455387 0.32446363568306 0.234011992812157 0.179003149271011 0.105655170977116 0.0825348123908043 0.0936288312077522 0.39667409658432 0.584593176841736 0.700561583042145 0.709189355373383 0.638706982135773 0.53360378742218 0.425573319196701 0.399680554866791 0.438384622335434 0.503967761993408 0.640222549438477 0.72052538394928 0.747254252433777 0.73274177312851 0.703951418399811 0.631006419658661 0.523228108882904 0.421560436487198 0.369558393955231 0.345760256052017 0.35491943359375
5.04745769500732 5.18244647979736 5.31307888031006 5.45418357849121 5.30573892593384 4.88661766052246 4.21165370941162 3.84844446182251 3.76646614074707 3.71741247177124 3.6934232711792 3.58323168754578 3.39514851570129 3.31915521621704 3.25520515441895 3.302978515625 3.22604441642761 3.87287878990173 5.68902969360352 7.6891131401062 9.33951282501221 14.1599388122559 13.8866424560547 13.6256408691406 11.8587656021118 11.5313081741333 11.295524597168 10.8304796218872 10.2569227218628 11.9216661453247 11.5923404693604 10.8461084365845 10.5504465103149 11.0813837051392 10.6551780700684 11.938814163208 15.9053287506104 15.9995031356812 15.9224758148193 14.9696655273438 15.0938205718994 14.956748008728 14.2300024032593 13.19615650177 12.6072702407837 12.5368299484253 12.1275291442871 11.4016561508179 10.8568754196167 10.1142539978027 11.9053201675415 13.7641859054565 14.5645065307617 15.1138725280762 16.5708675384521 15.7479419708252 15.3918714523315 14.1761589050293 12.9826240539551 11.4333066940308 10.3702278137207 9.19276714324951 8.26299858093262 7.17754507064819 6.70453500747681 6.29139089584351 6.17109155654907 6.52592039108276 6.9431357383728 6.9449200630188 6.84574174880981 6.73279809951782 6.65171718597412 6.34670877456665 6.07138681411743 6.00511360168457 5.87432956695557 5.76223850250244 5.65617609024048 5.33149528503418 4.7353720664978 4.32616996765137 4.09991931915283 3.97922348976135 3.81448173522949 3.66652607917786 3.47711420059204 3.15629982948303 2.85777378082275 2.61882376670837 2.58054256439209 2.62283396720886 2.6663281917572 2.62004661560059 2.54192590713501 2.46989583969116 2.37854433059692 2.04598641395569 1.9001739025116 1.89465987682343 2.00375485420227 1.98722243309021 2.02701210975647 2.10606098175049 2.1018397808075 2.15992450714111 2.38705658912659 2.47153878211975 2.37347364425659 2.19850301742554 1.99152421951294 2.11600255966187 2.35089492797852 2.4256386756897 2.41155385971069 2.35236954689026 2.25376844406128 2.07464385032654 1.95651388168335 1.55509173870087 1.32146763801575 1.02104198932648 0.773921132087708 0.428143531084061 0.131899997591972 -0.0561373941600323 -0.133945539593697 -0.228638112545013 -0.300960421562195 -0.372996240854263 -0.408345222473145 -0.418931573629379 -0.407873392105103 -0.403626948595047 -0.402978003025055 -0.385333985090256 0.302788704633713 0.128913417458534 0.15816143155098 0.0825864672660828 -0.158988237380981 -0.14212828874588 0.172660291194916 -0.0137582775205374 0.126150861382484 0.154775887727737 0.105512544512749 0.127710253000259 0.0915263742208481 0.0760360434651375 0.151007458567619 0.567742705345154 0.681071817874908 0.685165822505951 0.628784894943237 0.603926062583923 0.51649284362793 0.361737310886383 0.387562662363052 0.429510861635208 0.559830009937286 0.679948151111603 0.72347891330719 0.721145510673523 0.710042715072632 0.667825639247894 0.569522380828857 0.443819612264633 0.370087862014771 0.345868498086929 0.503480434417725
4.90936708450317 4.96488094329834 5.03121900558472 5.26153659820557 5.16848421096802 4.82272863388062 4.28177309036255 3.9508273601532 3.69250464439392 3.55264091491699 3.6208028793335 3.51512408256531 3.4200267791748 3.29804062843323 3.2194938659668 3.21447730064392 3.24315357208252 3.13246393203735 5.07840728759766 7.02564573287964 9.77764511108398 12.2206048965454 12.5902900695801 12.0419311523438 11.5692148208618 10.3806972503662 10.4095945358276 10.3134632110596 9.94559669494629 9.56590366363525 10.6242094039917 10.3786506652832 9.4666748046875 9.78557682037354 9.795334815979 9.37681865692139 12.3489761352539 14.4509859085083 14.666467666626 13.6127843856812 12.5277862548828 12.6704120635986 12.8928737640381 12.1598272323608 12.3108034133911 11.9367408752441 11.7056369781494 11.2828769683838 10.6330842971802 10.3806438446045 11.2953615188599 12.8374824523926 14.1425247192383 15.3171234130859 16.3426094055176 15.1467609405518 14.5322389602661 13.6128625869751 11.9217767715454 10.7131872177124 9.57314872741699 8.45779609680176 7.64222526550293 6.92287349700928 6.48337173461914 6.28368043899536 5.91178607940674 6.22042417526245 6.53838586807251 6.46292352676392 6.46747875213623 6.39784145355225 6.31471157073975 5.97624778747559 5.85462427139282 5.71122550964355 5.62718343734741 5.56058883666992 5.51459884643555 5.25519847869873 4.88061714172363 4.35963296890259 4.00878715515137 3.93508505821228 3.80586218833923 3.62895059585571 3.41054964065552 3.14556884765625 2.83052730560303 2.59239482879639 2.41020035743713 2.47290825843811 2.50703167915344 2.48358821868896 2.45161128044128 2.39189314842224 2.26585054397583 2.10875558853149 1.9333268404007 1.7943389415741 1.82070195674896 1.92411923408508 1.95078253746033 1.92557656764984 2.00538444519043 2.03361940383911 2.21271729469299 2.31177830696106 2.36130046844482 2.17179369926453 1.90410268306732 1.90378451347351 2.20226144790649 2.26783847808838 2.30486392974854 2.285968542099 2.22587323188782 2.06507158279419 1.90770161151886 1.57453727722168 1.27989864349365 0.913867354393005 0.659968018531799 0.350310027599335 0.0210202597081661 -0.228371277451515 -0.328784734010696 -0.432215720415115 -0.453515917062759 -0.50230473279953 -0.574020743370056 -0.524988889694214 -0.502186298370361 -0.483693152666092 -0.468591779470444 -0.454654216766357 -0.150076910853386 -0.31996962428093 -0.130446940660477 -0.00872273556888103 -0.0907661840319633 0.480241775512695 0.29243415594101 0.0407914109528065 0.353575885295868 0.109314687550068 0.0594558082520962 0.06302360445261 0.0597197264432907 0.0635404288768768 0.0625848770141602 0.353308707475662 0.532566964626312 0.643897414207458 0.654501795768738 0.60161828994751 0.584388017654419 0.500270307064056 0.380568981170654 0.414329200983047 0.476656228303909 0.604208588600159 0.680012226104736 0.706806659698486 0.700313448905945 0.671473562717438 0.600104987621307 0.502645492553711 0.403710216283798 0.355165421962738 0.629493594169617
4.6402473449707 4.79712390899658 4.97420597076416 5.01225662231445 5.02651739120483 4.95386838912964 4.58204555511475 3.97335314750671 3.64253091812134 3.56122303009033 3.51292419433594 3.49514269828796 3.3969304561615 3.23988485336304 3.16621851921082 3.11741542816162 3.16758179664612 3.13684940338135 3.68535351753235 5.9023609161377 8.86436939239502 9.42487812042236 10.5528926849365 11.2811164855957 10.7864236831665 9.22852993011475 8.88620853424072 9.4633207321167 9.32114601135254 8.76052188873291 8.61270618438721 9.63299942016602 9.33384037017822 8.70937347412109 8.78019046783447 8.75600528717041 9.92958641052246 12.0065431594849 12.7709913253784 12.7446994781494 11.8009729385376 11.7007999420166 11.6224536895752 11.5490417480469 11.6048717498779 11.3300800323486 11.3064460754395 10.937105178833 10.4443006515503 10.2683849334717 10.1307983398438 10.8468208312988 12.0844049453735 12.6552486419678 13.4069766998291 13.8159236907959 12.6311988830566 12.2851371765137 11.4587297439575 9.89303493499756 8.82122039794922 7.94723081588745 6.97643947601318 6.65070390701294 6.26810121536255 6.07793283462524 5.71882772445679 5.63858032226562 5.82212209701538 6.22253465652466 6.2171368598938 6.11692333221436 5.99204444885254 5.91364812850952 5.60487794876099 5.3788595199585 5.33084869384766 5.37956476211548 5.31080627441406 5.20796060562134 4.89167881011963 4.43075656890869 4.0457010269165 3.8409960269928 3.76535034179688 3.62014842033386 3.40825629234314 3.19613838195801 2.87527871131897 2.55963230133057 2.26898384094238 2.24452638626099 2.29886102676392 2.36522912979126 2.34033012390137 2.27945899963379 2.21831727027893 2.13981890678406 1.84575247764587 1.78116679191589 1.71478891372681 1.75336563587189 1.84681224822998 1.86123645305634 1.94264841079712 1.93899774551392 1.95151591300964 2.20739030838013 2.27746081352234 2.18229866027832 2.01108694076538 1.80328989028931 1.83819627761841 2.09297728538513 2.16167879104614 2.1932590007782 2.14671945571899 2.04622054100037 1.87741923332214 1.78599965572357 1.18670117855072 0.806217133998871 0.448396623134613 0.114168986678123 -0.145674198865891 -0.38621124625206 -0.474966078996658 -0.550580203533173 -0.635515332221985 -0.630672037601471 -0.658775746822357 -0.642035901546478 -0.624076664447784 -0.604083776473999 -0.580679774284363 -0.55537360906601 -0.525388538837433 -0.500176250934601 -0.417422413825989 0.139287501573563 0.392298549413681 0.906231880187988 0.76144003868103 0.518161475658417 0.265601128339767 -0.0148159069940448 -0.0114603182300925 0.0158966314047575 0.0116867357864976 0.00997781008481979 -0.0271183326840401 -0.0155675336718559 0.288597077131271 0.471088647842407 0.588699758052826 0.615993142127991 0.573574423789978 0.488884925842285 0.343894630670547 0.367603272199631 0.405258029699326 0.529776751995087 0.64395147562027 0.681000351905823 0.681373715400696 0.670165300369263 0.637264311313629 0.54096657037735 0.422805160284042 0.360414355993271 0.521097719669342
4.50268507003784 4.68100166320801 4.77632522583008 4.72063779830933 4.84324645996094 4.83340263366699 4.58982419967651 4.13660097122192 3.72338771820068 3.4836630821228 3.3522686958313 3.42390441894531 3.32674264907837 3.24594235420227 3.14368104934692 3.06784081459045 3.05701088905334 3.05960130691528 3.03779315948486 4.35141324996948 6.38888502120972 7.79480409622192 8.66922760009766 9.61567497253418 9.24388313293457 8.49977874755859 8.26017284393311 8.2848482131958 8.67705059051514 8.64260292053223 8.28158664703369 8.92911338806152 8.43882751464844 7.69704723358154 8.62026405334473 8.62629222869873 8.46609210968018 10.0293111801147 11.4152278900146 11.475546836853 10.6193695068359 10.1383504867554 10.2152042388916 10.3331565856934 10.6376895904541 10.7978181838989 10.4992198944092 10.4350347518921 10.1592721939087 9.90687656402588 9.71457672119141 9.18637371063232 9.10547733306885 10.0689029693604 10.5595054626465 11.1391096115112 11.6920566558838 11.257773399353 10.5199174880981 9.57321834564209 8.481689453125 7.50008010864258 6.97012853622437 6.52382326126099 6.20654201507568 5.96595811843872 5.80592823028564 5.51215934753418 5.63525009155273 5.92643737792969 5.91036748886108 5.91045713424683 5.81814813613892 5.69881343841553 5.41993951797485 5.20362854003906 5.02184820175171 5.07619428634644 5.14514493942261 5.10238409042358 4.86879205703735 4.52007818222046 4.07422876358032 3.72576522827148 3.70059418678284 3.5504891872406 3.36130952835083 3.13851475715637 2.88596630096436 2.57718896865845 2.27216649055481 2.07139849662781 2.17429995536804 2.21435523033142 2.21894955635071 2.19337821006775 2.13918709754944 2.0417640209198 1.91439735889435 1.75477957725525 1.68002283573151 1.68205893039703 1.78212106227875 1.79336071014404 1.77863609790802 1.87085652351379 1.86321616172791 2.0608389377594 2.13213849067688 2.18417572975159 2.08541440963745 1.91165411472321 1.72022128105164 1.83716547489166 2.04445934295654 2.09919595718384 2.08412170410156 2.03398013114929 1.90170133113861 1.76030623912811 1.08119535446167 0.629011988639832 0.25883349776268 0.498467653989792 -0.275228887796402 -0.515286684036255 -0.625824987888336 -0.678554832935333 -0.734563291072845 -0.802142083644867 -0.781468212604523 -0.766004323959351 -0.743944406509399 -0.718817293643951 -0.683857798576355 -0.657241344451904 -0.658604681491852 -0.630856037139893 -0.542965471744537 -0.490836262702942 -0.421388477087021 -0.361377269029617 -0.284834772348404 -0.211629554629326 -0.128663092851639 -0.115314923226833 -0.0930249243974686 -0.0656596198678017 -0.0507642142474651 -0.0671376809477806 -0.0960095152258873 -0.135305598378181 -0.0347665958106518 0.363024950027466 0.510406076908112 0.567883253097534 0.553612232208252 0.547117829322815 0.470935523509979 0.357453763484955 0.390270411968231 0.447697371244431 0.566655397415161 0.640158295631409 0.661515593528748 0.660188138484955 0.630635499954224 0.566143333911896 0.478196442127228 0.476764649152756 0.350903302431107
4.49826145172119 4.48563861846924 4.56985759735107 4.5095911026001 4.53474044799805 4.64699459075928 4.63597202301025 4.34341192245483 3.83421206474304 3.46072220802307 3.35984659194946 3.31850695610046 3.3096079826355 3.21737670898438 3.142258644104 3.00948119163513 2.94991183280945 2.95117139816284 2.99094724655151 2.93063402175903 4.52296018600464 6.4236216545105 7.07462644577026 7.61848592758179 8.22576332092285 8.33617496490479 8.19785022735596 7.94381523132324 7.84670257568359 8.18354892730713 8.1053466796875 7.78166151046753 8.15102005004883 8.28990364074707 7.9603705406189 8.08861255645752 8.08477687835693 7.88218021392822 8.56229114532471 9.65980243682861 9.67935848236084 9.09609794616699 9.29599857330322 9.40810489654541 9.64610767364502 9.90185165405273 9.87055492401123 9.5714168548584 9.67166996002197 9.44922542572021 9.18319225311279 8.95315647125244 8.51816940307617 8.77760124206543 9.63046646118164 10.2564392089844 10.761981010437 9.93704891204834 9.9843111038208 9.35313892364502 7.94205951690674 7.34300136566162 6.80658864974976 6.40138530731201 6.18970203399658 5.85911655426025 5.69831705093384 5.36599159240723 5.31520128250122 5.35457181930542 5.59786939620972 5.5678915977478 5.53821039199829 5.45404195785522 5.33600997924805 5.04354047775269 4.88354396820068 4.78840255737305 4.88213396072388 4.91187953948975 4.83478021621704 4.53490447998047 4.1181435585022 3.80441784858704 3.55801582336426 3.50114393234253 3.33757495880127 3.13530611991882 2.93588447570801 2.62232708930969 2.35680532455444 2.10607051849365 1.91565048694611 2.01885342597961 2.0994884967804 2.08174347877502 2.0235710144043 1.99233675003052 1.92910671234131 1.82189464569092 1.67098271846771 1.56884574890137 1.61145544052124 1.70815181732178 1.71460962295532 1.70679819583893 1.80281639099121 1.84272086620331 1.95770764350891 2.03325963020325 2.07184553146362 1.88852953910828 1.65037226676941 1.64949536323547 1.92232298851013 1.97204422950745 2.00733947753906 1.96726655960083 1.76280975341797 1.56656575202942 1.0290333032608 0.446846574544907 0.13848777115345 1.17178571224213 -0.420958906412125 -0.639754593372345 -0.768230617046356 -0.85119754076004 -0.874384343624115 -0.931388020515442 -0.944770514965057 -0.892709970474243 -0.861876666545868 -0.82209324836731 -0.790583789348602 -0.789351642131805 -0.797739565372467 -0.744332790374756 -0.366161495447159 -0.664831340312958 -0.562453031539917 -0.483583897352219 -0.421557545661926 -0.335237473249435 -0.261243671178818 -0.220659345388412 -0.191488072276115 -0.165179044008255 -0.154585331678391 -0.192954421043396 -0.221579134464264 -0.250063419342041 -0.230102866888046 0.0819094404578209 0.316012263298035 0.499525725841522 0.55409175157547 0.528258919715881 0.454226911067963 0.31561267375946 0.330682098865509 0.365569859743118 0.425213605165482 0.546147286891937 0.6248539686203 0.641296744346619 0.642419219017029 0.610767900943756 0.553837060928345 0.517079710960388 0.389273941516876
4.09436225891113 4.30361795425415 4.31162118911743 4.3919734954834 4.44287061691284 4.49458599090576 4.5297532081604 4.4396653175354 4.09702730178833 3.53208923339844 3.29052948951721 3.17403793334961 3.20991325378418 3.20320153236389 3.10956335067749 2.98717260360718 2.908527135849 2.86739063262939 2.90129995346069 2.88748264312744 2.82577586174011 4.54086780548096 5.63316869735718 6.59318923950195 7.36228799819946 7.83662843704224 7.70639133453369 7.63574981689453 7.62196636199951 7.82459831237793 7.65806770324707 7.47337865829468 7.74578094482422 7.78237390518188 7.44716787338257 7.34811496734619 7.62221527099609 7.51582813262939 7.33004331588745 8.18803119659424 8.43387699127197 8.39385509490967 8.26518440246582 8.43237781524658 8.61606693267822 8.77935981750488 9.0883321762085 9.08489894866943 9.20568561553955 8.93550682067871 8.73866748809814 8.53407287597656 8.16661739349365 7.90676355361938 8.04459190368652 8.44083404541016 9.07244873046875 9.61413383483887 9.41510105133057 8.79281234741211 8.10646915435791 7.28027725219727 6.81808185577393 6.54347610473633 6.11282253265381 5.80731153488159 5.57278060913086 5.41974020004272 5.12679624557495 5.07627773284912 5.02666091918945 5.37426853179932 5.3318886756897 5.25019121170044 5.10705661773682 4.96537303924561 4.68734931945801 4.52594470977783 4.56793403625488 4.70743989944458 4.73864412307739 4.53625679016113 4.19603061676025 3.91423201560974 3.5991997718811 3.4199378490448 3.27828311920166 3.10375118255615 2.87702393531799 2.62641191482544 2.41342043876648 2.10233640670776 1.8080962896347 1.80836641788483 1.93123388290405 1.9578355550766 1.94749069213867 1.90564203262329 1.89201104640961 1.83607149124146 1.59373962879181 1.54457259178162 1.50549638271332 1.48206639289856 1.48609006404877 1.64164435863495 1.73132812976837 1.72003352642059 1.74405550956726 1.93046391010284 1.97924840450287 1.89197850227356 1.73214602470398 1.50525879859924 1.59158039093018 1.83731830120087 1.87269997596741 1.78622722625732 1.60777068138123 1.39395642280579 0.728498637676239 0.334225952625275 0.0216036755591631 1.20314586162567 -0.586350619792938 -0.788253724575043 -0.915148556232452 -0.999054074287415 -1.09284913539886 -1.11811697483063 -1.1154613494873 -1.02123653888702 -0.96814352273941 -0.931564509868622 -0.90914112329483 -0.912795960903168 -0.905991911888123 -0.556544363498688 -0.871067762374878 -0.837321579456329 -0.718795418739319 -0.633389830589294 -0.592054188251495 -0.527764022350311 -0.452050149440765 -0.374833285808563 -0.322260707616806 -0.321519523859024 -0.304724484682083 -0.34040379524231 -0.369870245456696 -0.398013293743134 -0.361511528491974 -0.210292115807533 0.232765659689903 0.417466431856155 0.482823938131332 0.483921945095062 0.498064130544662 0.428646177053452 0.299978375434875 0.324450731277466 0.35664689540863 0.472661852836609 0.587091267108917 0.627744197845459 0.631078541278839 0.620443403720856 0.585136711597443 0.51211941242218 0.401413768529892
3.75409698486328 3.86529326438904 4.07341957092285 4.23906660079956 4.25164031982422 4.29915857315063 4.37922811508179 4.37561273574829 4.10329008102417 3.62780165672302 3.26023936271667 3.17565298080444 3.06419515609741 3.13160276412964 3.04527711868286 2.97052121162415 2.89058303833008 2.81467175483704 2.79708957672119 2.80776166915894 2.73157334327698 3.07364463806152 4.51117944717407 5.68864250183105 6.55291080474854 7.18485975265503 7.24312829971313 7.32599544525146 7.22407674789429 7.21814060211182 7.37066316604614 7.07063722610474 7.17778635025024 7.35132932662964 7.35553026199341 6.90583753585815 7.10960006713867 7.19523000717163 7.02042579650879 6.79502058029175 7.68895149230957 7.76829051971436 7.65989685058594 7.7996940612793 7.90462684631348 8.08115386962891 8.49185085296631 8.62481784820557 8.39646148681641 8.49455642700195 8.31489658355713 8.01225471496582 7.87832689285278 7.60341691970825 7.35276937484741 7.8480658531189 8.43311405181885 9.04240608215332 8.50102996826172 8.50236797332764 7.89714193344116 7.35568284988403 6.60908317565918 6.32365322113037 5.9284725189209 5.71623802185059 5.40650749206543 5.23919248580933 4.99255800247192 4.95120620727539 4.84129905700684 5.04644203186035 5.05502796173096 5.06153392791748 4.93915319442749 4.81541728973389 4.60618591308594 4.41312551498413 4.378333568573 4.45845556259155 4.50281953811646 4.49749135971069 4.31869316101074 3.98576903343201 3.59753060340881 3.34162473678589 3.25360918045044 3.09836673736572 2.90342926979065 2.69675374031067 2.40011358261108 2.16103219985962 1.84952616691589 1.60362958908081 1.73543202877045 1.80001533031464 1.83722794055939 1.83772301673889 1.8047639131546 1.74132585525513 1.64826369285583 1.51794123649597 1.3838392496109 1.39115679264069 1.39994287490845 1.56552350521088 1.54946267604828 1.6340993642807 1.60806977748871 1.76131749153137 1.81324326992035 1.86210572719574 1.69207334518433 1.38375997543335 1.29953074455261 1.48809003829956 1.56291210651398 1.52005469799042 1.3871043920517 0.943947792053223 0.403158277273178 0.21572607755661 -0.0417503863573074 0.66000360250473 -0.705759584903717 -0.912635266780853 -1.02557015419006 -1.1287248134613 -1.27230787277222 -1.29345607757568 -1.23730850219727 0.456867724657059 -1.07464492321014 -1.04229974746704 -1.03437948226929 -1.03613746166229 -1.00561833381653 -0.941876947879791 -1.01875364780426 -0.952524781227112 -0.877380609512329 -0.817438423633575 -0.791072249412537 -0.741050541400909 -0.658489942550659 -0.585805475711823 -0.496345281600952 -0.456727534532547 -0.484264463186264 -0.509315013885498 -0.548402011394501 -0.538483083248138 -0.481174498796463 -0.409069150686264 -0.0541523583233356 0.194778725504875 0.347950726747513 0.408012211322784 0.4393649995327 0.463645190000534 0.407200515270233 0.310522854328156 0.346200048923492 0.399500131607056 0.510790288448334 0.580678462982178 0.60517156124115 0.611489415168762 0.586990892887115 0.531760156154633 0.441225230693817
3.53089666366577 3.61043787002563 3.8676540851593 3.90934777259827 4.06008672714233 4.12950801849365 4.18428230285645 4.22050666809082 4.13938760757446 3.83230590820312 3.33531260490417 3.15700101852417 3.06997513771057 3.0337655544281 3.02841401100159 2.93316411972046 2.8329062461853 2.76218271255493 2.71402597427368 2.71343851089478 2.64558887481689 2.41340494155884 3.65362644195557 4.81571340560913 5.6872410774231 6.41458177566528 6.65575361251831 6.76381778717041 6.73853063583374 6.96665096282959 6.97334241867065 6.67396688461304 6.70305490493774 6.97171020507812 7.0662055015564 6.85927677154541 6.51242065429688 6.77404499053955 6.74636650085449 6.56166887283325 6.82446813583374 7.09096336364746 7.02369213104248 6.99211692810059 7.11365842819214 7.55587434768677 7.66950416564941 7.90234613418579 7.78628826141357 7.8324556350708 7.57884645462036 7.46085977554321 7.35391759872437 7.09427070617676 7.05263566970825 6.88870429992676 7.02459287643433 7.67703580856323 8.1216516494751 7.69028663635254 7.68846750259399 7.17273998260498 6.42109775543213 6.2733736038208 6.03203916549683 5.65510940551758 5.38322496414185 5.15314865112305 4.9917631149292 4.77585983276367 4.73459529876709 4.57213306427002 4.88891506195068 4.86823081970215 4.75816011428833 4.67118358612061 4.53145742416382 4.26151704788208 4.14282655715942 4.18055725097656 4.26237154006958 4.32676553726196 4.28181457519531 4.00337362289429 3.65572357177734 3.36882853507996 3.20454168319702 3.04964566230774 2.87677001953125 2.73855137825012 2.35353064537048 2.17301750183105 1.90281510353088 1.68578362464905 1.54325783252716 1.6353132724762 1.74057257175446 1.73480474948883 1.68962812423706 1.69140219688416 1.64984452724457 1.42977499961853 1.31038224697113 1.30369281768799 1.30704033374786 1.31362295150757 1.46391999721527 1.44658279418945 1.51270949840546 1.53514516353607 1.64012014865875 1.70858824253082 1.51922166347504 1.20276474952698 1.00675916671753 0.967369675636292 1.08435165882111 1.15075254440308 0.768406271934509 0.380419611930847 -0.0506916977465153 -0.349986255168915 0.157302051782608 0.59551590681076 -0.824343681335449 -1.02223801612854 -1.12898862361908 -1.23168337345123 -1.33772420883179 -1.38924205303192 0.850104987621307 0.9768226146698 -1.18482613563538 -1.14721810817719 -1.13429081439972 -1.13324952125549 -1.11433494091034 -1.07274842262268 -1.0897034406662 -1.05657649040222 -1.03552317619324 -1.03587591648102 -0.992137372493744 -0.940818786621094 -0.867708921432495 -0.796582698822021 -0.718941867351532 -0.646147489547729 -0.655925989151001 -0.672052502632141 -0.695320308208466 -0.660614013671875 -0.607728838920593 -0.570584714412689 -0.485277354717255 -0.143067985773087 0.0887667387723923 0.225585371255875 0.310956388711929 0.354547381401062 0.324103146791458 0.240733832120895 0.293316662311554 0.329736173152924 0.374535381793976 0.486457943916321 0.558457791805267 0.575317978858948 0.572198212146759 0.550847887992859 0.463985979557037
3.31223320960999 3.4673216342926 3.56167840957642 3.7525417804718 3.88677835464478 3.90183210372925 3.96806526184082 4.03364086151123 4.05452919006348 3.80971217155457 3.37197041511536 3.20604181289673 3.02064323425293 2.92153024673462 2.98351907730103 2.89653968811035 2.81529593467712 2.74558854103088 2.67653131484985 2.61971306800842 2.51579594612122 2.30197906494141 2.57807922363281 3.82676291465759 4.70682144165039 5.31769704818726 5.85572671890259 6.40383052825928 6.39298295974731 6.47630167007446 6.49519109725952 6.54487943649292 6.34502077102661 6.61282444000244 6.7122917175293 6.77831840515137 6.39547634124756 6.31379985809326 6.48531723022461 6.3259015083313 6.13418340682983 6.4747462272644 6.52713012695312 6.29585838317871 6.44031286239624 6.84568309783936 6.83533477783203 7.12173128128052 7.21817445755005 7.15591287612915 7.21154594421387 7.11295080184937 6.96795654296875 6.90029144287109 6.77578830718994 6.58143091201782 6.4459662437439 6.53907823562622 6.95508766174316 7.35452318191528 7.29643487930298 6.81107759475708 6.40391302108765 6.13558673858643 6.00080060958862 5.7668662071228 5.39574432373047 5.13544178009033 4.92206621170044 4.75847339630127 4.59599590301514 4.45398950576782 4.61172866821289 4.60590410232544 4.59722232818604 4.55241823196411 4.40823364257812 4.19787931442261 4.03919124603271 3.94755411148071 4.01734972000122 4.14942646026611 4.19353580474854 4.05398225784302 3.74614548683167 3.35400533676147 3.14589810371399 3.04300856590271 2.87390446662903 2.72459411621094 2.32151103019714 2.17699408531189 1.98045003414154 1.78458154201508 1.50812745094299 1.4872270822525 1.5839147567749 1.63051795959473 1.62703919410706 1.60062396526337 1.54923057556152 1.4715428352356 1.33598983287811 1.20552682876587 1.21518039703369 1.21063327789307 1.21259367465973 1.18487358093262 1.28347826004028 1.3889547586441 1.43145024776459 1.41919720172882 1.22112023830414 0.986569404602051 0.751359939575195 0.577303826808929 0.524442613124847 0.484421998262405 0.259798169136047 -0.00319887278601527 -0.378487139940262 -0.502097427845001 0.536097407341003 0.895039498806 -0.91927832365036 -1.08792448043823 -1.20129466056824 -1.30819439888 -1.39541935920715 -1.51349449157715 -0.400779068470001 -0.172215968370438 -1.2744642496109 -1.25209856033325 -1.23766398429871 -1.22843623161316 -1.21671748161316 -1.18898785114288 -1.1927136182785 -1.1720587015152 -1.15819442272186 -1.16469442844391 -1.19027125835419 -1.14495885372162 -1.05744767189026 -1.00989067554474 -0.95718389749527 -0.860729038715363 -0.851344406604767 -0.825586438179016 -0.826343059539795 -0.806493699550629 -0.770150721073151 -0.750042915344238 -0.676660239696503 -0.527186930179596 -0.150475800037384 -0.0103670172393322 0.0575978122651577 0.108820490539074 0.145840674638748 0.190357103943825 0.11818128824234 0.0996819511055946 0.141738101840019 0.27873706817627 0.389723658561707 0.451393723487854 0.473309397697449 0.452241361141205 0.368476033210754
3.12264895439148 3.17285633087158 3.32696461677551 3.55783939361572 3.59715700149536 3.76202630996704 3.8329291343689 3.89921259880066 3.94773006439209 3.87389206886292 3.58987021446228 3.19969201087952 2.96892619132996 2.90469002723694 2.8852334022522 2.88767743110657 2.80753231048584 2.73391604423523 2.62578797340393 2.52487349510193 2.44746875762939 2.20010018348694 1.99851679801941 2.62985014915466 3.72607111930847 4.61898851394653 5.18352842330933 5.55936336517334 5.85812950134277 6.07209491729736 6.33709764480591 6.40463542938232 6.23044109344482 8.59652042388916 6.5518012046814 6.57973194122314 6.41300630569458 6.02588891983032 6.08825588226318 6.10290098190308 5.94687604904175 5.83286905288696 5.87700128555298 5.86527490615845 6.05922985076904 6.27527189254761 6.41325902938843 6.56511783599854 6.84148406982422 6.78474807739258 6.88307571411133 6.76424264907837 6.70603704452515 6.57717275619507 6.51703214645386 6.42565965652466 6.22455883026123 6.14594697952271 6.55548429489136 6.93835306167603 6.68776845932007 6.74061584472656 6.25204610824585 6.02342414855957 5.83590602874756 5.6231050491333 5.25453424453735 5.03425979614258 4.78395080566406 4.63849592208862 4.44408082962036 4.40609264373779 4.19941329956055 4.45803022384644 4.47767543792725 4.38491916656494 4.26922702789307 4.14935207366943 3.9044394493103 3.81055855751038 3.86611652374268 3.92460751533508 4.01625347137451 4.0126519203186 3.77110838890076 3.45629692077637 3.1803674697876 3.0076425075531 2.88466787338257 2.70159101486206 2.38815379142761 2.22129201889038 2.00559639930725 1.83545112609863 1.61159658432007 1.33110463619232 1.43315553665161 1.5316014289856 1.54538285732269 1.51111352443695 1.52072942256927 1.47032940387726 1.38449990749359 1.24164760112762 1.11234712600708 1.05553758144379 0.987254440784454 0.940601766109467 1.03995156288147 1.18425822257996 1.19318616390228 1.1248083114624 0.976568877696991 0.712874233722687 0.464753955602646 0.253622531890869 0.106557562947273 0.00227788486517966 -0.142427608370781 -0.332645684480667 -0.583481848239899 -0.144996136426926 0.486587524414062 0.185903117060661 -0.956475615501404 -1.11197376251221 -1.23367619514465 -1.3290319442749 -1.43193674087524 -1.55856835842133 0.504040658473969 2.20025372505188 -0.697515249252319 -1.28077042102814 -1.29645311832428 -1.29734885692596 -1.29755520820618 -1.27274930477142 -1.27565515041351 -1.26867949962616 -1.26961898803711 -1.2929425239563 -1.33712577819824 -1.3271576166153 -1.27582252025604 -1.22169387340546 -1.17799878120422 -1.14659345149994 -1.03030061721802 -1.01647782325745 -0.981907784938812 -0.961053371429443 -0.941711664199829 -0.929922521114349 -0.914189875125885 -0.906167328357697 -0.639632344245911 -0.424165368080139 -0.279744029045105 -0.241650760173798 -0.201757609844208 -0.209497198462486 -0.278173238039017 -0.293461292982101 -0.294769287109375 -0.0714335963129997 0.12946742773056 0.226023271679878 0.261036574840546 0.23876103758812 0.221035689115524
2.91299247741699 3.01449298858643 3.13372468948364 3.21087431907654 3.41654753684998 3.55533957481384 3.59143447875977 3.6688175201416 3.75658392906189 3.79719948768616 3.66123914718628 3.30921268463135 3.01993942260742 2.84369277954102 2.75928592681885 2.78672575950623 2.78264760971069 2.69446969032288 2.56821227073669 2.44933080673218 2.38418650627136 2.08175945281982 1.85068917274475 1.89365255832672 2.82723450660706 3.87223410606384 4.44531536102295 4.91169023513794 5.67604351043701 6.03948879241943 6.27879858016968 7.53662347793579 8.85541534423828 6.08965444564819 6.02104473114014 6.08343648910522 6.12449073791504 5.94489479064941 5.67390441894531 5.72541761398315 5.74946594238281 5.60307645797729 5.55577850341797 5.52845191955566 5.78678274154663 5.90549373626709 5.92059326171875 6.01712322235107 6.32718420028687 6.41571712493896 6.36554431915283 6.48480653762817 6.40631914138794 6.35324478149414 6.28657579421997 6.22485733032227 6.0488338470459 5.8957257270813 5.87056112289429 6.0353217124939 6.3831672668457 6.39408159255981 6.04570388793945 5.86824893951416 5.71152687072754 5.58270502090454 5.38222026824951 5.03488349914551 4.77108335494995 4.56617975234985 4.42250299453735 4.31261920928955 4.15947675704956 4.2013955116272 4.28575420379639 4.24247550964355 4.17496728897095 4.08828353881836 3.86293339729309 3.72108149528503 3.66136312484741 3.73316335678101 3.84270453453064 3.88637471199036 3.81532621383667 3.54614448547363 3.1887481212616 2.98577094078064 2.86944127082825 2.67260837554932 2.40430951118469 2.14768147468567 1.96189188957214 1.83142805099487 1.60266554355621 1.42916226387024 1.55208003520966 1.45470190048218 1.47319030761719 1.48040068149567 1.44744086265564 1.43950998783112 1.38984036445618 1.1698511838913 1.03844082355499 0.879358172416687 0.771078765392303 0.702870547771454 0.723999381065369 0.757392048835754 0.898908376693726 0.842000901699066 0.68674224615097 0.408909916877747 0.148644462227821 -0.0495820827782154 -0.222013309597969 -0.354446679353714 -0.499653846025467 -0.637899041175842 -0.788970410823822 -0.452733784914017 -0.548943161964417 -1.01479172706604 -1.01861643791199 -1.10614550113678 -1.2397323846817 -1.34043335914612 -1.43529486656189 -1.53587532043457 1.24941217899323 3.72592234611511 -0.672452807426453 -1.21987795829773 -1.1215193271637 -1.35561621189117 -1.3471200466156 -1.08987748622894 -1.34456896781921 -1.35716891288757 -1.36552405357361 -1.39337337017059 -1.41854977607727 -1.40789484977722 -1.41155076026917 -1.39839565753937 -1.37051951885223 -1.32076966762543 -1.17771947383881 -1.18607985973358 -1.1786642074585 -1.18380665779114 -1.2073929309845 -1.24139130115509 -1.29752588272095 -1.28651070594788 -1.2228616476059 -0.976174175739288 -0.841343700885773 -0.953286528587341 -0.926242709159851 -0.82413637638092 -0.78674042224884 -0.78158175945282 -0.600895047187805 -0.334209591150284 1.25598704814911 0.118558645248413 0.0453014932572842 0.0273277163505554 0.053669735789299
