NCOLS 174
NROWS 32
XLLCORNER 353872
YLLCORNER 6700128
CELLSIZE 16 
NODATA_value -3.4e+38 
3.00925660133362 1.41390132904053 1.58739483356476 1.53562951087952 3.35359025001526 3.44373202323914 3.12316989898682 3.43212342262268 3.59439945220947 3.87280488014221 4.04758453369141 6.71941757202148 7.76866149902344 12.6279983520508 11.8632383346558 6.60995292663574 13.5246925354004 15.6147327423096 22.4508876800537 1.90046501159668 1.72458136081696 0.639565944671631 2.91472434997559 2.85738468170166 3.51225280761719 3.62285542488098 3.97452306747437 4.37748908996582 4.72770738601685 4.74288845062256 5.07483386993408 5.46462965011597 6.72317695617676 6.64157676696777 6.8034234046936 6.87164783477783 6.64593267440796 6.3813591003418 5.2506365776062 5.61272048950195 5.09665155410767 5.06702947616577 6.27094650268555 6.19769859313965 6.97687339782715 7.45645380020142 7.60151290893555 9.07692050933838 11.6446676254272 16.1407775878906 17.1336479187012 21.3854503631592 30.1307392120361 19.8815574645996 25.9232501983643 17.9077110290527 7.67026710510254 12.1901245117188 4.64641523361206 4.84319925308228 15.1551284790039 17.1860771179199 9.69548988342285 19.2773056030273 4.88736391067505 6.11252737045288 19.7357177734375 16.6306800842285 4.81228303909302 8.84561729431152 5.37093639373779 6.72618627548218 7.18465900421143 7.2484884262085 4.59002542495728 8.54532718658447 9.00960254669189 9.24739646911621 10.5716962814331 10.8640413284302 13.140679359436 12.7149963378906 14.4740123748779 18.1769390106201 28.2828979492188 33.7009811401367 36.2136383056641 15.3625001907349 15.1223516464233 22.3048152923584 9.78766345977783 1.74076867103577 4.60008668899536 14.1576662063599 6.23722076416016 5.28144931793213 4.17715263366699 5.30654430389404 6.73423480987549 17.2658634185791 13.5313148498535 3.68435788154602 3.41745209693909 8.57268619537354 4.48721075057983 9.37596607208252 13.5789804458618 18.0225658416748 13.9728908538818 35.3560256958008 41.9278373718262 7.35005807876587 5.90690755844116 7.43722724914551 6.36531114578247 16.471736907959 5.50386905670166 3.63430333137512 8.87157344818115 9.36144828796387 -1.41573596000671 -0.873575031757355 -0.39184445142746 0.366303533315659 3.5288417339325 10.2248029708862 18.3478221893311 6.31045389175415 1.04406106472015 10.0024261474609 12.8012742996216 24.4165649414062 6.24627637863159 6.13724136352539 0.85405832529068 4.95181131362915 11.3053970336914 0.191228985786438 -1.87308835983276 2.02959942817688 -3.56216979026794 -3.80272698402405 -1.70381963253021 -3.65351462364197 -2.81636428833008 -2.08457112312317 -1.42795860767365 -1.41957211494446 1.23894846439362 5.68284034729004 9.43022918701172 11.0557994842529 11.3519315719604 17.8731231689453 16.814998626709 21.9410705566406 25.9970054626465 23.8296222686768 21.8359565734863 20.5264225006104 23.5643577575684 14.8334140777588 11.2911710739136 6.25265693664551 3.60836315155029 3.89545679092407 4.46373987197876 3.20203542709351 3.19706130027771 3.53979134559631 4.42882871627808 5.00297355651855 5.33542585372925 5.95603895187378
1.48755311965942 1.52228617668152 1.44725561141968 3.22365283966064 2.79178357124329 3.02505373954773 3.29931974411011 3.44532513618469 3.70965147018433 3.15551257133484 5.2864465713501 9.43439865112305 10.2360401153564 8.96562671661377 5.10566234588623 8.91987228393555 13.507963180542 6.12934446334839 14.9593629837036 19.6294345855713 28.7385444641113 1.1667218208313 0.939921140670776 3.05591821670532 2.03733253479004 3.16340899467468 3.82424187660217 4.01021480560303 4.20034599304199 4.42854785919189 5.55042219161987 5.92605113983154 5.79018068313599 5.88942909240723 6.19619131088257 5.80737686157227 5.77302265167236 4.61775970458984 4.94030094146729 4.61752796173096 5.41951084136963 5.73884963989258 5.71171569824219 6.28658008575439 6.27897930145264 6.71402883529663 7.86261653900146 9.85633754730225 11.8420467376709 12.6180009841919 13.9215621948242 14.2598485946655 14.644549369812 17.7433891296387 22.4633102416992 19.9168262481689 7.25067710876465 2.88656616210938 3.03682374954224 3.98800325393677 4.07212495803833 3.80652761459351 3.7203414440155 9.96735191345215 4.91823863983154 12.3983716964722 20.0802593231201 5.92047357559204 4.46096658706665 4.67687702178955 4.64605140686035 4.16306591033936 6.15162706375122 3.99700045585632 7.79446029663086 13.7712459564209 11.5346918106079 10.1021547317505 10.7760725021362 9.29832553863525 10.7937650680542 12.1138067245483 14.1308336257935 15.7878608703613 17.0977687835693 27.4923973083496 40.9819602966309 37.6857566833496 23.9203071594238 32.5908393859863 37.7944068908691 24.7190170288086 8.61569786071777 20.548189163208 13.0440979003906 20.5636692047119 5.23409414291382 5.0670428276062 10.6067266464233 14.8354797363281 22.263765335083 4.3927755355835 8.66291427612305 14.2918539047241 8.01187324523926 4.99294185638428 11.5348272323608 11.0059537887573 24.8354740142822 32.2938613891602 40.1170196533203 31.3868923187256 10.2823457717896 6.75498342514038 15.7647581100464 8.75194072723389 2.22504496574402 5.45661544799805 13.0480613708496 7.09163904190063 -1.23738193511963 -1.10308718681335 -1.4670832157135 -0.20999301970005 4.28087139129639 11.7338523864746 22.7019138336182 23.9928016662598 8.52823162078857 8.62527465820312 10.1729679107666 13.2365922927856 24.7019653320312 25.0276012420654 14.8053293228149 20.9942455291748 22.9417781829834 3.93700742721558 6.73132801055908 -1.83661377429962 1.58028161525726 4.48080062866211 5.2755880355835 3.64498615264893 1.21058797836304 -1.69675529003143 -1.85995757579803 -1.46568953990936 1.32430636882782 8.08158779144287 9.37097263336182 12.0724048614502 13.9671592712402 13.3565607070923 16.1611175537109 19.61350440979 18.4497165679932 17.687084197998 16.8346786499023 10.7987089157104 8.90679740905762 7.66210317611694 5.08357381820679 2.04094123840332 2.53193831443787 3.28579115867615 2.13316106796265 2.84820699691772 3.72105550765991 4.28344488143921 4.59567546844482 4.97756862640381 5.60565090179443 5.73546648025513
1.34443032741547 1.83795189857483 3.0853054523468 2.67075896263123 2.96686673164368 3.2098217010498 3.30821514129639 3.53687620162964 2.70907950401306 4.3253345489502 7.34545087814331 7.17742156982422 7.30075025558472 6.57752227783203 7.21216344833374 10.3110694885254 9.85808086395264 8.06803131103516 13.3915929794312 0.488535553216934 19.8945751190186 21.285270690918 6.13445472717285 9.88152885437012 1.46486985683441 3.27711629867554 3.36231589317322 3.67772006988525 3.74179935455322 4.82394647598267 4.65275907516479 4.69172811508179 5.32986068725586 4.89493274688721 5.05177450180054 4.08587217330933 4.25441265106201 4.06165552139282 3.98098850250244 4.99089288711548 5.05892086029053 5.52890205383301 5.81537246704102 5.75532007217407 6.5197491645813 6.95869636535645 8.53580665588379 9.4442138671875 10.0397596359253 10.2146835327148 11.342625617981 11.0789546966553 14.0333251953125 11.8905630111694 6.95219612121582 11.7319402694702 16.7210865020752 20.2899856567383 6.93389129638672 3.50670957565308 15.4844150543213 10.4360046386719 3.76478004455566 4.76621389389038 8.4772253036499 15.9975061416626 25.0002174377441 32.871265411377 16.1426258087158 17.6686000823975 4.16747140884399 4.75866460800171 6.2158784866333 6.83864545822144 6.3890233039856 8.65731334686279 8.90815162658691 7.99448823928833 8.6111011505127 9.44632911682129 10.383734703064 11.4179840087891 11.3281698226929 9.1262321472168 13.4087209701538 24.6010646820068 30.6016006469727 31.8724613189697 26.3300933837891 15.661205291748 12.2008829116821 14.556770324707 7.64385080337524 14.5141296386719 12.2735395431519 7.13842630386353 10.9285678863525 9.18953704833984 10.114688873291 16.385082244873 16.5382900238037 2.16266679763794 5.84681940078735 19.2715377807617 11.8937950134277 6.45296669006348 8.96864318847656 19.091480255127 22.7808151245117 25.5832595825195 32.6632690429688 33.6853256225586 26.8682670593262 24.8543148040771 14.5419015884399 18.5534706115723 6.7891058921814 2.42716765403748 2.25481843948364 7.71763372421265 5.79584884643555 -1.71707165241241 -0.401729106903076 0.788264811038971 2.05380249023438 13.6550388336182 5.6413745880127 5.24475622177124 19.4374389648438 8.10084533691406 8.50916957855225 8.78848743438721 14.3580951690674 17.934591293335 15.0955057144165 23.1387119293213 24.1118564605713 14.8226499557495 12.4822769165039 2.57756400108337 -1.94183552265167 -3.40612173080444 0.433661580085754 -2.03926539421082 1.051549077034 8.70141315460205 -0.0784261152148247 1.53373610973358 3.58450627326965 7.70050621032715 5.88839292526245 9.73834419250488 11.1013164520264 13.2613286972046 15.4521551132202 14.7286424636841 14.2932205200195 13.9293956756592 9.39246940612793 8.27017402648926 5.80012702941895 4.81171560287476 4.07308769226074 2.63209128379822 2.79687309265137 1.87859332561493 2.56586003303528 3.3689272403717 3.92326760292053 4.25145101547241 4.70134449005127 5.18550109863281 5.22091388702393 5.51263666152954
2.85697937011719 2.9426257610321 2.55586552619934 2.7737078666687 3.01725339889526 3.28102159500122 3.38516449928284 3.50749135017395 3.76127123832703 6.06812286376953 5.07046842575073 3.6239070892334 5.89945125579834 7.66380596160889 8.43233966827393 6.05168008804321 6.31877660751343 23.1293773651123 32.8032417297363 9.97625827789307 2.5450234413147 3.87892317771912 9.70158767700195 15.3560256958008 0.708700060844421 0.783022999763489 3.18769478797913 3.3513970375061 4.28035306930542 4.01769161224365 4.10882472991943 4.7737398147583 4.25601387023926 4.67042255401611 3.82643890380859 3.8488826751709 3.743332862854 3.75517153739929 4.63416385650635 4.72284078598022 5.10061025619507 5.10834550857544 5.27744293212891 5.94056749343872 7.07527017593384 7.56884384155273 7.63387298583984 8.45862102508545 8.74984931945801 7.97966861724854 10.1304998397827 11.2938756942749 9.41003322601318 6.68706893920898 9.9258279800415 10.0030193328857 11.6292247772217 17.8743286132812 19.7060146331787 9.45848846435547 3.62315320968628 3.56436324119568 4.8384313583374 5.35796689987183 8.37666034698486 13.0688304901123 13.3626308441162 18.1941146850586 18.9251155853271 21.6406383514404 6.18042373657227 4.95735311508179 5.57530927658081 6.14752101898193 5.65959787368774 5.83152151107788 7.18195295333862 8.80959892272949 9.43049335479736 10.1501693725586 9.34226322174072 7.83964824676514 8.94237613677979 12.0312328338623 12.4787292480469 18.5193691253662 23.6404647827148 24.4027061462402 24.2979011535645 21.3302135467529 23.0253620147705 15.408802986145 11.8469314575195 16.9532375335693 24.2218647003174 18.2139663696289 16.4820175170898 9.7510232925415 9.41703987121582 13.3568563461304 20.9283885955811 5.93521595001221 10.4061765670776 20.7728290557861 12.8881702423096 11.7469186782837 15.4752988815308 16.5798664093018 19.4939098358154 23.6501312255859 25.3550662994385 24.8728179931641 17.5816345214844 32.9024696350098 22.3038177490234 20.3909759521484 7.59236240386963 2.11111664772034 1.71145927906036 -0.175757050514221 3.64741063117981 -0.133156180381775 1.00597763061523 1.27135038375854 5.3168625831604 16.3484516143799 25.8735752105713 5.79138517379761 26.1973323822021 13.5760545730591 15.0669136047363 7.71216678619385 7.01103734970093 10.8773698806763 13.1099729537964 9.79159355163574 11.5193691253662 8.39898204803467 -0.383648633956909 -1.71177184581757 -1.93079030513763 -2.84217000007629 -2.33959054946899 -2.48116493225098 -2.35911750793457 0.636686980724335 1.43699085712433 1.45861279964447 3.44533133506775 4.96533441543579 8.79748725891113 9.70965194702148 11.1560688018799 10.6109781265259 10.3867435455322 10.2335796356201 7.67485952377319 6.96472835540771 7.64088535308838 4.43719482421875 3.26984333992004 3.49196696281433 4.73053121566772 4.04849338531494 2.35413527488708 2.49226760864258 3.0977988243103 3.59803438186646 3.90644717216492 4.47529649734497 4.7498574256897 4.82396364212036 5.51089191436768 5.7687668800354
2.39045691490173 2.48272824287415 2.63149523735046 2.76493144035339 2.27446556091309 2.60689878463745 3.09578728675842 4.99802207946777 5.38208436965942 4.26993083953857 2.58128547668457 4.88970899581909 6.97909021377563 4.69939994812012 5.05034065246582 7.92581081390381 15.566990852356 7.54205179214478 7.89700889587402 2.49137926101685 3.19671201705933 6.34087181091309 17.7674217224121 26.6879081726074 0.170821502804756 0.652037680149078 3.53934144973755 3.80108833312988 3.61521744728088 3.96084022521973 4.29222106933594 3.94386553764343 4.17848777770996 3.54081201553345 3.44666218757629 3.46753215789795 4.15173625946045 4.32892560958862 4.32724094390869 4.73689460754395 4.73879384994507 5.13222122192383 5.3819408416748 6.38532304763794 6.24398899078369 7.06512022018433 7.48080825805664 7.67539691925049 6.90169048309326 8.71525192260742 7.49561595916748 7.56437540054321 5.18219232559204 8.22758865356445 8.90817356109619 9.5714635848999 9.17044067382812 7.5647234916687 12.828387260437 20.0279083251953 18.865592956543 4.0795783996582 4.691490650177 5.02406215667725 8.09796810150146 8.37897682189941 7.35761260986328 11.6982069015503 10.2505521774292 13.9518136978149 28.1251602172852 21.8057651519775 14.3290138244629 6.83172178268433 7.688889503479 6.19266891479492 8.41569137573242 9.76848411560059 16.0303440093994 22.5836544036865 14.4945421218872 9.05190181732178 10.0885181427002 11.1401376724243 13.2844114303589 17.4714412689209 19.6170520782471 14.5796165466309 11.5691833496094 7.29232549667358 11.5184278488159 11.8607349395752 11.1938924789429 9.52705383300781 6.69085502624512 5.8343448638916 5.49898862838745 5.72273445129395 9.07247543334961 4.19430351257324 4.44886159896851 5.91999816894531 10.1957330703735 11.4731140136719 18.1039257049561 10.9195594787598 14.3035678863525 13.1902809143066 15.1331434249878 14.8587026596069 29.1868648529053 37.7219734191895 26.9818687438965 31.8651123046875 22.0695037841797 22.7213268280029 18.1300182342529 7.22987651824951 4.73226547241211 -0.246377497911453 2.9818651676178 0.606683433055878 1.6301097869873 4.62439775466919 12.083963394165 30.7358379364014 33.0347518920898 32.3513870239258 11.2117309570312 9.75098514556885 15.3156366348267 11.8276071548462 8.94368743896484 10.6012687683105 8.99465942382812 8.8239860534668 7.52166938781738 7.2095775604248 12.3081674575806 11.6979188919067 10.5577392578125 -2.40373110771179 -2.64952826499939 -2.63864040374756 -1.73611891269684 6.08037137985229 18.3485317230225 28.9755554199219 22.0800895690918 2.9195830821991 8.26611232757568 9.58647918701172 9.13377380371094 8.95154666900635 8.8588752746582 6.12330389022827 6.30775880813599 5.23838710784912 3.74835157394409 2.67826581001282 2.73667860031128 3.06982207298279 4.19155931472778 4.4974627494812 2.93549013137817 3.25363111495972 3.39245843887329 3.62291812896729 4.15628337860107 4.25861310958862 4.48855018615723 5.10245609283447 5.34057855606079 5.70524501800537
2.48958873748779 2.60114550590515 10.948634147644 18.3738288879395 2.45978403091431 2.72018980979919 4.41922378540039 3.44053649902344 3.76321601867676 3.78317952156067 4.13060331344604 5.55804872512817 4.3873462677002 4.42552137374878 6.87778997421265 11.8185348510742 6.40261316299438 6.72212791442871 3.59945869445801 3.13082718849182 5.27449655532837 11.8617572784424 22.6773586273193 33.0540428161621 28.0630912780762 3.13365840911865 2.92727589607239 3.12697839736938 3.5307035446167 3.08228087425232 3.37797808647156 3.00062918663025 3.23974585533142 3.13570284843445 3.13273787498474 3.86104202270508 4.00435447692871 4.24347591400146 4.41420078277588 4.39464616775513 4.69639110565186 5.5181770324707 5.81290864944458 5.73076009750366 6.34839344024658 6.55946731567383 6.82064723968506 6.06003332138062 7.65031051635742 6.17624616622925 4.71208810806274 5.9939341545105 6.66399908065796 7.39459896087646 7.95798540115356 8.09268760681152 6.94769430160522 9.38148307800293 8.43136024475098 3.76351714134216 3.73494744300842 4.31395626068115 5.61405467987061 5.91959571838379 5.83654832839966 4.77466058731079 7.5296630859375 7.18063020706177 13.3961315155029 14.2621927261353 13.348518371582 21.1771125793457 8.00114917755127 5.11123609542847 9.56819343566895 12.5093421936035 8.90918159484863 12.2172822952271 10.6081075668335 14.81325340271 17.2350311279297 10.0193061828613 9.57209396362305 11.5263957977295 10.6540584564209 7.6866626739502 11.4170274734497 7.1936354637146 32.1339263916016 8.27959251403809 9.96393585205078 8.00221061706543 14.2890586853027 20.311128616333 9.59310626983643 7.55503797531128 4.3053936958313 7.76757049560547 7.27370119094849 14.9610614776611 4.62969779968262 6.89177703857422 8.55302810668945 9.5942440032959 8.51466369628906 5.20754909515381 10.656665802002 8.03071308135986 6.99335956573486 13.4150619506836 13.9476337432861 21.2630043029785 23.1966133117676 23.1606845855713 38.6427803039551 26.3926372528076 23.5752716064453 10.2722940444946 7.27859354019165 0.0545603521168232 0.459745615720749 0.908172488212585 1.95164716243744 7.83778953552246 16.5780181884766 25.3641662597656 33.5247421264648 46.3630561828613 26.3434982299805 8.80278778076172 7.43588590621948 8.01705265045166 8.61771202087402 10.4447364807129 18.9766044616699 20.5320281982422 20.1766242980957 11.5079202651978 14.591423034668 7.07958316802979 14.4912567138672 5.92279195785522 -1.97150158882141 1.3098611831665 0.5031378865242 21.1704616546631 7.2580041885376 23.1011333465576 35.6571311950684 7.19433403015137 7.21995162963867 7.94441509246826 7.81829309463501 7.77513217926025 5.36014652252197 5.74328136444092 3.74329543113708 3.31157755851746 2.33085083961487 2.5877583026886 2.80126333236694 3.04205799102783 3.70579981803894 4.9029335975647 3.85646486282349 3.33819365501404 3.61748957633972 3.89429783821106 3.99132895469666 4.29570627212524 4.80955028533936 5.01923227310181 5.27734851837158 6.05820798873901
2.54256391525269 6.71771192550659 2.75770139694214 2.14745855331421 3.57970333099365 3.95985221862793 3.07832169532776 2.02515983581543 3.35440850257874 4.47467803955078 4.89816951751709 3.42964911460876 4.00776481628418 8.93869113922119 9.54930877685547 5.47519969940186 2.85505485534668 3.1195433139801 4.61572265625 4.79885911941528 9.35209274291992 15.2723636627197 12.0530157089233 2.30542159080505 2.89540147781372 2.68409848213196 2.62795066833496 3.08199977874756 2.56008148193359 3.11070513725281 2.67253804206848 2.79367470741272 2.73264980316162 2.88090229034424 3.57654118537903 3.72296118736267 3.93437218666077 3.93698287010193 3.9826078414917 4.31994819641113 5.05085945129395 4.69874048233032 5.49088096618652 5.80575609207153 5.96164226531982 5.00800800323486 6.3473105430603 6.77358961105347 5.57329511642456 4.30771827697754 5.16137933731079 5.72804260253906 6.04344177246094 6.46900320053101 6.69031429290771 5.40417671203613 7.68969106674194 6.99361085891724 3.69833898544312 3.53547191619873 4.17853975296021 5.17861843109131 4.66397953033447 4.27253484725952 4.24525833129883 5.11425876617432 4.16884326934814 9.34543895721436 10.1492929458618 11.0064086914062 20.237491607666 28.4862003326416 13.1782989501953 6.75462770462036 8.25038623809814 7.99320268630981 8.96505641937256 9.30144882202148 8.91548728942871 10.0223684310913 9.19833564758301 9.66521835327148 9.68276500701904 10.1335353851318 7.00085258483887 5.76356744766235 6.75755023956299 5.56910037994385 6.23141193389893 12.8915138244629 15.5864496231079 6.17728042602539 7.86006021499634 14.2608880996704 19.2754802703857 7.0875997543335 11.2201738357544 3.96413087844849 3.53677535057068 18.6232452392578 6.04787015914917 9.79966068267822 13.456280708313 28.9705924987793 41.1923751831055 6.51898384094238 7.47289800643921 4.55154943466187 5.6253228187561 7.71282434463501 10.676815032959 17.9058055877686 21.438570022583 21.0223388671875 21.0838203430176 29.0040740966797 20.7658882141113 20.5029945373535 21.4844875335693 20.4433860778809 1.69256293773651 2.88481569290161 3.92143154144287 8.78641510009766 14.8765449523926 22.4033908843994 25.2017612457275 35.6976509094238 33.1473121643066 25.7144145965576 14.4908475875854 6.14244508743286 7.64822769165039 13.9976682662964 19.4506397247314 24.0985813140869 23.4600143432617 16.1287250518799 14.9303359985352 13.5455617904663 13.2675609588623 15.9156894683838 4.44818830490112 6.25924301147461 1.88677334785461 4.234299659729 15.4512948989868 5.63242769241333 6.16146373748779 6.27847623825073 4.71078062057495 6.12324190139771 4.16280937194824 4.79252672195435 3.76470851898193 2.52088809013367 1.63638007640839 1.90684020519257 2.40265512466431 2.41732430458069 2.61246490478516 2.93267965316772 3.24900388717651 4.3353123664856 4.95483350753784 3.68904399871826 3.76002550125122 3.79702949523926 4.32219457626343 4.53049993515015 4.73747777938843 4.94433403015137 5.68353605270386 6.27922391891479
5.31118631362915 2.15598678588867 2.04866600036621 3.20692825317383 2.43751406669617 2.74520134925842 2.83206105232239 3.02834057807922 3.95278239250183 2.68560290336609 3.04971075057983 5.05371236801147 7.53763294219971 4.90545701980591 4.93952178955078 2.47257089614868 2.8861837387085 4.24423265457153 7.45125770568848 7.92936515808105 11.9370231628418 9.35331439971924 2.7139675617218 2.74330115318298 2.52921199798584 2.70091128349304 2.79847455024719 2.54290628433228 2.7157781124115 2.40840601921082 2.3688862323761 2.425377368927 3.08453941345215 3.29683089256287 3.30246472358704 3.61746430397034 3.67697143554688 3.83971047401428 4.02114534378052 4.67016887664795 4.34099245071411 5.0555739402771 5.19235134124756 5.19544458389282 4.4794979095459 5.68606424331665 4.6634693145752 4.59380054473877 3.76117730140686 4.60586547851562 5.14129400253296 5.39582538604736 5.20761871337891 4.98811435699463 5.6015157699585 6.29665470123291 5.8400731086731 3.63660502433777 3.58001065254211 4.05363607406616 4.68086194992065 4.38887548446655 3.55890941619873 4.05054903030396 4.12717866897583 5.42073535919189 6.80844640731812 7.66003608703613 9.20841979980469 12.7129964828491 20.4737987518311 29.7787475585938 24.5516242980957 11.948637008667 7.22226095199585 7.34741544723511 6.46441555023193 8.51761913299561 9.04115200042725 11.795841217041 8.68532657623291 8.29376316070557 8.02779769897461 6.49921751022339 5.05377864837646 4.9060378074646 5.00991582870483 4.32576322555542 6.17126560211182 5.80141162872314 27.067476272583 6.21078777313232 4.95908689498901 4.80461931228638 18.1062183380127 26.0832786560059 20.8880233764648 27.4144515991211 8.76113033294678 7.1869330406189 9.09584617614746 12.9284372329712 25.4234180450439 26.7715263366699 6.5224142074585 14.1607656478882 21.5958862304688 5.34072208404541 5.6926121711731 5.2360258102417 8.14601516723633 11.7157688140869 18.0575370788574 17.1084461212158 16.5814723968506 12.0566482543945 23.0431938171387 12.3831071853638 13.8275527954102 23.874547958374 10.4270334243774 3.68079209327698 4.60977220535278 5.86746025085449 16.2263469696045 18.4122066497803 23.9528942108154 27.5793323516846 39.6868057250977 12.5984802246094 12.4408702850342 19.7252502441406 11.0112419128418 14.4868640899658 14.7505893707275 11.4537906646729 14.6048011779785 17.8599624633789 12.7672576904297 13.8840446472168 15.5876865386963 14.7722434997559 0.229556038975716 14.6720037460327 3.54139494895935 10.3407669067383 5.4172887802124 5.84492206573486 6.07515525817871 3.68889307975769 5.48930931091309 3.74485349655151 4.38425159454346 3.02531909942627 2.20717811584473 1.42228674888611 1.91222143173218 2.13656973838806 1.78395557403564 2.32193970680237 2.86416149139404 3.18237209320068 3.29785633087158 3.53161859512329 3.68953013420105 3.90813636779785 3.81663680076599 4.15798664093018 4.30193328857422 4.44808483123779 4.64637422561646 5.32976865768433 5.91709756851196 6.16833353042603
1.95212423801422 2.42499804496765 2.9778733253479 2.19625544548035 1.76432466506958 2.566401720047 3.36939096450806 3.60076308250427 2.38613963127136 2.67393326759338 4.45930624008179 6.36733675003052 4.26745510101318 4.73550701141357 2.72782349586487 2.69312453269958 3.80950903892517 6.52036333084106 9.19294548034668 9.9237174987793 7.96077394485474 2.69098281860352 2.42426586151123 2.29658246040344 2.54993462562561 1.99217021465302 2.33619451522827 2.04164791107178 2.03261113166809 1.91082799434662 2.12714886665344 2.786954164505 2.89115047454834 3.14605712890625 3.30479073524475 3.32546401023865 3.52623128890991 4.15796899795532 4.30077075958252 4.31117820739746 4.63120746612549 4.75073623657227 3.82235860824585 4.882643699646 5.15219879150391 4.2376275062561 3.31463241577148 3.79439330101013 4.22160243988037 4.51033163070679 4.77090978622437 4.6559100151062 4.6590781211853 4.85673856735229 4.4062123298645 3.47749853134155 3.32734274864197 3.90592336654663 3.5146267414093 3.29348945617676 4.08488607406616 3.51554703712463 4.01676654815674 3.32623410224915 4.78955554962158 4.99942064285278 5.77995014190674 7.67239904403687 9.020751953125 12.9756317138672 11.3137111663818 7.77266883850098 14.2380075454712 19.4190101623535 12.6536855697632 18.0909862518311 9.15513038635254 8.12936019897461 9.58209705352783 7.67072248458862 6.7067346572876 5.181396484375 4.82329416275024 5.5889196395874 8.74458026885986 12.4560508728027 13.7053098678589 5.01972913742065 5.69147682189941 5.12549877166748 4.41304922103882 4.78034830093384 8.77611351013184 8.29099559783936 14.4679498672485 12.3862047195435 11.3025503158569 22.8875827789307 22.0122756958008 18.3173370361328 12.5439338684082 20.786678314209 31.7921485900879 33.0891571044922 29.2701530456543 33.5712928771973 27.294677734375 25.8229961395264 5.13308572769165 7.95366859436035 8.81077575683594 12.2277812957764 13.4381628036499 22.6503849029541 11.5304536819458 10.9345645904541 11.172064781189 37.109691619873 25.0237636566162 45.3352203369141 20.6564083099365 15.6122312545776 5.60783672332764 12.9077243804932 14.2873210906982 5.3445348739624 11.4804611206055 29.7463130950928 42.6357040405273 28.1995506286621 8.86984157562256 9.61672306060791 10.5470037460327 10.5593214035034 10.4294128417969 11.5167875289917 11.7216949462891 12.0404253005981 13.0863628387451 10.2887678146362 18.813533782959 28.0606708526611 2.40462398529053 9.51937007904053 8.0706205368042 5.24028205871582 3.64938402175903 10.1098012924194 16.0762596130371 3.03803944587708 3.68909001350403 4.08551120758057 2.39032602310181 1.54602921009064 1.29454576969147 1.74908149242401 1.46927678585052 1.68746387958527 2.21469235420227 2.77028846740723 3.10166573524475 3.21193432807922 3.53245544433594 3.62279319763184 3.60988235473633 4.00977373123169 4.09341335296631 4.18122863769531 4.25340032577515 4.76579284667969 4.98567819595337 5.54111433029175 5.80219984054565 5.89719724655151
2.8035044670105 3.24384737014771 2.16131401062012 1.70345342159271 2.23194456100464 2.90146136283875 2.00195360183716 2.29430294036865 3.80415797233582 5.09746885299683 5.50657606124878 3.7431972026825 2.33936023712158 2.9077513217926 3.55346274375916 3.54981541633606 5.7803750038147 7.94309949874878 6.59887886047363 3.13724136352539 3.05743336677551 2.41976857185364 2.45724725723267 2.46459627151489 2.15874099731445 2.20881414413452 1.90563583374023 1.80387938022614 1.69456613063812 2.23997569084167 2.49959230422974 2.51933765411377 2.72023105621338 2.8489875793457 3.0293505191803 3.20061135292053 3.7447395324707 3.54893970489502 4.10922431945801 4.23180913925171 4.34436225891113 3.45765972137451 4.46739816665649 3.6802339553833 3.49088287353516 3.12316918373108 3.41423225402832 3.79754400253296 4.02883243560791 3.94155931472778 4.16977119445801 3.83106517791748 4.41008520126343 4.02432680130005 3.35728931427002 3.31598591804504 3.11400318145752 5.86392974853516 24.6840362548828 2.80870532989502 2.52314472198486 3.21718430519104 3.16319060325623 4.6396951675415 5.06011533737183 5.56928205490112 5.9843921661377 8.54818820953369 9.929274559021 8.06259727478027 7.41415166854858 9.45091724395752 7.7583589553833 8.71628570556641 7.70013284683228 9.23295116424561 15.2715358734131 7.12170839309692 15.4745445251465 9.54790687561035 4.48720216751099 4.63536643981934 5.87596130371094 8.4849328994751 5.08451271057129 4.68181228637695 4.53556156158447 5.65627241134644 6.79957675933838 3.35164427757263 3.72540664672852 14.0286245346069 2.64523196220398 5.39396905899048 8.27811336517334 4.76658630371094 5.77282428741455 6.87880754470825 9.435133934021 15.6117839813232 16.9878635406494 22.5892810821533 24.2845859527588 26.9883689880371 28.7051391601562 30.8724308013916 37.3956680297852 46.748462677002 9.97272872924805 8.51447486877441 7.51513862609863 6.06212425231934 11.8772344589233 15.0598163604736 30.3382358551025 10.7423601150513 17.6463451385498 22.7338390350342 22.6424655914307 33.467643737793 26.7489223480225 5.82097101211548 6.21771764755249 33.381649017334 8.05108451843262 6.17257404327393 6.66208362579346 22.2601871490479 32.9462547302246 46.293285369873 25.8500576019287 8.64743995666504 9.14902019500732 8.51289081573486 10.1813306808472 9.61228179931641 9.86144256591797 12.0367679595947 6.79859733581543 9.5368824005127 4.12121057510376 19.0089740753174 3.18711185455322 13.240761756897 10.60471534729 17.4205284118652 6.84032917022705 4.24484729766846 2.89154648780823 3.48476123809814 2.61664843559265 1.70505046844482 1.24950873851776 2.40805673599243 1.84131622314453 1.45463979244232 1.52783393859863 2.11466002464294 2.66071033477783 3.00970053672791 3.13652849197388 3.44238591194153 3.37146091461182 3.52708554267883 3.89248752593994 3.98963260650635 4.04126262664795 4.12801313400269 4.54904365539551 5.00048065185547 5.23307037353516 5.47419834136963 5.57570791244507 6.0221905708313
1.93699514865875 2.05293822288513 2.02056574821472 2.0624885559082 2.68280529975891 1.81671786308289 2.03175497055054 3.4686918258667 4.61960458755493 3.19188094139099 3.38080024719238 2.21966528892517 2.33189129829407 3.3714714050293 5.25114154815674 5.34484052658081 7.09847545623779 5.89971256256104 2.68353724479675 3.08301186561584 3.15188336372375 2.87164449691772 1.87476027011871 2.09123945236206 1.78795039653778 1.81396663188934 1.70085632801056 1.56481921672821 2.04680156707764 2.25062131881714 2.31493496894836 2.47219824790955 2.54094386100769 2.69751191139221 2.96555328369141 3.42480516433716 3.27693152427673 3.67207884788513 3.82662582397461 3.80510067939758 3.20662236213684 4.11089277267456 3.37163758277893 2.65969824790955 2.95940780639648 3.30951142311096 3.50350570678711 3.74317097663879 3.49673938751221 3.73607850074768 3.69954323768616 3.85756301879883 3.48228645324707 3.09183526039124 12.821702003479 17.8657627105713 18.1568336486816 12.0589227676392 7.08814382553101 2.71549487113953 5.11024475097656 4.34811067581177 4.23879766464233 4.15487098693848 5.3333592414856 5.44630527496338 6.50264739990234 5.95928573608398 6.47610902786255 6.89665508270264 7.16683578491211 6.73690605163574 6.58810234069824 7.27361440658569 7.77721309661865 14.811149597168 24.5270938873291 5.81397533416748 14.1551313400269 21.0390701293945 3.89348316192627 4.31032657623291 4.09498357772827 12.485424041748 4.26241111755371 4.32526159286499 4.69452619552612 11.7912178039551 11.4319477081299 3.15270733833313 15.3099346160889 18.548885345459 3.20181679725647 2.88043141365051 3.56853985786438 4.71717357635498 5.58630466461182 5.04017496109009 11.4635238647461 7.24459409713745 16.5803909301758 17.9621887207031 18.2139587402344 22.9068794250488 23.4108924865723 25.6355419158936 19.3000240325928 35.6278305053711 35.2174377441406 35.1332168579102 25.9466667175293 10.9221887588501 11.3072700500488 10.7950010299683 27.6713886260986 12.5036506652832 15.5974140167236 16.481819152832 15.4627351760864 28.7211666107178 40.4552688598633 17.2456359863281 6.91697120666504 18.4174289703369 5.54724979400635 6.45898008346558 8.45514965057373 9.58500671386719 22.7203178405762 33.4436416625977 44.4172744750977 33.5811614990234 27.319164276123 10.0697002410889 9.57999610900879 14.2561550140381 13.5627765655518 27.8375225067139 9.14834785461426 37.0349578857422 25.571174621582 31.7281665802002 3.85496616363525 7.94942140579224 4.4501485824585 5.73207855224609 2.74220705032349 2.76738214492798 3.34327960014343 2.36879849433899 1.66842710971832 1.15021526813507 1.63031506538391 2.97567486763 3.60146951675415 2.92274689674377 2.24860310554504 2.33965468406677 2.68292951583862 3.06411147117615 3.37143206596375 3.2882444858551 3.44164276123047 3.80027031898499 3.86532330513 3.91058135032654 3.97818851470947 4.36751842498779 4.76101064682007 4.92269992828369 5.15043210983276 5.26495981216431 5.73703479766846 6.20993375778198
1.59115445613861 1.98049414157867 2.39192676544189 2.50684070587158 1.76213109493256 1.90034008026123 3.84180974960327 4.13221883773804 2.85308885574341 2.06219172477722 2.01117062568665 2.76686215400696 2.95619225502014 4.77366065979004 6.35663843154907 6.52655076980591 5.48534393310547 2.66048240661621 2.64931130409241 2.75536704063416 3.05150604248047 3.11049580574036 2.46253347396851 1.75148355960846 1.69101500511169 1.45328485965729 1.55152821540833 2.02358055114746 2.087815284729 2.08380961418152 2.14643239974976 2.26409840583801 2.40942716598511 2.87015628814697 2.98387336730957 3.1401195526123 3.34816098213196 3.48568987846375 2.63887739181519 3.48220705986023 3.65285158157349 2.98581695556641 2.34028840065002 2.67211818695068 2.94756937026978 3.32440161705017 3.47948932647705 3.18018627166748 3.62547206878662 3.52718997001648 3.40971755981445 3.15089917182922 2.98724555969238 8.11693096160889 8.74150466918945 7.76709318161011 12.1267547607422 6.12838983535767 14.2058839797974 2.5233039855957 4.13189077377319 4.11801481246948 4.3963942527771 4.8937554359436 4.43848323822021 5.87675189971924 5.68464612960815 5.83233165740967 6.25223636627197 6.64927196502686 6.12369441986084 6.19641637802124 6.87622213363647 7.26227045059204 8.6850757598877 17.2668857574463 5.34118556976318 9.17580223083496 14.7579069137573 25.3329830169678 3.99287462234497 4.02348327636719 3.79731822013855 3.68200421333313 6.21665573120117 3.86114978790283 3.16802287101746 5.71140193939209 3.53383231163025 9.22370052337646 14.9043283462524 3.64207077026367 2.4551637172699 2.56231069564819 2.93375539779663 3.90324711799622 5.14028549194336 6.54633712768555 5.90780544281006 10.5051355361938 13.896445274353 14.1481847763062 13.892840385437 19.2826061248779 19.5272483825684 13.3473215103149 12.1904249191284 15.6628456115723 18.9742069244385 17.1277961730957 9.8528299331665 7.3734712600708 9.47890281677246 8.8773889541626 14.2624864578247 8.91171550750732 8.40812683105469 12.1622200012207 19.3178367614746 19.6918182373047 29.6918849945068 39.2589416503906 15.1858921051025 35.2512893676758 21.6326580047607 10.1169528961182 7.2560658454895 8.87326335906982 12.3410482406616 14.8118009567261 22.9333534240723 31.3203220367432 27.6781787872314 31.3231143951416 23.2633228302002 13.5519714355469 16.3833808898926 24.7561798095703 5.54270362854004 15.7445726394653 13.1476678848267 19.9902610778809 7.01246976852417 4.59825754165649 12.2959823608398 18.0278816223145 2.67455101013184 3.19622445106506 1.85772752761841 1.26493716239929 1.35102450847626 1.60947072505951 1.25246834754944 2.24311542510986 3.89761781692505 4.00501012802124 3.78773641586304 3.40306615829468 2.90618658065796 3.31529569625854 3.23442578315735 3.27527141571045 3.70506453514099 3.77073168754578 3.79179286956787 4.10202169418335 4.19471883773804 4.542649269104 4.63719940185547 4.6829686164856 5.18601989746094 5.41591691970825 5.85322284698486 5.27102708816528
1.84529960155487 2.39239811897278 2.53920793533325 2.45654606819153 2.90207314491272 3.62986397743225 2.42844176292419 2.68772912025452 1.94201755523682 1.94201707839966 2.57370758056641 3.99087476730347 4.27604866027832 5.70031452178955 5.00427913665771 2.63782787322998 2.64488124847412 2.57172560691833 2.59034514427185 2.64817333221436 2.90227341651917 3.38916182518005 2.99014377593994 1.6000554561615 1.42389929294586 1.8033275604248 1.93618953227997 1.81967306137085 1.93930983543396 1.96219670772552 2.04954886436462 2.16926050186157 2.53131365776062 2.52172708511353 2.80731987953186 2.98226475715637 3.18673276901245 2.40951085090637 3.18198990821838 2.54851150512695 2.315434217453 2.30745553970337 2.38476753234863 2.51403832435608 2.92367005348206 2.53649520874023 2.72145581245422 2.68307876586914 3.25497722625732 3.27412891387939 3.03844380378723 2.81825709342957 5.84674406051636 6.23897123336792 6.65442180633545 11.8107395172119 15.0931901931763 10.9213800430298 1.54420232772827 5.14311504364014 2.79929041862488 4.03710031509399 10.4884023666382 16.3828048706055 4.84634876251221 5.56183242797852 4.71649360656738 4.56424999237061 5.83957576751709 5.44507694244385 6.31956052780151 6.90868186950684 6.91691064834595 6.90222072601318 16.2308807373047 25.738208770752 6.58053827285767 10.777946472168 12.8144693374634 13.933876991272 11.4593067169189 3.73332095146179 3.48536252975464 3.72872114181519 3.47072148323059 3.13710618019104 4.93659400939941 7.8188042640686 5.18354225158691 12.3517026901245 17.5286445617676 5.32133913040161 2.76120734214783 2.41070461273193 2.63996553421021 3.32914638519287 4.58460235595703 4.79535484313965 5.40755033493042 7.44088125228882 11.1284847259521 13.9569177627563 14.1899213790894 18.4683036804199 10.0398511886597 6.68598604202271 7.44412708282471 15.7696466445923 8.70468997955322 13.4603042602539 29.6033668518066 9.28170871734619 8.93576049804688 6.54810428619385 7.70572996139526 12.711986541748 7.52316188812256 10.2960081100464 14.3404703140259 18.9956188201904 20.1334190368652 30.6651782989502 16.2210350036621 28.1224060058594 27.1864471435547 23.6267471313477 22.5091514587402 10.7714881896973 13.0099077224731 16.8705959320068 19.8370399475098 24.6728057861328 24.4918079376221 23.904764175415 27.1904010772705 18.1304206848145 14.8277721405029 30.5181465148926 8.30621337890625 12.1064386367798 7.1368932723999 6.70419979095459 5.88908052444458 9.85832500457764 3.67752861976624 -0.138651937246323 -0.203291460871696 1.21992444992065 0.887017786502838 1.37218248844147 1.56147015094757 1.12186539173126 1.42647159099579 1.58806300163269 2.09820175170898 3.18486022949219 3.18924164772034 3.341392993927 3.14548063278198 2.73024868965149 2.96930027008057 3.13597369194031 3.3939356803894 3.69831871986389 3.97221779823303 4.27389907836914 4.35445404052734 4.39436912536621 4.37134552001953 4.81751108169556 5.18336725234985 13.0456485748291 22.4797019958496 5.01420497894287
2.23087024688721 1.69344937801361 1.73141932487488 2.86635255813599 3.51839518547058 2.43132638931274 2.48247194290161 1.93466782569885 1.88274145126343 2.43870401382446 3.77896952629089 4.89269876480103 5.06412792205811 4.51160192489624 2.60980319976807 2.41271328926086 2.50726890563965 2.52285289764404 2.54594254493713 2.59268260002136 2.87458968162537 3.3804988861084 3.2367799282074 1.86549723148346 1.76934504508972 1.8940349817276 1.81568706035614 1.84322810173035 1.84366893768311 1.89483523368835 2.16167974472046 2.2759907245636 2.38409471511841 2.5125298500061 2.64138078689575 2.51144647598267 2.03985524177551 2.89447617530823 2.34297132492065 1.79155671596527 2.11661720275879 2.15766406059265 2.30516695976257 2.64441967010498 2.22702884674072 2.33959341049194 2.27445864677429 2.43570041656494 2.76800417900085 2.73328566551208 3.99233365058899 4.32911920547485 5.04946613311768 6.36915731430054 7.27806568145752 7.54468536376953 20.8226795196533 30.8532028198242 19.9983654022217 29.9814834594727 15.0033330917358 3.38199710845947 4.35482549667358 6.61668825149536 4.01999807357788 11.7255697250366 6.85979652404785 4.65011692047119 4.8500337600708 5.69308090209961 5.76407480239868 5.44085264205933 6.61551427841187 10.0128345489502 6.35719347000122 10.1846590042114 8.45424175262451 6.03401660919189 7.44508981704712 12.3865413665771 15.5666704177856 3.34385991096497 3.66573739051819 15.7285270690918 8.62298679351807 2.85921502113342 5.18270874023438 7.91378164291382 8.44766807556152 20.4357967376709 23.4648265838623 16.6844253540039 2.58749938011169 2.34641170501709 2.61739492416382 3.02580261230469 3.24186277389526 2.91866970062256 4.87862253189087 7.74322080612183 7.83040857315063 13.3336172103882 11.1101055145264 26.4240856170654 24.1717109680176 14.4754362106323 5.84210109710693 6.61508655548096 6.71440935134888 8.93096828460693 11.8677101135254 10.4640417098999 5.34770488739014 5.6487078666687 4.18509721755981 8.68240451812744 7.9481086730957 5.06067562103271 13.5245370864868 13.962025642395 17.1604270935059 15.6723737716675 12.8652410507202 18.691219329834 23.3710765838623 16.9589786529541 7.78600168228149 7.41422843933105 13.4621295928955 14.1432762145996 15.5553016662598 16.8668975830078 20.3794937133789 25.577091217041 26.1700038909912 29.9981498718262 21.3319225311279 19.0909881591797 3.4781060218811 4.16149854660034 7.23008394241333 6.46442794799805 8.94054889678955 35.5188064575195 26.4119739532471 33.175838470459 -0.623647034168243 -0.371265739202499 1.23140692710876 0.918871641159058 0.830906748771667 1.16469752788544 1.25310003757477 1.2318913936615 1.46626627445221 1.71285343170166 2.14367413520813 2.66977858543396 2.70424103736877 2.76272034645081 3.26566958427429 3.35438227653503 3.79319262504578 3.85719418525696 4.14700317382812 4.17919921875 4.21359348297119 4.47440576553345 4.5318021774292 4.7959303855896 5.26044940948486 9.71467208862305 25.0876502990723 22.7470359802246
1.60478460788727 1.63670992851257 3.08807444572449 3.30360770225525 2.4094865322113 1.8495557308197 1.76605641841888 2.16820001602173 2.29548668861389 3.53231930732727 4.54519939422607 3.9573495388031 2.15822267532349 2.52831983566284 2.34568428993225 2.31561899185181 2.43651819229126 2.53621339797974 2.49079585075378 2.63269972801208 2.82612347602844 3.1627733707428 3.34386682510376 2.71210408210754 1.87746298313141 1.78607857227325 1.75257885456085 1.75733327865601 1.77300834655762 2.00088930130005 1.91684281826019 2.1714551448822 2.24862766265869 2.36662125587463 1.67580676078796 2.28828477859497 2.39569497108459 1.91692507266998 1.84890687465668 1.93918359279633 1.90375030040741 2.30608916282654 2.3660523891449 1.9537661075592 2.01654410362244 1.87467157840729 1.77924346923828 1.87674295902252 2.57965397834778 2.99244403839111 3.33550691604614 4.0610294342041 5.04627561569214 5.35437154769897 5.82228946685791 13.1755409240723 3.51271390914917 12.6676149368286 5.91131067276001 18.0922374725342 27.3234233856201 10.3382577896118 7.17460536956787 13.2446956634521 4.09447574615479 15.7279005050659 4.58187770843506 4.95730829238892 5.39276075363159 7.45638656616211 15.4818964004517 5.23287487030029 7.93062973022461 5.26909351348877 6.09480953216553 7.15462398529053 13.2643480300903 6.68033075332642 8.27810001373291 14.750714302063 29.2810573577881 3.08526396751404 2.70606684684753 5.23991012573242 9.29538154602051 3.70340371131897 4.60225772857666 8.22226619720459 15.7698888778687 15.0380840301514 32.5708351135254 28.4682464599609 19.5992469787598 5.03283786773682 2.70697045326233 2.65167737007141 4.92775011062622 3.82519602775574 3.76521062850952 4.12283229827881 5.62277317047119 6.85318231582642 13.4221830368042 17.6962566375732 23.4632759094238 24.0418167114258 5.17926502227783 5.71611166000366 6.89663314819336 7.74842977523804 15.9882726669312 19.2522239685059 3.83396553993225 3.52484059333801 3.74714112281799 4.89416217803955 4.70475149154663 5.71960115432739 6.23176431655884 13.8391828536987 13.1409502029419 10.3801126480103 14.9078731536865 12.7147731781006 21.8213787078857 33.0416145324707 34.4438247680664 10.6029453277588 11.8619556427002 12.4171447753906 12.958815574646 14.4413566589355 13.850248336792 16.3239116668701 16.4837303161621 14.6018581390381 25.6208381652832 37.2829132080078 10.529806137085 3.39655613899231 7.69162130355835 8.39720821380615 26.2194290161133 16.1867065429688 -0.952915608882904 26.0245838165283 15.3750524520874 0.976600825786591 0.766495525836945 0.561747312545776 0.766497313976288 0.893517076969147 1.00037205219269 1.19138932228088 1.2854608297348 1.31925308704376 1.80764353275299 2.65554404258728 2.67074346542358 3.20699048042297 3.26803207397461 3.68416047096252 3.95695924758911 4.02708435058594 4.06804609298706 4.03697919845581 3.10966157913208 2.57726716995239 3.02091908454895 2.99914240837097 4.84533786773682 13.2098455429077 18.9440574645996 21.7358531951904
2.22223854064941 2.80701208114624 2.00298285484314 2.26525783538818 1.84763979911804 1.73344242572784 2.01447153091431 3.12395644187927 3.32490253448486 4.26218461990356 3.72561955451965 2.40210771560669 2.47977066040039 2.33458209037781 2.36480522155762 2.35638165473938 2.30772519111633 2.52910089492798 2.48837232589722 2.54695963859558 2.58051919937134 2.60962104797363 2.90279746055603 3.0809760093689 2.28166365623474 1.74540948867798 1.72733533382416 1.70809400081635 1.9028457403183 1.86004400253296 2.01534748077393 2.05346202850342 1.84868848323822 1.48346495628357 2.05289459228516 1.62264633178711 1.40157186985016 1.56415557861328 1.58695316314697 1.6514995098114 2.07535743713379 1.58185148239136 1.78410279750824 1.6967693567276 1.62480890750885 1.6256251335144 1.73322713375092 2.12195229530334 2.14768576622009 3.1103093624115 3.28625965118408 4.04228210449219 4.12163162231445 3.00661563873291 9.31410694122314 3.35127258300781 8.66379451751709 4.04661321640015 11.3808279037476 4.30819463729858 9.76531219482422 15.1060562133789 3.82809734344482 10.7203998565674 6.67001438140869 3.82787871360779 5.56982755661011 5.23988246917725 5.21760129928589 5.37401866912842 4.86268901824951 4.68254423141479 4.94558715820312 5.36355924606323 4.88232517242432 5.75219583511353 8.29261302947998 16.2322158813477 5.97627687454224 17.6975193023682 25.9605693817139 16.6020755767822 4.57761716842651 9.74192810058594 10.567006111145 7.70436143875122 7.47377395629883 9.42630958557129 14.3114557266235 20.9343204498291 26.2928276062012 21.3824424743652 20.5674591064453 9.25034618377686 2.60091590881348 2.32653665542603 2.57097005844116 3.12409901618958 3.65323185920715 3.87435936927795 4.8343334197998 7.16997241973877 7.35108375549316 14.5042781829834 22.3855037689209 21.3247051239014 18.6761722564697 5.84544658660889 6.90034437179565 10.0406742095947 20.6052722930908 22.4523983001709 5.45472240447998 3.46414422988892 3.62953591346741 4.27440738677979 21.6774101257324 12.5359487533569 8.520827293396 8.27470111846924 10.7008991241455 12.5008640289307 10.8361148834229 15.4900903701782 16.6490840911865 10.2037305831909 9.94851589202881 10.2246952056885 10.8136472702026 10.5422525405884 12.2424192428589 11.3538789749146 10.9176473617554 13.1975688934326 11.3753461837769 17.7181777954102 12.8598260879517 19.6038227081299 24.8177471160889 7.66132259368896 6.39629650115967 17.9574127197266 31.7052841186523 39.9554862976074 7.43062591552734 0.303515166044235 1.7622457742691 0.0430601127445698 0.227835461497307 0.51609218120575 0.678017854690552 0.796598672866821 0.958890914916992 1.05035722255707 1.19721710681915 1.08385396003723 2.43328094482422 2.58204746246338 3.16788005828857 3.21706175804138 3.55820918083191 3.816565990448 3.87590789794922 3.94541645050049 25.7670459747314 36.7699203491211 31.0564956665039 2.86903190612793 2.52962946891785 2.68834400177002 7.50912857055664 9.48569488525391 10.463005065918 15.8530111312866
2.48842310905457 1.9241396188736 2.07478976249695 1.67062711715698 1.72836899757385 1.99006509780884 2.92185759544373 3.76352000236511 3.95760631561279 3.46169471740723 2.31557130813599 2.25092720985413 2.17200541496277 2.30789875984192 2.01459836959839 2.20012950897217 2.28204894065857 2.31923055648804 2.39022254943848 2.35771465301514 2.31967091560364 2.33820509910583 2.24017000198364 2.40525054931641 2.377605676651 1.96381604671478 1.84680879116058 1.84390842914581 1.87228775024414 1.91898167133331 1.94147717952728 1.25325381755829 1.74592840671539 1.85124492645264 0.344496548175812 1.22770214080811 1.43407618999481 1.34850454330444 1.81335318088531 1.88369226455688 1.49208545684814 1.55527913570404 1.48120701313019 1.26513683795929 1.509770154953 1.63448667526245 1.6189466714859 1.76991713047028 2.53753757476807 3.11690735816956 3.28069281578064 3.26483154296875 6.13746404647827 6.85577964782715 5.90489816665649 6.63965892791748 3.81496620178223 7.53411197662354 4.12719440460205 5.89527416229248 14.5006113052368 22.1760425567627 3.87282133102417 5.51380062103271 22.1471748352051 8.58706760406494 4.80272769927979 5.20459985733032 5.00048589706421 4.61457872390747 13.6372442245483 3.83795070648193 4.80869579315186 4.47462797164917 4.68577146530151 6.75537252426147 15.3049554824829 25.4718246459961 10.4079933166504 9.43987941741943 7.82629442214966 14.9047498703003 5.57867527008057 5.18690538406372 9.9966344833374 17.1555633544922 8.28028106689453 9.52412509918213 18.7208404541016 17.077320098877 23.4009075164795 29.7769947052002 20.599666595459 16.5091190338135 11.5711450576782 3.592125415802 2.74547076225281 3.32065582275391 3.06623649597168 2.67146420478821 4.75644779205322 6.0897421836853 8.62391471862793 12.5151710510254 6.86193418502808 9.57265090942383 5.57069873809814 5.03899335861206 8.24090671539307 13.9815902709961 24.4171314239502 17.6882152557373 24.4963817596436 3.34153723716736 3.26424431800842 4.09976005554199 4.40227174758911 7.71325445175171 5.93503332138062 8.70739650726318 8.42957496643066 9.02002048492432 12.3505849838257 13.2910051345825 9.51032829284668 9.38678455352783 9.66038227081299 10.3014936447144 10.6523933410645 11.4396142959595 10.2838697433472 9.20074081420898 7.62704944610596 8.8775577545166 13.3958082199097 9.43634128570557 12.1413354873657 6.04397344589233 7.21828508377075 15.9905872344971 17.628927230835 22.8266506195068 12.3144512176514 19.9974899291992 14.8247289657593 2.01622223854065 6.39188957214355 0.182954758405685 0.10570365935564 0.353916764259338 0.537400603294373 0.748438239097595 0.884302616119385 0.887829482555389 0.9095299243927 1.27694380283356 2.14591383934021 3.09608793258667 3.21478366851807 3.55376982688904 3.70798230171204 3.70451235771179 3.73220491409302 16.754020690918 24.7341613769531 36.6633415222168 31.4268054962158 13.7315940856934 2.60584115982056 2.21728873252869 2.59241080284119 4.49439668655396 7.33149576187134 13.5372905731201
1.66651344299316 1.58651638031006 1.57972002029419 1.79071354866028 1.88828480243683 2.86742329597473 3.57873749732971 3.19728803634644 2.26971101760864 2.28084444999695 2.17393016815186 2.23178386688232 2.22913312911987 2.03392195701599 2.06529808044434 2.19133281707764 2.31994080543518 2.31047391891479 2.15497374534607 2.14932084083557 2.09078407287598 1.9544951915741 1.87466502189636 1.91757440567017 2.14485192298889 2.05426120758057 1.70282411575317 1.83154916763306 1.81564784049988 1.85419285297394 1.22394704818726 1.64636814594269 16.3121337890625 25.2884006500244 0.448817104101181 0.175255864858627 1.19036591053009 1.59087359905243 1.09537124633789 1.34513795375824 1.18694460391998 1.05947589874268 1.31727111339569 1.37072491645813 1.18930768966675 1.48440337181091 2.07572484016418 2.15486907958984 2.61867594718933 2.52496266365051 2.64235186576843 4.8599910736084 2.92511796951294 4.49994087219238 3.5386016368866 5.02610969543457 5.71878290176392 3.86684203147888 4.81209468841553 9.09204864501953 3.22895669937134 21.608081817627 3.77997279167175 4.31586122512817 12.2562131881714 18.3974475860596 4.72872972488403 4.25008916854858 8.65708923339844 3.47670984268188 3.18610548973083 3.18384289741516 3.93600821495056 4.04314136505127 5.84204244613647 10.1357231140137 9.84976196289062 2.94978356361389 7.21010160446167 5.25556373596191 14.140721321106 21.038366317749 19.8350677490234 17.1439838409424 21.1854686737061 17.9571590423584 18.5804424285889 10.8925733566284 14.3954181671143 15.6100740432739 22.0372428894043 26.5701599121094 23.3103637695312 20.3701362609863 7.11855602264404 2.716153383255 2.13890480995178 2.37869453430176 2.02798557281494 2.66637802124023 4.65275907516479 4.93081617355347 7.40207719802856 5.49993276596069 5.83465051651001 5.5301342010498 4.96309280395508 5.99107074737549 10.8548984527588 19.2994709014893 24.6226348876953 13.3774566650391 3.86536836624146 9.96912288665771 3.03533840179443 3.61805415153503 4.14554452896118 4.9542670249939 7.20891189575195 7.68046045303345 7.85537624359131 8.6632080078125 9.76767635345459 8.43968200683594 8.62406444549561 9.26626110076904 9.76016426086426 10.1440725326538 9.0652027130127 9.74193859100342 8.66236305236816 7.13518285751343 8.89605140686035 10.4596815109253 7.61454629898071 9.23366641998291 6.44575262069702 6.85570240020752 14.2661561965942 12.468542098999 17.6363430023193 11.9984083175659 14.546070098877 20.7399883270264 16.1565475463867 9.26891994476318 9.19316387176514 4.8789701461792 0.182020843029022 0.26345494389534 0.42253789305687 0.614276826381683 0.776375234127045 0.779829859733582 0.839063942432404 1.39383172988892 2.16958713531494 2.59959268569946 3.73382091522217 5.12149477005005 4.05625915527344 3.62698245048523 11.9939670562744 18.4424839019775 25.2240409851074 34.109977722168 37.4294281005859 41.7980804443359 38.4923362731934 25.7586078643799 3.61199593544006 2.97500443458557 8.62093830108643 6.59509372711182
1.45630192756653 1.45798718929291 1.62016320228577 2.5561580657959 2.68861484527588 3.39880132675171 2.99629330635071 2.24450087547302 2.05771803855896 2.08014273643494 2.18983697891235 1.79646158218384 1.98357009887695 1.88179886341095 1.97415840625763 2.11447477340698 2.48089623451233 2.31633305549622 2.09400248527527 1.92207562923431 1.78543734550476 1.7373548746109 1.71449732780457 1.68643772602081 1.82439267635345 1.86852240562439 1.8244264125824 1.79059374332428 1.53218650817871 1.17240250110626 1.57324182987213 -0.0275004785507917 0.320604741573334 -0.211179345846176 -0.345786541700363 -0.366488754749298 1.38596367835999 1.02146995067596 1.18431103229523 1.04563736915588 0.96197634935379 1.17292284965515 1.0467346906662 1.0076664686203 1.32744514942169 1.7873193025589 2.17034769058228 2.2609965801239 2.14589428901672 1.71035587787628 4.02136659622192 2.80388951301575 3.69887447357178 3.33334445953369 3.82439637184143 3.5948543548584 3.70206451416016 3.98570370674133 18.7818660736084 16.6798629760742 2.94409394264221 14.6065244674683 13.4616069793701 7.4464864730835 10.6780862808228 7.88900375366211 15.3348579406738 10.6998882293701 16.1193008422852 24.527027130127 5.17551946640015 3.10677003860474 4.05863857269287 4.90099716186523 7.26065158843994 21.563440322876 9.40479946136475 4.69379377365112 4.57740545272827 8.82635974884033 4.95056056976318 7.46803760528564 10.6159811019897 15.1386194229126 16.3573169708252 21.0957660675049 18.9754276275635 11.4812850952148 12.6098051071167 19.4986972808838 20.79807472229 26.5129451751709 34.2513313293457 22.1585292816162 17.1945896148682 14.2845029830933 1.96905040740967 1.92208850383759 2.25400400161743 1.66736364364624 3.58920669555664 3.17475819587708 5.22098255157471 5.25619459152222 5.49180173873901 5.02494382858276 6.72323942184448 9.41515636444092 13.1541881561279 10.2016382217407 27.9489669799805 20.3812465667725 9.59171199798584 2.87610387802124 3.4762921333313 4.02801275253296 4.42544031143188 4.81642436981201 5.05562829971313 6.2511830329895 7.17473840713501 7.10717344284058 7.49993896484375 7.71772956848145 8.44262027740479 8.6020622253418 9.4001522064209 8.64704513549805 7.76869964599609 8.19458866119385 6.94688320159912 8.1572847366333 5.72481298446655 6.5085334777832 7.45183420181274 5.91069936752319 4.84354496002197 12.8496122360229 13.8083000183105 14.9283838272095 7.74258041381836 11.4428157806396 8.66851425170898 6.35589551925659 7.00316619873047 6.79888153076172 8.4113655090332 7.5588173866272 3.18409943580627 0.175066933035851 0.288784086704254 0.429475605487823 0.59014755487442 0.715927183628082 0.924481809139252 1.13670551776886 2.34263038635254 2.94920372962952 3.48728060722351 4.18813705444336 9.57848834991455 13.6349639892578 15.030403137207 19.2758674621582 23.5267944335938 27.3377723693848 22.2772693634033 33.3360214233398 29.0903949737549 23.6242065429688 30.3137683868408 5.62202596664429 5.73889207839966 10.3719148635864
1.36058974266052 1.42760682106018 2.31398439407349 3.02207970619202 3.18150472640991 2.80442070960999 2.12548804283142 2.89480876922607 2.67290616035461 2.12473607063293 1.77691996097565 1.95787060260773 1.76558709144592 1.84403002262115 1.91280877590179 1.99786710739136 2.08055925369263 2.38956522941589 2.21008229255676 2.08575367927551 2.0281457901001 1.6751275062561 1.7894766330719 1.77831387519836 1.78686511516571 1.79129528999329 1.77315843105316 1.24103188514709 1.50601017475128 22.4227294921875 32.6402397155762 5.66868352890015 -0.878088116645813 -0.861104547977448 -1.03972184658051 -1.30747485160828 -0.964431405067444 1.00050413608551 0.757910192012787 1.07473039627075 1.08681929111481 0.93855482339859 1.12612104415894 1.16744029521942 1.45390403270721 1.83471643924713 1.73723030090332 1.81419658660889 3.23202323913574 3.42657494544983 3.03019881248474 3.26020646095276 3.27826046943665 3.32874155044556 3.41617488861084 3.69831132888794 3.90971446037292 11.7930612564087 16.8229637145996 26.3186626434326 3.64225506782532 4.52730131149292 5.48478174209595 7.07008647918701 4.11961030960083 3.79652190208435 7.55852270126343 10.9090175628662 10.6502180099487 17.0580444335938 21.3361682891846 4.0987491607666 4.66731405258179 5.70411157608032 15.6462936401367 2.70474076271057 6.23812198638916 3.39086699485779 9.81142234802246 13.8078384399414 6.61330509185791 7.97609996795654 11.0538110733032 12.0613536834717 16.3346900939941 21.7176933288574 22.8790798187256 14.8341197967529 13.9757232666016 15.7498149871826 20.5513343811035 30.163761138916 36.352954864502 28.8389225006104 14.0720024108887 14.8051414489746 1.51367378234863 1.44908058643341 1.35139107704163 1.99469614028931 1.66430115699768 2.97064709663391 3.83224177360535 4.06524085998535 3.69290328025818 4.46392154693604 5.25571203231812 7.32709789276123 12.4049272537231 19.7452430725098 14.9288377761841 11.4826335906982 11.9703407287598 2.50073432922363 3.83487319946289 3.53899168968201 4.34387016296387 4.53889417648315 4.88245630264282 6.41170215606689 6.50476741790771 6.89514780044556 7.07273817062378 7.69058322906494 7.50806999206543 7.46413135528564 7.98816823959351 6.80032300949097 6.15647983551025 5.79741096496582 7.43694877624512 5.35444402694702 5.844801902771 5.21473550796509 5.49740219116211 10.6692495346069 11.3778915405273 11.8297166824341 8.9873685836792 8.95352935791016 9.80504322052002 7.17710828781128 5.73507738113403 6.125403881073 5.91522264480591 5.9718861579895 6.03516864776611 6.98373651504517 5.07665586471558 2.29322671890259 0.198479041457176 0.309385448694229 0.452736496925354 0.699716329574585 1.25654304027557 1.47965240478516 1.95834565162659 2.47093319892883 3.20433354377747 8.3619270324707 12.1031837463379 14.4410305023193 15.9798488616943 18.2138271331787 21.1127777099609 27.0340118408203 13.9433870315552 20.681453704834 22.0598068237305 23.6373596191406 7.16542959213257 10.1517305374146 9.01998233795166 8.71530628204346
2.00461173057556 2.10773754119873 2.73131012916565 2.46093082427979 1.66690647602081 2.0366542339325 1.95806586742401 2.29777860641479 2.11896967887878 1.7446151971817 1.92844033241272 1.70750784873962 1.74981081485748 1.77790951728821 1.86899328231812 1.90570604801178 2.05803608894348 2.23486614227295 2.09624719619751 2.40755558013916 2.27376985549927 1.88549363613129 1.7000185251236 1.74744248390198 1.71707439422607 1.71900320053101 1.15363013744354 1.49073970317841 14.5731592178345 19.8341064453125 29.7949352264404 32.2211647033691 4.98276805877686 17.7639026641846 5.89271402359009 -1.17446613311768 -1.11131322383881 -0.964117586612701 0.951085209846497 0.841010928153992 0.761237978935242 1.06223201751709 1.12720036506653 1.15061342716217 1.47068929672241 1.38845038414001 0.89550793170929 2.69879031181335 2.52576994895935 2.74046802520752 3.04732728004456 3.16585516929626 3.22737741470337 3.29748606681824 3.54452061653137 3.67687129974365 8.42574882507324 10.4474763870239 6.83157825469971 11.3015241622925 4.6409387588501 4.17865037918091 3.76014089584351 15.0209341049194 3.20459008216858 5.2400598526001 2.28854060173035 6.39810752868652 8.38291835784912 3.44900894165039 3.75866198539734 4.79328489303589 5.23693609237671 2.57420659065247 2.20852065086365 2.81025362014771 3.33948516845703 4.26361322402954 3.80405473709106 6.42160797119141 7.00214147567749 8.32859039306641 10.3378248214722 11.5320644378662 15.4130096435547 17.7944755554199 24.4494514465332 13.7596874237061 14.944953918457 15.486777305603 21.4922752380371 22.1452617645264 32.4308395385742 38.2515869140625 28.7103157043457 19.8745403289795 8.36226844787598 9.09768104553223 1.47835516929626 1.38996040821075 2.09458231925964 2.12171816825867 3.22326302528381 3.71256184577942 4.31525659561157 3.02884864807129 5.59966993331909 7.0896315574646 9.06414985656738 9.41537094116211 10.9170398712158 10.8614797592163 2.72765707969666 2.73162770271301 2.5045166015625 3.7997841835022 3.80710172653198 4.25217723846436 4.18260717391968 4.03319263458252 6.08722496032715 6.6647424697876 7.08599710464478 6.70976638793945 6.6456823348999 5.77790260314941 5.99531650543213 5.63928461074829 6.02564334869385 6.59709644317627 4.79299163818359 5.16982746124268 4.89637279510498 3.86812853813171 9.72226428985596 8.12430095672607 10.3032341003418 7.97111654281616 7.81435823440552 7.12070083618164 6.26331329345703 4.95914745330811 5.44240999221802 5.16868114471436 5.37924003601074 5.14739084243774 4.69106721878052 5.7966423034668 6.16928195953369 4.91459321975708 1.73227179050446 0.250563204288483 0.357173293828964 0.746906936168671 1.29653763771057 1.71912324428558 1.93929171562195 2.17124152183533 7.28126525878906 10.5879592895508 12.4942102432251 13.6150703430176 15.7322521209717 17.573694229126 21.3003444671631 31.2014808654785 14.5805234909058 18.0820426940918 12.7818727493286 18.500804901123 8.53513050079346 8.75247478485107 7.94999170303345 11.0841684341431
2.47020244598389 2.56849455833435 2.28067874908447 1.24863266944885 1.56227469444275 1.58607542514801 1.4952085018158 1.71366202831268 1.50071120262146 1.57702660560608 1.65082371234894 1.7042750120163 1.70672535896301 1.7559005022049 1.76521050930023 1.79146385192871 1.91834878921509 2.07617497444153 2.15386509895325 2.31498289108276 2.28331542015076 2.04111742973328 1.73728942871094 1.68465387821198 1.42212522029877 1.10185050964355 1.41154444217682 10.4973115921021 12.5982322692871 19.5305099487305 26.6245136260986 38.1918983459473 11.5975875854492 20.1252765655518 12.0427408218384 2.65267109870911 -0.481750458478928 -0.630177021026611 -0.550608158111572 0.649011313915253 0.965685546398163 0.992074728012085 1.25210475921631 1.24771678447723 1.06974315643311 2.07754802703857 2.2221884727478 2.38736200332642 2.59932851791382 2.89928841590881 3.00963139533997 3.08294129371643 3.31170630455017 3.41274428367615 5.43132925033569 6.37547826766968 7.31284713745117 3.94014382362366 4.11298036575317 9.30977630615234 16.2492504119873 24.346887588501 18.0703258514404 23.6696300506592 26.9228401184082 1.510213971138 1.0164133310318 4.22596836090088 3.1878604888916 3.53883743286133 4.23173332214355 2.65417647361755 1.46440839767456 1.96904098987579 2.67877149581909 3.01014041900635 3.25742030143738 3.46677994728088 6.22047281265259 6.92628526687622 8.18258571624756 9.23286437988281 9.7298583984375 10.9082002639771 12.4744501113892 14.4215087890625 19.3569831848145 13.5509872436523 16.9807929992676 16.011697769165 18.3355979919434 21.538200378418 27.5559482574463 34.7597618103027 23.2255229949951 23.513635635376 23.7905025482178 26.247013092041 24.791051864624 1.6426295042038 1.92858338356018 2.66228652000427 2.701984167099 7.17803001403809 18.0412979125977 4.94552564620972 6.94686841964722 8.03488254547119 12.5720777511597 12.982385635376 21.9126014709473 21.4888229370117 5.68787050247192 3.18010711669922 2.8105685710907 3.44089841842651 3.66687893867493 3.68618035316467 4.66080141067505 4.21898794174194 4.66045331954956 6.02494764328003 6.19300603866577 6.06724500656128 5.12560129165649 4.51998376846313 5.04430150985718 5.34805679321289 4.09520101547241 4.25055456161499 4.57416915893555 4.5672492980957 8.45304870605469 8.88571166992188 8.54483604431152 9.13433742523193 5.53623008728027 6.76131916046143 4.8372802734375 4.29759168624878 4.37805652618408 4.19420480728149 4.50061225891113 4.74977445602417 4.54935359954834 4.41891479492188 4.18053817749023 3.83444213867188 4.32882022857666 4.22482013702393 2.95249652862549 0.3732028901577 0.363250553607941 0.60818874835968 1.13011562824249 1.53730249404907 5.98617362976074 8.71360969543457 9.37905216217041 10.8778533935547 11.8891372680664 12.6978673934937 10.925145149231 8.7207555770874 7.33775043487549 7.3986234664917 14.6154890060425 8.64220237731934 6.46193790435791 7.88803243637085 7.495285987854 9.4442777633667 9.89613437652588 9.3640661239624
2.09273838996887 0.802096724510193 0.875787436962128 1.41253817081451 1.46746647357941 1.41733229160309 1.51247894763947 1.46109306812286 1.49568700790405 1.5551153421402 1.62366116046906 1.68297290802002 1.69221448898315 1.67464661598206 1.67908596992493 1.71685016155243 1.80360722541809 1.94507503509521 2.10662484169006 2.36490249633789 2.35132670402527 2.30247354507446 2.1944842338562 1.34988117218018 1.36878550052643 7.35150575637817 7.85535287857056 8.67105388641357 14.1490812301636 17.1578979492188 20.4493923187256 30.2335739135742 2.46489858627319 -1.04515790939331 6.73064613342285 7.63687181472778 -0.763447403907776 -1.14435648918152 -0.740841329097748 0.854566752910614 0.784489989280701 1.06224417686462 0.94720184803009 0.931839108467102 1.75204348564148 0.713914334774017 1.71582055091858 2.45644116401672 2.75355648994446 2.86526226997375 2.92850518226624 3.15120148658752 3.25714707374573 4.40053987503052 4.72461271286011 5.53560924530029 3.84833598136902 4.193687915802 5.44779109954834 9.91108322143555 4.24939012527466 11.6268310546875 2.61489534378052 29.1979885101318 40.8949241638184 12.7560195922852 0.550124764442444 1.30665743350983 2.98521280288696 14.0688352584839 8.86438179016113 7.53308248519897 18.0731620788574 5.03353595733643 3.53596925735474 3.13694620132446 14.1228532791138 3.8422417640686 6.5305004119873 7.83955192565918 8.3993616104126 8.87175178527832 9.79955577850342 10.8779182434082 11.8936319351196 13.1611804962158 19.8934135437012 14.2693281173706 15.3228511810303 16.039421081543 16.0866241455078 21.7359600067139 20.8385372161865 44.3278732299805 33.7059936523438 17.3883953094482 20.2896728515625 22.7418785095215 25.0973682403564 15.0944395065308 3.18023085594177 7.77290010452271 4.25260782241821 3.14139699935913 3.4755322933197 5.16629314422607 10.3791379928589 16.7391109466553 29.3225402832031 29.7528705596924 25.8067817687988 27.2074928283691 11.4876823425293 6.59438037872314 3.13034200668335 3.62286734580994 3.44674038887024 3.28502726554871 3.80531096458435 4.78007125854492 2.86403560638428 3.17405009269714 5.60674142837524 4.34980201721191 4.06976318359375 3.92206382751465 4.5306224822998 3.70874619483948 3.81757473945618 4.09483337402344 4.2665433883667 7.80013847351074 6.53827381134033 7.73065996170044 6.1518383026123 5.58644676208496 5.97126913070679 4.20168972015381 3.8079514503479 3.82579135894775 3.67893218994141 3.72174715995789 3.47750401496887 3.91196870803833 3.93978309631348 3.68811202049255 3.47426342964172 3.07292747497559 2.94739079475403 3.36982893943787 3.74581289291382 3.06165504455566 0.768760561943054 0.869322121143341 0.899589896202087 5.22557497024536 7.83037137985229 8.92276000976562 9.58046436309814 9.99182033538818 9.53654479980469 8.93657970428467 7.62916326522827 1.28062188625336 3.86057162284851 1.51251888275146 1.41706621646881 6.65694332122803 7.0721869468689 6.75994205474854 8.58235263824463 7.99628496170044 8.52590465545654 10.2301406860352
0.767766535282135 0.812195241451263 0.85059130191803 0.924987316131592 1.00568521022797 1.13519656658173 1.27753973007202 1.41995084285736 1.51656806468964 1.53895449638367 1.60624766349792 1.62531638145447 1.64367258548737 1.61308658123016 1.60232663154602 1.72261130809784 1.78928112983704 1.81846499443054 2.04479646682739 2.44874858856201 2.56751370429993 2.56008172035217 2.43872952461243 2.41535520553589 6.388503074646 6.05056238174438 -1.22337877750397 -0.954969346523285 -1.09162890911102 12.4159049987793 25.2215805053711 36.4788589477539 38.8577156066895 -1.60681784152985 10.8544511795044 9.32159423828125 3.09318470954895 -1.38744008541107 -1.02407836914062 -0.522617042064667 0.838204920291901 -0.543561160564423 -0.639281690120697 1.52221834659576 0.71892374753952 1.45498299598694 1.44856917858124 2.10977005958557 2.47404766082764 2.7933452129364 2.99944114685059 3.09512281417847 3.4975209236145 3.72412610054016 3.2978880405426 3.69788122177124 4.02596235275269 4.03917789459229 6.90058422088623 3.79686284065247 14.2446365356445 21.6342296600342 19.5570602416992 37.1637115478516 17.5831489562988 1.87721884250641 0.715676546096802 1.54518175125122 1.66094696521759 1.06030213832855 1.62047410011292 2.41433429718018 2.66033387184143 2.81784701347351 3.1205198764801 11.4874639511108 15.004017829895 5.87575483322144 7.31484937667847 7.66739988327026 8.49440956115723 8.99841403961182 8.66297817230225 9.98773765563965 11.8890743255615 13.0468053817749 18.839563369751 19.0274868011475 15.0432043075562 17.9444122314453 17.2514572143555 17.7942771911621 20.1235256195068 23.2665729522705 22.5566425323486 17.0503578186035 17.8866691589355 16.6285152435303 20.7733974456787 7.19983291625977 7.84242486953735 11.4449472427368 3.25913906097412 3.19341158866882 4.41568374633789 11.6143312454224 9.28917217254639 12.6111106872559 16.816764831543 22.0462265014648 28.814395904541 25.7192974090576 27.8243808746338 10.9911489486694 3.54363346099854 15.7043657302856 18.5541877746582 6.25204420089722 8.29855155944824 14.2706155776978 2.7870090007782 2.05991148948669 2.63888740539551 3.73109745979309 3.46252465248108 3.48889684677124 3.39306426048279 3.36590623855591 3.8269670009613 2.99235200881958 7.23534822463989 6.69378900527954 7.05944347381592 4.44365215301514 5.05722522735596 4.14900207519531 3.7145791053772 3.16332626342773 3.39486336708069 3.27303528785706 3.25650811195374 3.02442049980164 3.05392837524414 2.89001941680908 3.12463998794556 3.02666091918945 2.61441421508789 2.51184177398682 2.74007701873779 2.72990107536316 3.04673528671265 3.47615528106689 2.73943591117859 4.42671775817871 6.45626497268677 6.87075853347778 7.85806226730347 8.74718761444092 7.37748575210571 9.81184387207031 16.5776386260986 12.7319641113281 19.2349510192871 10.5376129150391 9.30419063568115 20.3593196868896 2.06668901443481 2.44593858718872 2.51898097991943 7.53545761108398 7.00503349304199 8.18529224395752 8.97574043273926 7.4888916015625
0.780667662620544 0.812207341194153 0.83990752696991 0.8844034075737 0.946556270122528 1.07229948043823 1.20910239219666 1.35356557369232 1.50813102722168 1.54576325416565 1.56116986274719 1.59232711791992 1.57374715805054 1.59198784828186 1.5861474275589 1.6076352596283 1.75029897689819 1.82442426681519 1.93242454528809 2.44508981704712 2.7997419834137 2.72803544998169 2.89206051826477 5.76263666152954 36.1757545471191 48.0200309753418 4.50569534301758 -1.51151525974274 -0.0196535587310791 15.053258895874 4.62810707092285 7.57724380493164 9.74431991577148 1.85343444347382 0.297078222036362 5.63339710235596 8.84214115142822 -1.12152326107025 -1.0587717294693 -0.770300984382629 30.1782989501953 34.7274627685547 1.35926842689514 1.20684003829956 1.27778780460358 1.1347428560257 1.19641768932343 2.2495858669281 2.5834424495697 2.86615061759949 2.95058870315552 3.11802315711975 2.90409135818481 3.12777519226074 3.54950714111328 3.87892365455627 4.53753852844238 5.18237257003784 5.63740110397339 8.71027660369873 9.70540237426758 14.2371616363525 30.7133293151855 41.3891944885254 24.0994205474854 -0.367306739091873 0.645177960395813 1.36012148857117 13.1866998672485 19.2695732116699 2.09593820571899 2.21922874450684 2.45490574836731 2.90329170227051 5.42940378189087 5.2142767906189 4.8788013458252 6.78569459915161 7.30218553543091 7.86021518707275 8.20430850982666 7.35386800765991 8.96488666534424 8.79378509521484 11.6157522201538 13.3286972045898 14.3831300735474 17.1585464477539 14.8266592025757 16.1755294799805 16.3657150268555 15.5770435333252 16.663366317749 15.2703657150269 16.5119037628174 13.5910091400146 8.62648391723633 7.85956764221191 11.8790655136108 5.18034315109253 12.2791500091553 21.3737678527832 17.1257095336914 9.02262783050537 6.6062445640564 9.17288398742676 15.3148584365845 21.4016704559326 19.5880584716797 20.9218673706055 18.9436283111572 16.9530162811279 26.2229156494141 30.1335029602051 9.18688488006592 5.40636205673218 13.5783042907715 9.38116073608398 2.74796104431152 5.41718435287476 1.37668776512146 1.96699523925781 1.56944501399994 1.81043100357056 3.15601515769958 3.05068755149841 3.07056093215942 3.51587128639221 6.45611953735352 6.74210786819458 6.16393327713013 5.02015924453735 4.38860940933228 4.611328125 3.15992283821106 2.94995379447937 2.86543774604797 2.7776403427124 2.70760893821716 2.90012621879578 2.70009064674377 2.63399887084961 2.44491958618164 2.3937840461731 2.06532788276672 2.23144316673279 2.17382001876831 2.24149107933044 2.23653435707092 2.25263071060181 2.22547698020935 2.35932278633118 4.30292272567749 6.15771198272705 6.72177600860596 7.35083627700806 10.8710269927979 17.8052597045898 12.1632223129272 9.10179138183594 16.1437034606934 11.828498840332 6.20940208435059 5.04959392547607 1.67861032485962 12.0122394561768 1.35878837108612 12.6650047302246 4.26748657226562 0.945421099662781 0.759734094142914 6.04797315597534 3.60399436950684 5.70465564727783
0.78751003742218 0.804497122764587 0.858253717422485 0.891757726669312 0.908175110816956 1.00998270511627 1.13933300971985 1.29286932945251 1.43920540809631 1.54314339160919 1.53430485725403 1.53893184661865 1.57798647880554 1.60740351676941 1.52727687358856 1.54342591762543 1.66069912910461 1.93953537940979 2.05524754524231 2.35588002204895 2.80452013015747 5.37908792495728 5.41045045852661 25.3133754730225 31.8550605773926 42.9643745422363 22.7504463195801 -0.77903151512146 -1.35583090782166 8.41634273529053 38.594367980957 39.6345024108887 9.74793148040771 -1.69615924358368 0.788243114948273 5.45875692367554 9.80818271636963 3.87717461585999 -0.999095797538757 -0.634739339351654 -0.865374326705933 0.509565949440002 1.12781572341919 0.732031106948853 1.07322096824646 1.10864436626434 1.12848544120789 1.09318947792053 2.34800291061401 2.80746293067932 2.96783709526062 2.72974157333374 2.53015947341919 3.36167526245117 3.72075414657593 3.74072074890137 3.40435457229614 4.54161262512207 5.99812364578247 9.94775009155273 16.0407123565674 20.1255207061768 30.3901329040527 39.0140571594238 41.7108345031738 17.3561058044434 0.949975728988647 6.64054727554321 4.43663215637207 9.65397071838379 13.6807861328125 16.0526828765869 2.38557028770447 3.56212162971497 6.83925247192383 4.56407117843628 6.46451377868652 6.89637994766235 7.29325866699219 13.8031463623047 6.71845769882202 8.24685192108154 8.83727931976318 9.0003662109375 10.7876272201538 12.802433013916 13.3249168395996 14.0851192474365 18.0055866241455 17.8251876831055 15.9319858551025 13.7453184127808 27.2910213470459 11.5154876708984 23.6130180358887 34.9261093139648 20.3731651306152 10.208643913269 12.4308414459229 7.67596197128296 11.2008953094482 14.6663036346436 11.3101396560669 7.18803119659424 8.75266551971436 18.2823734283447 15.8660898208618 18.6040344238281 15.8350458145142 15.2960529327393 15.2437257766724 16.14306640625 10.7234439849854 8.43634510040283 12.6276168823242 3.53610277175903 5.11548852920532 2.63169741630554 1.628826379776 1.6289439201355 11.1964330673218 23.443286895752 10.1561794281006 1.68541920185089 1.40735733509064 2.9818217754364 3.21630454063416 5.98177719116211 5.08393049240112 5.71813535690308 4.67550277709961 4.05300903320312 3.22455930709839 2.89088535308838 2.50691890716553 2.63182187080383 2.54364943504333 2.46011447906494 2.28278970718384 2.31205010414124 2.32198405265808 2.13989496231079 2.08452367782593 1.76542210578918 1.72853255271912 1.7345917224884 1.91461491584778 1.99250841140747 1.79644477367401 1.78699290752411 1.58110725879669 4.01881980895996 5.73475313186646 6.22539806365967 6.76730823516846 7.14180612564087 8.06724071502686 8.53602600097656 7.17072439193726 7.88542699813843 8.91381168365479 12.7367467880249 1.14365780353546 12.4758901596069 5.24422836303711 13.9836702346802 2.6192467212677 8.72233772277832 10.7589464187622 2.99714517593384 1.07974696159363 1.93177485466003 4.89230871200562 3.75221252441406
0.771972835063934 0.825406551361084 -0.838179111480713 1.08046293258667 0.917410492897034 0.964661598205566 1.06684422492981 1.21439290046692 1.36666595935822 1.5196236371994 1.50847840309143 1.62544763088226 1.85272872447968 1.89904713630676 1.62882936000824 1.54107582569122 1.74342834949493 2.13214826583862 2.27075600624084 2.39936757087708 4.99807405471802 4.889817237854 19.6823749542236 22.1062755584717 30.4636344909668 41.2977256774902 14.7311906814575 -1.37048196792603 -1.39120995998383 5.64952516555786 18.9607925415039 32.7460975646973 45.5069351196289 29.6254177093506 20.2524585723877 4.29746389389038 -1.46721625328064 -1.3525642156601 -0.80078387260437 -1.41443145275116 -1.52597069740295 0.974641084671021 0.957720756530762 1.03756415843964 1.03598129749298 0.883653938770294 0.95056015253067 1.60015153884888 1.66877114772797 2.4276168346405 2.27103734016418 2.38118577003479 2.69602704048157 3.04356217384338 3.56258988380432 3.23579740524292 3.83977556228638 4.34646987915039 8.13483238220215 13.4282627105713 15.5930681228638 21.1669883728027 32.4265632629395 34.2230377197266 23.3302917480469 21.8468246459961 0.983351826667786 0.962437927722931 2.14937877655029 2.18691039085388 5.50299596786499 16.5409698486328 3.24246716499329 5.23865461349487 20.3726959228516 5.11565494537354 6.56373453140259 7.11799716949463 13.5807409286499 20.0564422607422 7.70032930374146 7.72903680801392 11.0485620498657 10.6583557128906 11.2382860183716 11.8186931610107 13.4710912704468 14.5204963684082 14.9977970123291 19.0445518493652 13.03444480896 13.1063508987427 15.2517938613892 17.7397232055664 16.4851722717285 13.1970996856689 14.2564477920532 19.833101272583 11.663293838501 16.5735130310059 9.93227672576904 5.69514417648315 6.14895248413086 18.5321102142334 13.2295799255371 13.2736988067627 12.6894807815552 13.2720613479614 12.190408706665 12.5147571563721 9.34895420074463 8.92635345458984 9.09669971466064 10.1403541564941 19.3579082489014 11.9409084320068 23.7513561248779 2.12665224075317 0.520420908927917 1.96974623203278 3.3650267124176 1.49488615989685 4.91467571258545 1.29996168613434 1.60749888420105 0.789005696773529 5.55285120010376 5.05354976654053 5.31477403640747 3.49200487136841 3.75990986824036 2.53943467140198 2.43727588653564 2.33065867424011 2.24881529808044 2.13792586326599 2.26189088821411 2.08867692947388 1.96149122714996 1.79958593845367 1.85135185718536 1.8043098449707 1.5211421251297 1.46821975708008 1.44968914985657 1.52980291843414 1.39900898933411 1.49714720249176 1.49082601070404 3.67276239395142 5.21588754653931 5.38474559783936 5.82035684585571 6.32291221618652 6.65071535110474 7.48566293716431 6.96554374694824 10.9799976348877 2.87536382675171 3.19549441337585 8.42504119873047 9.35076141357422 10.9887456893921 4.67342710494995 2.36592221260071 11.5228462219238 19.6273880004883 6.94167137145996 4.80324506759644 0.719418704509735 2.19600200653076 2.89244985580444 2.37200331687927 3.45744633674622
20.6885318756104 31.6704711914062 -0.78587806224823 2.1275646686554 -0.609155416488647 0.957391440868378 1.00857603549957 1.12120234966278 1.25828278064728 1.42797195911407 1.88078856468201 1.99065136909485 1.96747672557831 2.10874199867249 1.67658662796021 1.62230861186981 1.88181781768799 2.13508820533752 4.62417936325073 4.69139862060547 14.6013603210449 16.0286865234375 17.1656379699707 21.7853355407715 30.4803371429443 41.0223426818848 22.0600814819336 1.56860983371735 1.10083973407745 9.24140644073486 20.9664630889893 19.2583484649658 18.3332824707031 4.89601850509644 28.5140933990479 28.1760101318359 6.12455415725708 1.9847217798233 8.14069366455078 14.4323196411133 -0.817304134368896 0.880845904350281 0.8955357670784 0.927860617637634 0.829654812812805 0.898322761058807 1.39649474620819 1.14242672920227 1.19837629795074 1.49238753318787 1.90434312820435 2.20677614212036 2.17918038368225 3.14068531990051 3.07054948806763 2.94472813606262 5.25354671478271 6.70963668823242 11.284722328186 14.9191570281982 16.5532569885254 24.4421234130859 20.9640731811523 25.7116546630859 28.5673370361328 26.5375385284424 0.839475870132446 1.48745965957642 2.01137638092041 2.2845823764801 6.03260469436646 16.4935111999512 3.33509373664856 4.74575757980347 6.03108596801758 5.28769445419312 6.77463960647583 8.58931446075439 8.40607833862305 13.3031034469604 8.98233699798584 8.45232486724854 9.43391990661621 10.2163505554199 10.7240543365479 12.125937461853 12.2644100189209 13.140082359314 12.9473543167114 12.8823614120483 12.9872770309448 18.199275970459 16.281379699707 13.8876638412476 10.7587518692017 15.4590120315552 19.0512866973877 33.7569198608398 14.37766456604 10.8270320892334 16.8791942596436 19.1924076080322 10.2849721908569 10.7498559951782 11.8996753692627 10.933385848999 10.2049427032471 15.5922498703003 11.8568830490112 7.74228525161743 7.47567558288574 8.26367473602295 10.7338924407959 7.44779634475708 7.62396240234375 8.95819854736328 16.4377365112305 21.8082885742188 21.1949024200439 10.9636659622192 15.948938369751 4.74052810668945 20.2307300567627 0.436493456363678 1.74851953983307 2.85615682601929 4.62190389633179 3.93282508850098 3.35295629501343 3.51009321212769 2.36497926712036 2.27781200408936 2.17743372917175 2.10402202606201 2.00292444229126 1.85314071178436 1.78708839416504 1.78508317470551 1.63292002677917 1.51542508602142 1.27713882923126 1.28858125209808 1.25356149673462 1.21231281757355 1.27163517475128 1.12537264823914 1.08674657344818 0.871346890926361 3.41041970252991 4.87322235107422 5.25607824325562 3.80385899543762 5.86087465286255 6.14376878738403 6.94200801849365 6.46048259735107 21.1150970458984 31.3647804260254 0.222311541438103 0.173398777842522 1.53459739685059 2.83443427085876 4.70290946960449 12.9116678237915 4.19141340255737 3.16495370864868 0.436482518911362 0.22238302230835 -0.0128016965463758 0.36290568113327 0.862774252891541 2.58158493041992 3.2732527256012 4.50602245330811
20.7634468078613 31.8079090118408 0.328838616609573 29.0023765563965 -0.680208384990692 1.00643289089203 0.993960559368134 1.05826914310455 1.17830002307892 1.3163093328476 1.55100739002228 2.18308305740356 1.98087632656097 2.01959133148193 1.74243128299713 1.7656444311142 1.9181045293808 4.31972885131836 4.25677108764648 12.5142974853516 12.6176404953003 16.2384719848633 17.8492603302002 21.3199634552002 27.4511203765869 37.1197052001953 43.6978569030762 42.3231430053711 8.21608734130859 14.5797710418701 13.4679193496704 19.1626853942871 4.66514444351196 21.524206161499 29.2618961334229 32.3837623596191 10.1003246307373 4.71302843093872 -1.05704689025879 -0.654115736484528 -0.659481048583984 0.880901753902435 0.777972459793091 0.471207410097122 0.635278046131134 -0.942327201366425 0.95558899641037 0.978209376335144 0.822600185871124 1.43087160587311 1.79592263698578 1.90150225162506 2.75800085067749 2.89511299133301 2.44583439826965 5.17800664901733 8.95751762390137 9.61297416687012 12.2739229202271 17.4136276245117 19.0222015380859 15.4137334823608 16.4807453155518 15.232325553894 23.4136352539062 32.0654029846191 11.4277877807617 0.446252942085266 2.8111720085144 3.16346430778503 14.4142322540283 27.2662715911865 4.08931636810303 5.03195285797119 7.24778032302856 4.85429954528809 6.65506029129028 7.30695819854736 8.48871803283691 12.2149934768677 10.8926982879639 8.07051658630371 8.48598861694336 10.4326477050781 10.9870939254761 11.0563039779663 10.9148693084717 10.8347434997559 11.0824737548828 10.7538156509399 11.5247850418091 13.0723466873169 10.4302129745483 11.1309289932251 11.9274835586548 8.38038349151611 9.96188259124756 10.4682140350342 12.9064493179321 12.9261465072632 11.8291540145874 9.39047431945801 10.017463684082 10.5224914550781 10.688850402832 8.83981800079346 6.4735951423645 6.04301357269287 4.75283718109131 4.9601469039917 3.73585271835327 4.80620336532593 6.20054531097412 6.84861993789673 6.68472766876221 12.5239152908325 11.1848068237305 7.55633640289307 4.36146116256714 2.16506147384644 7.30938720703125 5.90015602111816 11.4805269241333 25.1856422424316 7.26395606994629 1.44930505752563 1.0399934053421 3.07901787757874 2.43056631088257 2.207594871521 1.96299910545349 2.04555344581604 1.96361303329468 1.86098122596741 1.72185134887695 1.60820889472961 1.44633269309998 1.40569412708282 1.36240136623383 1.15284776687622 1.06099462509155 1.00385129451752 1.04924881458282 1.07891821861267 0.90398108959198 0.853633999824524 0.782173037528992 3.10764479637146 4.4787712097168 16.6655807495117 25.1606884002686 2.73078012466431 2.96881294250488 4.1412205696106 2.8709499835968 0.420258790254593 26.8887329101562 38.9117965698242 30.9870777130127 19.8451766967773 2.19264006614685 2.5548210144043 0.7797611951828 0.936355650424957 0.643154561519623 8.11426067352295 3.65676331520081 -0.105862900614738 -0.264405965805054 -0.11181566119194 0.442873358726501 2.36403250694275 4.20406246185303 14.1729211807251
-0.745952606201172 24.4945507049561 20.7520332336426 2.73583936691284 0.423736602067947 0.390135377645493 1.04131937026978 1.04908311367035 1.13659143447876 1.27505207061768 1.58028328418732 2.10588669776917 1.72850501537323 1.7788827419281 1.873215675354 1.93936967849731 4.05606842041016 3.96584868431091 11.0045547485352 10.8557758331299 13.8767585754395 14.494499206543 16.2420177459717 19.9389667510986 23.0189056396484 22.8570098876953 7.87893629074097 11.699047088623 12.4039430618286 10.7572021484375 16.197998046875 25.5233383178711 10.6476516723633 19.2122116088867 22.6365795135498 33.4497718811035 22.2170162200928 3.58434534072876 0.292887598276138 24.1934185028076 -0.203937783837318 5.18149566650391 2.58086276054382 24.6487827301025 35.6501579284668 -1.09908199310303 -0.362011104822159 0.744199872016907 0.770122885704041 0.859849691390991 1.43672442436218 1.5650634765625 1.49853265285492 3.48905754089355 4.30905723571777 7.75096607208252 8.57930183410645 10.2523393630981 14.3377513885498 11.3933687210083 11.4027853012085 12.7712707519531 11.5278959274292 15.2249011993408 7.62377595901489 23.7996578216553 33.1180381774902 2.3235559463501 3.19580912590027 8.1052131652832 12.0085592269897 23.094274520874 4.97934532165527 10.3122816085815 20.2990970611572 5.0882363319397 5.63095474243164 7.34786462783813 7.98453617095947 10.9344139099121 16.676815032959 11.5544481277466 9.50016593933105 9.47597789764404 10.0116968154907 9.88483047485352 9.8388671875 10.0618762969971 9.67978763580322 9.61271095275879 9.15447616577148 8.4010705947876 8.59748935699463 14.5498533248901 22.594705581665 12.7492256164551 6.99140644073486 5.66315746307373 10.4880447387695 11.9939727783203 8.79616641998291 9.19174766540527 9.77575874328613 13.4514503479004 18.6292991638184 19.0575199127197 12.355731010437 16.071361541748 10.1372079849243 7.85740756988525 4.2804388999939 4.8225245475769 7.09315204620361 15.2182140350342 10.1449270248413 10.7430973052979 18.5276393890381 29.1063442230225 17.0107574462891 14.2965888977051 6.82547092437744 15.1627769470215 8.11923885345459 4.82812023162842 22.0702533721924 11.7590303421021 1.03279876708984 0.543425559997559 1.87847578525543 1.83608078956604 1.79282355308533 1.68123912811279 1.74270284175873 1.60769474506378 1.50164461135864 1.35584223270416 1.22186660766602 0.998536884784698 0.954217612743378 0.937392592430115 0.870708048343658 0.900043547153473 0.76511013507843 0.747480452060699 0.649642467498779 2.84774446487427 4.06629037857056 4.11359071731567 9.35850048065186 22.8567810058594 33.7355270385742 13.8520822525024 2.42341089248657 2.47833514213562 13.6851577758789 1.82846081256866 7.16928911209106 5.59805345535278 1.60922563076019 3.40535497665405 7.60430574417114 0.62682443857193 0.592538774013519 0.443806678056717 2.11057710647583 2.90330791473389 8.99314498901367 4.46495866775513 -0.260170549154282 -0.648896813392639 0.544005274772644 2.23504853248596 2.8631591796875 7.99976444244385
7.85319185256958 10.0637235641479 28.75657081604 11.7167177200317 0.366066634654999 0.653635919094086 1.88763201236725 1.09541630744934 1.14152038097382 1.31476831436157 1.98361611366272 1.68335270881653 1.70837378501892 1.83591616153717 3.81302499771118 3.90321660041809 9.37282180786133 9.78962516784668 9.5410795211792 12.208930015564 12.3824415206909 14.672905921936 16.1507453918457 17.6868858337402 17.9870624542236 7.4278039932251 10.8908977508545 9.23258209228516 6.88628625869751 11.0205078125 10.6534194946289 16.7402763366699 13.9517040252686 14.5085506439209 17.0827255249023 27.2137241363525 24.3003368377686 39.5722770690918 7.38643741607666 3.41280508041382 0.133277550339699 8.65576648712158 19.1034107208252 28.6535606384277 39.3595352172852 -0.913378000259399 0.491442739963531 0.686002552509308 0.744584560394287 0.752925276756287 1.10340428352356 0.993232369422913 3.01351690292358 6.15055322647095 6.70101690292358 8.01142883300781 8.6639347076416 9.18520927429199 9.52974987030029 9.0732479095459 7.66029024124146 8.59295654296875 11.294243812561 5.86611366271973 15.7066850662231 4.05225515365601 1.1283073425293 1.85710287094116 4.80252599716187 6.03135538101196 4.91257238388062 10.5976839065552 6.85418176651001 4.99234390258789 8.08248615264893 13.1067895889282 6.232337474823 7.44905614852905 7.88921928405762 7.86406803131104 8.19399642944336 8.93480777740479 8.71379375457764 8.6754093170166 8.5458402633667 8.78311443328857 8.34072589874268 8.78937911987305 8.42923069000244 6.9537034034729 7.39549684524536 7.40604543685913 8.28873062133789 9.35949993133545 10.5588703155518 15.1330757141113 19.6512908935547 9.5538387298584 6.74171876907349 6.74824094772339 7.46387052536011 7.97345542907715 8.3682804107666 12.6497764587402 7.3032808303833 12.2866144180298 10.9494218826294 11.2373266220093 12.1825742721558 22.4023189544678 6.92074584960938 10.3628835678101 8.5717716217041 17.9333381652832 15.6599578857422 12.4736566543579 12.2691679000854 16.0623168945312 13.2752075195312 22.64967918396 13.1358509063721 16.8759536743164 26.0293292999268 13.3124399185181 19.5161514282227 15.7795667648315 0.374918162822723 0.247511625289917 0.452847808599472 1.62177395820618 1.57094144821167 1.46057403087616 1.40412247180939 1.3948335647583 1.26850783824921 1.15373480319977 0.93863308429718 0.808248281478882 0.688608884811401 0.701144814491272 0.700262606143951 0.594893932342529 0.638202369213104 0.656212270259857 2.65372967720032 3.78634190559387 3.96932721138 6.28493309020996 13.3717212677002 16.7150173187256 25.4646892547607 36.0331993103027 22.1027812957764 3.9933078289032 6.10800266265869 -0.424223840236664 0.254477024078369 1.05578589439392 0.848449468612671 5.29946184158325 0.212901279330254 -0.117037005722523 -0.28532612323761 3.34522199630737 1.44924414157867 3.40655422210693 4.51947212219238 4.64194107055664 4.86389923095703 0.0495736747980118 0.431017071008682 1.63248312473297 3.14349460601807 7.42468357086182
9.58603382110596 3.87066841125488 7.96757888793945 3.83891606330872 8.34582901000977 -0.455906331539154 -0.437444388866425 1.61439311504364 1.2113721370697 1.4841433763504 1.63507807254791 1.68537604808807 1.75193083286285 3.60263991355896 3.56555104255676 8.60647201538086 8.22306442260742 10.4272127151489 10.9645071029663 10.9789142608643 12.5903577804565 12.9909915924072 14.298433303833 14.6552267074585 7.11086177825928 10.0530080795288 8.79136180877686 7.84343767166138 5.58743858337402 7.50486326217651 9.94066715240479 11.0763425827026 10.5113468170166 12.475510597229 17.7130393981934 20.6943302154541 13.7683887481689 6.41599559783936 7.4060001373291 17.2204303741455 6.23160409927368 15.6236896514893 22.6226081848145 5.7219614982605 -0.00712087005376816 0.252441674470901 0.32696944475174 0.298871457576752 0.74828577041626 0.884713888168335 1.19202017784119 2.81839203834534 5.2849440574646 5.86928510665894 6.90739440917969 8.90088558197021 18.068244934082 8.17426490783691 7.64421844482422 6.22807216644287 7.68746614456177 8.55223369598389 -0.103193491697311 0.383280962705612 0.824934482574463 0.307558000087738 0.647112727165222 1.7684577703476 3.93362665176392 4.45777940750122 6.05602741241455 4.07758378982544 4.80480241775513 5.05697822570801 5.13112545013428 12.5037994384766 7.11660957336426 6.21129083633423 7.37502861022949 8.03530120849609 8.33922958374023 8.19248104095459 7.92843103408813 7.41891860961914 8.08929443359375 7.66041898727417 7.32833623886108 7.30430316925049 6.31107234954834 6.09087705612183 6.48053026199341 7.25873374938965 7.64940404891968 7.44359254837036 9.82175636291504 7.79466581344604 12.7345819473267 16.6348133087158 21.9006671905518 20.053295135498 19.506986618042 11.6474390029907 5.92802715301514 5.39570713043213 9.03980922698975 13.206109046936 19.7489852905273 17.2411308288574 8.30557727813721 19.9707546234131 11.5400199890137 9.33195495605469 8.72191333770752 7.30797100067139 10.3083229064941 9.20010280609131 8.04365634918213 8.80394744873047 9.14575099945068 10.5317440032959 10.7101898193359 10.0940093994141 8.40176391601562 5.88590955734253 4.14614725112915 -0.177878484129906 -0.2277961820364 -0.299466878175735 -0.346391379833221 -0.164426326751709 1.32840883731842 1.27291023731232 1.14230465888977 1.09191119670868 1.05234754085541 0.869121372699738 0.747386038303375 0.594109654426575 0.547826051712036 0.465782254934311 0.490987658500671 0.483974605798721 2.43502235412598 3.50328373908997 3.53569149971008 4.37356376647949 4.55867195129395 9.32178020477295 10.7903985977173 14.0401430130005 12.6536159515381 6.45604181289673 9.42160511016846 1.43581116199493 -1.17088615894318 -0.276236981153488 -0.32618510723114 -0.225696176290512 0.781118214130402 1.4182094335556 -0.466444283723831 -0.518863499164581 -0.729188680648804 -0.996595859527588 -0.860205054283142 3.71283102035522 1.04465508460999 2.62510442733765 -0.492867320775986 -0.483534753322601 -0.194106921553612 1.24604606628418 2.30087423324585 3.67214918136597
