NCOLS 175
NROWS 31
XLLCORNER 353952
YLLCORNER 6701168
CELLSIZE 16 
NODATA_value -3.4e+38 
10.7231159210205 36.0386047363281 13.081244468689 34.4309616088867 5.50551128387451 10.3005352020264 25.8248271942139 3.94163370132446 5.25516176223755 7.30846118927002 3.86247849464417 1.87504804134369 15.5234661102295 1.28736662864685 2.56512546539307 3.235506772995 8.64295482635498 3.48000693321228 4.64033603668213 5.40513753890991 9.5883731842041 4.01966714859009 17.5997371673584 3.01780271530151 3.24030137062073 7.37725591659546 4.10983943939209 4.9168758392334 4.59702730178833 5.81290245056152 30.9048805236816 4.01945495605469 12.6073789596558 13.7582111358643 -1.0794540643692 11.8842706680298 -1.41775608062744 11.150785446167 -0.51181960105896 21.1703453063965 0.152128860354424 1.38379073143005 3.34834003448486 11.8594665527344 15.258843421936 15.5573492050171 10.4930601119995 25.2870960235596 12.3375120162964 -0.936193525791168 -0.939618587493896 1.05310118198395 -4.38905429840088 -4.23675012588501 40.0543403625488 -3.85549068450928 13.2813034057617 -2.35137319564819 -3.80914926528931 -3.44444823265076 -3.23177480697632 -2.6449658870697 -2.36501669883728 -2.18931889533997 10.4745054244995 -1.86543452739716 17.5226268768311 -1.67080068588257 -1.00069272518158 -0.938021302223206 -0.918618977069855 -0.938376009464264 -0.973619401454926 -0.967180609703064 -0.459500372409821 -0.377243012189865 -0.101603552699089 0.110375568270683 0.209791094064713 0.350224494934082 0.331344932317734 0.264934748411179 0.377551168203354 0.467010349035263 0.544208765029907 0.515146255493164 1.72995591163635 2.08975315093994 2.45089983940125 8.81280899047852 11.4556570053101 16.3360462188721 28.9969997406006 -0.445932626724243 7.51953601837158 17.3982830047607 -0.0357852391898632 1.13668036460876 1.14437258243561 1.31840014457703 1.40068995952606 1.48639810085297 1.54903650283813 1.62370181083679 1.70800399780273 1.79616987705231 1.71659374237061 1.83534061908722 2.42645263671875 2.60557079315186 4.8200855255127 6.25062561035156 8.65359306335449 11.4654083251953 5.01236867904663 12.8731775283813 27.4251041412354 -0.59761905670166 -0.193145990371704 0.640040278434753 4.33705282211304 5.66247367858887 7.96066904067993 33.0289535522461 -0.775310575962067 2.89082908630371 3.21196436882019 0.170939177274704 0.619768440723419 0.633658707141876 0.693182229995728 1.04188251495361 1.0685909986496 1.09406208992004 1.56378662586212 2.14994716644287 1.95595073699951 1.98276364803314 2.10461616516113 2.22633934020996 2.0347900390625 2.9215612411499 3.66547870635986 4.8582763671875 23.7572040557861 3.21152973175049 28.7959747314453 3.3845522403717 7.23690557479858 4.90850257873535 5.24377059936523 5.51419830322266 5.88354587554932 5.89665460586548 6.69807147979736 6.84073162078857 6.99769020080566 6.94595527648926 7.23186016082764 7.41570711135864 7.60687971115112 7.99463844299316 9.17704486846924 10.7362842559814 9.06959533691406 12.6036939620972 42.2090682983398 7.37751150131226 9.71482086181641 10.1242437362671 11.6375007629395 14.3684406280518 18.5654029846191 25.4019718170166 29.3612785339355
11.2486133575439 10.5142021179199 20.615198135376 18.2715091705322 22.2987537384033 7.80897808074951 16.5722923278809 7.74766445159912 11.9946718215942 -0.148691922426224 0.115877971053123 0.475489765405655 0.702655673027039 5.95732879638672 4.38501262664795 5.10980939865112 3.744220495224 9.83373165130615 10.7696466445923 4.32468461990356 12.3695058822632 7.34625244140625 15.5142288208008 9.94240665435791 7.19053792953491 8.24421882629395 6.70976495742798 18.9352741241455 30.1301803588867 4.25019693374634 9.98150253295898 13.8228435516357 4.46155118942261 7.77495431900024 14.7271699905396 -0.0895785689353943 3.62417101860046 4.72112894058228 0.23279182612896 5.13689756393433 -0.52252870798111 1.10348892211914 15.0944890975952 22.7613582611084 18.3233585357666 26.6459560394287 4.20297765731812 -0.382150679826736 9.94844245910645 -4.66132068634033 0.548655033111572 -1.23713743686676 -1.19946277141571 -4.5812087059021 -3.72159433364868 36.8156280517578 -3.48247885704041 9.24211978912354 -3.52632761001587 -2.51959991455078 4.91861724853516 -0.404078215360641 -2.12231135368347 -1.49082100391388 -1.38849210739136 17.3344440460205 -1.64510762691498 -1.00489866733551 -0.92384946346283 -0.854178845882416 -0.80052524805069 -0.794227063655853 -0.808461725711823 -0.808631539344788 -0.793940007686615 -0.419778376817703 -0.378594845533371 -0.264465630054474 -0.190085902810097 0.106107905507088 0.377041786909103 0.522355973720551 0.900914907455444 0.595319032669067 0.523598194122314 0.995830118656158 1.60657155513763 0.836857736110687 1.05513679981232 2.82009148597717 3.3078191280365 3.97972512245178 30.8835563659668 -0.660245895385742 9.05734539031982 12.7181234359741 22.452672958374 -0.25978097319603 1.53658199310303 1.29779982566833 1.38208830356598 1.41251540184021 1.61946845054626 1.74398326873779 1.8871533870697 1.65572047233582 1.93253827095032 2.0425341129303 2.15710663795471 2.19126725196838 2.4227557182312 3.15684962272644 3.68648219108582 18.9264640808105 4.2422342300415 4.21874523162842 29.026388168335 6.82649374008179 -0.770892441272736 0.806985080242157 2.19432592391968 2.03524589538574 3.32442045211792 17.3141498565674 -0.372261554002762 13.3317022323608 -0.185246050357819 0.249039843678474 0.567525565624237 0.977862596511841 0.653273522853851 0.714003801345825 0.934174299240112 0.952594935894012 1.1330498456955 1.6051424741745 2.2090003490448 2.25774240493774 2.30463838577271 2.53388571739197 2.82348132133484 3.1122453212738 3.12529420852661 3.73753571510315 4.16694831848145 11.3006982803345 8.00247859954834 3.67670774459839 4.40875673294067 4.8772144317627 5.05152130126953 5.77874612808228 5.95782852172852 6.09919452667236 6.3525915145874 6.50483274459839 6.66526460647583 7.22820997238159 7.4036602973938 7.58103084564209 7.52997350692749 8.16840934753418 9.55106735229492 8.39728546142578 13.9000682830811 17.8232688903809 26.4156589508057 8.34267616271973 10.0768795013428 11.2613067626953 12.9169435501099 15.1452054977417 19.0651988983154 25.944652557373 46.3927688598633
2.99256467819214 15.5744047164917 4.95566368103027 28.3558864593506 10.0079278945923 18.4086322784424 25.6636600494385 4.00779581069946 6.07292985916138 5.53427457809448 1.18681013584137 -0.280298352241516 1.3658572435379 0.795567512512207 8.11627674102783 1.52038252353668 1.9991283416748 6.01421689987183 12.5634202957153 17.5698146820068 4.07554149627686 7.20881271362305 12.1793794631958 11.6989078521729 8.28870582580566 25.1310520172119 30.9073581695557 21.7872009277344 26.9938335418701 4.48960447311401 1.64195823669434 5.01187705993652 12.5277976989746 2.85314393043518 4.42005443572998 -2.58383893966675 -1.4650331735611 5.62833261489868 -1.78028666973114 -1.97688412666321 1.06400084495544 2.24496603012085 7.32066249847412 27.6721706390381 20.3309555053711 3.03451108932495 4.19419574737549 5.59490299224854 12.0812225341797 3.51675820350647 -4.49857139587402 -4.37515592575073 4.27542781829834 -4.23331689834595 -3.95229578018188 -3.19318246841431 -2.9631462097168 -2.77970862388611 6.40509414672852 -2.46290135383606 5.99462080001831 -1.90743136405945 22.1344680786133 4.1725172996521 -1.94163990020752 -0.968278348445892 -1.01534521579742 -0.959104716777802 -0.898996531963348 -0.823161005973816 -0.775055408477783 -0.7143714427948 -0.685436069965363 -0.709457337856293 -0.666146516799927 -0.664748966693878 -0.657021701335907 -0.660851538181305 -0.305775552988052 -0.251602709293365 -0.103398956358433 -0.0153256896883249 0.38406029343605 1.00605010986328 1.73486697673798 2.6424081325531 0.871166825294495 2.1785876750946 3.44043946266174 5.28963613510132 1.43724620342255 1.48164522647858 4.33206224441528 6.14389657974243 8.83760356903076 5.78834199905396 26.014310836792 -0.493680149316788 1.19446325302124 1.6781895160675 1.80782914161682 1.95607757568359 1.62428534030914 1.75406920909882 1.83521449565887 2.11723041534424 2.32753300666809 2.56000733375549 1.96988391876221 2.34880232810974 2.5683286190033 2.73462080955505 3.12416052818298 3.51734304428101 3.98421859741211 6.16552305221558 10.7498931884766 25.1851654052734 7.9216365814209 -0.204551726579666 0.767027020454407 2.93970966339111 3.82867836952209 5.97655296325684 0.657729268074036 6.59709739685059 -0.273304402828217 1.09179222583771 1.06289672851562 1.03397345542908 1.26645088195801 1.02675151824951 1.05163657665253 1.10068607330322 1.0837504863739 1.04778349399567 1.28693604469299 1.98919296264648 2.02781462669373 2.36808300018311 2.8309805393219 2.89879822731018 3.18096685409546 3.23050284385681 3.69428849220276 3.77080726623535 12.7830715179443 3.7917697429657 4.19295501708984 4.27900981903076 4.4652214050293 5.01866722106934 5.58791923522949 5.71742057800293 6.28916788101196 6.43897533416748 6.60197877883911 6.89097356796265 7.07124280929565 7.2654914855957 7.83786153793335 8.02734470367432 9.0499324798584 12.4136381149292 15.9537868499756 21.9576244354248 30.9402637481689 22.750072479248 7.57388591766357 14.8601150512695 14.200532913208 18.3528251647949 25.0774974822998 26.8641033172607 47.002799987793
7.5970139503479 7.82328462600708 3.45881915092468 5.32161140441895 10.3908834457397 15.814154624939 24.0484962463379 2.06409478187561 10.3608665466309 6.73587322235107 5.84677457809448 -0.274085193872452 -0.758221507072449 0.57682466506958 1.5339161157608 0.671180248260498 4.63729953765869 1.48605227470398 8.35510921478271 31.9817028045654 2.29798603057861 4.50021028518677 4.81739234924316 13.9890489578247 4.13984394073486 12.6934862136841 24.7901268005371 2.86403441429138 1.7742406129837 4.51500654220581 -1.83714580535889 4.9691104888916 4.19622850418091 8.64847183227539 -1.04475522041321 13.4360322952271 -4.40925168991089 2.55836796760559 0.333008944988251 -2.32073950767517 -1.91667032241821 -0.0796515345573425 4.1898136138916 11.7408590316772 11.1599054336548 4.49246120452881 -0.214817017316818 14.1910581588745 9.81734752655029 -0.527275741100311 -4.57236242294312 -4.10898542404175 4.1327428817749 -3.93755197525024 -3.77555775642395 -2.79540848731995 36.7527847290039 -2.9307816028595 9.63391971588135 -1.84750628471375 8.00735187530518 13.2224817276001 -1.9718097448349 -1.55998945236206 0.234342485666275 -0.0191928315907717 -0.985993146896362 -0.949196696281433 -0.896997809410095 -0.830668389797211 -0.767517030239105 -0.701958537101746 -0.661161303520203 -0.631706178188324 -0.603787779808044 -0.567770421504974 -0.573296844959259 -0.555656552314758 -0.572594165802002 -0.555746376514435 -0.567389249801636 -0.190092995762825 -0.106593549251556 0.100981898605824 0.2291269749403 0.724490582942963 3.49898099899292 5.35429382324219 8.54204082489014 1.53188681602478 11.6193885803223 0.496656030416489 1.03654193878174 2.45406365394592 3.1987099647522 19.1659832000732 0.0218774639070034 0.388571619987488 1.01532375812531 1.07880938053131 1.51404976844788 1.65820753574371 2.19451451301575 2.41765069961548 2.6813440322876 2.16796612739563 2.40432691574097 2.61855053901672 3.07683968544006 3.48188447952271 3.96799850463867 3.44105172157288 4.41282606124878 6.14706945419312 3.13448190689087 4.50751161575317 5.98858547210693 9.27648639678955 23.7679710388184 18.8025875091553 -0.731747686862946 3.16944360733032 6.08635330200195 3.12139892578125 5.74183177947998 -0.255814462900162 0.0569155812263489 0.0838465094566345 1.27793753147125 1.25077617168427 1.54682087898254 1.73235774040222 1.33142602443695 1.5520955324173 1.12951707839966 1.27491784095764 1.18062794208527 1.16096305847168 1.24210238456726 1.4145655632019 2.57611846923828 2.90488219261169 2.93057799339294 2.99864792823792 3.22588849067688 3.64939880371094 3.72447490692139 3.96067905426025 4.04846954345703 4.31844234466553 4.42365312576294 4.53299283981323 4.75277471542358 4.85271024703979 5.41783714294434 6.03226137161255 6.17744064331055 6.82374048233032 7.00236034393311 7.19604825973511 7.52708578109741 7.72845649719238 7.94903469085693 11.4872426986694 14.7889938354492 20.4683876037598 42.2780876159668 7.8210768699646 9.19555950164795 9.33651447296143 19.1083183288574 24.2385654449463 32.5750770568848 45.9817886352539 10.3773860931396
13.911057472229 6.79365253448486 9.81856441497803 5.54855298995972 3.84461212158203 6.35970020294189 10.548921585083 25.4693717956543 1.04495215415955 7.09771060943604 12.6945133209229 0.0191668830811977 10.2023239135742 -0.34298700094223 0.328916788101196 2.10374140739441 -0.106864310801029 1.84524822235107 9.92039489746094 10.2910203933716 3.39603638648987 2.26390814781189 3.66582703590393 11.9731092453003 9.43490505218506 1.49382400512695 4.89111614227295 4.28382778167725 9.51236534118652 5.76819372177124 -0.821154356002808 -1.36684882640839 4.15421676635742 4.74798393249512 -0.748647689819336 1.20507574081421 2.25782442092896 1.61264586448669 15.4267492294312 -3.39519143104553 0.629683315753937 3.60025310516357 11.7813997268677 8.45707988739014 3.30715537071228 6.15683078765869 2.48318576812744 5.62125539779663 24.9881706237793 -1.51553821563721 -4.2449803352356 -4.01809501647949 5.08779096603394 -1.33451962471008 -3.13369750976562 -2.5366222858429 -1.70507752895355 10.3654937744141 -1.73510563373566 12.8713531494141 -1.47901666164398 8.19486045837402 -1.49051475524902 0.320291042327881 1.04972362518311 0.329949140548706 -0.813297986984253 -0.925262272357941 -0.887463748455048 -0.832286536693573 -0.759275436401367 -0.696990072727203 -0.644152462482452 -0.612211763858795 -0.579117178916931 -0.546184599399567 -0.520615875720978 -0.498955458402634 -0.478315025568008 -0.498982638120651 -0.490637421607971 -0.503868639469147 -0.457938760519028 -0.414046317338943 0.031667698174715 0.130910843610764 0.341799199581146 0.772205173969269 1.31043708324432 18.4557266235352 0.577334403991699 1.40515863895416 1.36885690689087 1.16467869281769 1.21942746639252 1.28666126728058 9.93415832519531 0.738433003425598 0.555932462215424 0.728374779224396 1.44841170310974 1.57344651222229 1.82345581054688 2.02497315406799 2.27472901344299 3.14435076713562 3.60803842544556 4.21248817443848 3.20501732826233 3.97964715957642 5.16629981994629 7.32289266586304 8.29140186309814 8.33606052398682 9.55119228363037 2.44598793983459 7.80443334579468 4.12532997131348 20.0350494384766 0.539882779121399 18.8384799957275 -0.422119319438934 4.42710208892822 2.73841667175293 6.79254007339478 0.171101257205009 0.641211450099945 0.488532334566116 0.610502302646637 1.31629490852356 1.63526058197021 1.79064559936523 2.0337131023407 1.81913018226624 1.85720336437225 1.76128268241882 1.66126263141632 1.33174812793732 1.36092901229858 1.56782281398773 2.54251599311829 2.79243421554565 3.0307137966156 3.0168137550354 3.08876299858093 3.31612801551819 4.09998559951782 4.16059875488281 4.12806701660156 4.16491031646729 4.38165140151978 4.51158905029297 4.7728214263916 4.8800950050354 4.98315382003784 5.09066724777222 5.20858478546143 5.88487243652344 6.54861831665039 6.72013711929321 7.45437145233154 7.65648221969604 7.90091514587402 10.2931537628174 13.3930768966675 18.6603260040283 40.0091972351074 9.69620800018311 8.05012512207031 8.37331485748291 11.2905149459839 9.13125801086426 28.6227226257324 55.0527496337891 9.66002750396729
9.73568439483643 7.36994791030884 9.71767044067383 10.5788621902466 -0.541084349155426 0.0332209356129169 4.04635858535767 5.29061651229858 26.5273971557617 3.16646790504456 19.605411529541 -0.58226865530014 0.56915694475174 4.01225566864014 2.73568940162659 16.8014736175537 0.652278184890747 1.79565095901489 3.29097270965576 9.16294574737549 1.3657351732254 3.6034243106842 1.88288629055023 23.7970066070557 3.83563208580017 9.71449375152588 4.09220504760742 9.24151420593262 9.65086460113525 5.37751770019531 0.931337177753448 -5.33209466934204 -4.95183897018433 -3.71277403831482 -2.30924558639526 1.33840250968933 -1.73955249786377 -0.0591890551149845 2.2793664932251 6.13513517379761 4.90623378753662 6.5269947052002 8.0439624786377 13.0724506378174 24.1591720581055 -4.04028797149658 17.1711101531982 -3.79311895370483 47.3949203491211 10.8317213058472 -4.37756490707397 -4.23476886749268 -3.23224902153015 -2.69905376434326 -2.2244074344635 -1.6089094877243 -0.230112940073013 4.83904838562012 5.74550724029541 -1.51587820053101 -1.28270947933197 -0.279417097568512 -0.0119787799194455 0.486393421888351 1.14218413829803 -0.116700448095798 -0.88396555185318 -0.865469336509705 -0.84754741191864 -0.807693243026733 -0.754627883434296 -0.687730669975281 -0.641127824783325 -0.602352499961853 -0.567717671394348 -0.541395008563995 -0.504558920860291 -0.481700897216797 -0.470717012882233 -0.463560819625854 -0.440950512886047 -0.407012492418289 -0.401139438152313 -0.351175755262375 -0.319407522678375 -0.238459721207619 -0.208818629384041 0.236063539981842 0.332329988479614 0.569731056690216 2.61599278450012 8.02011394500732 1.74431955814362 1.7834165096283 1.88803231716156 2.28802752494812 1.55544495582581 1.49596560001373 1.60996699333191 1.73731625080109 1.95825707912445 1.50433230400085 1.71847259998322 1.95233416557312 2.20110988616943 2.63908457756042 3.04572153091431 3.58229899406433 5.48222160339355 7.1165919303894 9.99357795715332 7.09791278839111 15.9019269943237 2.44692635536194 2.84266042709351 0.650649189949036 3.66516351699829 4.22557926177979 6.70507526397705 21.970386505127 3.08606386184692 14.0951461791992 0.540381610393524 0.614212393760681 -0.0416494719684124 0.294137448072433 0.829876244068146 0.858313143253326 0.726833641529083 0.757812678813934 0.679338037967682 1.67783689498901 2.07033848762512 2.08513212203979 2.13130140304565 2.17795372009277 1.9530348777771 1.99979567527771 1.8867574930191 2.83117651939392 2.82737803459167 3.17411875724792 3.70803809165955 3.46814656257629 3.196373462677 3.89696669578552 3.84702968597412 4.25761890411377 4.46429491043091 4.46487903594971 4.45337963104248 4.77511882781982 4.98424816131592 4.90231561660767 5.00423765182495 5.134192943573 5.28412532806396 5.43917655944824 5.54052591323853 5.65667867660522 6.42671585083008 7.13155794143677 7.32879543304443 8.17417049407959 8.43900394439697 24.7858600616455 15.9636487960815 7.93762588500977 18.9966945648193 8.94380187988281 9.4649133682251 11.104941368103 9.48631858825684 50.646183013916 10.0312490463257
5.93011236190796 8.06313514709473 17.4521389007568 7.84042358398438 6.01265811920166 -1.63503468036652 0.183524310588837 8.54114532470703 12.7235536575317 11.7574415206909 17.395149230957 2.26389956474304 -0.445931375026703 -0.622637748718262 7.40737009048462 0.373895049095154 6.24113273620605 11.2064914703369 5.60135698318481 8.64545726776123 5.64526271820068 14.5678358078003 3.40055584907532 0.0950949266552925 2.04045104980469 2.84419798851013 3.92732524871826 17.8904838562012 5.83270978927612 -2.22927761077881 -5.21438980102539 -2.2214024066925 -3.43706512451172 -1.43717384338379 -1.4980982542038 -2.49209642410278 1.28676068782806 -2.25529146194458 0.891367018222809 8.35944080352783 13.5829181671143 20.422887802124 13.1871881484985 14.6465978622437 2.11961507797241 -3.81612086296082 -3.72876501083374 -3.60561919212341 -1.66745948791504 10.8726568222046 2.85417485237122 -3.05282640457153 -2.9460437297821 -2.32749438285828 -1.61491179466248 0.419142007827759 -1.14352369308472 9.45199108123779 -1.06035053730011 -1.41176211833954 -0.797467410564423 -0.713090896606445 -0.555088698863983 0.764034330844879 0.338186055421829 -0.455673307180405 -0.805636584758759 -0.809740126132965 -0.669792473316193 -0.775690853595734 -0.743626654148102 -0.690959990024567 -0.625985682010651 -0.566732585430145 -0.546191036701202 -0.51861035823822 -0.502183794975281 -0.481736958026886 -0.471999257802963 -0.449786484241486 -0.426709443330765 -0.395797431468964 -0.354207545518875 -0.297762870788574 -0.233287841081619 -0.185945183038712 -0.125614136457443 -0.0823509991168976 0.0173209216445684 0.00119754206389189 0.454875260591507 0.538210809230804 2.47777462005615 9.33250045776367 0.647914409637451 1.80897164344788 2.12934303283691 2.25283408164978 2.41094899177551 2.04260444641113 1.89150190353394 2.18590807914734 2.44473099708557 2.78787326812744 2.03672790527344 2.53963255882263 2.93437600135803 3.4902675151825 4.65421724319458 6.07942247390747 8.53735446929932 21.3159446716309 0.0372208245098591 4.12994384765625 0.0198065284639597 0.356019526720047 3.58716106414795 4.14655208587646 5.802574634552 6.98849582672119 13.1804685592651 14.7498741149902 0.464027494192123 0.288172662258148 1.0242223739624 1.3764328956604 1.43032348155975 0.868618309497833 0.929338872432709 0.975705564022064 1.01656198501587 1.31606948375702 1.6302262544632 2.11746215820312 2.16360020637512 2.40883231163025 2.23336839675903 2.34198594093323 2.37843346595764 2.99150633811951 3.13522791862488 3.15550446510315 3.26914882659912 3.80690050125122 3.88696551322937 3.97065591812134 4.00192451477051 4.0859432220459 4.4801721572876 4.58461666107178 4.83016586303711 4.86597013473511 5.04579591751099 5.12042236328125 5.22381973266602 5.33617162704468 5.2588586807251 5.37702417373657 5.66403436660767 5.84341430664062 6.03013944625854 6.08672046661377 6.29337739944458 7.04037046432495 7.898353099823 10.7592067718506 8.80223083496094 14.3926334381104 9.01709079742432 10.0445575714111 35.1486511230469 8.93373394012451 22.7275657653809 45.9951858520508 10.5958099365234
5.53161096572876 12.6334009170532 7.83892250061035 6.60203838348389 1.49026823043823 4.09081554412842 -0.692936897277832 1.3893483877182 3.08137536048889 1.1405782699585 11.522780418396 0.793657243251801 18.8167057037354 -0.808291256427765 -0.924059808254242 1.0643630027771 5.83097362518311 3.07974076271057 5.40177536010742 1.42705368995667 18.322114944458 -2.26590871810913 13.7644748687744 -1.37329053878784 15.0515146255493 2.56889271736145 2.87481045722961 3.69342851638794 6.1774787902832 -5.15107870101929 12.1926574707031 -5.19296789169312 -4.90487480163574 -4.68028211593628 1.99340832233429 -4.57702350616455 -4.29465055465698 -1.03015422821045 1.63081097602844 2.81031847000122 18.5265846252441 13.2855701446533 31.3398456573486 18.4422550201416 -4.28482151031494 -4.16651725769043 -3.47512340545654 -3.28702211380005 11.0355558395386 3.21906447410583 -3.099200963974 -2.92462944984436 -2.79025506973267 -1.99960768222809 6.04396820068359 -1.81713533401489 11.6087980270386 -1.32737183570862 -0.677757680416107 -0.679774820804596 -0.689653694629669 -0.694115817546844 -0.659958243370056 0.441522002220154 -0.381474077701569 -0.562734842300415 0.133857801556587 -0.499438107013702 -0.733133018016815 -0.24150039255619 -0.702883124351501 -0.678062617778778 -0.603774964809418 -0.540611267089844 -0.507419884204865 -0.475450575351715 -0.455258727073669 -0.467259585857391 -0.4560167491436 -0.449428975582123 -0.432260751724243 -0.402641445398331 -0.350470364093781 -0.287873238325119 -0.205813974142075 -0.121287956833839 -0.025397777557373 0.0597094260156155 0.0948778837919235 0.106457762420177 0.128083750605583 0.196007594466209 0.169018343091011 0.607135236263275 0.66231107711792 0.885602176189423 1.02720129489899 1.36623322963715 2.21037602424622 2.61942982673645 2.85695314407349 3.11913847923279 2.73662948608398 2.68099761009216 3.27642130851746 3.77847528457642 4.4182767868042 2.90365958213806 4.55599403381348 5.99147844314575 8.41581344604492 18.1356887817383 0.358508586883545 1.31484830379486 0.633094251155853 0.543779730796814 2.95756387710571 3.28039455413818 5.94676494598389 6.3719596862793 0.944208741188049 23.0368957519531 4.61686897277832 0.515007376670837 0.646072149276733 1.58379912376404 0.920345604419708 1.49596202373505 1.56776416301727 1.63307356834412 1.17156612873077 1.45416224002838 2.06775712966919 2.13768172264099 2.11209106445312 2.25672841072083 2.47227001190186 2.52552461624146 2.57713222503662 3.29544138908386 3.50629019737244 3.46244215965271 3.28445029258728 3.45907998085022 3.8982081413269 3.97809767723083 4.08441257476807 4.17631244659424 4.2720422744751 4.60081100463867 4.69503498077393 4.95774507522583 5.06319808959961 5.18656921386719 5.29276704788208 5.40522384643555 5.48906803131104 5.61539030075073 5.74531364440918 5.67354869842529 5.8092827796936 6.28904390335083 6.48634004592896 7.20283365249634 8.12933254241943 9.47337436676025 20.7214508056641 8.00535297393799 10.6731185913086 13.2851114273071 13.1603889465332 10.1691160202026 10.4007225036621 52.0753021240234 9.38468456268311
16.1620330810547 8.31290912628174 8.63242244720459 5.95458364486694 8.78531742095947 -2.08173227310181 4.98994016647339 -2.15390110015869 -0.702872753143311 -0.1129150390625 7.48505592346191 19.1638431549072 10.2316904067993 15.7400074005127 0.734338879585266 2.12933278083801 2.43168497085571 16.3123435974121 2.43482279777527 11.4373950958252 19.9825973510742 -2.23613739013672 0.0246050711721182 0.7431321144104 -0.403788179159164 16.7853240966797 -3.05533146858215 0.469753503799438 4.05342721939087 -2.53585648536682 -4.86839056015015 -4.70351552963257 -3.26183748245239 -4.47191286087036 -4.27268075942993 -4.10053253173828 -3.97929549217224 -2.46921062469482 -1.85873258113861 8.80708885192871 20.745584487915 15.5450439453125 12.6268920898438 18.7714328765869 -4.02874755859375 -3.7168664932251 -3.53852653503418 -3.2260525226593 -2.97968935966492 -0.42331650853157 1.32556867599487 -2.40898895263672 4.56843423843384 6.65281772613525 -1.79415214061737 -1.66365671157837 -1.55246818065643 -0.560794651508331 -0.554889738559723 -0.569346070289612 -0.591024577617645 -0.6009481549263 -0.577392816543579 -0.375668674707413 0.220327153801918 -0.172598361968994 -0.615403711795807 -0.570820987224579 -0.476271778345108 -0.159921631217003 -0.14258673787117 -0.616840004920959 -0.586749911308289 -0.519248843193054 -0.470691978931427 -0.427132099866867 -0.40138253569603 -0.414685904979706 -0.416376322507858 -0.411108106374741 -0.416196405887604 -0.383446991443634 -0.346753805875778 -0.279675334692001 -0.182802811264992 -0.0757731273770332 0.0264706816524267 0.0877329483628273 0.139046683907509 0.180527791380882 0.21091029047966 0.285695642232895 0.284140020608902 0.305387824773788 0.33532303571701 0.250918388366699 0.710120141506195 0.76395845413208 1.0293345451355 1.09058630466461 1.30821144580841 2.98175072669983 3.55258941650391 3.97985339164734 4.44924020767212 3.95555782318115 4.57784128189087 5.9815149307251 8.58613109588623 10.8336315155029 11.1690692901611 7.55336570739746 1.55322182178497 2.83016014099121 5.36059141159058 2.07061839103699 4.82147455215454 7.31468057632446 4.71604633331299 4.179039478302 1.58971917629242 11.7921991348267 7.32738399505615 0.0729705169796944 0.802622556686401 0.853450298309326 1.65712070465088 1.71674990653992 1.7892472743988 1.31392121315002 1.71122205257416 1.77488481998444 2.25986433029175 2.11891269683838 2.18643045425415 2.23228645324707 2.40787982940674 3.03757524490356 2.56989979743958 2.71847772598267 3.35245275497437 3.6215500831604 3.69706916809082 3.7749662399292 3.71594071388245 3.73384714126587 3.8448281288147 4.18024015426636 4.38542318344116 5.23611211776733 5.12860012054443 4.87561511993408 5.08492517471313 5.15089416503906 5.32481956481934 5.44345855712891 5.56650352478027 5.68532085418701 5.81490850448608 5.92066717147827 6.06159257888794 6.19262933731079 6.19090509414673 6.43364334106445 7.22679901123047 9.29676342010498 20.1168937683105 9.81774616241455 14.4400539398193 11.6328449249268 13.9742441177368 19.0265007019043 9.16790866851807 28.0800304412842 18.8033123016357
16.7672119140625 25.6995811462402 -0.981793761253357 3.14909410476685 2.54660511016846 -2.40845656394958 7.48880910873413 -1.62263989448547 -1.18069851398468 -0.0110050719231367 16.0929126739502 1.83620023727417 2.32987594604492 23.3146667480469 1.31550908088684 0.0351230129599571 2.31997084617615 5.82560348510742 6.44935464859009 7.93746614456177 8.64631366729736 -1.12508261203766 -1.26583790779114 -1.39631140232086 0.827089369297028 5.83233118057251 -2.61778402328491 -4.68080139160156 2.75655722618103 6.28913450241089 -4.49386596679688 -4.13995265960693 -3.93755650520325 -3.74508118629456 -3.55006623268127 -3.322425365448 0.939528286457062 5.08509302139282 8.32082557678223 -1.24830317497253 30.8590927124023 -3.19965243339539 20.006872177124 23.5405960083008 -3.53993535041809 -3.11733293533325 -2.95955777168274 -2.86705613136292 -1.7647123336792 -2.44523787498474 12.6880493164062 -2.11403298377991 3.34758996963501 1.98214387893677 -1.81153225898743 -1.63637721538544 25.3874988555908 -1.44343447685242 -0.417605608701706 -0.437218844890594 -0.462668865919113 -0.463829070329666 -0.0209140386432409 0.240790069103241 -0.494490325450897 -0.329512000083923 -0.0161465667188168 -0.0973027795553207 -0.543419182300568 -0.402564734220505 -0.392757058143616 -0.532599627971649 -0.527946472167969 -0.479167103767395 -0.435396879911423 -0.397645711898804 -0.353659272193909 -0.35133159160614 -0.345529913902283 -0.351471394300461 -0.368451476097107 -0.336067229509354 -0.28760638833046 -0.237939074635506 -0.151819482445717 -0.0647066682577133 0.00947667099535465 0.0751435160636902 0.128469482064247 0.174067229032516 0.243620097637177 0.281169176101685 0.321069419384003 0.358516156673431 0.420277267694473 0.403308153152466 0.413064926862717 0.439653426408768 0.453629106283188 0.861135482788086 0.917075634002686 1.00359165668488 1.40466451644897 1.7469140291214 4.43178224563599 5.19436025619507 6.05750751495361 7.06465625762939 9.63158702850342 18.5793609619141 4.89132261276245 -0.0446025766432285 13.2425670623779 6.44227123260498 2.18172860145569 0.493042916059494 0.578424334526062 2.97969651222229 0.083570770919323 -0.0633093416690826 6.24733018875122 8.31098651885986 0.847124874591827 -0.00555371539667249 0.868393063545227 0.913248717784882 0.96870619058609 0.944259107112885 0.985260725021362 1.86953556537628 1.95417034626007 2.03795671463013 1.58852398395538 2.31322550773621 2.36154460906982 2.43096351623535 2.40627503395081 2.84640264511108 3.14821624755859 3.28239369392395 3.70471215248108 3.72539806365967 3.97099804878235 4.13738393783569 3.99783205986023 4.12521696090698 4.2071738243103 4.28165149688721 4.89422035217285 4.70630788803101 5.37933778762817 5.49139308929443 5.60757684707642 5.49323701858521 5.332603931427 5.44512414932251 5.52734041213989 5.74100399017334 5.87844228744507 6.0227575302124 6.139892578125 6.26974058151245 6.4073486328125 6.55837535858154 7.63953304290771 9.97811126708984 13.9007053375244 27.9493026733398 7.05056476593018 20.7624397277832 6.58687210083008 6.93654108047485 8.42107963562012 9.20189476013184 10.0419225692749
18.585807800293 4.15280246734619 24.0035343170166 6.28473472595215 0.0803884640336037 -1.49638366699219 -1.27422118186951 -2.19791698455811 -2.08368420600891 0.165772378444672 1.55020332336426 10.0511770248413 7.63326549530029 9.2789192199707 19.2807922363281 4.63042163848877 2.0353946685791 5.25506734848022 13.3937101364136 38.1639938354492 17.4314098358154 -1.26225709915161 6.29517221450806 8.5633659362793 3.59952044487 -4.52930545806885 -4.28530788421631 -1.38514375686646 -4.05488777160645 -3.10575079917908 -3.79220008850098 3.17614102363586 -3.58103322982788 -3.38338351249695 8.71597576141357 -3.30404877662659 -2.87087106704712 14.8944988250732 -2.83312034606934 30.0412731170654 -3.22511982917786 6.73859453201294 2.20140624046326 -2.50416254997253 10.5396108627319 -2.17272853851318 -0.0275611765682697 -2.52710056304932 -2.01199531555176 -0.861479222774506 27.1848659515381 -1.9305225610733 -1.77608418464661 -1.44829273223877 2.06761932373047 -1.07254755496979 -0.250696033239365 -0.241342410445213 -0.263782769441605 -0.275912165641785 0.022566944360733 0.0436858832836151 -0.378790974617004 -0.412085324525833 -0.311082363128662 0.0396014302968979 0.0503111593425274 -0.207472920417786 -0.460154384374619 -0.448839277029037 -0.438136339187622 -0.444438248872757 -0.436175256967545 -0.411055326461792 -0.383403956890106 -0.362388968467712 -0.313158571720123 -0.298248320817947 -0.29965528845787 -0.292211711406708 -0.304333388805389 -0.266764968633652 -0.224242076277733 -0.17394757270813 -0.102311782538891 -0.0511529855430126 0.000271714845439419 0.0486347861588001 0.0939021408557892 0.137129843235016 0.188814043998718 0.212441653013229 0.260191112756729 0.333577215671539 0.393044918775558 0.454980432987213 0.502454042434692 0.543937504291534 0.579115271568298 0.535850822925568 0.587011873722076 0.63133442401886 0.534463405609131 1.18554937839508 1.27702140808105 1.75136590003967 2.27608370780945 7.82814741134644 10.1674909591675 20.523229598999 7.51496553421021 6.8030104637146 -0.0193402227014303 0.369319707155228 19.3120212554932 1.41489470005035 0.522795140743256 1.72763311862946 2.12253141403198 6.91213083267212 0.354281663894653 0.718353092670441 0.538663148880005 0.802028059959412 0.831877171993256 0.8566814661026 0.708676993846893 1.01681208610535 1.05876231193542 1.10492634773254 1.15973114967346 1.45817339420319 2.1418981552124 2.2466413974762 2.37126493453979 2.50295329093933 3.18980932235718 4.05964374542236 5.5132303237915 5.22641324996948 3.3763370513916 3.74523687362671 3.84202098846436 4.22173881530762 4.24905824661255 4.33656072616577 4.43057823181152 4.69916534423828 4.82976055145264 5.02716875076294 5.131760597229 5.24097728729248 5.33988380432129 5.77137041091919 5.90094423294067 6.03476428985596 5.91293811798096 5.72691917419434 5.85561180114746 5.95228958129883 6.20652723312378 6.34712314605713 6.55213308334351 6.64372491836548 7.13504791259766 7.01296424865723 9.02860069274902 29.3399562835693 6.54990386962891 6.82853889465332 6.92164754867554 32.8572311401367 12.6300916671753 8.16925811767578 12.1431045532227
16.7981433868408 15.5596590042114 4.33625507354736 13.1601037979126 4.68512105941772 17.814115524292 -2.6786937713623 -2.02231073379517 -1.39999449253082 1.92358660697937 1.15051734447479 33.7161636352539 -0.529592335224152 7.19968509674072 14.7554817199707 0.674344837665558 10.9458408355713 2.98608732223511 35.8405113220215 8.10188674926758 24.4384136199951 0.148741751909256 8.92383193969727 3.21167302131653 2.01853942871094 2.57103037834167 -4.38650226593018 -1.10905134677887 -3.96930646896362 -3.6531810760498 0.862582266330719 -3.33677649497986 -3.22582316398621 -2.9783775806427 18.175594329834 -2.19740271568298 2.17266821861267 5.850661277771 -1.31211459636688 -1.29325449466705 24.86887550354 -2.57468366622925 3.32380342483521 -1.86817443370819 0.958586812019348 2.64462113380432 4.68772077560425 -0.1868035197258 11.634934425354 -1.72238802909851 11.0034284591675 -1.79873538017273 -1.67235386371613 -1.10234475135803 -1.04726338386536 -0.10857954621315 -0.086845874786377 -0.0319683738052845 0.122109934687614 0.759773015975952 1.03296780586243 -0.247607216238976 -0.257830947637558 -0.254485845565796 -0.0364595465362072 0.112656995654106 -0.241322815418243 -0.352893650531769 -0.349102467298508 -0.274417817592621 -0.321015864610672 -0.326936960220337 -0.328867256641388 -0.323548048734665 -0.31550657749176 -0.309031754732132 -0.270023822784424 -0.257256954908371 -0.255371928215027 -0.234536752104759 -0.246907755732536 -0.22441440820694 -0.15161207318306 -0.108824901282787 -0.0555795915424824 -0.0262360516935587 0.00200438289903104 0.0494598671793938 0.0666569918394089 0.104154847562313 0.127938002347946 0.168298274278641 0.197801366448402 0.266785800457001 0.315633833408356 0.368468880653381 0.457300543785095 0.512959957122803 0.566300392150879 0.614862382411957 0.685515522956848 0.772412478923798 0.768355131149292 0.870201468467712 0.873682022094727 0.697848379611969 1.44986748695374 1.56002378463745 3.99427008628845 2.68699240684509 28.3729000091553 5.11142921447754 -0.566798806190491 -0.248405814170837 11.8259248733521 0.267138838768005 10.3116416931152 0.359103858470917 0.886188864707947 0.895877003669739 5.87949323654175 0.768718898296356 1.37475919723511 0.999108493328094 0.906419932842255 0.60279792547226 0.904268264770508 0.937518954277039 0.971856772899628 0.84513247013092 0.672186970710754 1.47832584381104 1.4964987039566 1.53229200839996 1.62461030483246 1.66261720657349 2.66580986976624 2.81664633750916 2.92498683929443 12.0658140182495 3.24417400360107 3.31790709495544 3.43916893005371 3.7337498664856 4.28918790817261 4.42634534835815 4.61177539825439 4.64925098419189 4.84878158569336 5.25546407699585 5.29079961776733 5.26984310150146 5.39186429977417 5.5126805305481 5.6411452293396 5.72945880889893 6.22499990463257 6.37107038497925 6.51927947998047 6.37716197967529 6.14957237243652 6.30323696136475 6.48122930526733 6.77264642715454 6.99078035354614 9.38492584228516 12.1698169708252 16.6575031280518 11.1487903594971 32.9894142150879 6.94049263000488 6.68653011322021 7.39432525634766 9.12958812713623 8.59292316436768
26.8576240539551 9.2681303024292 23.3745918273926 3.05402803421021 9.06251907348633 21.5308647155762 -2.92018055915833 -2.58697175979614 -0.425373822450638 0.395104736089706 28.2329730987549 2.29594922065735 3.60294198989868 8.66899967193604 1.34993195533752 2.11391401290894 6.45092868804932 14.6755218505859 12.5507783889771 15.9708614349365 16.3576183319092 29.2432250976562 13.7316551208496 -4.0151424407959 -0.471266955137253 11.8783483505249 -4.59452867507935 -4.15655708312988 -2.85973834991455 -1.60402059555054 0.264571309089661 3.48332762718201 9.96300411224365 1.16001224517822 -2.80249643325806 -1.01869487762451 -0.755845010280609 -0.196118548512459 13.3273334503174 -2.67397356033325 -1.83678650856018 5.50984001159668 5.35179138183594 8.13552093505859 -1.43757879734039 -1.65992069244385 -1.59966170787811 16.0166988372803 -1.8760598897934 8.16584396362305 -1.56221401691437 -1.51255071163177 -1.1644721031189 -0.58267205953598 -0.394897282123566 0.0643999949097633 0.218291029334068 0.570930302143097 0.699581503868103 1.4954035282135 0.776490330696106 0.00647501926869154 -0.144233524799347 -0.166635125875473 -0.00823720823973417 0.240489542484283 -0.190565139055252 -0.163428485393524 -0.201033025979996 -0.1829814016819 -0.184553787112236 -0.186311349272728 -0.185711786150932 -0.191437155008316 -0.20467945933342 -0.212039142847061 -0.218883663415909 -0.206717446446419 -0.205554708838463 -0.183846011757851 -0.177991092205048 -0.15448434650898 -0.0443948693573475 -0.1021618694067 -0.0806732773780823 -0.0292202420532703 0.00428100442513824 0.0420393347740173 0.0626287385821342 0.0815408006310463 0.12250092625618 0.136389061808586 0.173268988728523 0.199786856770515 0.230840921401978 0.26851624250412 0.350952357053757 0.421965658664703 0.479959309101105 0.531758248806 0.650409460067749 0.735673546791077 0.818014204502106 0.930564224720001 1.01769948005676 1.02416515350342 1.16732227802277 1.14415347576141 0.849265158176422 1.7180335521698 1.94486403465271 3.10565686225891 5.51788282394409 7.35091257095337 9.98161220550537 25.8817577362061 -0.211497157812119 0.446502953767776 10.2819004058838 0.434575587511063 0.386789500713348 0.961476683616638 1.35490834712982 1.4532219171524 1.50179433822632 1.55580711364746 1.12325215339661 1.05822026729584 1.11659801006317 1.02507400512695 1.04674506187439 1.10129809379578 1.42483019828796 1.47631764411926 1.55786097049713 2.13034248352051 1.75929343700409 1.81133317947388 2.38163709640503 3.22176194190979 3.49536347389221 11.1284637451172 3.24517202377319 3.66316103935242 7.07384586334229 4.10791444778442 4.20102977752686 4.6896333694458 5.98951721191406 8.60433101654053 9.95594596862793 5.25512027740479 5.62754201889038 5.65691184997559 5.66209745407104 5.81194496154785 5.94941568374634 6.09405422210693 6.1606616973877 6.72083902359009 6.88396739959717 7.09504985809326 6.94424486160278 6.88930130004883 6.95726203918457 7.17720556259155 7.50316143035889 7.73106002807617 33.6700897216797 6.78225612640381 7.57112979888916 7.51341104507446 8.41694641113281 8.85896015167236 9.89078712463379
10.5985412597656 23.7348880767822 4.83897352218628 4.98618268966675 25.0088176727295 -3.43997931480408 -3.02140402793884 -1.63931214809418 -0.730427026748657 11.5180759429932 24.3774833679199 0.54173082113266 6.80645322799683 4.59948921203613 7.50259685516357 6.97011852264404 7.41666555404663 25.8784427642822 8.33441543579102 18.1253280639648 13.2391080856323 24.4652290344238 1.28647649288177 19.01123046875 -2.90371680259705 0.88872754573822 -3.61853218078613 7.79590511322021 1.51282274723053 5.6452808380127 10.5346202850342 22.9555797576904 9.50833415985107 2.79770278930664 15.4024505615234 -2.8119113445282 3.32701635360718 -0.0755047202110291 6.68331384658813 7.4935359954834 -2.3054735660553 -2.19116687774658 -1.81021499633789 16.1426372528076 3.04864048957825 -2.05709004402161 -1.58662390708923 -1.30279505252838 -1.2099974155426 27.6267719268799 -1.24923610687256 -1.09625387191772 -0.764082670211792 -0.579862534999847 0.201660469174385 0.627504646778107 0.898219227790833 0.801466345787048 1.54890072345734 1.88023591041565 1.09779119491577 0.263493180274963 0.25535175204277 -0.0655245557427406 -0.0634412840008736 0.208688676357269 -0.0549194999039173 -0.0646793395280838 -0.0214290414005518 1.09813618659973 -0.0506403185427189 -0.0562770664691925 -0.0658367499709129 -0.0740964710712433 -0.080614447593689 -0.0797237083315849 -0.0966529250144958 -0.116657339036465 0.0241619143635035 -0.125861883163452 -0.111356429755688 -0.0918625593185425 -0.0938426926732063 -0.105780757963657 -0.0997843220829964 -0.0471029914915562 -0.0274978242814541 0.00857694447040558 0.0528755225241184 0.082764208316803 0.13270278275013 0.131566688418388 0.151760920882225 0.260686010122299 0.177086561918259 0.216493934392929 0.255547821521759 0.327160209417343 0.378035962581635 0.466287642717361 0.524905443191528 0.956485867500305 1.1045823097229 1.2565153837204 1.11619925498962 1.07161796092987 1.21075510978699 1.328568816185 1.38769900798798 1.52438354492188 1.5436863899231 1.60147619247437 2.44674730300903 2.80227184295654 5.184157371521 20.9611701965332 7.20621156692505 -0.643317043781281 0.396628201007843 0.426215410232544 0.784690082073212 0.812588512897491 0.841450393199921 0.876089215278625 1.45072329044342 1.51790010929108 1.63304233551025 1.69344782829285 1.78165221214294 1.2868891954422 1.2517181634903 1.3154205083847 0.844682157039642 1.45065021514893 1.51652026176453 1.53894603252411 2.19686651229858 2.22381210327148 2.29334139823914 2.4603419303894 2.50156044960022 2.8851637840271 5.35427713394165 7.04543352127075 9.99273777008057 3.75221180915833 4.6928653717041 5.38136100769043 6.73569583892822 5.85156917572021 17.2561054229736 5.00271892547607 5.25100374221802 5.38404178619385 5.75706434249878 6.05191993713379 6.08372354507446 6.10164785385132 6.28575563430786 6.4339747428894 6.60606479644775 6.69540929794312 7.33778476715088 7.59145736694336 7.81602954864502 7.65875959396362 7.87591886520386 7.75769233703613 8.71516990661621 21.1116104125977 7.81183099746704 8.09999465942383 9.09285163879395 11.4208641052246 12.622220993042
18.2076969146729 31.4404792785645 22.9061641693115 -0.0501827523112297 4.52338743209839 -3.15357780456543 -2.98645901679993 -2.83878016471863 3.84972357749939 6.20941352844238 30.0847492218018 -0.209150388836861 1.31746912002563 7.86001205444336 2.47941708564758 5.82322406768799 16.1920566558838 18.1081447601318 25.6365985870361 13.0037841796875 13.061653137207 6.37931823730469 23.4587516784668 -2.2061755657196 -2.02642130851746 -1.72886800765991 -1.34404718875885 -0.4315544962883 0.83375084400177 5.73591184616089 15.4300546646118 13.1692953109741 19.7562065124512 13.1841201782227 -3.10448026657104 -2.60861301422119 -2.5208694934845 -2.46817326545715 -2.36190819740295 9.87197780609131 -2.34282541275024 5.33488941192627 -1.93220126628876 -1.20849704742432 1.29520118236542 -1.00970983505249 -0.244809985160828 0.647039234638214 1.50481081008911 18.3655872344971 4.17757225036621 -0.760147094726562 -0.305244356393814 0.0329651273787022 0.93885326385498 1.46226298809052 1.61803984642029 2.24520373344421 2.25882935523987 1.0903080701828 0.898751854896545 0.666213929653168 0.397483319044113 0.445647209882736 0.0294154696166515 0.057925783097744 0.106707349419594 0.0906996950507164 0.114820465445518 1.28708505630493 1.16858124732971 1.20629549026489 1.24686515331268 0.0242846291512251 0.0316908471286297 0.0466324202716351 0.00675528915598989 0.297413557767868 0.21961185336113 0.0478900223970413 0.0623845681548119 0.0894219428300858 -0.0809013471007347 -0.0818671807646751 -0.0806665420532227 -0.0503129847347736 -0.031805045902729 -0.00110500247683376 0.0482451431453228 0.0654731243848801 0.0943182334303856 0.189852014183998 0.170425251126289 0.18852636218071 0.174339205026627 0.180733278393745 0.639153242111206 0.260047048330307 0.538355231285095 0.512566864490509 0.548514544963837 0.723704874515533 1.0332670211792 1.22510826587677 1.26848113536835 1.30637347698212 1.33785140514374 1.23844504356384 1.45113503932953 1.63292872905731 1.80332827568054 2.39070582389832 2.87441349029541 2.10595989227295 0.842562258243561 3.46867799758911 5.02863931655884 21.6977062225342 -0.496705293655396 -0.397531896829605 0.206892088055611 0.485032230615616 0.834724485874176 0.883516550064087 0.901577234268188 0.959699392318726 1.00244808197021 1.6508401632309 1.72137498855591 1.89104068279266 1.9634428024292 2.06253385543823 2.19687914848328 1.56055271625519 1.69615590572357 1.22569537162781 1.5683422088623 1.66783118247986 1.99472999572754 2.34957671165466 2.87137007713318 3.25851058959961 3.72637534141541 4.48428440093994 5.86019563674927 21.334379196167 3.496586561203 5.80028915405273 5.38664054870605 9.69298267364502 7.5090160369873 10.4030914306641 5.30354118347168 5.41865253448486 5.53504419326782 5.99064016342163 6.23160314559937 6.37821388244629 6.52680683135986 6.55471563339233 6.62414216995239 6.8806209564209 7.06391334533691 7.29763031005859 7.32715272903442 8.13993740081787 8.39878463745117 8.68328189849854 8.74368572235107 18.7848930358887 8.57027626037598 8.02171611785889 8.58251190185547 9.38035583496094 10.4782600402832
22.9218616485596 19.6141624450684 26.6790542602539 -2.97006797790527 -2.65031266212463 17.8834457397461 -0.961742341518402 -2.65959429740906 3.14527225494385 4.9492359161377 15.3283767700195 23.2816162109375 -1.46933889389038 17.1987285614014 2.28741264343262 6.50110244750977 17.8712673187256 6.00770425796509 9.41881656646729 47.7537841796875 -2.13097596168518 1.4867228269577 25.4724979400635 -1.72207093238831 7.27752304077148 -1.95760011672974 -0.445824384689331 0.918417036533356 4.63321256637573 6.09306240081787 9.11181259155273 26.4022903442383 12.406379699707 22.8727512359619 -2.65586447715759 -2.5026707649231 -2.26752138137817 2.20230841636658 20.5729160308838 -0.929682016372681 -2.22197771072388 -2.00933885574341 0.902521193027496 -1.83742380142212 -0.994245827198029 2.06022787094116 5.58597373962402 11.8077068328857 0.55787467956543 17.3438472747803 1.24976909160614 -0.260344684123993 7.38307428359985 11.4444456100464 1.23914539813995 1.6201251745224 1.81044924259186 3.0041663646698 1.67641484737396 0.953461050987244 0.515214622020721 0.664574921131134 0.630401015281677 0.489794582128525 0.151331722736359 0.190753191709518 0.24777589738369 2.05068421363831 1.28717136383057 1.24718737602234 1.35188329219818 1.38856625556946 1.42990112304688 1.30913913249969 1.36392021179199 1.41843628883362 0.0934994667768478 0.932342708110809 0.326776087284088 0.333225280046463 0.356604993343353 0.264143407344818 0.0688552632927895 0.10092443972826 0.134310230612755 -0.0405062809586525 -0.0223360676318407 -0.00229208101518452 0.0364529825747013 0.0527599900960922 0.23569829761982 0.192149385809898 0.184922024607658 0.273771435022354 0.368203014135361 0.175823882222176 0.494244962930679 0.640970587730408 0.676776707172394 0.717324793338776 0.572901487350464 0.596766591072083 0.748022258281708 1.03751492500305 1.23640334606171 1.26764023303986 1.29934978485107 1.35419106483459 1.37744867801666 1.47032344341278 1.81405365467072 2.21607875823975 2.51362752914429 1.95072674751282 0.633769571781158 -0.226206973195076 -0.177239298820496 -0.10805656015873 17.8875560760498 -0.41210076212883 0.34989258646965 0.0118275871500373 0.197069153189659 0.239772886037827 0.540444731712341 0.948304057121277 1.00269496440887 1.04034793376923 1.08155369758606 1.1781712770462 1.90351867675781 2.01858520507812 2.07565259933472 2.36814761161804 2.51070785522461 2.61268782615662 2.07020020484924 2.33811926841736 1.60975754261017 2.04213237762451 2.21363353729248 2.50997376441956 2.53676533699036 5.11766481399536 6.61213493347168 8.90534019470215 12.0924921035767 3.96044039726257 8.93734741210938 12.4315748214722 11.4858779907227 4.86575365066528 27.57080078125 4.64755725860596 5.94122266769409 6.06600284576416 6.20398569107056 6.30588912963867 6.46452331542969 6.7439022064209 6.95821952819824 7.11801195144653 7.15919589996338 7.28971147537231 7.61251878738403 7.86100292205811 8.12092399597168 9.49861621856689 9.3358793258667 9.393235206604 11.3951263427734 12.2322874069214 9.46569728851318 10.8571376800537 22.8683128356934
7.78422784805298 15.1375675201416 37.4651718139648 17.4068965911865 -3.32552528381348 -2.83633232116699 -0.461393505334854 1.11684930324554 4.83294153213501 7.03553152084351 10.2390031814575 5.03273439407349 -2.06135249137878 0.235319569706917 3.61025738716125 7.62550830841064 10.4965171813965 10.6986236572266 15.5079832077026 11.2725563049316 7.02827548980713 7.38770055770874 7.75437784194946 14.069712638855 9.17966175079346 -1.05299556255341 -0.517536640167236 1.6170369386673 4.46530961990356 11.0127010345459 19.037317276001 22.9473934173584 23.0763683319092 1.61705923080444 1.96907413005829 -2.30910015106201 -2.22249221801758 -1.97865056991577 14.7103128433228 -1.72578203678131 1.8556946516037 15.6917591094971 -1.55542552471161 -1.09556865692139 -0.444574445486069 10.0177421569824 20.549991607666 0.150549411773682 0.190899759531021 4.06847476959229 19.3807487487793 14.4708375930786 14.8809585571289 14.6985425949097 12.0296230316162 -0.0758879706263542 2.57007336616516 3.28534936904907 2.3085560798645 1.14712727069855 0.449048429727554 0.48946675658226 0.647638261318207 0.419284164905548 0.249496296048164 0.302270531654358 0.362231820821762 0.860304474830627 2.14463376998901 2.19810557365417 2.26237678527832 1.43312907218933 1.37209951877594 1.48358333110809 1.53627681732178 1.60087418556213 1.47836375236511 1.53077757358551 1.57703459262848 0.981673121452332 1.00984823703766 0.349406182765961 0.376591801643372 0.409082978963852 0.314915835857391 0.412586748600006 0.164604693651199 0.197903454303741 0.085554264485836 0.132970586419106 0.367579907178879 0.335681110620499 0.25157755613327 1.27360713481903 1.22379982471466 0.973376274108887 0.313702493906021 0.481903076171875 0.517053484916687 0.819279253482819 0.843851804733276 1.14020550251007 1.24439990520477 1.2907258272171 1.15899217128754 1.01866972446442 1.09290957450867 1.30467128753662 1.33754694461823 1.36676728725433 1.60152006149292 1.79709577560425 2.13021445274353 2.25288271903992 1.18646645545959 0.173840209841728 -0.261692255735397 -0.216635391116142 -0.125874474644661 -0.0346501916646957 0.144635781645775 0.320892602205276 0.0125190420076251 0.165434151887894 0.0192337762564421 0.216534346342087 0.276390999555588 0.618458330631256 1.11513710021973 1.16416156291962 1.21861279010773 1.29613995552063 1.46561944484711 1.549360871315 2.35022735595703 2.49326777458191 2.89205050468445 3.10915088653564 3.34839963912964 3.07950568199158 3.63169813156128 1.93252456188202 2.87309741973877 3.28089356422424 3.85499501228333 4.09663152694702 16.5542163848877 3.23775172233582 4.36456394195557 4.77823448181152 4.96014881134033 31.4267807006836 4.40907001495361 5.57292747497559 5.78095436096191 5.91025018692017 5.96704483032227 6.41021966934204 6.55798578262329 6.74238443374634 6.87593650817871 7.08525896072388 7.40051031112671 7.6125111579895 7.86473703384399 7.96833610534668 8.35104084014893 9.31349849700928 12.3248138427734 15.8554162979126 21.6690788269043 16.5377178192139 10.8683843612671 27.6365795135498 9.5476655960083
-0.0277865435928106 21.5815982818604 31.7694702148438 16.3720874786377 -2.90656900405884 -3.16967391967773 -2.84291625022888 5.20978212356567 -1.06083655357361 31.9850921630859 -1.53511488437653 15.1068897247314 -2.09716629981995 -0.247278064489365 2.46173238754272 3.36354422569275 3.81137871742249 23.8038787841797 10.2369918823242 8.74997997283936 6.53167295455933 12.2143144607544 20.3767147064209 6.80424976348877 0.948320686817169 -1.51814889907837 -1.01559793949127 1.64942359924316 3.92519402503967 9.93392848968506 26.4498825073242 16.8674221038818 6.53997564315796 7.34795999526978 -0.855487525463104 0.863718569278717 -2.16991591453552 -1.90632224082947 -1.34424114227295 -1.29638850688934 -0.263565093278885 16.9674377441406 -0.83528059720993 0.196630358695984 1.54109156131744 6.48518466949463 13.7040576934814 -0.690230011940002 20.3598232269287 13.9840183258057 38.3206176757812 3.61579370498657 -0.499880194664001 -0.191013023257256 14.6912775039673 -0.435892820358276 1.03732788562775 3.34737777709961 3.26747179031372 1.5235652923584 0.826040506362915 0.349691987037659 0.530471980571747 0.552750051021576 0.318024337291718 0.371710479259491 0.439370006322861 0.531681597232819 1.22151160240173 1.53833723068237 1.57671904563904 2.35076951980591 2.40675806999207 2.45882701873779 1.56506180763245 1.52557373046875 1.66152703762054 1.71585297584534 1.76414620876312 1.61485004425049 1.66034686565399 1.70603036880493 1.05166459083557 1.106365442276 0.401991248130798 1.05575287342072 0.498878687620163 0.441502660512924 0.47439169883728 0.423658847808838 0.369162112474442 0.267162531614304 1.42195188999176 1.45035886764526 1.26871728897095 1.2878623008728 1.35052633285522 1.30785048007965 1.05560278892517 0.875669836997986 1.25315153598785 1.32201707363129 1.24655342102051 1.29975485801697 1.31936323642731 1.40739047527313 1.34943270683289 1.20409405231476 1.06111824512482 1.13496923446655 1.37794411182404 1.39734280109406 1.40697026252747 2.3067421913147 1.39921712875366 1.41048669815063 1.18833720684052 -0.295732289552689 -0.226904466748238 -0.122790731489658 -0.0319385156035423 0.042218029499054 0.297902852296829 0.40485954284668 0.016768092289567 0.0189289804548025 0.026331901550293 0.0367949232459068 0.285089612007141 0.310662001371384 0.729300796985626 0.858902871608734 1.3844199180603 1.47781252861023 1.56100380420685 1.9303172826767 2.11287903785706 2.94004464149475 3.16719341278076 3.74996566772461 4.11350297927856 4.86925554275513 6.29458665847778 8.76145267486572 2.8394877910614 4.9670033454895 6.947669506073 9.77903175354004 4.11215829849243 4.45641708374023 5.0274772644043 5.05461454391479 5.2715048789978 5.45516777038574 5.55904912948608 5.73530292510986 6.08156681060791 6.2477822303772 6.40310907363892 6.44280910491943 6.97764348983765 7.17062473297119 7.36005163192749 7.56467247009277 7.89054489135742 8.19562339782715 8.47438621520996 9.1857385635376 10.3387241363525 14.1122131347656 18.0743598937988 41.6560096740723 8.12996196746826 9.9919490814209 14.4753255844116
-1.29108119010925 1.85960340499878 3.30654215812683 30.6245498657227 -2.45480465888977 5.79667043685913 -1.25277781486511 1.37327146530151 31.9308624267578 -1.71657574176788 15.3114461898804 5.84896469116211 -1.03340673446655 2.55104064941406 2.98592972755432 3.83971166610718 3.74908447265625 5.02002429962158 10.4646453857422 2.96067643165588 32.2672119140625 0.246967822313309 27.0221252441406 -2.4827618598938 -2.21466827392578 1.09910821914673 1.94599890708923 4.02589750289917 9.563307762146 9.94890689849854 24.2291679382324 8.41463947296143 13.9653911590576 2.50279688835144 -1.26139509677887 12.8282403945923 -1.52979052066803 -0.828315377235413 -0.971262633800507 9.55947303771973 0.214995995163918 3.86202454566956 -0.261442542076111 0.0154385399073362 0.13070359826088 4.26586103439331 10.3026342391968 17.980339050293 27.3043384552002 20.7641506195068 -0.535948157310486 44.9867134094238 -0.423089921474457 2.73176074028015 0.0702404007315636 2.84489274024963 3.93745899200439 4.04376602172852 3.19750785827637 2.57999801635742 1.23807954788208 0.669970035552979 0.419255077838898 0.372299641370773 0.402236878871918 0.433811038732529 0.495899617671967 0.581687092781067 1.22321498394012 1.27956962585449 1.31210505962372 1.34389185905457 1.68453741073608 1.72497141361237 2.55210590362549 2.62434530258179 2.70050358772278 1.73475193977356 1.67086207866669 1.80609476566315 1.8522801399231 1.89741218090057 1.74357867240906 1.82254552841187 1.91256165504456 1.17834579944611 1.23632431030273 1.10784208774567 1.15062236785889 0.584657907485962 0.521245181560516 1.55470192432404 0.764715373516083 1.4305008649826 1.47354078292847 1.50358617305756 1.52295625209808 1.34025752544403 1.40516030788422 1.47669172286987 1.42858934402466 1.25337743759155 1.32685470581055 1.36505579948425 1.37736463546753 1.32529449462891 1.39765703678131 1.43488585948944 1.4641330242157 1.41481482982635 1.26680481433868 1.11631655693054 1.18505203723907 1.42325520515442 1.40905809402466 1.41810417175293 1.4534170627594 1.48863995075226 1.57620096206665 1.47065341472626 -0.10611467808485 -0.016816945746541 0.0315050967037678 0.0852953419089317 0.0518962256610394 0.0614566914737225 0.0328175164759159 0.0423577018082142 0.143514961004257 0.207910045981407 0.0770007818937302 0.0916895046830177 0.374359518289566 0.484420090913773 0.924175262451172 1.72941207885742 1.85021686553955 2.00159430503845 2.79116678237915 3.20669198036194 3.84084296226501 4.88468837738037 6.31414127349854 8.88575267791748 19.0823554992676 2.67690181732178 3.7078754901886 4.14805173873901 18.8869686126709 4.00830602645874 4.28639650344849 4.96139669418335 5.16434144973755 5.51622009277344 5.65048837661743 5.79404401779175 5.89891672134399 6.04009389877319 6.20805883407593 6.62360525131226 6.80769443511963 6.99732685089111 7.05359172821045 7.63260507583618 7.8541464805603 8.37777805328369 8.78468704223633 9.21949481964111 9.68444061279297 10.0981397628784 13.0641984939575 17.803352355957 45.8237953186035 8.51591491699219 13.7632303237915
1.85702705383301 -1.45322489738464 1.61806774139404 10.7336559295654 5.66385173797607 0.297711610794067 -2.1274893283844 4.7405104637146 18.1260051727295 14.4074506759644 -2.1901216506958 -1.31042945384979 1.19267427921295 2.18962502479553 5.31746006011963 7.56351900100708 24.2895355224609 2.98653435707092 13.9229650497437 0.827741086483002 7.68689918518066 6.85142850875854 -0.929288685321808 17.7154960632324 -2.00235199928284 -0.517981112003326 1.02680623531342 7.32034206390381 20.1301040649414 8.99331474304199 30.7733421325684 9.30042552947998 2.26612901687622 0.305454909801483 17.1190509796143 -2.07370209693909 -1.15873777866364 -0.344520300626755 0.166558623313904 0.786856234073639 30.4917240142822 -0.591881453990936 0.322623699903488 1.14683938026428 14.4097080230713 1.3628476858139 18.998514175415 35.7475395202637 4.17083644866943 4.79028511047363 5.12665891647339 1.64011347293854 16.2716369628906 44.4606781005859 -0.35708624124527 -0.167946189641953 0.40224415063858 3.68293452262878 3.66893577575684 2.74261498451233 1.94359040260315 0.943792104721069 0.477809637784958 0.438633173704147 0.437735348939896 0.478829622268677 0.533110737800598 0.860980629920959 1.11663198471069 1.27917289733887 1.31826436519623 1.34506726264954 1.39210093021393 1.43209600448608 1.46120452880859 1.81528341770172 1.85606324672699 2.7700400352478 2.85587573051453 2.94233655929565 1.87452018260956 1.79289841651917 1.93573904037476 2.00976991653442 2.10395908355713 1.96602880954742 2.04774141311646 2.15237498283386 1.30222070217133 1.3639976978302 1.20386123657227 1.23139727115631 1.562126994133 1.62930762767792 1.68511343002319 0.811817049980164 1.50738859176636 1.56043350696564 1.62206828594208 1.65172445774078 1.45984256267548 1.54419779777527 1.62417101860046 1.55799448490143 1.32673668861389 1.37087213993073 1.42520809173584 1.45634436607361 1.37656116485596 1.47814130783081 1.52878665924072 1.56908679008484 1.50337851047516 1.32457184791565 1.13588988780975 1.21061992645264 1.45950019359589 1.49719405174255 1.57219171524048 1.7067768573761 1.87654447555542 2.06074547767639 1.91815197467804 0.0346089266240597 0.231869995594025 0.0466911643743515 0.056068766862154 0.0736912712454796 0.171958938241005 0.14720293879509 0.165198430418968 0.181693211197853 0.142518430948257 0.100443907082081 0.115476816892624 0.457293510437012 0.630936682224274 1.14228844642639 2.24455714225769 2.44907355308533 2.69992423057556 4.84600639343262 6.30729198455811 8.73646545410156 18.6849231719971 4.658447265625 5.88872480392456 11.4223051071167 12.7163619995117 8.15434551239014 9.39435291290283 4.30954647064209 4.8034462928772 5.00017642974854 5.43186378479004 5.56613779067993 5.99234247207642 6.13897132873535 6.28743743896484 6.40744829177856 6.58619928359985 6.76696109771729 7.26352977752686 7.46439170837402 7.76594495773315 8.362961769104 9.07070922851562 9.2658109664917 10.1512327194214 11.2594270706177 11.6161413192749 13.0489826202393 25.4855098724365 16.205961227417 38.6753883361816
3.95955157279968 7.59098863601685 14.4343891143799 1.89570665359497 5.12139511108398 -1.30786716938019 -1.30225229263306 -1.28081429004669 16.7104015350342 9.44401836395264 -1.72627711296082 -1.34778964519501 1.56530261039734 4.16097545623779 11.8908061981201 2.8098669052124 21.730167388916 20.0646591186523 1.50284326076508 -1.62723863124847 17.2666683197021 -1.42483580112457 1.31582581996918 -1.29641950130463 -1.12176716327667 -1.25205731391907 0.658144414424896 1.71825420856476 8.15165233612061 8.35826969146729 29.9842319488525 12.6000261306763 -1.56049609184265 15.8640775680542 0.642196655273438 -1.5641770362854 1.51657605171204 -1.47706270217896 -1.05930459499359 4.19210529327393 1.09288620948792 0.83346688747406 4.56571102142334 8.4859561920166 15.1132001876831 14.6989736557007 36.8509826660156 4.03941917419434 1.93945109844208 4.49801921844482 7.37211132049561 50.8309669494629 -0.583964645862579 -0.394423514604568 42.6399345397949 -0.247709438204765 0.308997869491577 4.43071508407593 2.76427102088928 3.10743141174316 2.24244856834412 1.11658084392548 0.934601187705994 0.493598848581314 0.495060384273529 0.505797505378723 0.580374479293823 0.698791146278381 0.985216557979584 1.16959083080292 1.20802879333496 1.23700642585754 1.38734149932861 1.41935586929321 1.45484280586243 1.49338912963867 1.51368319988251 1.53975117206573 1.94132471084595 2.00120949745178 3.0081353187561 3.09697294235229 3.19249224662781 2.01965403556824 1.95154702663422 2.15194487571716 2.240562915802 2.34025311470032 2.20471453666687 2.32051849365234 2.41732597351074 1.4129912853241 1.47715842723846 1.39630544185638 1.41292238235474 1.69656419754028 1.74049210548401 1.79270899295807 1.4104745388031 1.61075389385223 1.67356622219086 1.75943028926849 1.80222225189209 1.60905647277832 1.68878269195557 1.74661803245544 1.66725122928619 1.38771486282349 1.44830107688904 1.50740349292755 1.5747092962265 1.49251329898834 1.58214068412781 1.62719678878784 1.65626728534698 1.58356475830078 1.37619066238403 1.19186174869537 1.3392481803894 1.6804279088974 1.80587315559387 1.98147749900818 2.21436882019043 2.36420845985413 2.48158574104309 2.21374034881592 0.0521035753190517 0.0498495101928711 0.0900513678789139 0.219507545232773 0.203380659222603 0.234297096729279 0.213821977376938 0.245170399546623 0.264331668615341 0.14973483979702 0.16756047308445 0.181871518492699 0.582562506198883 0.824639558792114 1.42624032497406 3.14797472953796 4.05619812011719 5.61479187011719 14.9569606781006 2.79243993759155 4.57116270065308 8.23873615264893 25.5580883026123 3.36249995231628 3.68992853164673 4.09100294113159 4.80334091186523 4.9026141166687 5.03275012969971 5.19589900970459 5.42963457107544 5.87826538085938 6.01470565795898 6.50394535064697 6.6800389289856 6.85998821258545 7.01584100723267 7.22455883026123 7.42665195465088 7.99874591827393 8.25795459747314 10.1328535079956 11.1365718841553 12.3417539596558 13.1401491165161 15.0006504058838 17.4018211364746 26.0816020965576 16.0012264251709
7.1549186706543 14.2783756256104 14.4223937988281 -0.776670634746552 9.11520576477051 -1.30317425727844 0.249191045761108 -1.12255072593689 -0.988987565040588 -0.541019856929779 16.556978225708 -0.98272317647934 -0.564858913421631 13.1794118881226 4.01262521743774 5.40250301361084 10.1149196624756 20.0450687408447 1.32566690444946 15.9510917663574 -0.998166680335999 -1.45705962181091 4.97037935256958 -1.13803088665009 -0.876749336719513 -0.919854998588562 8.48667049407959 -0.986667096614838 0.129659056663513 5.36501407623291 12.5503950119019 24.9575042724609 7.44230985641479 4.26998853683472 -1.0690108537674 -1.05384087562561 -0.92083877325058 -0.510537922382355 -0.225753754377365 0.45971804857254 26.512170791626 -0.155747085809708 10.6610956192017 18.8403358459473 11.0733547210693 41.5403633117676 1.11625254154205 5.11357021331787 1.96880209445953 26.1020755767822 42.3410911560059 5.30495977401733 7.94572401046753 4.99785852432251 0.521291077136993 46.3836364746094 -0.378614127635956 4.45036315917969 3.0187292098999 1.81674027442932 2.69210338592529 1.58414542675018 1.2325633764267 0.758735001087189 0.587182760238647 0.562668204307556 0.550255417823792 0.606029689311981 0.833711445331573 1.0361031293869 1.06818532943726 1.09533798694611 1.26806783676147 1.28627812862396 1.31315970420837 1.47493147850037 1.4858193397522 1.50262308120728 1.55307686328888 1.60361635684967 1.64674067497253 2.08868384361267 2.16313505172729 3.28185892105103 3.389812707901 3.5161554813385 2.23914742469788 2.16687703132629 2.39722752571106 2.52230954170227 2.62628245353699 2.46231317520142 2.59533596038818 2.75101852416992 2.29203343391418 2.09486865997314 2.01375842094421 2.1105751991272 2.38211607933044 2.46265435218811 2.26088714599609 1.65347194671631 1.75155007839203 1.85611295700073 1.96797978878021 2.00473546981812 1.73838675022125 1.78999972343445 1.84870493412018 1.80319142341614 1.5053528547287 1.58910179138184 1.66161632537842 1.71234250068665 1.60118019580841 1.67729198932648 1.70453083515167 1.75372719764709 1.71610295772552 1.56079792976379 1.41334140300751 1.70436358451843 2.16077613830566 2.32875156402588 2.44918274879456 2.61008906364441 2.71859669685364 2.83497452735901 2.5660388469696 0.131672158837318 0.132221534848213 0.150224700570107 0.279292017221451 0.310259461402893 0.353569060564041 0.345568358898163 0.449192881584167 0.612054228782654 0.233989715576172 0.23854698240757 0.307620882987976 0.795896232128143 2.47074198722839 1.98115134239197 12.3185529708862 3.11797785758972 9.57710266113281 3.94368290901184 3.53842735290527 34.7182083129883 3.25736498832703 3.51551532745361 4.32777547836304 4.76685953140259 4.92624235153198 5.19582176208496 5.32852077484131 5.46554660797119 5.64297199249268 5.88634538650513 6.37844276428223 6.54985523223877 7.11719274520874 7.32403326034546 7.5386815071106 7.7306227684021 7.98254299163818 8.24625968933105 8.925217628479 9.24250888824463 14.3522233963013 16.3595027923584 19.0121059417725 24.220085144043 21.2612838745117
12.505952835083 5.03230571746826 19.2092971801758 12.855149269104 -0.885172605514526 2.33276891708374 -0.904632031917572 -0.92128187417984 -0.671915173530579 -0.259276628494263 11.4483528137207 -0.48102194070816 -0.214049354195595 -0.181435331702232 0.229970395565033 5.15552091598511 12.6194381713867 45.6063385009766 8.58822536468506 3.60299825668335 -1.33556854724884 -1.27718007564545 12.2070331573486 -0.598354816436768 2.70707726478577 -0.675470173358917 0.0642802491784096 -0.606667697429657 -0.201529890298843 6.10447311401367 7.59438133239746 8.65190315246582 7.94362306594849 0.0539155155420303 5.88012313842773 -0.223190411925316 -0.192049160599709 11.4631462097168 -0.0327161699533463 0.131990253925323 0.72251558303833 7.42610311508179 1.26336920261383 6.19385242462158 45.2269744873047 1.09780466556549 7.75234842300415 22.1577739715576 38.1773109436035 18.7290649414062 1.08992111682892 1.19882225990295 1.3905508518219 2.02746915817261 19.9776954650879 0.216870814561844 21.7318859100342 3.02040457725525 3.56526303291321 1.42014253139496 1.18344676494598 2.6623067855835 1.36739003658295 1.10617566108704 0.769809544086456 0.746581614017487 0.756326258182526 0.972306191921234 1.24939358234406 1.5935252904892 1.05472087860107 1.2086067199707 1.24808955192566 1.50562763214111 1.57947587966919 1.30556190013885 1.3205052614212 1.33613336086273 1.51654243469238 1.54744362831116 1.58695828914642 1.66073489189148 1.71948194503784 1.78512418270111 2.27290678024292 2.34856915473938 3.62514495849609 3.79001331329346 3.96036434173584 2.51679468154907 2.42315006256104 2.68247723579407 2.82404613494873 2.99166893959045 3.10657453536987 2.97614693641663 3.15197682380676 3.34855580329895 2.93277740478516 2.38767981529236 2.47594714164734 2.56029939651489 2.65578985214233 2.45762801170349 1.83202743530273 1.99109637737274 2.07113575935364 2.12036442756653 2.1658890247345 1.91141963005066 1.98904752731323 2.07829236984253 2.01037168502808 1.65260457992554 1.7267884016037 1.77214252948761 1.81292116641998 1.67636168003082 1.79255771636963 1.89505279064178 2.0274658203125 2.10297250747681 1.99679887294769 1.85190761089325 2.17790699005127 2.55613327026367 2.70133018493652 2.82380414009094 3.04548907279968 3.19934940338135 3.3598313331604 3.53437376022339 3.16042280197144 0.189365327358246 0.212835118174553 0.46423202753067 0.621217727661133 0.824733555316925 1.06531846523285 0.220957934856415 0.316116511821747 0.441756397485733 1.78053951263428 2.5289900302887 2.58428192138672 5.41406917572021 2.63537454605103 16.362340927124 2.7870147228241 3.08783602714539 5.48117446899414 14.0506010055542 3.96524810791016 4.05573320388794 4.43165874481201 5.01708269119263 5.13755035400391 5.35265445709229 5.64154291152954 5.79302597045898 5.95632839202881 6.18290042877197 6.45343494415283 6.9736967086792 7.17995452880859 7.84618759155273 8.09568500518799 8.35670757293701 8.6283483505249 8.93331813812256 10.2344970703125 11.7247982025146 13.654091835022 24.1706047058105 37.102108001709
3.84362721443176 13.5204429626465 17.5368003845215 13.4340963363647 -0.557278275489807 11.4418802261353 -0.623686969280243 -0.249236777424812 0.140925258398056 0.304527312517166 1.01478636264801 1.16026544570923 7.50771522521973 10.4391012191772 0.576680541038513 7.1112813949585 9.49608707427979 11.4148406982422 34.9907455444336 0.754172086715698 8.73804378509521 -0.629158735275269 -0.568666815757751 21.2366580963135 -0.729411602020264 12.5810499191284 -0.621428549289703 -0.27431383728981 -0.298510581254959 1.27580404281616 12.6307182312012 -0.0636105909943581 6.08566999435425 -0.164383411407471 0.0756281912326813 1.28370368480682 1.49026584625244 8.94902229309082 6.12528800964355 18.4522476196289 0.348346740007401 14.7080230712891 35.3353080749512 2.55923056602478 8.96705913543701 27.2831535339355 34.8192977905273 21.4706745147705 1.44449603557587 3.12282562255859 3.91812348365784 6.7809534072876 8.20477294921875 10.8549461364746 16.0882205963135 1.98293709754944 5.04978609085083 -0.442112445831299 4.43345308303833 4.48142242431641 4.62845420837402 4.05203104019165 3.23409795761108 1.35272705554962 1.06374335289001 1.02773678302765 0.950442254543304 0.992458522319794 1.02117741107941 1.28189742565155 1.61372721195221 1.64873683452606 1.68049323558807 1.64497470855713 1.75520193576813 1.30395913124084 1.1095552444458 1.1359851360321 1.33985149860382 1.36034655570984 1.39466392993927 1.60096025466919 1.65451276302338 1.72471272945404 1.81577062606812 1.87695562839508 1.93963468074799 2.50679588317871 2.63790225982666 4.09444570541382 4.27761840820312 4.49274301528931 3.38374209403992 3.8522002696991 4.26841402053833 4.253342628479 3.61815166473389 3.97734999656677 4.06611204147339 3.71043944358826 3.94166016578674 3.13023257255554 2.58250832557678 2.70540237426758 2.81525921821594 2.91278433799744 2.68326354026794 1.97746217250824 2.16214823722839 2.28792905807495 2.39549422264099 2.40832948684692 2.13886785507202 2.22063899040222 2.3149528503418 2.20243072509766 1.75076496601105 1.83833682537079 1.90045726299286 2.01033163070679 1.9748626947403 2.1657247543335 2.33668875694275 2.51683974266052 2.59942102432251 2.3806746006012 2.17191314697266 2.56442499160767 3.02379083633423 3.17680692672729 3.34209680557251 3.5177001953125 3.8010733127594 4.02262353897095 4.28178882598877 3.81690692901611 0.333437412977219 0.704730689525604 1.09204232692719 0.234063401818275 0.775995850563049 0.383338868618011 1.50477170944214 1.82630479335785 2.01251029968262 2.45849704742432 2.70737361907959 4.64856624603271 2.84066843986511 9.15279197692871 2.97310996055603 3.14563322067261 3.58340167999268 6.42211866378784 3.96716642379761 4.63074445724487 4.75370979309082 4.87146091461182 5.41535806655884 5.54295825958252 5.84617233276367 6.17377996444702 6.35600900650024 6.54921674728394 6.81463956832886 7.11988544464111 7.68942642211914 7.93340921401978 8.74000644683838 9.53576278686523 10.914493560791 12.7289295196533 11.6995010375977 17.5427341461182 32.7125091552734
0.563140451908112 16.2559947967529 0.653290271759033 10.0379104614258 0.299568593502045 2.9826283454895 0.0707202330231667 16.8700313568115 -0.0409548841416836 1.3298876285553 1.45359563827515 1.78476130962372 2.01239442825317 2.55553603172302 3.53004956245422 6.8722996711731 9.26930999755859 12.4257965087891 31.6780586242676 0.342041969299316 7.99934911727905 17.3958721160889 -0.471504300832748 -0.482586413621902 1.03740131855011 2.75756144523621 3.44989061355591 8.9639778137207 13.240195274353 1.58765757083893 31.7031345367432 1.080237865448 26.0473880767822 0.73951268196106 1.41949033737183 14.3751964569092 10.9188995361328 25.9531478881836 17.3404865264893 14.9772815704346 45.4117050170898 0.737234473228455 1.00155997276306 6.05904293060303 48.0788269042969 1.2931911945343 5.01375913619995 1.28669238090515 9.04778289794922 3.57630181312561 1.63045120239258 10.9154558181763 10.9698715209961 9.08695888519287 14.8654813766479 2.46721029281616 1.26947498321533 11.9463109970093 1.43775522708893 4.97265911102295 4.11023855209351 5.14907312393188 5.48625469207764 5.76539754867554 4.78868436813354 1.32716953754425 1.32773947715759 1.29839468002319 1.4285763502121 1.47341167926788 1.47125041484833 1.28734481334686 1.44112753868103 1.66778469085693 1.69839131832123 1.71719229221344 1.13634645938873 0.983506262302399 1.11697900295258 1.13839983940125 1.16697800159454 1.38932991027832 1.4358674287796 1.50222551822662 1.75589156150818 1.82615077495575 1.8892035484314 1.9790164232254 2.07412385940552 2.16317486763 2.80857229232788 2.96612882614136 4.69523668289185 4.92721462249756 5.18346500396729 5.43351554870605 4.41798448562622 4.52165842056274 4.51379442214966 4.11511182785034 4.22680139541626 4.33002185821533 4.57517576217651 5.15121841430664 3.43242335319519 2.84011316299438 2.95667695999146 3.06766390800476 3.19941735267639 2.87442421913147 2.17699599266052 2.42852091789246 2.5544593334198 2.65346217155457 2.64484429359436 2.33541941642761 2.44808578491211 2.58043026924133 2.44536828994751 1.95053565502167 2.1302695274353 2.31885099411011 2.516521692276 2.45248961448669 2.62274813652039 2.77939391136169 2.97453808784485 3.07128667831421 2.81149005889893 2.52782821655273 2.64885687828064 3.24447822570801 3.7794451713562 4.00463438034058 4.26057529449463 4.67119598388672 5.0132155418396 5.40440034866333 4.77822303771973 0.374881654977798 0.390204131603241 0.843302547931671 0.820290327072144 1.54728078842163 1.57925283908844 1.87366998195648 1.9558584690094 2.14979982376099 2.63491344451904 2.92177629470825 2.98719167709351 3.15759992599487 3.23143339157104 3.55308032035828 3.86428928375244 4.17076969146729 4.26938343048096 4.63663005828857 5.02797698974609 5.15966749191284 5.29810380935669 5.87293243408203 6.03354978561401 6.45255517959595 6.8062310218811 7.04387903213501 7.28451061248779 7.60310411453247 7.92723894119263 8.56383800506592 9.62504100799561 10.5585422515869 16.4246006011963 20.972936630249 28.9062652587891
8.27132606506348 8.17173671722412 4.79221725463867 3.94127678871155 2.01826953887939 4.41484260559082 25.4446086883545 0.731144785881042 1.65595436096191 1.55228161811829 1.58768272399902 1.82920014858246 1.97455060482025 2.17302107810974 2.44148325920105 6.25072479248047 8.87172222137451 13.1244287490845 32.8638534545898 0.925977945327759 0.952191352844238 6.45856714248657 9.28540992736816 0.52467554807663 1.20742702484131 4.95074510574341 7.73018312454224 8.94909572601318 14.9527187347412 19.3283863067627 26.3591747283936 27.361120223999 19.2959957122803 16.690746307373 20.4349250793457 18.5084285736084 20.6018753051758 50.7967834472656 -0.166245803236961 -0.0567382238805294 1.97840023040771 4.63903999328613 50.3316688537598 2.76192164421082 1.01473367214203 1.51365482807159 1.04850780963898 8.36686706542969 1.80431628227234 1.28646552562714 1.52784144878387 8.55816555023193 19.1661758422852 6.80707836151123 1.5623584985733 2.41616296768188 7.25321483612061 2.4091169834137 3.21910262107849 1.8542937040329 5.36648225784302 5.55759382247925 5.82263374328613 4.86948013305664 6.40167474746704 6.73698949813843 7.35189199447632 6.32759284973145 1.83642375469208 1.87461686134338 1.88902699947357 1.59744727611542 1.40764594078064 1.57334697246552 1.3685644865036 1.38522052764893 1.70146417617798 1.72819185256958 1.76775884628296 0.889019906520844 0.916545629501343 1.15026164054871 1.19218564033508 1.24889028072357 1.5311541557312 1.60801470279694 1.66851401329041 1.92574465274811 1.98544645309448 2.20575761795044 2.30911755561829 2.74624538421631 4.55357599258423 4.15222454071045 4.47866344451904 4.64191341400146 5.70981931686401 6.0615177154541 6.47078657150269 4.69854927062988 4.81077671051025 4.81975555419922 4.86396360397339 5.46291828155518 5.54330921173096 6.26490306854248 7.19891548156738 3.77712512016296 3.36180329322815 3.19086575508118 3.33754825592041 3.45572781562805 3.172123670578 2.32286047935486 2.6898193359375 2.80054473876953 2.96092486381531 2.97324466705322 2.64110469818115 2.83447170257568 3.10499548912048 3.40170073509216 3.35273289680481 2.80275630950928 2.85680794715881 3.08249306678772 2.9816837310791 3.15132832527161 3.34463262557983 3.54292964935303 3.71837496757507 3.83057236671448 3.47375106811523 3.10609173774719 3.9917368888855 4.64202880859375 4.98217868804932 5.37562274932861 6.01142072677612 6.5904483795166 7.30656719207764 6.5066819190979 0.867804408073425 0.887397825717926 1.0169495344162 1.22280955314636 1.6582533121109 1.69151949882507 2.00664258003235 2.10323047637939 2.32235836982727 2.84379553794861 3.17115306854248 3.25372171401978 3.41931009292603 3.50906324386597 3.88113570213318 4.24957466125488 4.52776479721069 4.65792512893677 5.071946144104 5.49507570266724 5.65304470062256 5.81850147247314 6.4209771156311 6.71860456466675 7.22815561294556 7.61392211914062 7.88579988479614 8.1707763671875 9.23162269592285 10.5776996612549 12.376576423645 13.6152029037476 35.2995185852051
5.17428588867188 6.43653583526611 24.2826080322266 1.27274322509766 2.75360870361328 3.61309623718262 23.1997928619385 2.63025212287903 11.7550277709961 2.46026277542114 2.45872449874878 2.20539999008179 2.36652231216431 2.19269156455994 2.35771298408508 2.96823883056641 3.32764148712158 3.67687034606934 30.9400825500488 1.91652691364288 4.95064687728882 4.35046195983887 4.7546010017395 4.64642524719238 6.7062349319458 7.72538471221924 8.96841812133789 7.55396604537964 13.3133554458618 17.1115169525146 23.5307960510254 50.7122917175293 3.79783797264099 0.13804093003273 1.78797781467438 8.47433376312256 1.1867835521698 5.72410726547241 1.85018634796143 4.94973039627075 50.2904968261719 0.288414806127548 1.93453633785248 5.45941495895386 7.46039819717407 1.31106793880463 4.66713285446167 1.03228390216827 1.09341609477997 1.09516632556915 1.3385488986969 1.15114974975586 4.34761428833008 1.56360328197479 1.62344682216644 1.69147098064423 2.33932161331177 2.02401304244995 2.87778258323669 5.55224895477295 2.82989835739136 6.39535093307495 6.36695766448975 6.33925008773804 6.68671751022339 6.98902130126953 5.73867177963257 8.69479751586914 9.77633285522461 11.1710624694824 9.37238597869873 2.18906164169312 1.73905837535858 1.42382514476776 1.35194492340088 1.09888744354248 1.02266585826874 1.02178251743317 1.35762453079224 1.78545951843262 1.83271920681 1.88225924968719 0.93069851398468 0.979045271873474 1.2787754535675 1.34482777118683 1.40513277053833 1.69760739803314 1.75176405906677 2.16857099533081 2.24459004402161 2.73430156707764 3.8522355556488 4.64143562316895 4.80679273605347 4.82108449935913 4.7223687171936 4.82252645492554 4.93729686737061 6.89310503005981 7.40903282165527 8.02700233459473 5.04781436920166 5.23778676986694 5.90623092651367 6.62447690963745 7.61523771286011 8.2212610244751 9.71369457244873 10.9890165328979 3.98856806755066 3.80357241630554 3.4616436958313 3.58601188659668 3.60478544235229 3.36459946632385 2.4982578754425 3.02849197387695 3.2250702381134 3.44757843017578 3.75717878341675 3.85126829147339 3.61883687973022 3.99367141723633 4.43040418624878 4.44940948486328 3.78199100494385 3.60728049278259 3.88886284828186 4.05380916595459 3.7907726764679 3.995849609375 4.24431800842285 4.74042224884033 4.62157154083252 4.16055297851562 3.87566447257996 5.12600755691528 5.97966623306274 6.7533106803894 7.77353715896606 9.10476779937744 10.2690887451172 11.4977416992188 10.2703247070312 1.69735467433929 2.18079781532288 2.1936342716217 2.44844508171082 1.78831517696381 1.95256495475769 2.16676163673401 2.28565216064453 2.52576994895935 3.10905694961548 3.49257206916809 3.59315299987793 3.72067761421204 3.81493973731995 4.23920488357544 4.67907810211182 4.9923357963562 5.14476108551025 5.58057975769043 6.05100917816162 6.26262521743774 6.48848485946655 7.14741611480713 7.60582399368286 8.15835094451904 8.5889892578125 8.92952919006348 9.29818725585938 15.8764524459839 20.7713260650635
2.48170447349548 3.12060213088989 4.53153800964355 6.32747268676758 6.84990882873535 7.67583847045898 5.32086086273193 6.44913196563721 10.3411703109741 20.1626071929932 1.08989489078522 2.55371475219727 2.92290878295898 3.29893779754639 3.09225273132324 3.49463105201721 3.3278694152832 3.27717304229736 4.03558540344238 4.58222532272339 5.28057861328125 6.44885206222534 7.16697931289673 7.88554382324219 6.66825294494629 7.25269222259521 7.33120965957642 13.1312894821167 17.3372917175293 23.6828346252441 14.6232776641846 46.5234870910645 2.71549272537231 10.192777633667 6.30217981338501 5.62629222869873 2.41152238845825 0.0588942617177963 50.9237098693848 1.09454131126404 -0.0948730632662773 0.0752032324671745 0.107749998569489 2.33191871643066 7.56448078155518 8.09034824371338 0.244071319699287 1.44533395767212 1.53241622447968 1.66126549243927 7.18911123275757 1.31104588508606 1.36647307872772 2.51184177398682 1.20093965530396 1.8649730682373 2.58714890480042 4.08866310119629 2.49528288841248 1.33812999725342 2.62101459503174 5.64105987548828 6.85443258285522 7.13330793380737 7.46169996261597 7.77225494384766 7.77247905731201 8.45413112640381 9.21673774719238 7.49706554412842 14.1732263565063 17.3967094421387 22.80100440979 18.8394832611084 1.27665317058563 1.10794997215271 0.894123494625092 0.905251562595367 0.733364343643188 0.615994155406952 1.07041347026825 1.45379674434662 1.91537547111511 1.990114569664 2.08463406562805 1.48611426353455 1.14259469509125 1.43074297904968 1.48101854324341 2.17419242858887 2.2795717716217 2.91989755630493 4.07430410385132 4.12596750259399 4.63523435592651 4.89516735076904 4.98705005645752 5.08878946304321 5.1490216255188 5.02822065353394 5.14091634750366 5.2640700340271 8.84686374664307 9.94388675689697 11.152925491333 7.02584362030029 6.83911752700806 8.69367790222168 10.1713342666626 11.555793762207 13.2685718536377 17.2723350524902 23.4777870178223 4.55469655990601 5.07593584060669 3.70877075195312 3.87771606445312 4.02692222595215 3.72017359733582 4.00388097763062 2.92021107673645 4.00553560256958 4.31333255767822 4.86254453659058 5.0290675163269 4.93399667739868 5.55670213699341 6.18573141098022 6.06186771392822 5.05810546875 4.41561555862427 4.72664499282837 4.89255952835083 4.57616233825684 5.30644035339355 5.57288408279419 7.02997446060181 5.68147277832031 5.90711545944214 5.63283205032349 7.28552103042603 8.5243034362793 11.8099908828735 15.2461919784546 21.0618095397949 23.5494117736816 26.0400657653809 23.4502010345459 2.28281283378601 2.94931387901306 2.8441264629364 2.62047243118286 2.04779314994812 2.09713554382324 2.37493109703064 2.52658104896545 2.78404259681702 3.39942359924316 3.84932279586792 3.9689953327179 4.09627437591553 4.178955078125 4.67015838623047 5.2076530456543 5.55436706542969 5.75818204879761 6.24315738677979 6.77945566177368 7.03841686248779 7.29649353027344 8.06097412109375 8.72805500030518 9.35634899139404 9.84965515136719 10.2803974151611
2.46980929374695 2.52266645431519 2.60455012321472 2.61397337913513 2.712242603302 2.87075543403625 10.330041885376 12.4731397628784 15.0434694290161 3.42353272438049 2.50320053100586 1.58756625652313 2.288250207901 2.72622418403625 3.90004849433899 4.40673494338989 4.75482559204102 4.38263893127441 5.0695652961731 5.1410927772522 4.86215877532959 6.37379789352417 7.03547048568726 7.80691289901733 9.51456451416016 10.837028503418 12.6871795654297 10.4134302139282 12.220775604248 14.0688533782959 45.9692192077637 2.20284485816956 14.2467889785767 29.3353118896484 7.7923731803894 0.629241406917572 39.6482238769531 22.0060348510742 0.510408222675323 9.4503059387207 0.120391458272934 2.73919677734375 0.0537264719605446 3.07972168922424 -0.000414137175539508 0.569364666938782 0.873851001262665 7.73715209960938 0.506594836711884 2.91063213348389 1.87834084033966 2.03860974311829 4.37286758422852 1.55806422233582 1.63255774974823 4.52385711669922 1.80892014503479 6.4800009727478 3.32949161529541 1.88300907611847 2.03093194961548 3.52743363380432 6.29685211181641 6.70823955535889 7.19277238845825 8.12181663513184 8.62453556060791 9.18062305450439 10.11598777771 10.6291065216064 11.7861680984497 13.2970867156982 10.4239711761475 41.6217956542969 0.256085753440857 0.466664880514145 1.5205442905426 0.920263946056366 0.874377489089966 0.75878494977951 0.573310434818268 0.592794716358185 0.631808638572693 1.16788029670715 1.60765326023102 2.1382520198822 2.23465323448181 2.32162165641785 1.58729112148285 2.59105896949768 2.48381972312927 2.44164824485779 3.34067249298096 4.16377353668213 4.24896955490112 4.72345399856567 4.81155204772949 4.90555143356323 5.20277547836304 5.30837345123291 5.42707872390747 5.52278089523315 5.41266059875488 6.07288837432861 6.73920774459839 12.6187953948975 14.7429609298706 17.8677520751953 11.3122444152832 10.313346862793 13.9168119430542 17.9468860626221 25.0627288818359 42.1456298828125 3.73504877090454 5.41468048095703 6.43333673477173 7.80048274993896 4.125084400177 4.66326713562012 6.96797800064087 5.61532926559448 7.60146236419678 3.0288987159729 5.12806701660156 5.74241495132446 6.5109806060791 6.7773756980896 6.72608804702759 7.48700380325317 8.43562889099121 8.19164180755615 6.84758806228638 5.38212633132935 5.69316244125366 5.72451448440552 5.3441801071167 8.27267742156982 11.2471942901611 16.4830017089844 10.1270313262939 14.3792676925659 13.53391456604 13.8976573944092 17.415922164917 40.6604766845703 6.4686393737793 6.85742616653442 1.98962318897247 2.00373315811157 3.26573586463928 3.09359765052795 3.16334581375122 3.06080865859985 2.83760595321655 2.59311175346375 2.27491927146912 2.69627404212952 2.78489565849304 3.06321954727173 3.74155163764954 4.27805137634277 4.43426990509033 4.59907531738281 4.64753007888794 5.19993162155151 5.87296533584595 6.29600620269775 6.5781192779541 7.07898330688477 7.66698551177979 7.9727349281311 8.3572301864624 9.24206352233887 9.66518783569336
2.87688612937927 2.63591194152832 2.69051647186279 2.64787364006042 2.68699502944946 2.72371697425842 3.64712715148926 4.78215456008911 4.23958492279053 30.8737525939941 0.841033220291138 2.20161080360413 2.13773965835571 2.49267721176147 2.73668146133423 3.53862833976746 4.15140581130981 6.26036596298218 7.11373376846313 8.04428291320801 7.05519437789917 7.87521743774414 7.37102746963501 6.51879358291626 9.24303436279297 10.6101236343384 12.4816188812256 16.8921661376953 21.6091957092285 29.3316516876221 20.7207832336426 22.3923416137695 19.2168617248535 1.80569231510162 50.9949150085449 0.743710517883301 1.25499308109283 2.86471343040466 1.76755511760712 6.68683385848999 0.549374222755432 0.817542731761932 0.980268657207489 4.31585025787354 0.709106981754303 1.56203234195709 4.40230178833008 0.622545957565308 0.769184947013855 1.90225100517273 2.37297511100769 8.88173389434814 7.24530935287476 8.94721221923828 21.334623336792 4.52278709411621 1.95915067195892 1.83795118331909 5.83791971206665 4.79851388931274 1.5354710817337 2.02851152420044 3.71700382232666 7.92845726013184 8.37975311279297 8.36924076080322 9.32891941070557 10.5891160964966 10.4722290039062 11.6066741943359 12.8558530807495 14.5017490386963 16.5399932861328 16.4039459228516 21.6847171783447 19.7828216552734 1.07985639572144 1.50161802768707 1.55435574054718 1.60434067249298 0.72904372215271 0.770304918289185 0.818071246147156 0.676253437995911 0.745228469371796 1.11243903636932 1.39447128772736 1.8132232427597 2.78490114212036 2.50471162796021 2.64318442344666 2.73596382141113 2.93129873275757 3.66992950439453 3.79499483108521 4.09755420684814 4.40805816650391 4.49889278411865 5.00550317764282 5.10779905319214 5.22943925857544 5.55845022201538 5.69278430938721 5.84230279922485 5.99474287033081 5.84534311294556 8.64704322814941 10.6057910919189 21.8546485900879 27.0301837921143 35.5613975524902 22.3593044281006 21.7869453430176 43.5487785339355 4.2036600112915 6.35854530334473 6.56306552886963 6.02319431304932 9.48453044891357 12.5164051055908 17.4831581115723 12.6143388748169 4.28549194335938 4.65092754364014 5.85731267929077 6.65270090103149 4.2005033493042 7.07058238983154 8.01633071899414 9.03622722625732 9.16501045227051 9.38943195343018 10.9041433334351 12.3764743804932 11.5741491317749 9.08674144744873 6.2861762046814 7.14654493331909 8.72996616363525 13.6917562484741 33.6294212341309 4.24696350097656 22.4831581115723 6.50386667251587 5.70282125473022 8.42094326019287 12.930380821228 8.95849704742432 2.5153112411499 2.77928042411804 2.26937627792358 2.19462752342224 3.43116140365601 3.51966834068298 3.34539461135864 3.42616438865662 3.29978942871094 3.07657217979431 2.77201557159424 3.06536054611206 2.885498046875 3.08483242988586 3.39994645118713 4.16679048538208 4.82809019088745 5.02572679519653 5.22549724578857 5.2458233833313 5.88992738723755 6.79902982711792 7.25833368301392 7.60242652893066 8.11582183837891 8.77474117279053 9.18042945861816
2.60060524940491 3.0709855556488 3.18878293037415 3.32523822784424 2.85733342170715 2.92730617523193 3.23784255981445 3.73789119720459 3.25384187698364 3.56619691848755 4.87414264678955 5.10905742645264 2.7091019153595 2.79676389694214 2.99541425704956 3.39008331298828 4.17506980895996 4.613929271698 5.97388458251953 6.69699144363403 9.63295650482178 11.1109066009521 13.0703449249268 10.7609090805054 12.5573701858521 11.7784032821655 10.490740776062 16.3679389953613 20.9885482788086 28.4899768829346 51.7272415161133 0.150140091776848 50.6784400939941 0.525162637233734 1.88846933841705 3.23082995414734 3.93756246566772 3.20566463470459 1.85284042358398 0.998692631721497 0.917624473571777 0.990827441215515 1.6946610212326 3.59962391853333 6.70180177688599 1.41996777057648 0.828656494617462 1.70179259777069 1.94726693630219 2.32485413551331 2.71174693107605 2.37359881401062 4.45702266693115 4.02686071395874 19.7938747406006 0.928250789642334 2.51894402503967 2.59466743469238 6.9488263130188 6.83387279510498 20.6009540557861 1.87255465984344 2.30816292762756 3.12979555130005 7.68071603775024 9.30273151397705 9.99061107635498 10.881233215332 13.4338493347168 16.4279727935791 21.731538772583 21.5811653137207 14.6778354644775 17.9521617889404 20.4976177215576 45.5541915893555 -0.546559154987335 -0.197913274168968 1.08554089069366 1.15203273296356 1.5966511964798 1.66756963729858 1.75390625 0.8178830742836 0.875560820102692 0.931519150733948 1.46656680107117 1.39258551597595 2.43688297271729 2.84006023406982 2.90932846069336 2.96442198753357 3.29957151412964 3.73806500434875 3.71055197715759 3.84353804588318 4.01831483840942 4.10271406173706 4.34301424026489 4.70463609695435 4.79233455657959 5.32137632369995 5.44461488723755 5.57915353775024 5.96616506576538 6.1645827293396 6.57856369018555 8.26352310180664 8.99742221832275 13.9444551467896 17.4469013214111 55.8603477478027 3.67153692245483 5.08218050003052 5.36927556991577 7.52724599838257 7.60150051116943 6.86056566238403 7.16146850585938 7.32832479476929 7.55985260009766 34.6277770996094 4.25426006317139 4.56902074813843 7.37229633331299 9.37833404541016 6.96560430526733 7.42251634597778 12.0175008773804 5.05614185333252 9.92011833190918 11.4827175140381 13.4234352111816 13.1212272644043 14.0706100463867 17.8053970336914 25.0894355773926 24.9226455688477 21.4933586120605 7.56409120559692 19.0212516784668 7.07656145095825 12.9664077758789 17.5870761871338 23.580249786377 22.120964050293 22.0747585296631 9.85109519958496 6.62653017044067 11.2435989379883 3.18245387077332 3.81590843200684 4.35802125930786 4.08211851119995 3.98974537849426 3.70250177383423 3.79262948036194 3.62126350402832 3.70638799667358 3.56487607955933 3.33820366859436 3.20238542556763 3.27423286437988 3.18024301528931 3.4760639667511 3.82828426361084 4.68612670898438 5.52746343612671 5.8104944229126 6.10969972610474 6.42905330657959 6.76911163330078 7.09562921524048 8.41780948638916 8.97618103027344
