NCOLS 172
NROWS 32
XLLCORNER 354000
YLLCORNER 6700784
CELLSIZE 16 
NODATA_value -3.4e+38 
0.012180732563138 -0.3707495033741 -0.558587431907654 -0.703850567340851 -0.763540804386139 -0.751768171787262 -0.727817535400391 -0.795524775981903 -0.852417588233948 -0.850360989570618 -0.8244868516922 -0.792583823204041 -0.795185565948486 -0.817404210567474 -0.749518990516663 -1.05279111862183 -1.2792307138443 -1.26751089096069 -1.20154535770416 -1.08016240596771 -0.941399753093719 -0.785796284675598 -0.666260063648224 -0.466766029596329 -0.437347233295441 -0.386817157268524 -0.323143869638443 -0.337966084480286 -0.373078405857086 -0.399083197116852 -0.469668924808502 -0.461083173751831 -0.377352833747864 -0.303691953420639 -0.175268933176994 -0.145570695400238 -0.135118320584297 0.0944939628243446 0.410719126462936 0.66230034828186 1.18020415306091 1.20230340957642 1.25778937339783 1.42673885822296 1.38232219219208 1.30138611793518 1.38953065872192 1.11729264259338 0.698895335197449 0.847980380058289 0.948451519012451 1.09010922908783 1.59842920303345 1.97001004219055 1.70422518253326 0.570060551166534 0.449092149734497 0.349602937698364 0.307879000902176 0.30516842007637 0.28186559677124 0.295403510332108 0.392343968153 0.365801215171814 0.324046820402145 0.304252922534943 0.181877955794334 0.557355642318726 1.24498069286346 1.545574426651 1.61831176280975 1.28381168842316 0.782084584236145 0.713344514369965 1.36302435398102 1.42358160018921 1.03044450283051 1.17201745510101 1.28904438018799 1.57851719856262 1.90131402015686 1.69877421855927 1.37819838523865 1.2791576385498 1.26789128780365 2.06900143623352 1.74653506278992 1.78320586681366 2.06272149085999 1.75794184207916 1.90890753269196 2.20857739448547 1.94745290279388 2.66481947898865 2.65612554550171 2.39820218086243 2.57449078559875 2.84891486167908 3.45549249649048 3.97400951385498 4.43653631210327 4.14979219436646 3.82549166679382 3.45939970016479 3.25170254707336 2.93758916854858 3.00749778747559 3.47582793235779 2.71577095985413 2.73420858383179 2.74661564826965 2.60855770111084 2.53798818588257 2.44710850715637 2.52923488616943 2.56840515136719 2.69270396232605 3.46898531913757 3.7130138874054 3.74526476860046 3.82288575172424 3.72187781333923 3.94190669059753 3.99148750305176 3.79607629776001 3.77924180030823 3.61066389083862 3.64933657646179 3.49645185470581 3.37527441978455 3.2440071105957 3.10032200813293 3.07486271858215 2.90968561172485 2.87004947662354 2.74957251548767 2.70267701148987 2.68624043464661 2.6835298538208 2.67964744567871 2.74784207344055 2.68720722198486 2.77388334274292 2.7708683013916 2.73871731758118 2.74576210975647 2.71023368835449 2.70938038825989 2.76033186912537 2.72808241844177 2.69151616096497 2.83576512336731 3.04539084434509 3.07254266738892 3.16423320770264 3.26061964035034 3.27443099021912 3.35216498374939 3.75768256187439 4.14938640594482 4.79835748672485 5.76562786102295 6.03771877288818 5.95245599746704 5.8448052406311 5.87527894973755 5.77578973770142 5.62606763839722 5.59374570846558 5.49601793289185 5.35667848587036 5.21992540359497
0.321528613567352 -0.0117911165580153 -0.149500161409378 -0.303574919700623 -0.512362062931061 -0.535622358322144 -0.548899412155151 -0.589350759983063 -0.643255531787872 -0.650563836097717 -0.415876269340515 0.348941773176193 1.0211489200592 1.05136716365814 0.38756600022316 0.328368723392487 -0.786659598350525 -0.873879492282867 -0.850155055522919 -0.710209727287292 -0.534901082515717 -0.343656241893768 -0.299718409776688 -0.204068601131439 -0.211000204086304 -0.217472955584526 -0.110552109777927 -0.104729004204273 -0.109754540026188 -0.139972895383835 -0.12545995414257 -0.108422309160233 -0.0252534095197916 0.0701806172728539 0.229096412658691 0.291214168071747 0.433289468288422 0.67716658115387 0.836921632289886 1.11596751213074 1.21549367904663 1.30188822746277 1.46742272377014 1.36430978775024 1.45289576053619 1.40157222747803 1.28018772602081 1.22625279426575 0.843622505664825 0.530186593532562 0.608573853969574 0.724383413791656 0.883721470832825 1.69704675674438 2.94849848747253 1.56939744949341 0.485638409852982 0.427240878343582 0.447310417890549 0.453063309192657 0.420895367860794 0.456483900547028 0.388140499591827 0.353854328393936 0.320614814758301 0.234966456890106 0.143403232097626 -0.107200495898724 0.152762204408646 1.10056638717651 1.57408690452576 1.48446381092072 1.29597628116608 0.871621131896973 1.13738346099854 1.55624973773956 1.44376659393311 1.2908980846405 1.07661986351013 1.43669080734253 1.76555585861206 1.81532037258148 1.51047801971436 1.47312712669373 1.58150577545166 1.52068829536438 1.74302232265472 1.83572924137115 1.91128098964691 1.85720860958099 1.54767739772797 1.59988248348236 1.50443243980408 2.21939921379089 2.30710411071777 2.33003640174866 2.27832674980164 2.51161670684814 3.26628088951111 3.75108361244202 4.65072202682495 4.41904163360596 4.28822994232178 4.29611587524414 3.83836793899536 3.89043021202087 2.78568172454834 3.83566570281982 2.881272315979 3.181471824646 3.10171747207642 3.15316963195801 2.7919454574585 2.74825954437256 3.04923987388611 2.82980990409851 3.12657237052917 3.31426453590393 3.64939045906067 3.91541433334351 4.30447244644165 4.11027240753174 4.21172285079956 4.23223495483398 4.04642391204834 4.08976650238037 3.91334939002991 3.75414133071899 3.61303377151489 3.45959258079529 3.37533187866211 3.38187718391418 3.29361486434937 3.18463587760925 3.14061522483826 3.07633876800537 3.00468325614929 3.00480389595032 3.08899903297424 2.99162578582764 3.0980224609375 3.07257580757141 2.9539430141449 2.95514369010925 2.94779467582703 2.99359965324402 3.04987502098083 2.9929027557373 2.94190716743469 3.101966381073 3.28762817382812 3.33196926116943 3.42862915992737 3.52317905426025 3.504638671875 3.63204312324524 4.06184053421021 4.48581457138062 5.15478324890137 6.04406309127808 6.14464902877808 6.28079032897949 6.25515079498291 6.29719829559326 6.18468761444092 6.0160436630249 5.96738529205322 5.86694669723511 5.7258415222168 5.57985162734985 5.35539293289185 5.11060380935669
0.448775857686996 0.223828226327896 0.18853671848774 -0.00583560671657324 -0.203662246465683 -0.325811386108398 -0.405916780233383 -0.433789640665054 -0.504956245422363 -0.532760441303253 1.27339458465576 1.65048062801361 1.61172223091125 2.04504442214966 2.01458215713501 1.42717087268829 0.7766934633255 0.0747179090976715 -0.128056317567825 -0.0169075801968575 -0.122825816273689 0.208052739500999 0.130764245986938 0.265009045600891 0.24519307911396 0.101823128759861 0.124946244060993 0.0936339050531387 0.0908911749720573 0.0446674302220345 0.109418839216232 0.173187598586082 0.222257137298584 0.381313890218735 0.519808292388916 0.715952515602112 0.898715913295746 1.13667345046997 1.27306807041168 1.37582612037659 1.5695526599884 1.52370870113373 1.38901162147522 1.47879862785339 1.34489762783051 1.30783331394196 1.25198876857758 1.18925869464874 1.03834128379822 0.670932412147522 0.583415806293488 0.589069068431854 0.549643933773041 0.791851758956909 1.51923286914825 2.75319790840149 1.42220723628998 0.605672359466553 0.559431850910187 0.651900768280029 0.607741951942444 0.494917213916779 0.404355645179749 0.293589383363724 0.267927587032318 0.176873192191124 0.0669298768043518 -0.13873103260994 -0.420102089643478 -0.321353405714035 1.10470879077911 1.34779036045074 1.43656527996063 1.40490210056305 1.07610809803009 1.26517832279205 1.47062146663666 1.28615772724152 1.0698606967926 1.27758073806763 1.54114389419556 1.66843140125275 1.81537044048309 1.68241703510284 1.67534899711609 1.53787541389465 1.38658976554871 1.57828557491302 1.7517945766449 1.68205511569977 1.6356406211853 1.55146980285645 1.45621192455292 1.57778370380402 1.82492172718048 2.07259011268616 1.80931830406189 1.923708319664 2.55230927467346 3.15355372428894 4.19774675369263 3.6821460723877 3.9521586894989 4.59665489196777 5.08688163757324 3.83332896232605 3.16295647621155 5.05999898910522 5.57055473327637 6.08431196212769 3.66320157051086 3.51216244697571 4.96021223068237 3.54033327102661 3.15906381607056 3.28140544891357 3.49546051025391 3.90385723114014 4.11469507217407 4.20427131652832 4.37646293640137 4.30538606643677 4.41597366333008 4.49575424194336 4.33324241638184 4.3294153213501 4.0750584602356 4.19185161590576 4.07219409942627 4.02969884872437 3.75531888008118 3.61987566947937 3.60582971572876 3.53453326225281 3.47414684295654 3.48128080368042 3.54742550849915 3.40532732009888 3.48922681808472 3.46455597877502 3.3302206993103 3.26863408088684 3.26974892616272 3.2340943813324 3.18425464630127 3.2412416934967 3.22786092758179 3.40197038650513 3.61973571777344 3.6558837890625 3.70736956596375 3.83080530166626 3.82605981826782 3.98762226104736 4.47400665283203 4.9201135635376 5.6067795753479 6.56450748443604 6.6685266494751 6.76554489135742 6.67331218719482 6.50466632843018 6.5627555847168 6.46385478973389 6.39415121078491 6.28528547286987 6.13238906860352 5.96919631958008 5.7313871383667 5.42776203155518 5.17238521575928 4.88538312911987
0.61478453874588 0.511358380317688 0.455647617578506 0.320070266723633 0.0680147632956505 -0.107659697532654 -0.268436789512634 -0.348417490720749 3.55745983123779 2.61868858337402 1.91865396499634 2.57676458358765 2.7583372592926 2.47906374931335 2.07791948318481 1.91270422935486 1.37808918952942 0.977395832538605 0.735791921615601 0.678231954574585 0.750329554080963 0.72606235742569 0.757097601890564 0.667695999145508 0.579750955104828 0.585748434066772 0.402510941028595 0.312170535326004 0.335206300020218 0.289032310247421 0.463196843862534 0.810144007205963 0.860514163970947 1.01193594932556 1.17887854576111 1.24634563922882 1.3470162153244 1.43769955635071 1.64492809772491 1.5984263420105 1.51330602169037 1.62451124191284 1.53296029567719 1.3868420124054 1.31983411312103 1.25191974639893 1.22256052494049 1.06879997253418 1.01095390319824 0.832884073257446 0.596348524093628 0.552076637744904 0.498349964618683 0.484438359737396 0.525370538234711 1.29180550575256 2.08177375793457 0.908195376396179 0.760766565799713 0.655284821987152 0.601460874080658 0.538469433784485 0.381234049797058 0.259144127368927 0.190456122159958 0.117757573723793 -0.0226152390241623 -0.15569831430912 -0.382945239543915 -0.473261684179306 -0.368672847747803 0.835010647773743 1.36681830883026 1.43516552448273 1.38395369052887 1.38423418998718 1.47932851314545 1.46068370342255 1.39722096920013 1.25892400741577 1.56569314002991 1.84019410610199 1.90338981151581 1.78679192066193 1.59900188446045 1.57826948165894 1.50710308551788 1.5700272321701 2.42153644561768 1.72549021244049 1.59639096260071 1.50137042999268 1.37824535369873 1.28499865531921 1.29042363166809 1.68260884284973 1.49081540107727 1.65416693687439 1.90291571617126 2.44800353050232 3.46636772155762 2.79225540161133 2.81104612350464 3.65203595161438 4.71083498001099 4.27518558502197 2.73135805130005 3.53322100639343 3.20614099502563 5.23002529144287 6.17060899734497 3.07531499862671 4.09749794006348 4.47698545455933 4.37952756881714 4.23416757583618 4.18606376647949 4.69526290893555 4.90645265579224 4.98775482177734 4.84482669830322 5.03695201873779 5.00158214569092 4.9695291519165 4.78034639358521 4.96583938598633 4.8702507019043 4.87850141525269 4.58383464813232 4.27794551849365 4.16751480102539 4.06779670715332 4.03401851654053 3.85298895835876 3.8232524394989 3.90714573860168 4.00274181365967 3.97648453712463 3.8174524307251 3.68618941307068 3.69411540031433 3.65339016914368 3.568767786026 3.61590886116028 3.56472110748291 3.497882604599 3.62277364730835 3.85048532485962 4.06972074508667 4.18419647216797 4.17431592941284 4.23671054840088 4.45763397216797 4.9542121887207 6.15740966796875 7.19752883911133 7.30639696121216 7.35920810699463 7.2569580078125 7.01610898971558 7.04939270019531 6.92508792877197 6.73456954956055 6.66952037811279 6.57024812698364 6.41220235824585 6.16120433807373 5.8086142539978 5.53112077713013 5.22513723373413 4.87797689437866 4.54333829879761
0.760782241821289 0.670649766921997 0.636206209659576 0.528425872325897 0.326685190200806 0.0904654860496521 -0.206183642148972 -0.31930285692215 -0.135066390037537 4.04690742492676 3.82863545417786 3.21222591400146 2.55877423286438 2.55345439910889 1.98198390007019 1.3576819896698 1.64263892173767 1.84875178337097 1.89807283878326 1.92562127113342 1.7195565700531 1.50448060035706 1.10773575305939 0.961155116558075 0.973511397838593 0.756359100341797 0.496257990598679 0.59470134973526 0.689219534397125 0.887739896774292 0.945717930793762 1.20441889762878 1.41726398468018 1.39266717433929 1.49575579166412 1.48595952987671 1.47893357276917 1.66163790225983 1.56727921962738 1.70202028751373 1.6675329208374 1.5214569568634 1.44633328914642 1.37144291400909 1.29818868637085 1.13208997249603 1.07082116603851 1.05157744884491 0.864084899425507 0.697463572025299 0.584213435649872 0.520756006240845 0.530386090278625 0.604691207408905 0.645635962486267 0.671073317527771 0.836505472660065 1.61350524425507 1.0180459022522 0.693996131420135 0.539453446865082 0.485773891210556 0.37121918797493 0.205876708030701 0.076908677816391 0.0395241566002369 -0.0969193950295448 -0.189347848296165 -0.322210639715195 -0.480902254581451 -0.521165072917938 -0.384851545095444 2.29082536697388 2.25869131088257 1.64781641960144 1.78488481044769 1.7652667760849 1.66813230514526 1.7637380361557 2.02035021781921 1.84732174873352 1.97079312801361 1.81802237033844 1.83128523826599 1.7829817533493 1.76826345920563 1.83321249485016 1.5896635055542 1.69743835926056 1.62769091129303 1.55639123916626 1.44229018688202 1.40286552906036 1.29799509048462 1.21991157531738 1.22127044200897 1.17662966251373 1.43982803821564 1.68159556388855 2.13603401184082 2.74365711212158 2.6223316192627 3.00436210632324 3.79893064498901 4.08656167984009 3.35293912887573 2.54262018203735 3.30858469009399 3.95979166030884 3.36980009078979 4.83713817596436 5.14086008071899 4.24781847000122 4.37051010131836 4.31104183197021 4.36968278884888 4.36136054992676 4.63373708724976 5.59236001968384 6.35343217849731 6.0538911819458 6.1403980255127 6.240403175354 6.58828210830688 6.08290004730225 6.08844995498657 5.54248571395874 5.20651149749756 5.02218866348267 4.9437460899353 4.93394947052002 4.62732696533203 4.34126138687134 4.49032068252563 4.32861566543579 4.31804132461548 4.32952928543091 4.21318674087524 4.23460340499878 4.18591451644897 4.09306287765503 4.0840859413147 4.02181673049927 3.94439387321472 4.02455425262451 4.27867031097412 4.32235145568848 4.32675170898438 4.44799661636353 4.49742031097412 4.84874725341797 5.30364322662354 5.84735631942749 6.55044269561768 7.72381448745728 8.06807613372803 7.95733308792114 7.67127752304077 7.67904806137085 7.53357887268066 7.28715467453003 7.16263389587402 7.05292558670044 6.89375400543213 6.69978523254395 6.45089817047119 6.08365440368652 5.6222562789917 5.25262546539307 4.86789846420288 4.64689111709595 4.39493179321289
0.875260174274445 0.804713845252991 0.746757805347443 0.633056044578552 0.496100127696991 0.288724780082703 0.0329562947154045 -0.161167562007904 -0.270861864089966 -0.21574792265892 2.63248157501221 3.32698345184326 3.08606386184692 1.56735706329346 1.85802590847015 2.7991259098053 2.93128657341003 2.80517840385437 2.55474090576172 2.31237721443176 1.83993530273438 1.66930866241455 1.47703552246094 1.09950244426727 1.0226184129715 0.712860107421875 0.912564277648926 1.03141748905182 1.09533321857452 1.29028367996216 1.52780842781067 1.51391184329987 1.62215602397919 1.60639071464539 1.66161096096039 1.8595769405365 1.73145985603333 1.62093079090118 1.75924777984619 1.6172251701355 1.5934112071991 1.49783027172089 1.39109146595001 1.35452318191528 1.18626940250397 1.12214827537537 0.931510090827942 0.758009791374207 0.741913914680481 0.585948944091797 0.603567719459534 0.676364183425903 0.70499175786972 0.706261575222015 0.849941670894623 0.837908625602722 0.76149982213974 1.05304956436157 1.39306676387787 1.39855003356934 0.512737691402435 0.397415548563004 0.309990286827087 0.145169496536255 -0.0175685007125139 -0.0356896296143532 -0.129559516906738 -0.225085332989693 -0.311905562877655 -0.467020481824875 -0.544017314910889 -0.623375177383423 0.634071528911591 2.86230802536011 2.72965407371521 2.06365728378296 2.09483885765076 2.58864831924438 2.20927095413208 2.1840181350708 1.97199213504791 1.84777987003326 1.87118196487427 2.01757955551147 2.13046813011169 1.99167287349701 1.91810882091522 1.80553996562958 1.71909642219543 1.58881485462189 1.53370714187622 1.48946142196655 1.36965751647949 1.31851673126221 1.25490915775299 1.20742690563202 1.15345549583435 1.11352026462555 1.22838401794434 2.31483840942383 3.3197615146637 3.51917171478271 2.99022102355957 3.58848071098328 4.84783172607422 3.31116247177124 2.35729312896729 2.4464898109436 3.14841103553772 5.12415885925293 4.07182884216309 5.22978591918945 5.5399055480957 5.03119993209839 4.9611964225769 4.86363649368286 4.51991891860962 4.33101367950439 5.3534369468689 6.64867067337036 5.51040172576904 8.26259994506836 6.7948145866394 7.25055408477783 7.03153324127197 6.35722208023071 5.90416574478149 5.61421775817871 5.5729546546936 5.56945371627808 5.33546304702759 5.31266260147095 4.8922324180603 4.72046852111816 4.73074960708618 4.66808652877808 4.60676383972168 4.60194873809814 4.58507204055786 4.67805004119873 4.6019606590271 4.52229356765747 4.54501438140869 4.82629537582397 4.87525796890259 4.81239986419678 4.94469690322876 5.13784599304199 5.52760171890259 5.9329662322998 6.58231592178345 7.27994108200073 8.52658653259277 8.66108703613281 8.57320117950439 8.46195125579834 8.41799163818359 8.2628116607666 7.96008157730103 7.8578929901123 7.73442697525024 7.4744725227356 7.22795438766479 6.93838310241699 6.56463193893433 6.22074699401855 5.88666534423828 5.50058221817017 4.96784448623657 4.71538686752319 4.49888801574707 4.30435848236084
0.931843340396881 0.881912589073181 0.79189532995224 0.686721563339233 0.572109401226044 0.405029773712158 0.251205503940582 0.086621381342411 -0.0634520947933197 -0.152222856879234 -0.139413356781006 2.01143717765808 1.93606352806091 2.87968015670776 4.82980537414551 4.18000268936157 3.67281436920166 3.19911122322083 2.84704780578613 2.30807447433472 2.11897444725037 1.48999774456024 1.33309125900269 0.714492857456207 0.883316814899445 1.09531188011169 1.22402608394623 1.320183634758 1.46533572673798 1.62841141223907 1.75612199306488 1.75110304355621 1.80086493492126 2.01327085494995 1.92972445487976 1.81573247909546 1.90879786014557 1.83681583404541 1.68085503578186 1.6196163892746 1.54872274398804 1.47932648658752 1.29079115390778 1.22300732135773 1.21225106716156 1.0118545293808 0.827650547027588 0.693874418735504 0.696550905704498 0.755649983882904 0.78291255235672 0.763795077800751 0.900927066802979 0.861096620559692 0.797346591949463 0.787177503108978 0.735015869140625 0.764308393001556 0.552844822406769 1.25305199623108 1.33295214176178 0.280112594366074 0.223042964935303 0.0796033293008804 -0.0192021206021309 -0.119565881788731 -0.159868717193604 -0.255373269319534 -0.362764298915863 -0.47584143280983 -0.558933794498444 -0.658052861690521 -0.694864273071289 0.707337319850922 3.27698731422424 4.54288673400879 2.99406361579895 2.59018349647522 2.2433180809021 2.23560237884521 2.08427214622498 2.02620220184326 2.02407693862915 2.2187511920929 2.14162373542786 2.06144905090332 1.99594271183014 1.85757100582123 1.72483551502228 1.61248433589935 1.51915860176086 1.41638708114624 1.63853168487549 1.42837929725647 1.28385996818542 1.23467099666595 1.19111013412476 1.22661888599396 1.41117691993713 1.8859144449234 2.27605080604553 2.82358264923096 3.29049491882324 3.89147400856018 5.10760974884033 2.94537305831909 2.25231170654297 2.66740250587463 2.76136040687561 4.76806879043579 6.16332387924194 6.34167766571045 7.18945980072021 5.81300926208496 5.3943018913269 4.8849081993103 4.36057281494141 4.33554553985596 5.31364917755127 5.54211616516113 6.73379564285278 9.09394359588623 7.86975431442261 7.10657215118408 8.58699226379395 8.06978988647461 6.9840521812439 6.74496412277222 6.4047384262085 6.13431262969971 5.64393329620361 5.42031812667847 5.22843980789185 5.04078197479248 4.89499950408936 4.98075008392334 5.22309494018555 5.21024131774902 5.09904146194458 5.03757524490356 5.18868112564087 5.49589109420776 5.56437349319458 5.50539541244507 5.56872749328613 5.60789012908936 6.05163764953613 6.79009008407593 7.47440910339355 8.16513633728027 9.58416938781738 9.73599243164062 9.53704738616943 9.41402149200439 9.04378414154053 9.03423404693604 8.78371238708496 8.60271453857422 8.39047718048096 8.20775318145752 7.9072322845459 7.58516550064087 7.15487432479858 6.69965887069702 6.33675909042358 5.93402719497681 5.47036123275757 5.10336112976074 4.81288051605225 4.57594680786133 4.45899105072021 4.18792390823364
0.918988227844238 0.845565915107727 0.858071267604828 0.807583272457123 0.676327049732208 0.533714711666107 0.371602296829224 0.28421226143837 0.151355937123299 -0.00504516158252954 -0.0705358982086182 -0.120919451117516 1.3961945772171 5.6955189704895 6.07905149459839 4.80605268478394 4.15118408203125 3.43522572517395 2.92802309989929 2.61513257026672 1.80352449417114 0.810956239700317 1.07440364360809 1.36364209651947 1.40858578681946 1.35198652744293 1.52769589424133 1.75297558307648 1.76327037811279 1.88127291202545 1.96067774295807 2.21142673492432 2.12448668479919 1.98795104026794 2.12871766090393 2.05400800704956 1.84154951572418 1.77204310894012 1.71519410610199 1.63023328781128 1.44536566734314 1.35291361808777 1.316779255867 1.09524273872375 0.897871017456055 0.864033997058868 0.706432223320007 0.733855903148651 0.812641799449921 0.835380852222443 0.985920369625092 0.948493540287018 0.865091979503632 0.816441833972931 0.790532052516937 0.654193043708801 0.627876579761505 0.546265840530396 0.430500000715256 0.703338921070099 1.39377152919769 0.865655660629272 0.143704995512962 0.0437966510653496 -0.0417004078626633 -0.127044215798378 -0.215291723608971 -0.292501479387283 -0.405849426984787 -0.475779145956039 -0.565747320652008 -0.662361919879913 -0.718158066272736 -0.759862124919891 1.03333175182343 4.02108144760132 2.97759175300598 2.4675567150116 2.39949440956116 2.54967737197876 2.4768123626709 2.52080488204956 2.30473828315735 2.19571137428284 2.14412689208984 2.06456398963928 2.10774183273315 1.9228196144104 1.7532696723938 1.56017446517944 1.46840953826904 1.48006212711334 1.99396550655365 1.87672865390778 1.84078550338745 1.47680270671844 1.3856383562088 1.24722301959991 1.21840155124664 1.22296345233917 1.55612432956696 2.2013726234436 3.2771315574646 3.98953413963318 5.19151496887207 2.5969135761261 2.08538174629211 1.97644519805908 2.09240436553955 2.27501893043518 5.6146993637085 6.40644645690918 7.58090496063232 5.90303802490234 5.10173034667969 5.06857967376709 4.42428350448608 4.29866123199463 6.09824657440186 3.43528127670288 6.02757406234741 7.76632070541382 8.1226863861084 7.51006984710693 8.78073978424072 9.60949325561523 8.69279193878174 7.58990669250488 6.83348178863525 6.47531843185425 5.65171718597412 5.40143823623657 5.12636280059814 6.07607936859131 5.94250249862671 6.2584433555603 5.96920251846313 6.06911039352417 5.70968294143677 5.76499605178833 6.0313835144043 6.1820821762085 6.36386442184448 6.33764171600342 6.68880176544189 7.21576166152954 7.50659084320068 9.33418083190918 10.9050359725952 11.0800180435181 10.7139158248901 10.5727224349976 10.1700525283813 10.3394775390625 9.79896545410156 9.70675849914551 9.39846992492676 9.13319492340088 8.76166534423828 8.40458393096924 7.8958683013916 7.32447576522827 6.91922998428345 6.4609694480896 5.88501310348511 5.55856561660767 5.28550291061401 4.86747312545776 4.74392318725586 4.48230123519897 4.12094211578369 3.85661029815674
1.125403881073 1.03684103488922 0.958068430423737 0.888908565044403 0.748218536376953 0.643807411193848 0.522413313388824 0.35036513209343 0.239149793982506 0.082526832818985 -0.028918381780386 -0.0511855147778988 0.648452520370483 4.9024829864502 7.09071636199951 6.1350417137146 4.53615570068359 3.84373044967651 2.48479342460632 2.23657011985779 1.35803365707397 1.66513323783875 1.7601455450058 1.72219967842102 1.68241500854492 1.93972957134247 1.8710765838623 2.00398969650269 2.00621819496155 2.05898427963257 2.60357356071472 3.11252784729004 2.91289091110229 2.62482810020447 2.39835643768311 1.93457317352295 1.8524626493454 1.71808755397797 1.71675133705139 1.51597785949707 1.41004824638367 1.16936159133911 0.94855934381485 0.92407101392746 0.789895474910736 0.807679057121277 0.886510789394379 0.904862940311432 0.874354064464569 1.04748225212097 0.955203175544739 0.911288797855377 0.85377424955368 0.706187963485718 0.696369349956512 0.565740406513214 0.485089331865311 0.487696558237076 0.283964782953262 0.306053459644318 0.921847105026245 1.4302134513855 0.583668291568756 0.0398733988404274 -0.058731384575367 -0.15140837430954 -0.255898863077164 -0.320679634809494 -0.391465812921524 -0.468046903610229 -0.545812845230103 -0.685351848602295 0.500186860561371 -0.840446472167969 -0.856456935405731 -0.224472403526306 2.48659825325012 2.620934009552 2.35356903076172 2.85060667991638 3.07619881629944 2.7684338092804 2.55234980583191 2.23359513282776 2.06055212020874 2.48651146888733 2.77033233642578 2.53276824951172 2.09540414810181 1.65115392208099 1.41026711463928 1.27208089828491 1.82599294185638 1.81071758270264 2.00015926361084 2.03458118438721 1.74658334255219 1.3799524307251 1.3677065372467 1.24924409389496 1.1787918806076 1.6824061870575 3.40528011322021 4.08110284805298 4.48951387405396 2.3774049282074 2.23030805587769 2.10069036483765 1.91851663589478 1.8209525346756 1.99307799339294 5.42507076263428 6.26620769500732 6.04736566543579 5.26609897613525 4.48651027679443 4.00482130050659 4.28306245803833 5.78245401382446 2.78663325309753 4.59021520614624 5.98735380172729 7.28906297683716 8.17231369018555 8.37109375 9.38596343994141 9.32137584686279 8.7742862701416 8.30673503875732 6.55454730987549 5.92391395568848 5.19468879699707 5.1573691368103 6.34347105026245 6.41830348968506 7.84359264373779 8.0366268157959 7.05318593978882 6.80619287490845 7.22124290466309 7.1829686164856 7.53818655014038 8.22574329376221 8.86857795715332 8.81817531585693 9.71651268005371 10.2767505645752 11.9253091812134 12.1924562454224 12.038966178894 11.5913534164429 11.1554536819458 11.294527053833 11.0851669311523 10.7554731369019 10.3047437667847 9.88076114654541 9.41817665100098 8.91033935546875 8.41676902770996 7.73123359680176 7.13347625732422 6.43026638031006 6.01022100448608 5.70549917221069 5.36446380615234 5.05943441390991 4.8040828704834 4.41937351226807 4.10438823699951 3.85824537277222 3.70165491104126
1.19995582103729 1.14888000488281 1.09759294986725 1.095254778862 1.07412302494049 0.92669665813446 0.826215207576752 0.598501563072205 0.360448956489563 0.210472613573074 0.0966289639472961 -0.079773873090744 -0.0285333078354597 1.83449411392212 6.57908296585083 6.40505409240723 4.29352617263794 3.20030164718628 1.29066038131714 1.79046404361725 2.22785115242004 2.08073830604553 2.06547856330872 2.14109945297241 2.0790753364563 2.20768785476685 2.2025625705719 2.18304395675659 2.41335201263428 2.3027081489563 2.12406992912292 2.27395439147949 2.05725049972534 1.98997116088867 1.92357039451599 1.83757925033569 1.81623363494873 1.59360480308533 1.50958609580994 1.47183382511139 1.22317206859589 0.979405164718628 0.877183139324188 0.903895199298859 0.971900165081024 0.990602552890778 0.965596735477448 1.1530567407608 1.09956383705139 0.991718769073486 0.951971411705017 0.794751465320587 0.743115842342377 0.625815033912659 0.525729417800903 0.44564488530159 0.667218148708344 0.295564353466034 0.301272243261337 0.17097507417202 0.449082791805267 1.20709478855133 1.42790627479553 0.411798864603043 -0.0535329170525074 -0.162428617477417 -0.215676158666611 -0.304063081741333 -0.375895798206329 -0.456624001264572 -0.530607640743256 -0.777212619781494 -0.78548127412796 -0.826061725616455 -0.55151230096817 -0.88382762670517 2.71798300743103 4.2052788734436 2.96704292297363 2.44314408302307 2.93135023117065 3.05304408073425 2.84003090858459 2.27317500114441 1.91360068321228 2.14088582992554 2.49917984008789 2.84474277496338 2.69761824607849 2.22395157814026 1.59241545200348 1.39437973499298 1.45356452465057 1.87875497341156 2.63237547874451 2.16491341590881 1.99802720546722 1.58287024497986 1.48770689964294 1.33965528011322 1.57408547401428 1.72905087471008 2.80889749526978 4.15822887420654 4.16254186630249 2.33566427230835 2.10633659362793 2.06194353103638 1.93562269210815 1.7094509601593 1.58435845375061 7.80539655685425 6.78711891174316 5.25094509124756 4.99205636978149 4.18351888656616 3.48925304412842 3.81948161125183 4.82560062408447 3.34017992019653 4.5595498085022 4.56746816635132 4.11639070510864 5.786536693573 8.31844329833984 9.23006725311279 8.6162281036377 8.74836826324463 8.81335067749023 7.26781129837036 6.20400142669678 5.72329521179199 5.40035581588745 6.5961742401123 6.81988096237183 8.18332958221436 8.77091884613037 9.05045509338379 9.04447364807129 9.88400554656982 10.7578468322754 9.74704647064209 10.6552782058716 11.8982639312744 12.6098365783691 14.0620279312134 14.2950048446655 13.5759220123291 13.1215925216675 12.8301610946655 13.3332347869873 12.4244546890259 12.112756729126 11.756739616394 11.2881593704224 10.69251537323 9.96601295471191 9.40373992919922 8.66567707061768 8.14959812164307 7.61848545074463 6.83558702468872 6.25120782852173 5.82250547409058 5.46371078491211 5.19618368148804 5.01524019241333 4.61814165115356 4.12528657913208 3.93947172164917 3.84700775146484 3.88899350166321
1.33205950260162 1.33776414394379 1.36893928050995 1.28839766979218 1.27731871604919 1.21207857131958 1.00583899021149 0.814623296260834 0.572149276733398 0.295460283756256 0.256317585706711 0.145196586847305 0.0627843737602234 0.125672847032547 2.44997048377991 4.0017204284668 2.0401668548584 2.69795060157776 3.5307629108429 2.98333764076233 2.85988092422485 2.53200268745422 2.33540964126587 2.42689490318298 2.3572940826416 2.32219791412354 2.64935851097107 2.44059181213379 2.24032783508301 2.43123364448547 2.34772682189941 2.12769746780396 2.05203700065613 1.9424239397049 1.88929629325867 1.67604875564575 1.56872582435608 1.54428052902222 1.30664587020874 1.08499300479889 1.03108561038971 0.995232760906219 1.09251356124878 1.10493433475494 1.07282090187073 1.26372134685516 1.20459723472595 1.08763122558594 1.05689406394958 1.00852155685425 0.82471114397049 0.690299272537231 0.580680549144745 0.518297374248505 0.310609817504883 0.295931667089462 0.463390082120895 0.151292815804482 0.230702579021454 0.126891180872917 0.334190279245377 0.541708946228027 1.17599546909332 1.23352038860321 0.264961361885071 -0.0936765372753143 -0.194189041852951 -0.25868883728981 -0.354282379150391 -0.441968858242035 -0.51225870847702 -0.788788080215454 -0.815304338932037 -0.848990917205811 -0.0515615753829479 -0.985008537769318 -0.612833142280579 2.98345851898193 2.90097308158875 2.52137303352356 2.3669695854187 2.74961280822754 2.51315927505493 2.26369667053223 1.78779172897339 1.79321277141571 1.81207811832428 2.32884073257446 2.53484082221985 2.50564885139465 1.85047340393066 1.6672443151474 1.60685515403748 1.80864286422729 2.05117416381836 2.04017639160156 2.24626922607422 1.8584725856781 1.74171960353851 1.87650775909424 1.95276927947998 2.14494967460632 2.12291193008423 3.48794436454773 4.564377784729 2.22472381591797 2.15479731559753 1.93947672843933 1.76835680007935 1.6343594789505 1.3228006362915 5.00062894821167 7.14057350158691 5.32223892211914 3.91163921356201 3.3226912021637 2.79708480834961 2.723717212677 3.66275262832642 2.69284749031067 3.48601961135864 3.70956087112427 3.53312492370605 3.45074772834778 6.43923044204712 8.97761249542236 8.80380535125732 8.56961441040039 8.95303249359131 9.10769367218018 7.13589429855347 6.48392057418823 6.32013177871704 6.67096948623657 6.81952857971191 8.32300090789795 9.56331539154053 11.4769010543823 12.1413221359253 12.5994024276733 13.2282238006592 13.991156578064 14.9971017837524 16.5428333282471 16.9782390594482 16.2127418518066 15.4374294281006 15.6750993728638 16.1868114471436 14.8747053146362 14.2104349136353 13.7915573120117 12.9258222579956 12.3170528411865 11.2965469360352 10.6563911437988 9.78274822235107 9.09398651123047 8.52691745758057 7.65644836425781 7.08156204223633 6.47091817855835 6.01027965545654 5.68968391418457 5.42524337768555 4.98726987838745 4.55631446838379 4.19585275650024 4.09108400344849 4.14003038406372 4.42080879211426 4.34202146530151
1.54930889606476 1.57639229297638 1.5731703042984 1.51644766330719 1.39501392841339 1.36947965621948 1.22147727012634 0.960612237453461 0.567529916763306 0.444878458976746 0.400576055049896 0.327399015426636 0.240537792444229 0.318674355745316 0.828437447547913 3.98910140991211 8.13926219940186 7.11712026596069 4.33312749862671 3.85164856910706 3.20212554931641 2.89074349403381 2.56506180763245 2.68909764289856 2.92885255813599 2.87039661407471 2.62173056602478 2.66500163078308 2.55063700675964 2.29766035079956 2.22486686706543 2.14346218109131 2.0178804397583 1.8065493106842 1.68797159194946 1.64432561397552 1.37734532356262 1.15108633041382 1.08719539642334 1.01288557052612 1.05203866958618 1.15480196475983 1.20468103885651 1.39050245285034 1.33037734031677 1.20629811286926 1.16752588748932 1.10648965835571 0.914033353328705 0.881645143032074 0.748923778533936 0.557601273059845 0.369427084922791 0.350984692573547 0.180487856268883 0.388319075107574 0.104545995593071 0.170873329043388 0.28119096159935 0.0624795481562614 0.297041565179825 0.387208312749863 0.553337752819061 1.26875054836273 1.03902888298035 0.163058638572693 -0.143807753920555 -0.205338329076767 -0.290845602750778 -0.413472920656204 -0.530478894710541 -0.767157793045044 -0.828976988792419 -0.859820127487183 -0.298152357339859 -0.226297989487648 -1.04829835891724 -0.144547268748283 0.331254363059998 1.2235951423645 2.0523316860199 2.28730535507202 2.3140766620636 2.27952265739441 1.69091844558716 1.6454131603241 1.52040088176727 1.7618887424469 2.04373621940613 2.21937012672424 2.08490872383118 2.46306371688843 1.59546601772308 1.4835079908371 1.59169209003448 1.66679072380066 1.99095547199249 1.7824627161026 2.13375353813171 2.35863542556763 2.24731349945068 2.43547058105469 2.37719082832336 2.38579225540161 4.21947860717773 3.75042963027954 2.09394979476929 1.87582075595856 1.62969374656677 1.49409997463226 1.29136085510254 1.22529542446136 5.94367790222168 4.54552412033081 3.36278629302979 2.92192435264587 1.98084831237793 1.94757831096649 2.51391124725342 2.1611053943634 2.54696846008301 2.94713068008423 2.79534244537354 2.77008175849915 3.08756399154663 4.41567134857178 6.35412883758545 7.20050764083862 6.81438589096069 7.88175344467163 6.2590765953064 6.65458822250366 7.26534986495972 8.29900741577148 9.57426643371582 10.9323701858521 12.1330223083496 12.7406959533691 13.5528936386108 14.8512697219849 14.5986986160278 17.9455757141113 19.4918594360352 17.9645233154297 18.7075328826904 16.4784336090088 17.2077884674072 18.6141891479492 17.3547477722168 16.7611999511719 15.3563976287842 14.3917808532715 13.4898061752319 12.243504524231 11.2627944946289 10.2722692489624 9.64530372619629 8.67322158813477 7.90385866165161 7.3630838394165 6.78063917160034 6.19409990310669 5.97355508804321 5.47575712203979 4.94799089431763 4.57729053497314 4.36921310424805 4.40347814559937 4.70394706726074 4.85686254501343 5.43791818618774 5.4217324256897
1.75225079059601 1.66684484481812 1.64865338802338 1.65725553035736 1.5866984128952 1.43910384178162 1.30383157730103 0.947405695915222 0.68026214838028 0.675868153572083 0.822395980358124 0.98423707485199 4.1335244178772 6.22677230834961 4.02113914489746 2.59498476982117 4.37051010131836 5.92251110076904 6.83955478668213 4.49047040939331 3.76754093170166 3.17953062057495 2.85475063323975 3.22558450698853 2.92089867591858 3.21203708648682 2.92974638938904 2.52125954627991 2.42190980911255 2.33067870140076 2.17642021179199 2.11163592338562 1.8822329044342 1.7685182094574 1.4861307144165 1.30646908283234 1.26038336753845 1.14917004108429 1.18482494354248 1.27256166934967 1.30405390262604 1.25591742992401 1.48018395900726 1.34222686290741 1.28519654273987 1.22051572799683 1.00757598876953 0.980239808559418 0.83473014831543 0.691508293151855 0.604125380516052 0.396168231964111 0.255230963230133 0.179002776741982 0.110375225543976 0.400885313749313 0.0313133597373962 0.189071357250214 0.334622532129288 0.00168976339045912 0.267967641353607 0.407762408256531 0.345153242349625 0.656652212142944 0.953540563583374 0.764076590538025 0.120812349021435 -0.16382309794426 -0.247459784150124 -0.382603198289871 -0.527548551559448 -0.740167737007141 -0.907527446746826 -0.993898689746857 -1.03428077697754 -0.442862540483475 0.40324205160141 0.403292149305344 0.515553712844849 0.527250170707703 1.30891311168671 1.78845536708832 1.87195241451263 2.12445878982544 1.86090421676636 1.5603905916214 1.49289071559906 1.53459000587463 1.78751933574677 2.19540238380432 2.13074803352356 2.32391285896301 2.17252349853516 1.84863042831421 1.73118126392365 1.83130013942719 2.1034107208252 2.14881992340088 2.44790530204773 2.64479613304138 2.53682708740234 2.34932661056519 2.40355968475342 2.34118127822876 2.23553657531738 3.65382528305054 2.10711240768433 1.78495109081268 1.64654970169067 1.37899589538574 1.22690713405609 1.12801599502563 5.14214420318604 3.78631591796875 2.5080783367157 2.53526496887207 2.008953332901 2.21566414833069 2.39262700080872 2.63888335227966 2.63921451568604 2.80712342262268 2.83011388778687 2.88213467597961 3.23912930488586 3.23832058906555 4.4497766494751 6.35525465011597 7.14452028274536 9.36245632171631 8.54259967803955 8.82811260223389 9.04028129577637 9.17398834228516 10.1597270965576 12.704273223877 16.8467979431152 16.8688545227051 15.8520956039429 17.3728580474854 18.2569961547852 22.5129814147949 28.573709487915 20.9924793243408 18.811897277832 20.9828033447266 19.8803005218506 19.3847675323486 19.3773078918457 17.4480628967285 15.9343814849854 14.3052415847778 13.348464012146 12.2813272476196 10.9763107299805 9.93530082702637 8.94259357452393 8.18358612060547 7.54642915725708 7.0256552696228 6.58250904083252 6.04315948486328 5.42562627792358 4.99692440032959 4.7420539855957 4.60156011581421 4.93025922775269 5.53832626342773 6.15224313735962 6.05343866348267 6.62930870056152 6.31498765945435
2.02953052520752 1.87777030467987 1.81251931190491 1.73370122909546 1.56767964363098 1.55901789665222 1.22218561172485 1.19630348682404 1.10964941978455 1.23107349872589 1.15748834609985 0.926112592220306 1.03599011898041 1.20593571662903 1.31974303722382 1.74622344970703 2.76522469520569 4.21114921569824 5.77351379394531 5.66585874557495 4.36676216125488 3.58393001556396 3.40274524688721 3.19243502616882 3.45107412338257 3.06631350517273 2.72474527359009 2.57653546333313 2.38130521774292 2.29978370666504 2.02588033676147 1.88639402389526 1.84327876567841 1.54936027526855 1.4174097776413 1.30797898769379 1.35558485984802 1.49201643466949 1.53140473365784 1.4405072927475 1.66946578025818 1.57960796356201 1.4144424200058 1.35672116279602 1.12777602672577 1.08748114109039 0.919038236141205 0.773109555244446 0.695749461650848 0.466197669506073 0.423927396535873 0.258993893861771 0.162644863128662 0.0665938779711723 0.0531300753355026 0.00240514590404928 0.0108377858996391 0.527964890003204 0.227520272135735 -0.0438145063817501 0.0411488078534603 0.168893173336983 0.335503906011581 0.282348424196243 0.414552599191666 0.724277138710022 0.588851630687714 -0.0171258617192507 -0.225382253527641 -0.357694804668427 -0.535389482975006 -0.77951842546463 -0.942767798900604 -1.01088750362396 -1.06832432746887 -0.69096714258194 1.16154146194458 0.845624029636383 1.1274961233139 1.43536829948425 1.02336812019348 1.12270700931549 1.58008086681366 1.53101861476898 1.61963403224945 1.51647222042084 1.17634308338165 0.890222907066345 1.57277429103851 1.28112769126892 1.05142736434937 1.47279345989227 1.68835127353668 1.84516632556915 2.09253931045532 2.21863126754761 2.54083800315857 2.45915293693542 2.72050285339355 2.50678730010986 2.55038547515869 2.46229076385498 2.32726883888245 2.19055080413818 2.12153840065002 1.98569774627686 2.71221971511841 1.84359264373779 1.55127286911011 1.33871555328369 1.10358464717865 1.18049383163452 2.58540296554565 1.89958417415619 2.08232355117798 2.35308384895325 2.46915364265442 2.78177928924561 2.79989838600159 2.95395994186401 2.96922302246094 2.87023091316223 2.90309500694275 2.83624982833862 2.75518536567688 2.54125547409058 2.43967962265015 3.75055456161499 7.42686414718628 11.7351179122925 12.2609987258911 11.0677785873413 9.84087657928467 9.31212902069092 9.82570362091064 13.439769744873 20.9180068969727 26.199987411499 24.3974685668945 23.518102645874 19.8510646820068 19.0305805206299 22.1737251281738 25.6961898803711 23.5003471374512 21.5008316040039 22.1092109680176 21.2258529663086 19.8604602813721 17.5935077667236 15.6930046081543 14.5220403671265 12.7256011962891 11.8307571411133 10.5742683410645 12.9976396560669 11.4724941253662 8.28999519348145 8.92219066619873 7.29041337966919 6.4121527671814 5.9879846572876 5.79498815536499 5.49349021911621 5.55486011505127 5.42202711105347 6.10444116592407 6.91822147369385 7.53266382217407 7.13068532943726 7.41287326812744 7.07190608978271
2.23431205749512 2.1314959526062 2.02107501029968 1.93721032142639 1.76838397979736 1.41198062896729 1.49394905567169 1.60957813262939 1.53388619422913 1.40287172794342 1.37363398075104 1.2579540014267 1.73240387439728 1.67275595664978 1.9356175661087 2.25626707077026 2.56678223609924 3.35615015029907 4.52688503265381 5.29023361206055 4.41519212722778 4.06000661849976 3.77523398399353 3.64424467086792 3.30276799201965 3.08667230606079 2.66693186759949 2.53628253936768 2.23096036911011 2.05711603164673 1.9846705198288 1.67088639736176 1.59967219829559 1.49769377708435 1.54757940769196 1.70299768447876 1.75669765472412 1.66764545440674 1.91002261638641 1.81519782543182 1.61620438098907 1.56253802776337 1.48130762577057 1.21493113040924 1.04360926151276 0.861662983894348 0.773062527179718 0.526346623897552 0.492551118135452 0.319717913866043 0.266011029481888 0.18470823764801 0.0780518725514412 0.0810592398047447 0.0641187131404877 -0.00952214561402798 0.0933092013001442 0.498716562986374 0.0848215147852898 -0.072496734559536 0.0165850967168808 -0.0218011438846588 0.353585541248322 0.313838690519333 0.294182449579239 0.323559284210205 0.608216524124146 0.324371784925461 -0.207643076777458 -0.344263792037964 -0.493108958005905 -0.720861256122589 -0.872461974620819 -1.00859236717224 -1.08803629875183 -1.10630071163177 0.300557464361191 1.03572642803192 0.827400684356689 1.11440312862396 1.05023968219757 0.760612428188324 0.963766932487488 1.20013344287872 0.942145645618439 1.10210168361664 1.32814431190491 0.796506643295288 1.33649516105652 1.09430944919586 1.20230543613434 1.91533827781677 2.22483277320862 2.34617447853088 2.68223524093628 2.56449794769287 2.83363318443298 2.74403667449951 2.56355667114258 2.62737393379211 2.45757532119751 2.29589104652405 2.24513578414917 2.04486083984375 1.986083984375 1.97032237052917 2.48490142822266 1.84043824672699 1.78612327575684 1.68522846698761 1.60509395599365 1.70335757732391 1.88294589519501 2.06932020187378 2.55538845062256 2.91584348678589 2.97122740745544 3.16316795349121 3.19740200042725 3.06174063682556 3.13050198554993 3.00145888328552 2.90639877319336 2.67163109779358 2.57063245773315 2.35616421699524 2.23369240760803 1.97200441360474 1.78644442558289 6.72149658203125 9.34195423126221 9.56540966033936 8.83948707580566 7.53386116027832 7.83240652084351 19.5370655059814 30.02170753479 32.9868774414062 31.2433319091797 22.5284519195557 23.7319602966309 35.9852180480957 34.0156669616699 27.2077789306641 27.1646194458008 24.7904167175293 22.5391292572021 21.4734992980957 20.1207904815674 17.7344760894775 15.0770826339722 13.9924945831299 12.5037717819214 10.3724966049194 8.83543586730957 9.54381465911865 15.4202680587769 12.7495164871216 9.877610206604 8.07078266143799 7.05560970306396 6.71848773956299 6.85663890838623 6.59208154678345 7.30976486206055 8.08427047729492 7.61516952514648 8.29366016387939 8.44811916351318 7.98851346969604 7.58155727386475 7.23240327835083
2.50941061973572 2.38308668136597 2.29263043403625 2.0364408493042 1.76925349235535 1.92206835746765 1.92218410968781 2.27675104141235 2.49684906005859 2.29991817474365 2.83072137832642 2.33683657646179 2.40706038475037 2.75479364395142 2.4195921421051 2.56740641593933 2.93340229988098 3.83291554450989 4.31501817703247 4.65683794021606 4.7141318321228 4.23510599136353 4.15781688690186 3.89360046386719 3.67413425445557 3.4311797618866 2.92032027244568 2.55085253715515 2.25599694252014 2.06553673744202 1.83282053470612 1.77812039852142 1.68133890628815 1.70350480079651 1.88496088981628 1.92583358287811 2.19922256469727 2.0731372833252 1.83783960342407 1.77181828022003 1.6862336397171 1.43058788776398 1.32643628120422 1.14481317996979 0.91953718662262 0.639095187187195 0.582471430301666 0.376738637685776 0.321283519268036 0.218541711568832 0.143168821930885 0.122417241334915 0.103492118418217 0.110082782804966 0.0746011212468147 0.0152726406231523 0.426539182662964 0.266385674476624 0.030513871461153 -0.111646987497807 -0.0787974819540977 -0.111207909882069 0.0945455953478813 0.191911175847054 0.26088747382164 0.218936964869499 0.363099634647369 0.559354960918427 0.0621153376996517 -0.323046535253525 -0.479205548763275 -0.659037888050079 -0.870431840419769 -1.00239050388336 -1.08708834648132 -1.12541997432709 -1.13589811325073 0.0660312622785568 1.02543294429779 0.886293530464172 0.951503157615662 0.826261162757874 0.892577946186066 0.799143552780151 0.922103703022003 1.0931990146637 1.04349672794342 0.921201586723328 1.31302213668823 1.56301915645599 1.9944314956665 2.57114410400391 2.95762968063354 2.80134677886963 3.05614471435547 2.93056893348694 2.70268392562866 2.76993274688721 2.69102644920349 2.52979159355164 2.35489988327026 2.12562704086304 2.08958220481873 2.03480529785156 1.81969141960144 1.92231714725494 2.22159814834595 2.33775734901428 2.28872156143188 2.33195972442627 2.23433065414429 2.33817529678345 2.54088830947876 2.63698983192444 2.97492051124573 3.3459300994873 3.43394947052002 3.32370066642761 3.41566157341003 3.25490522384644 3.14697027206421 3.00421977043152 2.75086641311646 2.5083966255188 2.39823174476624 2.18899893760681 2.04438638687134 1.74773359298706 1.49854290485382 1.38801121711731 3.83370399475098 4.8997597694397 3.55809497833252 2.59330749511719 0.128130406141281 8.55267906188965 12.3473596572876 16.7509956359863 20.7650508880615 13.4709253311157 9.65223503112793 20.660816192627 33.4935646057129 31.9949626922607 28.4013671875 26.1096591949463 24.2543296813965 21.5707206726074 19.9371185302734 16.9529876708984 15.2136363983154 12.2907314300537 10.8891687393188 9.04107093811035 7.59794473648071 6.87346076965332 10.6244716644287 14.9334993362427 11.8480920791626 8.92556285858154 7.84924745559692 7.87460374832153 8.95185375213623 9.98070621490479 9.16465759277344 9.9010066986084 9.17889404296875 9.3099193572998 8.65340805053711 8.22585487365723 7.80881261825562 6.91970777511597
3.58946204185486 3.06721258163452 2.16012477874756 2.28887462615967 2.43312501907349 2.37407541275024 2.66734457015991 3.08483219146729 3.49842214584351 3.73714256286621 3.62230944633484 3.90001177787781 3.26424956321716 3.15860366821289 2.95117855072021 2.80958271026611 3.50031065940857 4.34206438064575 5.5695595741272 5.22253847122192 4.92391061782837 4.75881624221802 4.44952392578125 4.71990776062012 4.22469806671143 4.0728063583374 3.29586911201477 2.72254943847656 2.27244997024536 2.15230083465576 2.07838296890259 2.03031444549561 2.23239517211914 2.30975008010864 2.15167570114136 2.40518832206726 2.15178656578064 2.03024315834045 1.92381370067596 1.58098578453064 1.53616285324097 1.36862301826477 1.07063615322113 0.983951568603516 0.713896036148071 0.541665852069855 0.452007263898849 0.325669705867767 0.197532057762146 0.146082133054733 0.141678139567375 0.13817110657692 0.117283292114735 0.12552011013031 0.0954298377037048 0.0484037511050701 0.413161724805832 -0.0128012420609593 -0.00713825691491365 0.0164151694625616 -0.143583223223686 -0.0477557964622974 0.0285047274082899 0.245027139782906 0.233745351433754 0.238449245691299 0.222474232316017 0.318214237689972 0.330693691968918 -0.230431914329529 -0.451129198074341 -0.595622658729553 -0.784910023212433 -0.964893519878387 -1.04560565948486 -1.07258439064026 -1.09968841075897 0.0449932254850864 1.2699863910675 1.06590390205383 1.16707861423492 0.998988211154938 1.2211252450943 0.938124299049377 0.835240662097931 1.07213282585144 1.53297483921051 1.7410888671875 2.24254012107849 2.68406081199646 2.73159837722778 3.12797403335571 3.3800904750824 3.20985674858093 2.92954778671265 2.99139809608459 2.86554098129272 2.68373656272888 2.5034167766571 2.41133213043213 2.16971039772034 2.09506440162659 1.8983701467514 1.99247550964355 1.94337224960327 2.21111106872559 2.5937647819519 2.8665726184845 2.90165495872498 2.90356922149658 3.08699250221252 3.10902547836304 3.37968277931213 3.34325480461121 3.51786756515503 3.59483528137207 3.71254467964172 3.56571340560913 3.44899106025696 3.29416990280151 2.99472093582153 2.856276512146 2.59294724464417 2.36717700958252 2.2659764289856 2.12627100944519 2.01716756820679 1.73774528503418 1.49653828144073 1.34578967094421 1.20452296733856 1.06902468204498 0.763324558734894 0.269890129566193 -0.859241604804993 -1.04985928535461 6.85091495513916 12.6846551895142 14.7549781799316 11.1197748184204 9.57963943481445 11.2632598876953 22.6674098968506 30.3283367156982 31.9115695953369 26.3334007263184 24.3211727142334 21.566234588623 18.9313182830811 17.2005176544189 13.5887384414673 10.5438709259033 8.95524978637695 7.74860572814941 6.60651683807373 7.61496591567993 8.30959129333496 13.0018491744995 12.3412599563599 10.4744968414307 10.2125024795532 10.2909498214722 11.5168657302856 12.135778427124 11.1651487350464 11.0885715484619 10.2931575775146 9.50931644439697 9.04697608947754 7.88093376159668 7.46710062026978 6.96539449691772
2.57474279403687 2.80174040794373 3.22418069839478 3.11005830764771 3.54762744903564 4.01952695846558 4.21525049209595 5.58933115005493 5.0675687789917 4.43039417266846 4.85725069046021 4.50006532669067 4.11936521530151 3.54610824584961 3.98797702789307 3.49444031715393 3.20937061309814 3.77625274658203 5.89610528945923 6.69795417785645 5.12072086334229 5.61124897003174 5.28152751922607 5.20858812332153 4.73381853103638 4.19411373138428 3.59620237350464 3.29554176330566 2.96518325805664 2.63341498374939 2.84829163551331 2.90006899833679 2.65954566001892 2.89768004417419 2.6739387512207 2.37761616706848 2.24060392379761 1.81063330173492 1.74357962608337 1.53495025634766 1.32527768611908 1.11732161045074 0.767163693904877 0.765718042850494 0.564670085906982 0.419659733772278 0.329054355621338 0.29414701461792 0.204893171787262 0.168964609503746 0.167499005794525 0.143701374530792 0.139666065573692 0.132259547710419 0.124034412205219 0.0981237813830376 0.0675426200032234 0.014298745431006 0.0829254314303398 -0.0544993281364441 -0.125843316316605 0.0853112787008286 0.0443170703947544 0.162054419517517 0.115706324577332 0.254000514745712 0.282156884670258 0.290839850902557 0.407801061868668 0.00552874151617289 -0.339414238929749 -0.426107734441757 -0.571622967720032 -0.811590790748596 -0.98694235086441 -0.973689615726471 -1.02150905132294 0.312438100576401 2.02180814743042 1.60225129127502 1.64573299884796 1.30286717414856 1.20179462432861 1.43815398216248 1.32226514816284 1.69549798965454 2.7385413646698 3.20017218589783 3.12702870368958 3.61254835128784 3.36387944221497 3.60135841369629 3.19656586647034 3.18291115760803 3.15032744407654 2.88794851303101 2.86768507957458 2.56907391548157 2.46322178840637 2.2062554359436 2.13840532302856 2.14082264900208 2.08373403549194 2.30746603012085 2.48073053359985 2.65842127799988 2.99441719055176 3.36783862113953 3.75922012329102 3.78311634063721 4.05461311340332 3.9953179359436 4.02912139892578 4.03825044631958 3.845778465271 3.93366241455078 3.79622292518616 3.62844705581665 3.30326437950134 3.14797735214233 2.8381359577179 2.71434831619263 2.48259401321411 2.30720496177673 2.24674606323242 2.15862250328064 2.09220552444458 1.82857310771942 1.51374650001526 1.31442213058472 1.15688991546631 0.878666162490845 0.416886270046234 -0.260426312685013 -1.1030136346817 -1.53157389163971 -1.55165302753448 4.93055772781372 9.59321880340576 8.88828754425049 7.6703314781189 8.10974979400635 13.4129028320312 27.1334381103516 33.2392311096191 29.5144519805908 23.9181213378906 21.8128528594971 17.1112422943115 15.4726972579956 12.4934320449829 9.24501419067383 7.88955736160278 6.71433401107788 5.56022310256958 9.45952224731445 9.67796611785889 13.9190683364868 15.2935285568237 13.7313346862793 15.3955841064453 14.082181930542 13.9891405105591 13.5652780532837 12.4675903320312 11.4010972976685 10.7739791870117 10.0212879180908 8.67591857910156 8.05628871917725 6.83994722366333 6.4884033203125
5.947509765625 6.23094367980957 7.01190376281738 8.27986335754395 8.49856567382812 8.35805034637451 7.68642711639404 6.13527870178223 6.98577451705933 5.79972457885742 5.34950351715088 5.08642864227295 5.4754114151001 4.64211416244507 3.71986532211304 3.95521378517151 3.82704854011536 3.2657778263092 4.49519681930542 8.27752685546875 6.28049516677856 5.64571332931519 6.25536966323853 7.01796531677246 5.68697786331177 5.39619064331055 4.49694061279297 4.17341899871826 3.72267985343933 3.80752468109131 3.7735583782196 3.74803304672241 3.39823889732361 2.97999286651611 2.67317461967468 2.48807168006897 2.02294492721558 1.77470934391022 1.5252171754837 1.41807472705841 1.01029920578003 0.816404461860657 0.590110778808594 0.539495527744293 0.472738802433014 0.335690140724182 0.261597752571106 0.231817871332169 0.245287477970123 0.228759199380875 0.213431820273399 0.189725801348686 0.176806852221489 0.147115290164948 0.139120072126389 0.148655384778976 0.10298116505146 0.0892299339175224 0.237911686301231 -0.0406235195696354 -0.104952812194824 -0.149155125021935 0.00921501591801643 0.165850505232811 0.142158627510071 0.116210855543613 0.230128824710846 0.148808717727661 0.277192085981369 0.288487911224365 -0.137990519404411 -0.252321600914001 -0.443392068147659 -0.564840197563171 -0.807366192340851 -0.942392289638519 -0.9518723487854 -0.0174737572669983 2.49910283088684 2.29261922836304 2.13888907432556 2.26960420608521 2.13146734237671 2.30861210823059 2.6616382598877 3.07921934127808 3.81048345565796 4.46161222457886 3.93658018112183 4.01208877563477 3.7510871887207 3.33762860298157 3.24924993515015 2.9544689655304 4.30888080596924 3.79536271095276 3.16444849967957 2.70416283607483 2.39885878562927 2.1315586566925 2.19540357589722 2.45549631118774 2.72114849090576 2.85085320472717 3.14178347587585 3.35704517364502 3.54083132743835 4.23552560806274 4.80982208251953 4.77996873855591 4.74670648574829 4.75924015045166 4.47614145278931 4.47769641876221 4.22900247573853 4.04615354537964 3.67131757736206 3.48829174041748 3.13644909858704 2.99419188499451 2.73069190979004 2.60579252243042 2.42248964309692 2.36777853965759 2.35382390022278 2.25022840499878 2.03699159622192 1.83078491687775 1.59314799308777 1.36407220363617 1.15054214000702 0.717813014984131 0.149872973561287 -0.705279588699341 -1.1552277803421 -1.61251938343048 -1.79984939098358 -1.75670552253723 0.858612954616547 2.62721133232117 3.91805386543274 5.70161151885986 8.2008113861084 16.2690334320068 31.150857925415 30.0948066711426 23.5653820037842 18.7174835205078 16.3061199188232 13.6798725128174 10.7082595825195 8.39516925811768 6.55150079727173 5.18689155578613 6.65483617782593 12.910945892334 17.1406517028809 22.9497718811035 22.4451389312744 21.250955581665 18.6077690124512 17.0851917266846 15.6550130844116 14.3723859786987 13.2347631454468 12.1707935333252 10.3518714904785 9.64130306243896 8.93283367156982 7.54914617538452 6.2685718536377 5.76434803009033
7.43715047836304 8.41008949279785 7.84684419631958 13.4040184020996 15.7405424118042 10.208477973938 10.1885261535645 8.16827869415283 7.31728982925415 7.13547420501709 6.00757169723511 6.55968570709229 5.42732620239258 5.42919397354126 4.61829614639282 3.59242534637451 3.50838828086853 3.1826753616333 2.79971647262573 7.1449670791626 5.82633495330811 4.78381013870239 5.60035848617554 7.16326332092285 8.07260227203369 8.54012489318848 6.88934230804443 6.37470388412476 4.76304960250854 4.23657941818237 4.49180889129639 4.24183702468872 3.67585730552673 3.20193147659302 2.52654266357422 2.23913955688477 1.94113171100616 1.60145878791809 1.20731687545776 1.14153003692627 0.741064727306366 0.582807898521423 0.490759164094925 0.373403072357178 0.355710744857788 0.296106904745102 0.275148659944534 0.25323286652565 0.24241204559803 0.250963598489761 0.24115489423275 0.239644631743431 0.225460469722748 0.196141853928566 0.170539245009422 0.180292189121246 0.158890545368195 0.156486734747887 0.0862142294645309 0.000118178577395156 -0.0611885897815228 -0.0687350481748581 -0.0850987806916237 0.196267485618591 0.128083318471909 0.165454477071762 0.18510802090168 0.186360701918602 0.313829004764557 0.35786446928978 0.0995433330535889 -0.0705761983990669 -0.195659726858139 -0.406037718057632 -0.593767404556274 -0.827042937278748 -0.964237630367279 -0.976260364055634 1.25257897377014 3.55316853523254 3.50604581832886 3.21012353897095 4.25752592086792 4.23304271697998 4.90926504135132 4.37300586700439 5.0150203704834 5.02286243438721 4.34824800491333 3.74902558326721 3.71217012405396 3.48883461952209 3.10341119766235 2.61101770401001 3.92572069168091 3.76013612747192 3.06085705757141 2.69798493385315 2.65247678756714 2.37000870704651 2.56101059913635 3.07748746871948 3.46657395362854 3.68550586700439 3.83777022361755 4.42288112640381 4.72818517684937 5.14920711517334 5.47735452651978 5.53305006027222 5.21436405181885 5.1782431602478 4.90509080886841 4.64207553863525 4.38393545150757 3.94992542266846 3.49932885169983 3.3218936920166 3.01514673233032 2.87960386276245 2.66687512397766 2.60960221290588 2.50042223930359 2.48642015457153 2.30395817756653 2.19945621490479 2.06594038009644 1.84329342842102 1.63806819915771 1.26625370979309 1.04413366317749 0.586453020572662 -0.0273847058415413 -0.668686628341675 -1.21120262145996 -1.5174388885498 -1.55965387821198 -1.20735085010529 -0.739389717578888 1.52731812000275 3.46536231040955 3.58888339996338 4.15541982650757 6.94273662567139 15.1866016387939 24.230260848999 22.0262775421143 15.6897125244141 14.4329042434692 11.7470102310181 8.55044269561768 6.50625228881836 5.34945106506348 4.9228892326355 7.83159160614014 16.0961723327637 26.3083992004395 32.7439231872559 31.2478294372559 25.4547462463379 22.3204021453857 19.1125049591064 17.0086135864258 15.3697938919067 13.0612630844116 11.802074432373 10.8833322525024 8.98170948028564 8.35004425048828 6.88697624206543 5.71874046325684 5.24503517150879
3.50451588630676 6.22143650054932 1.42927706241608 6.2590160369873 16.8228340148926 14.7942905426025 10.0336112976074 10.1786642074585 8.52207660675049 8.93888473510742 7.75983905792236 6.60507822036743 6.59834861755371 4.98953914642334 4.39815378189087 3.91841793060303 3.38235855102539 2.91707229614258 2.24820280075073 4.43613290786743 4.09096145629883 3.89326238632202 4.96669292449951 6.09493255615234 6.95217752456665 8.899658203125 11.9731464385986 9.21490001678467 5.77563381195068 4.97903680801392 4.49886322021484 3.98103523254395 3.50429558753967 3.29169821739197 2.71006298065186 1.95292186737061 1.73705089092255 1.34692180156708 1.07109808921814 0.804481625556946 0.546676754951477 0.386934846639633 0.399571031332016 0.384721279144287 0.338850557804108 0.31072598695755 0.298518031835556 0.299784243106842 0.271641671657562 0.275307208299637 0.270530939102173 0.258688032627106 0.244825527071953 0.259075790643692 0.244018226861954 0.231547668576241 0.202788129448891 0.191139489412308 0.113262377679348 0.0520747601985931 -0.0120268985629082 -0.0537450723350048 -0.0948720127344131 0.0012460557045415 0.202690869569778 0.269290924072266 0.22396482527256 0.142720654606819 0.234421357512474 0.378090292215347 0.286512225866318 0.20570994913578 -0.012927376665175 -0.21202740073204 -0.491094529628754 -0.731141805648804 -0.918105781078339 -0.975517988204956 0.467453688383102 4.34316873550415 7.18452501296997 5.9774169921875 7.43097829818726 6.6655707359314 6.80514192581177 5.85892486572266 5.83682537078857 4.97473621368408 4.39904499053955 4.00411987304688 3.61907887458801 3.17549014091492 2.83314871788025 2.23489093780518 3.56835198402405 3.54030323028564 3.35962224006653 3.22897338867188 3.24857568740845 3.48256921768188 3.35471248626709 3.72386264801025 4.26670932769775 4.91873550415039 5.29553699493408 5.70701169967651 5.91982746124268 5.94933223724365 6.03317594528198 5.93345212936401 5.63100242614746 5.31661415100098 5.03261089324951 4.57186603546143 4.25108098983765 3.78383135795593 3.39091873168945 3.21030902862549 2.96463012695312 2.88678121566772 2.75300168991089 2.71727705001831 2.60311102867126 2.43768715858459 2.32550668716431 2.16070103645325 2.033616065979 1.704345703125 1.52027094364166 1.19014859199524 0.757685840129852 0.432103335857391 -0.019255805760622 -0.497396141290665 -0.692286849021912 -0.732983946800232 -0.686330795288086 -0.562727153301239 -0.253426402807236 1.54549789428711 3.91581630706787 4.68494176864624 6.2129077911377 8.15242481231689 10.7825155258179 16.9095420837402 17.3988437652588 13.1474533081055 12.2560262680054 10.0287675857544 6.83104228973389 5.71868371963501 5.04602193832397 5.21971654891968 4.61139059066772 8.31009197235107 20.748218536377 25.830358505249 29.077787399292 33.2111396789551 31.9009914398193 22.878454208374 18.1053161621094 15.5802354812622 13.7923831939697 11.066388130188 10.1651058197021 8.38649463653564 7.45265674591064 6.27273893356323 5.55586290359497 5.40150022506714
0.832152485847473 3.76590466499329 3.20201969146729 1.55227303504944 9.49578666687012 16.366418838501 12.5289392471313 12.3527364730835 11.2353057861328 9.2738618850708 9.02407455444336 7.94644832611084 5.99880599975586 5.43905830383301 4.36899042129517 4.08338689804077 3.38257241249084 2.48655295372009 2.09047412872314 1.9302499294281 1.98284721374512 1.21879065036774 2.70936679840088 5.26394319534302 6.47100830078125 5.40823125839233 8.07364463806152 8.85157585144043 6.43689775466919 5.05368232727051 4.44311666488647 3.60275316238403 3.04162740707397 2.36923289299011 2.7722499370575 2.86513113975525 1.52089095115662 1.51209318637848 1.20823287963867 0.595026433467865 0.412051409482956 0.409155905246735 0.405974060297012 0.43668270111084 0.388506025075912 0.353331446647644 0.366885632276535 0.305211931467056 0.320073544979095 0.29744365811348 0.284723341464996 0.270024836063385 0.275009274482727 0.27813783288002 0.278132438659668 0.278347194194794 0.262953251600266 0.242192193865776 0.167985334992409 0.0969862788915634 0.0362658686935902 -0.0352991595864296 -0.0867079347372055 -0.163217112421989 -0.0021830121986568 0.136911317706108 0.183223709464073 0.155776381492615 0.31140324473381 0.443364799022675 0.364555150270462 0.413633286952972 0.198451355099678 -0.0876222103834152 -0.361655801534653 -0.692037045955658 -0.793078482151031 -0.985969364643097 0.71164470911026 6.91559791564941 12.3635911941528 12.4240465164185 10.1338796615601 9.02892017364502 7.86248016357422 7.0577244758606 6.03059339523315 5.25792932510376 4.50328159332275 3.6992769241333 3.38371610641479 2.85378885269165 2.45787262916565 2.19796395301819 4.07442378997803 4.492835521698 4.07831335067749 4.89998722076416 4.49876689910889 4.77248859405518 4.96211671829224 4.74465322494507 5.5779914855957 6.48670959472656 6.72084283828735 6.57782649993896 6.86027956008911 6.56265163421631 6.5090389251709 6.04578018188477 5.73227834701538 5.25493907928467 4.86840105056763 4.37345552444458 4.09417247772217 3.6773407459259 3.41735410690308 3.26200413703918 3.08055853843689 3.00432062149048 2.86601591110229 2.66848802566528 2.56077170372009 2.44246649742126 2.2739372253418 1.97510731220245 1.8306485414505 1.53272378444672 1.19778478145599 1.00910484790802 0.883009731769562 0.746163547039032 0.54910933971405 0.19364358484745 0.237088605761528 0.0269971769303083 -0.0555011965334415 0.0753152742981911 0.33260178565979 0.768516182899475 2.75228190422058 3.80532908439636 6.78171157836914 8.1214017868042 9.79212665557861 12.8909368515015 12.3083744049072 11.1149091720581 11.4247798919678 7.55018615722656 6.16729831695557 6.5330924987793 5.42475461959839 4.69961643218994 3.43281149864197 5.15771436691284 17.3642139434814 20.3005714416504 19.2093868255615 18.804178237915 25.551685333252 25.5233688354492 18.5161972045898 16.3657474517822 12.9234552383423 10.7470502853394 9.04889965057373 7.67004871368408 6.80054044723511 5.92351675033569 5.75802707672119 5.51104927062988
0.644033491611481 0.245638281106949 2.57904076576233 2.3576352596283 4.33062553405762 17.1620388031006 18.540075302124 14.9092473983765 13.3108282089233 11.2224760055542 8.8168888092041 7.95077991485596 6.75138330459595 5.34507942199707 4.51097202301025 3.91324281692505 3.61122250556946 2.30271077156067 1.01117777824402 1.12649691104889 0.615933537483215 0.0480379089713097 -0.18429072201252 1.05823493003845 6.79932928085327 7.47302913665771 8.13711166381836 9.29318141937256 6.84528207778931 5.19670391082764 3.88295340538025 3.2901771068573 2.37464237213135 1.62036323547363 1.81811881065369 2.02226161956787 3.05590486526489 3.57953262329102 1.7069388628006 0.941613554954529 0.528698265552521 0.63024777173996 0.604050159454346 0.495832294225693 0.438712418079376 0.482117474079132 0.434004068374634 0.358074903488159 0.337282449007034 0.346418976783752 0.316374093294144 0.28491884469986 0.300303786993027 0.296177357435226 0.301457107067108 0.301602810621262 0.286281913518906 0.257471442222595 0.208196103572845 0.150945320725441 0.0818197801709175 0.00684860674664378 -0.0622163191437721 -0.0394281260669231 0.0577096305787563 0.161456421017647 0.33766570687294 0.398588359355927 0.387519389390945 0.535677850246429 0.52503114938736 0.499518185853958 0.377821415662766 0.0607990138232708 -0.164324730634689 -0.516585946083069 -0.851027369499207 -1.11252963542938 -0.74629682302475 4.9041895866394 11.149959564209 14.5514335632324 12.5419921875 10.1482048034668 9.07946586608887 7.51330089569092 6.69533443450928 5.48261070251465 4.25174522399902 3.56212401390076 3.07148838043213 2.68714284896851 1.88587093353271 2.006507396698 4.54092836380005 7.47901153564453 6.9412317276001 6.51344966888428 7.29906225204468 7.07580232620239 7.05393600463867 7.41234874725342 7.2531418800354 7.54860877990723 7.83112239837646 7.41724681854248 7.37593078613281 7.03695058822632 6.63359594345093 6.07859134674072 5.53837966918945 5.00635004043579 4.66942167282104 4.2349157333374 3.97320318222046 3.6885998249054 3.53608083724976 3.40244889259338 3.20847463607788 2.96602702140808 2.82435846328735 2.69815349578857 2.52858448028564 2.39790105819702 2.06815052032471 1.80044662952423 1.40673112869263 1.30671358108521 1.43869364261627 1.52381145954132 1.49963843822479 1.49388742446899 1.17709183692932 1.15047717094421 0.761255085468292 0.641656041145325 0.600252449512482 0.605615079402924 0.770117461681366 1.26972568035126 3.2225239276886 5.10023307800293 7.47028493881226 9.95459461212158 11.6925277709961 11.205265045166 10.0967102050781 10.6458129882812 9.78297901153564 8.25633430480957 7.10829734802246 6.41915512084961 5.26848030090332 3.88917684555054 3.00462055206299 2.60232496261597 10.4590282440186 18.3100051879883 19.8682956695557 18.5808200836182 19.4053859710693 22.4962329864502 18.5465774536133 15.3022737503052 12.8681774139404 9.79191780090332 8.29546737670898 7.23725271224976 6.42951488494873 6.15660905838013 5.88063716888428 5.86229658126831
0.578852653503418 0.0113667091354728 -0.296699494123459 -0.560075044631958 -0.894850194454193 3.85164737701416 18.1851139068604 19.3423271179199 15.0936412811279 11.8649520874023 9.83226299285889 7.56347990036011 6.76309108734131 5.81453847885132 4.8173041343689 3.89614701271057 2.55060148239136 1.93381214141846 0.751893758773804 0.505725383758545 0.207549124956131 -0.116626881062984 -0.307672053575516 -0.449152678251266 1.61117911338806 6.59772825241089 8.46492671966553 10.3692970275879 6.86439228057861 5.06015014648438 3.16225433349609 2.75330185890198 1.65322256088257 1.16370868682861 0.924077153205872 1.18651962280273 1.69163250923157 2.28017854690552 3.17695426940918 2.81102705001831 1.22344899177551 1.01404774188995 0.941575706005096 0.799156010150909 0.614311993122101 0.64001339673996 0.563419103622437 0.481021821498871 0.440626949071884 0.350847035646439 0.345815926790237 0.319640934467316 0.308217793703079 0.325059652328491 0.321085602045059 0.301682531833649 0.282099783420563 0.2617367208004 0.21620337665081 0.188869684934616 0.135255560278893 0.0598687864840031 0.0673416182398796 0.169339552521706 0.166797861456871 0.344753593206406 0.424589246511459 0.556499898433685 0.557944655418396 0.57524847984314 0.64890992641449 0.627317845821381 0.49914163351059 0.263240426778793 0.0058589787222445 -0.356220483779907 -0.752895712852478 -1.47893178462982 -1.83731377124786 -0.274709701538086 9.3480110168457 12.0164556503296 15.7335443496704 12.6842470169067 9.87172603607178 7.88738012313843 6.00929021835327 4.9385838508606 3.92512559890747 3.36766862869263 2.49086284637451 2.11353254318237 1.43875122070312 2.50587058067322 4.53701210021973 7.79755544662476 11.1432371139526 12.061487197876 11.5056200027466 11.0694093704224 9.60835933685303 9.79356384277344 8.97164249420166 8.840012550354 8.44859600067139 8.00369262695312 7.6211895942688 7.19102811813354 6.70182228088379 5.95224046707153 5.31621217727661 4.86820602416992 4.59284114837646 4.21851110458374 4.050950050354 3.82590985298157 3.67756104469299 3.39811444282532 3.1744601726532 2.996422290802 2.79562664031982 2.65588164329529 2.31929469108582 2.19510269165039 1.90157222747803 1.58176159858704 1.57929480075836 1.73102593421936 2.0440366268158 2.21178078651428 2.04801750183105 2.13020753860474 1.79475402832031 1.70913016796112 1.17067348957062 0.918933629989624 0.975141823291779 0.996225476264954 1.00954627990723 6.35367107391357 6.14972305297852 3.54703974723816 4.03648662567139 5.83316707611084 7.16631460189819 7.91913747787476 8.12240695953369 8.4884729385376 9.92225074768066 8.21113395690918 7.17300128936768 6.24602174758911 5.0536322593689 3.65392446517944 2.84168601036072 2.3432731628418 2.40033268928528 10.1910285949707 19.8417148590088 23.5579891204834 22.7709465026855 19.7760715484619 18.0142078399658 13.6257076263428 11.7236804962158 9.2431583404541 7.69247102737427 7.06863212585449 6.68697452545166 6.71521902084351 6.33708477020264 5.88997030258179
0.601157248020172 0.0891313031315804 -0.349693566560745 -0.647742867469788 -0.903189361095428 -1.41609191894531 5.99149084091187 17.6825332641602 16.2793254852295 11.23206615448 9.98377323150635 8.37580490112305 6.6898045539856 6.14624452590942 5.04072141647339 3.32598257064819 2.25541019439697 1.36646723747253 0.747196316719055 0.36185297369957 0.0446323789656162 -0.0883058086037636 -0.242166310548782 -0.43285346031189 -0.465986549854279 1.75773918628693 6.95645093917847 9.3239688873291 6.25745487213135 4.47590732574463 2.31998419761658 1.92535209655762 1.2842470407486 0.814324736595154 0.473189234733582 0.473731845617294 0.582322597503662 1.12683963775635 1.51163625717163 2.0655574798584 3.64565777778625 3.43425130844116 1.33519065380096 1.20526385307312 1.11217927932739 0.923137128353119 0.637407064437866 0.593157112598419 0.583403646945953 0.367712706327438 0.350571632385254 0.357474088668823 0.342735052108765 0.333865225315094 0.327493369579315 0.307584911584854 0.278317749500275 0.246381551027298 0.217009916901588 0.197550103068352 0.152242407202721 0.207537353038788 0.180785357952118 0.380974173545837 0.454467117786407 0.442686408758163 0.595108091831207 0.599312007427216 0.689023852348328 0.691218495368958 0.682180404663086 0.692109048366547 0.693373382091522 0.473835408687592 0.108225129544735 -0.337715446949005 -0.605699777603149 -1.40446615219116 -2.06387901306152 -2.3193953037262 2.4318630695343 7.30168390274048 13.1424160003662 12.7807731628418 10.0760726928711 8.04874324798584 6.45009326934814 5.05294752120972 4.12639284133911 2.84274363517761 2.0875506401062 1.30519580841064 0.786700367927551 1.01501381397247 3.41928458213806 5.94885683059692 10.6082820892334 14.5148401260376 11.6071481704712 12.7681341171265 12.4831485748291 11.4336767196655 10.7049980163574 9.54694557189941 8.88091468811035 8.07863903045654 7.68636512756348 7.03309488296509 6.336989402771 5.78424882888794 5.29247140884399 4.80639600753784 4.61179208755493 4.36752319335938 4.20507907867432 3.97058176994324 3.6839234828949 3.41972804069519 3.11486744880676 2.96627926826477 2.61094927787781 2.48770880699158 2.17679500579834 1.79490745067596 1.99980795383453 1.94331812858582 2.18935799598694 3.39274764060974 3.05647301673889 2.96022915840149 2.52675461769104 2.48050808906555 2.41815805435181 2.20054960250854 1.63621413707733 1.27855312824249 1.24196410179138 1.22995698451996 1.19110798835754 1.50844883918762 4.7139105796814 4.51320219039917 5.55463647842407 6.40159749984741 7.7820930480957 8.7538480758667 11.1197528839111 11.1802415847778 10.0912351608276 8.16294002532959 6.97786951065063 5.81424808502197 4.61840200424194 3.44641137123108 2.85321426391602 2.54694437980652 2.400475025177 2.56205463409424 12.5066909790039 21.4109268188477 22.2745208740234 18.2940654754639 15.9362087249756 12.7058525085449 10.9866342544556 8.72140502929688 7.94686889648438 7.4186372756958 7.39330625534058 6.75121021270752 6.65962362289429 6.33050537109375
1.3984534740448 0.376563996076584 -0.305848449468613 -0.581014156341553 -0.953921258449554 -1.47769415378571 -1.4365701675415 11.8007173538208 17.0588760375977 14.0971155166626 9.55134582519531 8.31203174591064 6.99174213409424 4.69731998443604 4.25585603713989 3.12383103370667 1.8014440536499 1.40480494499207 0.816189646720886 0.471338450908661 0.104483000934124 0.0270013604313135 -0.0830613672733307 -0.247694432735443 -0.361639469861984 -0.326347351074219 5.19609451293945 7.70834732055664 5.7112774848938 3.50553321838379 2.10209488868713 1.25143074989319 0.912079811096191 0.496801435947418 0.30770155787468 0.242136567831039 0.257826209068298 0.351962834596634 0.613084256649017 0.835667371749878 1.2853467464447 2.07977676391602 3.6270227432251 3.61560297012329 1.60596716403961 1.17890202999115 0.865763604640961 0.694379031658173 0.454929530620575 0.407962828874588 0.384644150733948 0.359861105680466 0.35822531580925 0.34349662065506 0.323324352502823 0.31181138753891 0.278629213571548 0.239392474293709 0.212946474552155 0.272863864898682 0.246794924139977 0.42945209145546 0.50860857963562 0.477919399738312 0.637700021266937 0.646060168743134 0.634062230587006 0.730592966079712 0.72107994556427 0.750015020370483 0.791677892208099 0.765859484672546 0.747486412525177 0.594635248184204 0.119844973087311 -0.192357614636421 -0.55076652765274 -1.0509512424469 -1.90449118614197 -2.29371976852417 -2.30886626243591 -0.242370873689651 7.51711416244507 11.9674339294434 10.7507066726685 7.64139556884766 6.27099132537842 4.85709714889526 3.67784190177917 2.79465508460999 1.77977085113525 0.535488545894623 -0.128154024481773 0.56178891658783 2.25288534164429 6.38358974456787 10.2928562164307 17.8332195281982 18.530158996582 14.2796621322632 13.3745174407959 12.1577816009521 10.9484596252441 10.0424003601074 8.99618625640869 8.052321434021 7.16907930374146 6.73810005187988 6.15803670883179 5.74071502685547 5.2083854675293 4.93166351318359 4.74065780639648 4.51790857315063 4.2411322593689 3.9528636932373 3.70219540596008 3.3452672958374 2.87658190727234 2.73525309562683 2.41920232772827 2.05137825012207 2.40902256965637 2.37967848777771 2.49835467338562 2.73296308517456 2.97740149497986 2.86163687705994 3.10100960731506 3.08821034431458 2.87370347976685 2.85335087776184 2.86666703224182 2.54155015945435 2.20312690734863 1.77001178264618 1.49734973907471 1.69704389572144 1.43991923332214 1.56761062145233 4.29124212265015 6.03765201568604 9.54419040679932 11.2140474319458 13.5847864151001 13.5040950775146 12.2073755264282 10.962685585022 9.87899971008301 8.09129810333252 6.52767276763916 5.20290946960449 4.38931322097778 3.38388657569885 2.93949842453003 2.80871057510376 2.82038450241089 2.91374278068542 6.70536422729492 14.9005527496338 17.4673023223877 15.6085081100464 14.2465353012085 12.3386631011963 9.89532375335693 8.88615703582764 8.79277610778809 8.20259952545166 7.42836380004883 7.33747243881226 7.1307315826416 6.73775720596313
1.15975105762482 0.748056352138519 -0.262752264738083 -0.57547926902771 -1.05219411849976 -1.22486114501953 -1.41090381145477 -1.13373756408691 11.3736295700073 12.7633371353149 10.524040222168 6.23025274276733 5.47091817855835 4.55537080764771 3.09094905853271 2.46111297607422 2.08814525604248 1.32924365997314 0.906250178813934 0.603173553943634 0.184435695409775 0.135401055216789 0.0442801527678967 -0.0963893532752991 -0.251326858997345 -0.234977096319199 2.16555953025818 7.45094966888428 5.50601196289062 2.69392848014832 1.62457168102264 0.732849717140198 0.593002080917358 0.391296476125717 0.282656341791153 0.267373889684677 0.260805040597916 0.262379765510559 0.254955887794495 0.284571081399918 0.296113222837448 0.391535490751266 0.583124279975891 1.28074157238007 3.1578197479248 2.85899353027344 1.20591843128204 0.882112801074982 0.435906976461411 0.420510143041611 0.408695071935654 0.376368165016174 0.357013612985611 0.356978565454483 0.327438622713089 0.297184407711029 0.269762217998505 0.237608820199966 0.336353033781052 0.541412949562073 0.618234038352966 0.568035542964935 0.744540333747864 0.749348402023315 0.715685188770294 0.81097400188446 0.78179544210434 0.805683374404907 0.834747195243835 0.833594858646393 0.85766726732254 0.815191149711609 0.721962749958038 0.611285805702209 0.240700855851173 -0.115047857165337 -0.530176639556885 -0.937052488327026 -1.5180037021637 -1.98271203041077 -2.22423624992371 -2.22327876091003 0.726537048816681 8.22486114501953 9.5323543548584 7.79703903198242 5.3994574546814 4.66459083557129 3.1185417175293 2.41186499595642 1.04139232635498 -0.144935369491577 -0.770207583904266 -0.573876023292542 -1.13276374340057 1.60322606563568 7.96419286727905 12.765643119812 17.5428524017334 18.1462993621826 14.1117057800293 11.4408464431763 10.6044464111328 9.6749324798584 9.02120590209961 7.71843576431274 6.9946608543396 6.54250812530518 5.90018224716187 5.44572162628174 5.20283842086792 4.93451833724976 4.67562246322632 4.39552068710327 4.14244747161865 3.81536793708801 3.62063241004944 3.129239320755 2.80052995681763 2.59515976905823 2.68957495689392 3.02816963195801 3.28006911277771 3.62598967552185 4.06076049804688 3.69076585769653 3.93669390678406 3.65707898139954 3.33457660675049 3.3120813369751 3.22257256507874 3.10124158859253 2.9866623878479 2.79851126670837 2.45418190956116 2.34421873092651 2.0563817024231 1.75068533420563 1.48191070556641 2.65933513641357 3.95873427391052 7.54231023788452 17.8659858703613 15.7613096237183 15.9110555648804 13.9217367172241 12.6354455947876 10.8958721160889 9.51088714599609 7.34770917892456 5.47544431686401 4.63044834136963 4.09399747848511 3.51806640625 3.28565287590027 3.17784786224365 3.30460500717163 3.57162809371948 6.16986227035522 11.8950901031494 14.7650499343872 13.8210296630859 12.6992082595825 11.3248596191406 10.2646379470825 9.71260929107666 8.79626560211182 8.72863578796387 8.14832496643066 7.85557508468628 7.26375913619995 6.85333776473999
0.809350907802582 0.502311825752258 0.232018575072289 0.0665505453944206 -0.549156188964844 -0.570775389671326 -0.833881139755249 -1.13575267791748 -0.828672587871552 4.95793008804321 6.56736469268799 5.34834146499634 3.74206352233887 3.21481418609619 3.1244261264801 2.12497901916504 1.81792831420898 1.51979088783264 0.959413647651672 0.548100471496582 0.263357311487198 0.199759528040886 0.153723508119583 0.0342413038015366 -0.0868413522839546 -0.102654524147511 -0.0449360348284245 4.2224760055542 4.82935047149658 3.127769947052 1.32807433605194 0.698291301727295 0.309784531593323 0.300989806652069 0.287830352783203 0.292548358440399 0.281549096107483 0.302173763513565 0.292496770620346 0.305222183465958 0.3104188144207 0.336524188518524 0.335298866033554 0.372327983379364 0.50952273607254 0.961721360683441 2.02316832542419 2.239093542099 0.869546294212341 0.444980382919312 0.410969287157059 0.405774146318436 0.379249274730682 0.493879348039627 0.509471654891968 0.48010665178299 0.522560775279999 0.427382171154022 0.628798186779022 0.713168084621429 0.881003677845001 0.871586859226227 0.826399683952332 0.923373281955719 0.889163315296173 0.866914391517639 0.875438094139099 0.911408305168152 0.912633240222931 0.907701313495636 0.814495325088501 0.779388010501862 0.717320203781128 0.617989599704742 0.306980043649673 -0.082026295363903 -0.539926111698151 -0.893944978713989 -1.27856004238129 -1.74392259120941 -2.02867794036865 -2.14224672317505 -2.15749168395996 2.91928815841675 6.53589677810669 6.8487663269043 5.30451726913452 4.01445627212524 2.6240930557251 1.68261229991913 0.74146568775177 0.194762721657753 -0.319678634405136 -0.648780405521393 -1.29495143890381 -1.75612199306488 3.23468089103699 9.53795337677002 10.9189605712891 15.226035118103 13.7757892608643 10.2890148162842 9.95528221130371 10.1421222686768 8.33985614776611 7.44940137863159 6.89880037307739 6.3045539855957 5.93668842315674 5.68328332901001 5.35259342193604 4.99175500869751 4.74990272521973 4.38842821121216 4.17919063568115 3.61509561538696 3.40581130981445 3.10841226577759 3.03243112564087 3.64982342720032 3.72969937324524 3.92158150672913 4.37414884567261 4.58055973052979 4.86081123352051 4.761887550354 4.04740858078003 3.86263275146484 3.40409708023071 3.55080127716064 3.92648983001709 3.25987696647644 3.00270628929138 3.00654363632202 2.74241781234741 2.32155704498291 1.94169521331787 1.6171543598175 1.48453104496002 2.98789930343628 3.31780695915222 2.5048975944519 10.3208875656128 11.9653816223145 13.3703908920288 13.2731027603149 12.6228075027466 9.95824337005615 8.62582302093506 6.42657804489136 5.17229318618774 5.26021862030029 4.33550357818604 5.02987098693848 4.58342790603638 4.24840545654297 4.17981052398682 4.58879232406616 5.8515305519104 8.94144439697266 11.1193742752075 10.8316030502319 11.7660579681396 10.9451007843018 10.0529003143311 10.3540649414062 9.77475833892822 9.31950283050537 8.71659660339355 8.00108814239502 7.06844139099121 6.61301898956299
1.84831213951111 1.39059031009674 0.737890422344208 0.645839095115662 0.330030679702759 -0.313299536705017 -0.414172321557999 -0.673076987266541 -0.629811823368073 -0.328962475061417 2.77934312820435 3.10103011131287 3.73540258407593 2.76382565498352 2.39030313491821 2.18230223655701 1.73194372653961 1.45805525779724 1.13263761997223 0.751282513141632 0.335732161998749 0.257485598325729 0.177694141864777 0.102788798511028 0.00732592167332768 -0.0213420148938894 -0.00909547135233879 0.972255110740662 4.67124700546265 3.38691544532776 0.914477050304413 0.369129091501236 0.327910274267197 0.331986516714096 0.322070986032486 0.331474184989929 0.320731818675995 0.326456993818283 0.3173907995224 0.324419736862183 0.352201282978058 0.377907574176788 0.383470207452774 0.400446832180023 0.475448668003082 0.466742992401123 0.461484402418137 0.47730216383934 1.49599897861481 1.27436947822571 0.726740837097168 0.562170505523682 0.776822209358215 0.81846672296524 0.904985249042511 0.713468849658966 0.854203522205353 0.944674015045166 0.841379821300507 1.00982940196991 0.999359548091888 1.10638058185577 1.04479515552521 0.990523934364319 0.979957401752472 1.01482665538788 0.995278477668762 0.999539434909821 0.883056461811066 0.892420291900635 0.830758333206177 0.721686840057373 0.687715649604797 0.579949676990509 0.225034132599831 -0.149091467261314 -0.54772961139679 -0.869707345962524 -1.1949770450592 -1.4997456073761 -1.84584653377533 -2.03060221672058 -2.08138370513916 -1.97547352313995 3.50570917129517 5.66102123260498 4.76911783218384 3.27053427696228 2.32526898384094 1.21176791191101 0.758169054985046 0.381798148155212 0.222535341978073 -0.362266421318054 -1.25176024436951 -1.73297226428986 -1.61934447288513 6.5182580947876 8.29618644714355 11.6714515686035 11.9990148544312 9.21679973602295 8.43107986450195 10.1526889801025 8.58732318878174 7.35884428024292 6.67253017425537 6.30071258544922 6.07923889160156 5.78672981262207 5.32600831985474 4.85057353973389 4.6346755027771 4.04945087432861 4.04444074630737 4.00381278991699 3.93218612670898 4.74059057235718 4.89360952377319 4.66141223907471 5.17335939407349 5.74996471405029 5.67602109909058 5.44770240783691 5.33844995498657 5.15395307540894 4.20211601257324 3.9753532409668 3.48475170135498 3.40745449066162 5.94711780548096 4.28445529937744 3.07235169410706 2.72550272941589 4.16911506652832 2.29410433769226 3.39227342605591 3.41544651985168 2.6531662940979 3.34864211082458 3.75790071487427 3.17173910140991 8.84174060821533 10.9651823043823 14.8381719589233 12.4144992828369 10.8908262252808 8.03379821777344 9.3021297454834 13.3530778884888 8.47866916656494 9.23951435089111 7.13265800476074 5.62588834762573 5.7766170501709 5.75262832641602 5.53667402267456 6.24480295181274 8.06364917755127 9.51821994781494 9.7395715713501 11.1409130096436 11.4483556747437 10.64430809021 10.9581727981567 11.1487512588501 10.3143453598022 9.41463279724121 8.82655715942383 7.84442186355591 7.03454780578613 6.10060739517212
2.48083519935608 2.33374953269958 2.43722343444824 1.12045669555664 0.512780666351318 0.271920412778854 -0.126855045557022 -0.240984499454498 -0.322288155555725 -0.120189860463142 -0.10666836053133 1.55134618282318 2.76283240318298 2.74343800544739 2.30366277694702 2.07581806182861 1.88844418525696 1.36854314804077 1.20210194587708 0.858000636100769 0.485543221235275 0.261176466941833 0.211247339844704 0.136883035302162 0.0786456391215324 0.0508921109139919 0.0833950787782669 0.204075619578362 1.27032721042633 2.40970826148987 0.714649021625519 0.401556134223938 0.374786019325256 0.381270498037338 0.368044674396515 0.367450594902039 0.365668416023254 0.361037760972977 0.388854473829269 0.385152816772461 0.404831886291504 0.420405656099319 0.450046598911285 0.648948788642883 0.496606171131134 0.487567692995071 0.931899845600128 0.622963845729828 1.18200361728668 1.43403303623199 1.65035438537598 1.44977116584778 1.10691225528717 1.29744219779968 1.34046030044556 1.33973968029022 1.13307547569275 1.27184963226318 1.23603224754333 1.13878428936005 1.24944174289703 1.18941819667816 1.16964256763458 1.18948888778687 1.14447402954102 1.1292097568512 1.11400854587555 1.01967835426331 0.988231003284454 0.892904698848724 0.826851963996887 0.722622632980347 0.541347622871399 0.472316145896912 0.141881629824638 -0.264563649892807 -0.626439034938812 -0.845771729946136 -1.04190623760223 -1.30318379402161 -1.57044494152069 -1.78704643249512 -1.87870717048645 -1.87894988059998 0.803373098373413 4.20954465866089 4.17780113220215 2.51260828971863 1.74508857727051 1.15383565425873 0.847259759902954 0.814957439899445 0.440258532762527 0.13484825193882 -0.989877879619598 -1.68563342094421 -1.62390851974487 3.41884183883667 6.2330117225647 7.83268594741821 9.48837375640869 8.83149242401123 7.83073759078979 9.71781158447266 9.66310214996338 7.66366672515869 6.63959121704102 6.28809213638306 5.84037780761719 5.62045383453369 5.17979145050049 4.44961500167847 4.38470315933228 4.5168251991272 4.65021514892578 4.7595329284668 5.59245204925537 5.96676731109619 6.71247816085815 7.45898342132568 6.63977813720703 6.80879354476929 6.78131675720215 6.05420589447021 5.81999778747559 5.21081733703613 4.36515045166016 4.08383464813232 3.57186794281006 3.17130303382874 3.25304317474365 3.82866525650024 4.23306274414062 3.47191119194031 8.48545074462891 10.8516330718994 6.22662925720215 5.12994861602783 4.49965381622314 4.08277606964111 3.47374272346497 3.88953495025635 4.6770133972168 10.4414443969727 14.2065896987915 9.65148162841797 8.02385234832764 10.1199378967285 7.04923009872437 17.0623722076416 14.3831911087036 9.23508358001709 7.96700572967529 7.08220481872559 6.55963516235352 6.85501050949097 9.87550258636475 11.881067276001 11.6118726730347 12.4985761642456 11.9497814178467 10.6885366439819 11.5775289535522 11.2223176956177 10.7414712905884 13.3062782287598 10.4375915527344 9.29245471954346 8.4592456817627 7.7630558013916 6.69132852554321 6.03544664382935
3.86260151863098 1.97165036201477 1.73293662071228 1.20598864555359 0.3983114361763 0.251412570476532 0.128951758146286 0.0624122433364391 -0.0850322172045708 -0.0166297778487206 0.0111281434074044 0.452406615018845 1.94474685192108 2.20755076408386 2.35984683036804 2.3238570690155 1.8494668006897 1.49189150333405 1.01692509651184 0.888791561126709 0.59065842628479 0.408176630735397 0.229649066925049 0.338003307580948 0.331782042980194 0.352298259735107 0.309537172317505 0.407057523727417 0.526719272136688 0.915512263774872 0.634548366069794 0.473493695259094 0.436558723449707 0.430017441511154 0.414234101772308 0.40234962105751 0.423475354909897 0.419391959905624 0.443143308162689 0.438300371170044 0.44525420665741 0.473945081233978 0.510936439037323 0.58497554063797 0.498620182275772 0.466868132352829 2.32732677459717 2.29478907585144 1.91821014881134 2.19452381134033 1.99929141998291 2.3931713104248 2.19657778739929 1.9326229095459 1.91174817085266 1.83409142494202 1.72106981277466 1.52249538898468 1.57578682899475 1.45912182331085 1.35835313796997 1.41071557998657 1.34880304336548 1.33114564418793 1.28282487392426 1.17124569416046 1.16697382926941 1.20722472667694 1.07506692409515 0.961658358573914 0.744823157787323 0.630938291549683 0.479772061109543 0.341668665409088 0.124129220843315 -0.183139741420746 -0.58033961057663 -0.759547054767609 -0.922997236251831 -1.13012945652008 -1.3603059053421 -1.55104064941406 -1.67665874958038 -1.76680874824524 -1.03444945812225 2.4515323638916 2.78101325035095 1.76930677890778 1.44859635829926 1.74798393249512 1.54549086093903 0.97786009311676 0.88889080286026 0.354914039373398 -0.597737312316895 -1.3076536655426 -1.30060708522797 3.71419715881348 5.2804217338562 6.46275901794434 8.30264663696289 7.98845434188843 6.87844800949097 6.54524946212769 6.69540548324585 6.88027286529541 6.2755970954895 5.93139886856079 6.00499057769775 6.025071144104 5.99661207199097 5.67318439483643 5.77201366424561 6.09182500839233 7.6772632598877 8.06312847137451 7.0208477973938 7.87193632125854 8.81121349334717 8.84814071655273 8.82809448242188 7.78837633132935 7.6035418510437 6.77245616912842 6.11623525619507 5.26030778884888 4.53257608413696 4.13166236877441 3.85020017623901 3.32506155967712 2.81346893310547 5.37356328964233 5.83584880828857 3.70436644554138 4.15360689163208 10.231071472168 12.25319480896 9.24692153930664 6.28923225402832 5.59881496429443 4.46326112747192 4.52411937713623 4.75357532501221 8.25014114379883 10.1796875 7.95153570175171 5.97045183181763 9.09479141235352 3.301194190979 8.01557350158691 13.2586917877197 13.0486555099487 9.74868202209473 9.75930309295654 8.4918384552002 6.51817321777344 6.40353393554688 16.8631744384766 14.2479810714722 11.1431264877319 12.8841896057129 11.8221006393433 11.6975049972534 11.2552080154419 10.2875833511353 10.9164743423462 10.9752912521362 9.13080978393555 7.9537501335144 7.2371940612793 6.6688084602356 5.92404222488403
2.15655255317688 1.72456252574921 0.607039213180542 0.617900013923645 0.581253409385681 0.359770894050598 0.465021103620529 0.239508450031281 0.137078657746315 0.120920658111572 0.0760721787810326 0.150812610983849 0.579936027526855 1.23653268814087 2.07910346984863 2.34334945678711 1.76337432861328 1.38301336765289 1.02750265598297 0.869053602218628 0.809555530548096 0.37690407037735 0.619601488113403 0.655903220176697 0.679356575012207 0.664209365844727 0.60600471496582 0.59405118227005 0.706208407878876 0.748908281326294 0.714448392391205 0.54984039068222 0.48464024066925 0.47549119591713 0.495253086090088 0.481455951929092 0.483442544937134 0.485257267951965 0.484529942274094 0.503734767436981 0.520649015903473 0.533554196357727 0.560020267963409 0.548086166381836 0.471550047397614 0.390587091445923 2.38993859291077 4.0711464881897 3.41470313072205 3.17894506454468 2.95865511894226 2.84210848808289 3.34711909294128 2.9822826385498 2.81881332397461 2.41343975067139 2.26346468925476 2.02971482276917 1.83224356174469 1.78266680240631 1.72300577163696 1.66696894168854 1.61226999759674 1.44617247581482 1.35959589481354 1.30729126930237 1.21863651275635 1.18391942977905 1.06549525260925 0.848336219787598 0.685226261615753 0.521101713180542 0.428785741329193 0.320598959922791 0.192564263939857 0.0019911709241569 -0.424037128686905 -0.673842191696167 -0.827634155750275 -1.00406205654144 -1.19339799880981 -1.35422694683075 0.099360004067421 0.0267399810254574 -0.37429603934288 1.35221862792969 1.78442168235779 2.24634552001953 2.34091901779175 2.04226732254028 2.09297275543213 1.6684250831604 1.10208129882812 0.659156501293182 -0.348697870969772 -0.797448515892029 -0.51427948474884 3.420574426651 3.90296173095703 5.0535888671875 6.33499479293823 6.84731721878052 6.71088409423828 6.83597850799561 7.00559186935425 7.143150806427 6.57715749740601 6.46120452880859 7.27018785476685 7.99032974243164 7.97311735153198 8.16989803314209 11.0757694244385 12.3950548171997 11.1539258956909 10.8518934249878 12.1952724456787 10.6714315414429 10.3722276687622 10.5716962814331 9.96341609954834 8.69521713256836 8.02965354919434 7.15144014358521 6.05058670043945 5.20234489440918 4.84540796279907 4.35511636734009 3.59611296653748 2.60895109176636 1.97042143344879 2.97707176208496 5.09102153778076 9.2595682144165 7.52594375610352 7.16859817504883 9.37926864624023 11.5102386474609 8.69130611419678 7.31982946395874 6.52191829681396 5.40268421173096 4.65444898605347 4.79509592056274 6.36220026016235 3.98726606369019 3.31870937347412 5.64509201049805 3.57731819152832 3.60950708389282 3.57305598258972 9.64730262756348 10.4835748672485 13.2389974594116 10.495213508606 6.23205327987671 4.49956560134888 11.1049127578735 20.4859066009521 16.3691368103027 14.1855878829956 12.8862934112549 11.4093217849731 10.7365646362305 9.86402702331543 11.1522102355957 11.855128288269 10.0358409881592 9.04530811309814 7.61551666259766 6.83020687103271 5.97918605804443
