NCOLS 172
NROWS 31
XLLCORNER 353744
YLLCORNER 6700864
CELLSIZE 16 
NODATA_value -3.4e+38 
9.35048389434814 10.032416343689 10.451958656311 11.0250959396362 11.5349750518799 12.4106597900391 13.4807920455933 14.8447847366333 16.7406349182129 19.0373840332031 21.4447021484375 23.0273475646973 23.3261299133301 19.4089050292969 17.5871906280518 14.7293939590454 11.4140453338623 11.3509569168091 7.25305938720703 4.08826351165771 5.6995062828064 11.8920745849609 8.78403186798096 4.23697471618652 4.66750001907349 6.12605714797974 7.43374061584473 7.00996398925781 8.05305099487305 9.45348930358887 10.3145799636841 9.46662425994873 9.75212478637695 10.3081159591675 11.4114646911621 11.9886932373047 6.80771970748901 5.12709093093872 4.36741781234741 3.92602849006653 4.65143442153931 6.84028911590576 10.2321271896362 12.0413656234741 8.9658727645874 7.36433982849121 5.58330869674683 4.10511875152588 1.11228847503662 -1.93009090423584 -1.77842009067535 -1.58486545085907 -0.867343008518219 0.424327313899994 3.10159659385681 2.58518147468567 -0.683646440505981 -0.480320751667023 -0.0363695956766605 0.630959093570709 0.916086852550507 1.45607483386993 1.7098925113678 1.90151381492615 2.08393812179565 2.26033663749695 2.57229971885681 2.95768117904663 3.5814745426178 4.34368896484375 4.07630729675293 3.73341512680054 2.96374869346619 1.9004842042923 0.999988496303558 0.492006033658981 0.423799335956573 0.556109726428986 -0.00053126405691728 -0.460128039121628 -0.356868982315063 -0.225489482283592 -0.0568421669304371 0.187632128596306 -0.0808850601315498 -0.0950148552656174 0.102524191141129 -0.283953487873077 -0.650839328765869 -0.702231109142303 -0.63243180513382 -0.643652856349945 -0.425198256969452 -0.494568794965744 -0.723778009414673 -0.721833407878876 -0.709837675094604 -0.685281157493591 -0.660109758377075 -0.641400516033173 -0.603290259838104 -0.574132323265076 -0.543613791465759 -0.50162935256958 -0.452475100755692 -0.415019541978836 -0.423686653375626 -0.46370193362236 -0.454281032085419 -0.449575453996658 -0.440864115953445 -0.422771751880646 -0.397113919258118 -0.371407359838486 -0.346987634897232 -0.304662674665451 -0.283879578113556 -0.269318073987961 -0.261589199304581 -0.219658687710762 -0.199184447526932 -0.0730485916137695 0.255080014467239 0.417592257261276 0.593417406082153 0.769969940185547 0.87277489900589 0.90750527381897 0.831466436386108 0.516007661819458 -0.0674304813146591 -0.041536457836628 -0.00341175752691925 0.0709515586495399 0.125476539134979 0.154972389340401 0.138183638453484 0.113828107714653 0.0804371312260628 0.0744354277849197 0.0536987707018852 0.210278317332268 0.221338212490082 0.221773952245712 0.20528456568718 0.265263944864273 0.269686579704285 0.308397084474564 0.291642278432846 0.312353074550629 0.327993452548981 0.336640208959579 0.299595654010773 0.307382881641388 0.366498649120331 0.471695005893707 0.615550756454468 0.750425279140472 0.871508300304413 1.1716502904892 1.70739459991455 2.15003728866577 2.58830809593201 2.84742283821106 3.198162317276 3.58135771751404 3.77471303939819 3.9670557975769 4.11155939102173 4.20495557785034 4.29783868789673 4.33601427078247
9.11814785003662 9.68058395385742 10.1251134872437 10.5981693267822 11.1134433746338 11.9404010772705 13.104100227356 14.3414831161499 15.7615604400635 17.770679473877 19.8900661468506 21.0980224609375 22.6012420654297 21.7873134613037 19.0967216491699 16.1915988922119 9.98791027069092 8.14824485778809 5.02339458465576 4.32967710494995 7.02336502075195 13.2121953964233 17.465030670166 9.86460876464844 5.51551818847656 6.25204515457153 10.9658336639404 9.88298416137695 9.00144386291504 11.184814453125 8.71833038330078 7.9963264465332 7.56875371932983 8.23963069915771 7.74052572250366 6.47170448303223 2.0508074760437 2.0027117729187 2.77159476280212 4.66940212249756 7.35892009735107 9.125319480896 13.8258047103882 15.698637008667 13.7769784927368 11.9886198043823 10.0469608306885 8.02498722076416 4.05804681777954 4.74921894073486 1.67549610137939 0.188916802406311 0.446948200464249 0.823827505111694 2.8752384185791 5.30632305145264 4.73686265945435 1.01070713996887 0.342359304428101 0.769347190856934 1.30132985115051 1.50928342342377 1.66140985488892 1.80860579013824 1.962078332901 2.16629099845886 2.37721180915833 2.74596190452576 3.18212866783142 3.76905345916748 4.04303359985352 3.28817987442017 3.24515676498413 2.4225971698761 1.50465738773346 1.04019725322723 0.493348568677902 0.342873722314835 0.177731394767761 -0.398868262767792 -0.388274639844894 -0.227209016680717 -0.129138395190239 0.116047225892544 0.08456751704216 -0.112181387841702 0.000928584253415465 0.114038549363613 -0.134003862738609 -0.672553241252899 -0.733263552188873 -0.723447799682617 -0.76842725276947 -0.600643694400787 -0.768076777458191 -0.766027867794037 -0.759419977664948 -0.749198853969574 -0.724416196346283 -0.711812198162079 -0.690655648708344 -0.6633021235466 -0.642432987689972 -0.627499997615814 -0.593766570091248 -0.606494247913361 -0.575660705566406 -0.560436725616455 -0.542491316795349 -0.545018017292023 -0.53823584318161 -0.525058507919312 -0.506240546703339 -0.491177529096603 -0.45733967423439 -0.405586719512939 -0.341069996356964 -0.305165559053421 -0.292535752058029 -0.262024819850922 -0.258436977863312 -0.197937905788422 -0.0986192151904106 0.198730483651161 0.29848524928093 0.342796236276627 0.493599504232407 0.436844646930695 0.319807976484299 -0.0781150832772255 -0.065242312848568 -0.042198084294796 -0.0350645296275616 -0.0198580715805292 0.0449869595468044 0.0786146149039268 0.0746055319905281 0.150791704654694 0.23540660738945 0.104958340525627 0.0865007564425468 0.155416056513786 0.176711067557335 0.193733900785446 0.219102635979652 0.231584057211876 0.219888061285019 0.195104956626892 0.228957831859589 0.248617172241211 0.252409070730209 0.257924765348434 0.269727289676666 0.315823465585709 0.457791924476624 0.601592838764191 0.752807259559631 0.880303263664246 1.0599719285965 1.4945285320282 2.04970645904541 2.56004333496094 2.98039436340332 3.1406888961792 3.45790767669678 3.66476583480835 3.85930395126343 3.96559977531433 4.06106424331665 4.10754728317261 4.10913038253784 4.14024972915649
8.87500476837158 9.40454006195068 9.65700340270996 10.0354042053223 10.9023084640503 11.7313508987427 12.7376298904419 13.8174076080322 15.2565307617188 16.0938606262207 17.8177757263184 19.8942203521729 20.3906059265137 19.7340240478516 18.6442394256592 17.6069107055664 12.2139673233032 7.92252254486084 4.44147157669067 5.85863161087036 9.61474609375 10.4606447219849 16.4638843536377 17.8042831420898 11.2547674179077 7.0920352935791 8.83719539642334 10.1239070892334 12.1192169189453 17.5501670837402 12.0877370834351 6.87782382965088 5.62984180450439 7.39798879623413 8.95623683929443 9.97831630706787 5.46669101715088 3.14857864379883 5.26664400100708 6.81172180175781 8.32235145568848 11.1586561203003 14.5021047592163 18.6828212738037 19.8438682556152 19.2207565307617 19.348949432373 20.6562328338623 15.1319789886475 10.1462030410767 5.85206079483032 3.09849548339844 1.82629203796387 0.880196630954742 1.21220231056213 1.32038235664368 2.7609748840332 0.871089994907379 0.553672850131989 1.18749141693115 1.44439196586609 1.53226399421692 1.59012520313263 1.69688785076141 1.82148349285126 1.8677476644516 2.04181838035583 2.3141553401947 2.7944438457489 3.36331486701965 3.8775417804718 3.08708715438843 2.74719381332397 3.04782366752625 1.93460142612457 1.4754866361618 0.892914950847626 0.376824975013733 0.380930036306381 -0.165164709091187 -0.403380125761032 -0.318470567464828 -0.14424192905426 -0.0479014962911606 0.0570963770151138 0.0159264411777258 -0.0807440131902695 0.150185942649841 0.220617085695267 -0.345027685165405 -0.801825940608978 -0.810896217823029 -0.81104451417923 -0.812660455703735 -0.803400099277496 -0.794205784797668 -0.795330166816711 -0.788048446178436 -0.780977189540863 -0.757018864154816 -0.771309912204742 -0.747137010097504 -0.728593766689301 -0.726630508899689 -0.721718966960907 -0.697734713554382 -0.679570853710175 -0.66098028421402 -0.650332391262054 -0.644279599189758 -0.634020030498505 -0.626149296760559 -0.608315646648407 -0.586277842521667 -0.559326946735382 -0.514958083629608 -0.44343888759613 -0.381047546863556 -0.328300803899765 -0.325892180204391 -0.313682794570923 -0.301984012126923 -0.183896884322166 -0.182280480861664 -0.0625959187746048 0.113036841154099 0.06239228323102 0.0678232759237289 -0.138611346483231 -0.191921010613441 -0.150718167424202 -0.114697478711605 -0.0888659060001373 -0.091509535908699 -0.0529134087264538 -0.00348502094857395 0.0292272865772247 0.0331832729279995 0.061406783759594 0.0702227726578712 0.0738703310489655 0.157129287719727 0.18685944378376 0.180704727768898 0.201949879527092 0.193260565400124 0.192904651165009 0.204352080821991 0.216452836990356 0.214057877659798 0.218071728944778 0.257468342781067 0.300214260816574 0.42234218120575 0.5742107629776 0.741819262504578 0.862335741519928 1.08906614780426 1.37976098060608 1.97558069229126 2.52964544296265 2.94948816299438 3.30731773376465 3.47633743286133 3.64965724945068 3.74631476402283 3.83518624305725 3.88248682022095 3.8684196472168 3.90975403785706 3.87497901916504 3.85683917999268
8.63492393493652 8.95542049407959 9.27076721191406 9.91084003448486 10.5505256652832 11.3547964096069 12.2876386642456 13.3417510986328 13.8322257995605 14.7048444747925 16.5837211608887 18.0530548095703 20.3004341125488 20.3243751525879 18.1191253662109 18.1776504516602 17.2780227661133 12.1074266433716 7.04513883590698 6.21736001968384 7.86761426925659 9.9389009475708 9.71642208099365 13.2027740478516 13.526801109314 8.1281042098999 8.50442028045654 10.6816911697388 12.6306428909302 18.7768726348877 20.0056457519531 12.3579778671265 5.15228033065796 5.60516595840454 8.16565990447998 13.9411525726318 13.0392770767212 7.26746940612793 6.73598670959473 7.99959135055542 10.009069442749 11.4418687820435 14.1627798080444 15.9760446548462 17.1754932403564 18.6778373718262 17.446605682373 17.1607055664062 14.2167196273804 12.4552717208862 15.0214061737061 8.30663967132568 3.38103342056274 2.00372886657715 1.32870423793793 1.40878283977509 0.841094732284546 1.25926005840302 1.0812566280365 1.32878232002258 1.37343811988831 1.39906537532806 1.47845685482025 1.47711646556854 1.45867645740509 1.60583400726318 1.74543833732605 1.93786597251892 2.3307638168335 2.85902047157288 3.70806980133057 2.77272057533264 2.22857737541199 2.51944494247437 2.90503883361816 1.89463698863983 1.46447253227234 0.675717234611511 0.54884660243988 0.264577269554138 -0.396711438894272 -0.362391948699951 -0.192875996232033 -0.0959536135196686 -0.0930049642920494 0.0484604798257351 0.050662811845541 0.0693749859929085 0.0394464954733849 -0.172209098935127 -0.614332675933838 -0.669796407222748 -0.852868318557739 -0.847772538661957 -0.846376001834869 -0.833297193050385 -0.830910563468933 -0.82196307182312 -0.817250669002533 -0.814528524875641 -0.818404614925385 -0.808442533016205 -0.800674200057983 -0.794264733791351 -0.784746408462524 -0.768262803554535 -0.746510803699493 -0.732330322265625 -0.731164515018463 -0.71905791759491 -0.707873523235321 -0.705091714859009 -0.688101530075073 -0.666485071182251 -0.631369233131409 -0.586328446865082 -0.523438632488251 -0.467449188232422 -0.396255373954773 -0.370480090379715 -0.392864584922791 -0.348711639642715 -0.318067342042923 -0.306771993637085 -0.292775243520737 -0.267753899097443 -0.260353088378906 -0.206554114818573 -0.275372087955475 -0.279602259397507 -0.278746575117111 -0.238786637783051 -0.19231379032135 -0.166401877999306 -0.119200326502323 -0.0600686259567738 -0.0178492777049541 0.0104727502912283 0.0221410859376192 0.0561014711856842 0.0802712813019753 0.138338446617126 0.162465929985046 0.155633389949799 0.161624222993851 0.182127743959427 0.185679882764816 0.18132595717907 0.181762188673019 0.232274636626244 0.240742594003677 0.249860718846321 0.32066947221756 0.463519930839539 0.645293593406677 0.837611675262451 1.06128668785095 1.46847367286682 1.98415887355804 2.46616673469543 2.87119722366333 3.19592499732971 3.37949085235596 3.58203053474426 3.66198492050171 3.70771956443787 3.74210834503174 3.70956969261169 3.66371512413025 3.64224910736084 3.63419079780579 3.63328814506531
8.37639617919922 8.69479465484619 9.09191036224365 9.59707832336426 10.1654663085938 10.9383611679077 11.4040851593018 11.9185876846313 12.8236331939697 13.5399389266968 14.7354097366333 16.1975193023682 17.7403621673584 20.8290214538574 18.7000694274902 15.0552530288696 16.6838989257812 12.2185440063477 9.08394145965576 6.59575891494751 6.28950309753418 6.79825210571289 7.12664556503296 7.47477006912231 8.55985736846924 8.30999565124512 9.06346988677979 10.7821474075317 13.710352897644 15.7813930511475 21.4086494445801 21.7399997711182 14.4501581192017 10.0900630950928 6.32098579406738 5.48925065994263 6.82048082351685 7.41574192047119 7.67836904525757 9.26960182189941 10.0164222717285 11.6513195037842 13.380181312561 14.2632761001587 13.8293867111206 15.6455640792847 13.3209686279297 13.4401998519897 15.5339012145996 10.6165685653687 14.5274858474731 12.9179019927979 4.29523229598999 4.30635499954224 2.70668745040894 1.29967391490936 2.59444499015808 1.28757691383362 1.20344948768616 1.20647025108337 1.20117509365082 1.19326901435852 1.15750455856323 1.14841568470001 1.18932974338531 1.31180322170258 1.4562441110611 1.67045998573303 1.98319506645203 2.46515345573425 3.9301176071167 3.92655730247498 2.48575949668884 2.31282997131348 3.18101787567139 3.37622046470642 1.87246382236481 1.19000518321991 0.86258202791214 0.391294032335281 -0.20615853369236 -0.304460316896439 -0.276021212339401 -0.209555685520172 -0.135568976402283 -0.129861056804657 0.0148787293583155 -0.0370395109057426 -0.28802365064621 -0.546467483043671 -0.417091906070709 -0.431441426277161 -0.821691870689392 -0.887945771217346 -0.886188447475433 -0.881811439990997 -0.849769413471222 -0.856785476207733 -0.855212152004242 -0.855590462684631 -0.861490309238434 -0.853244364261627 -0.850208878517151 -0.845439374446869 -0.831984579563141 -0.8189976811409 -0.803221881389618 -0.792252361774445 -0.79522693157196 -0.783146262168884 -0.771157801151276 -0.768165647983551 -0.75896143913269 -0.735487282276154 -0.70683741569519 -0.654899656772614 -0.57940149307251 -0.541829466819763 -0.490482896566391 -0.44013524055481 -0.452329605817795 -0.449082642793655 -0.412427484989166 -0.390488773584366 -0.37311527132988 -0.350580006837845 -0.344590783119202 -0.339917570352554 -0.340145885944366 -0.347128808498383 -0.336692929267883 -0.326611876487732 -0.293505012989044 -0.234014719724655 -0.173939362168312 -0.113554805517197 -0.0504398122429848 -0.0156211378052831 0.0163040421903133 0.0588473081588745 0.0708808228373528 0.106459319591522 0.113110303878784 0.143920734524727 0.156395718455315 0.157025024294853 0.149144604802132 0.19174662232399 0.198708862066269 0.184870883822441 0.610276699066162 0.466613382101059 0.360970109701157 0.504931509494781 0.717249035835266 0.960420370101929 1.42716145515442 2.05929136276245 2.43327569961548 2.71323609352112 3.00581240653992 3.28187036514282 3.46188187599182 3.53616905212402 3.57112455368042 3.54641056060791 3.57387971878052 3.5380392074585 3.50328254699707 3.47407341003418 3.52578091621399 3.72060871124268
8.15835475921631 8.3659086227417 8.7823371887207 9.23923206329346 9.74469947814941 10.0310573577881 10.5152788162231 10.9149131774902 11.7519903182983 12.2326326370239 12.7259140014648 14.4748592376709 15.3820066452026 16.7159233093262 19.5230388641357 15.1197643280029 14.7654371261597 10.4309186935425 10.438850402832 7.88300466537476 6.3988618850708 6.80773735046387 7.19798421859741 7.14823818206787 7.4239354133606 7.69623851776123 9.0908374786377 10.02272605896 11.9618721008301 14.7100896835327 14.4615468978882 20.3983726501465 15.2742004394531 10.9862957000732 8.09849834442139 7.123131275177 6.78885269165039 8.94507694244385 8.6668586730957 9.56349086761475 10.3799839019775 11.0897808074951 10.6174211502075 10.5847663879395 9.89554595947266 10.3912353515625 10.5821218490601 7.83461570739746 8.11397743225098 7.56074905395508 6.75252389907837 10.4404201507568 5.23481512069702 2.31134748458862 3.5896737575531 3.55344748497009 1.03721749782562 1.10264647006989 1.09550762176514 1.02665889263153 0.987884283065796 0.947321891784668 0.968674063682556 1.00177669525146 1.05535912513733 1.13192164897919 1.26433646678925 1.39640653133392 1.57641553878784 1.9622129201889 3.07129192352295 4.38317632675171 3.74982380867004 2.54635286331177 2.80025386810303 3.98978400230408 3.6059627532959 1.61161351203918 1.40988326072693 0.659337162971497 0.239791870117188 0.025143276900053 -0.272129327058792 -0.325332909822464 -0.297148376703262 -0.303192138671875 -0.265359371900558 -0.0754596441984177 -0.422763913869858 -0.618388652801514 -0.657243847846985 -0.607815027236938 -0.776346683502197 -0.913478434085846 -0.928331434726715 -0.923107624053955 -0.899949610233307 -0.779192984104156 -0.828911304473877 -0.879816949367523 -0.913026392459869 -0.901044607162476 -0.895183980464935 -0.892376244068146 -0.873099327087402 -0.860306203365326 -0.858130574226379 -0.852878093719482 -0.861346244812012 -0.848389446735382 -0.841643273830414 -0.834452569484711 -0.824088990688324 -0.810868859291077 -0.785263299942017 -0.735215902328491 -0.66743665933609 -0.626861453056335 -0.578789412975311 -0.529852509498596 -0.506046235561371 -0.474576503038406 -0.509791970252991 -0.451903790235519 -0.45340895652771 -0.431438833475113 -0.426169395446777 -0.416242092847824 -0.408777952194214 -0.401395171880722 -0.385963380336761 -0.375930458307266 -0.344879478216171 -0.287325084209442 -0.224929481744766 -0.165079787373543 -0.101970180869102 -0.0544150397181511 -0.0115257184952497 0.0344161279499531 0.0462458245456219 0.0985583662986755 0.126411870121956 0.141559228301048 0.139947488903999 0.136484116315842 0.16849310696125 0.158252209424973 0.323684543371201 0.373402118682861 0.737291872501373 0.793068587779999 0.431698769330978 0.58748996257782 0.84890604019165 1.35692632198334 2.0002818107605 2.36732220649719 2.64016556739807 2.83708953857422 2.96368932723999 3.18094205856323 3.31037902832031 3.38244152069092 3.41442680358887 3.3825421333313 3.33420062065125 3.33225178718567 3.35847234725952 3.48133611679077 3.66783165931702 3.83448195457458
7.95466566085815 8.16681575775146 8.54466533660889 8.84067821502686 9.08793067932129 9.28115367889404 9.623779296875 9.7929105758667 10.5868062973022 11.0174055099487 11.6578350067139 11.8288307189941 13.2503786087036 13.9699726104736 15.3505878448486 13.6277732849121 11.1907167434692 8.32059001922607 10.670597076416 10.4141101837158 6.82477903366089 6.67517518997192 6.94441938400269 7.00839710235596 6.78373622894287 7.18895292282104 7.67173719406128 9.27584075927734 9.83009338378906 10.8016080856323 11.4539918899536 13.8046188354492 15.7202987670898 14.4912643432617 11.4581422805786 9.10632801055908 7.62517929077148 8.51411437988281 9.00182151794434 9.93621253967285 10.5286407470703 9.55112075805664 8.45962905883789 7.82257175445557 7.59999799728394 5.74956226348877 5.83269882202148 5.62896728515625 4.39724254608154 5.29173707962036 3.11248350143433 4.66930866241455 4.6180944442749 4.23353338241577 2.27166271209717 1.03458249568939 1.0464813709259 1.02017748355865 0.907042622566223 0.849184811115265 0.839246153831482 0.850594937801361 0.868408620357513 0.897951602935791 0.948145925998688 1.02998280525208 1.08189558982849 1.21487295627594 1.34775280952454 1.56256771087646 1.98529660701752 2.72420144081116 3.79886317253113 3.1043221950531 2.75509119033813 3.18377900123596 4.10311985015869 2.93741965293884 1.76603829860687 1.35330283641815 0.90604555606842 1.01645481586456 0.665697753429413 0.00595637923106551 -0.379253923892975 -0.468530565500259 -0.469618946313858 -0.3860102891922 -0.45613294839859 -0.666354417800903 -0.813635587692261 -0.87423700094223 -0.731495261192322 -0.766964793205261 -0.967273116111755 -0.960219204425812 -0.939695417881012 -0.926103293895721 -0.588579535484314 -0.774581432342529 -0.937346518039703 -0.947606325149536 -0.943961918354034 -0.926949560642242 -0.916650593280792 -0.901254713535309 -0.805615901947021 -0.902857899665833 -0.91379576921463 -0.909893691539764 -0.904967963695526 -0.899525284767151 -0.887202084064484 -0.883524477481842 -0.857354402542114 -0.811227083206177 -0.76134067773819 -0.72185754776001 -0.688028514385223 -0.623749792575836 -0.570036709308624 -0.552462875843048 -0.568369448184967 -0.523100197315216 -0.498801648616791 -0.488255500793457 -0.497282683849335 -0.483686536550522 -0.483077585697174 -0.462794214487076 -0.449627488851547 -0.435103327035904 -0.395758807659149 -0.334406226873398 -0.281261026859283 -0.235018491744995 -0.179570764303207 -0.121739283204079 -0.0549012646079063 -0.000777218258008361 0.0183981470763683 0.0687092766165733 0.101452834904194 0.0859150737524033 0.147238835692406 0.157758086919785 0.220584511756897 0.252653032541275 0.395485073328018 0.46350035071373 0.276477932929993 0.357790350914001 0.482118129730225 0.68330979347229 1.12298893928528 1.79936897754669 2.27308583259583 2.5147066116333 2.75539970397949 2.85296249389648 2.88489460945129 2.94410562515259 3.06217336654663 3.13801741600037 3.18707513809204 3.17912435531616 3.17154431343079 3.27068686485291 3.43896842002869 3.60216879844666 3.82872700691223 4.21022891998291
7.77778625488281 7.87002086639404 7.98060464859009 8.16808891296387 8.47138500213623 8.58711624145508 8.64247894287109 8.99781513214111 9.27710056304932 10.0493850708008 10.2388877868652 9.90947914123535 10.7014379501343 11.1734352111816 12.5051717758179 14.5071716308594 11.5855388641357 7.80812692642212 8.88403511047363 8.77007865905762 7.7250280380249 6.6868143081665 6.33138942718506 6.37823486328125 6.39713048934937 6.55023384094238 6.78627681732178 6.71907901763916 7.07176208496094 7.22184419631958 7.90016031265259 8.23884010314941 7.08954000473022 6.52223777770996 6.9229793548584 7.44395542144775 7.89832973480225 8.46145153045654 9.00457572937012 8.21259593963623 7.95544672012329 7.71979093551636 7.46092510223389 6.9278564453125 6.82767057418823 5.06796312332153 5.86813879013062 9.18042755126953 10.5960187911987 10.7455024719238 8.5836296081543 7.08265924453735 3.50643086433411 0.919738054275513 0.934548735618591 0.926595270633698 0.93153840303421 1.2414755821228 0.798261523246765 0.773761630058289 0.759715616703033 0.785479426383972 0.811465620994568 0.854201257228851 0.8874791264534 0.951248943805695 1.01700115203857 1.08807361125946 1.2168036699295 1.36406111717224 1.54917013645172 2.01272010803223 2.59217476844788 3.01618146896362 2.94428110122681 2.69873690605164 3.02204537391663 3.63968348503113 2.43586444854736 1.79538404941559 1.61186563968658 1.76969730854034 1.79826033115387 1.38888680934906 0.321353405714035 -0.414162755012512 -0.571695685386658 -0.645430386066437 -0.629121065139771 -0.618321478366852 -0.794731616973877 -0.873861372470856 -0.671720504760742 -0.797272503376007 -0.999547600746155 -0.984308004379272 -0.972618937492371 -0.942959368228912 -0.70664119720459 -0.389981031417847 -0.467140823602676 -0.87813001871109 -0.972361922264099 -0.965406656265259 -0.950797438621521 -0.815150320529938 -0.4939945936203 -0.694730222225189 -0.955217957496643 -0.959312558174133 -0.955082833766937 -0.943410277366638 -0.943856418132782 -0.938571095466614 -0.917517006397247 -0.880387306213379 -0.83320289850235 -0.806267440319061 -0.778357923030853 -0.727184474468231 -0.671211242675781 -0.632276594638824 -0.673598945140839 -0.664393484592438 -0.666478157043457 -0.596073567867279 -0.581300795078278 -0.630091845989227 -0.570133328437805 -0.536486625671387 -0.510816097259521 -0.49145182967186 -0.460493206977844 -0.39839830994606 -0.346322864294052 -0.296767920255661 -0.239780068397522 -0.178955718874931 -0.109934411942959 -0.0500191450119019 -0.00629106862470508 0.0299180150032043 0.087074838578701 0.0841322615742683 0.0885269269347191 0.136336535215378 0.268949419260025 0.281524270772934 0.141767144203186 0.195201501250267 0.283212810754776 0.377981960773468 0.521543025970459 0.802597999572754 1.47670567035675 1.97397410869598 2.35911083221436 2.60636401176453 2.701979637146 2.77359414100647 2.79488945007324 2.796466588974 2.85331106185913 2.93406963348389 3.00347828865051 3.06083512306213 3.21985793113708 3.40775346755981 3.63242149353027 3.96826887130737 4.18693351745605 4.44349765777588
7.20737886428833 7.28857278823853 7.44209384918213 7.54607105255127 7.57765817642212 7.66869735717773 7.68456649780273 8.18806648254395 8.3290548324585 8.48059749603271 8.54941272735596 8.01878929138184 8.21005344390869 8.72049617767334 9.23798274993896 9.70968437194824 7.59977245330811 6.58259916305542 6.62115669250488 6.55484437942505 7.00108480453491 6.41517448425293 5.32836675643921 4.90141201019287 5.31577348709106 5.71525049209595 5.42469787597656 5.24302291870117 4.94027328491211 5.2669620513916 5.5116662979126 5.69930171966553 6.13007164001465 6.77957344055176 7.3178858757019 7.7405948638916 8.09976005554199 7.4129433631897 6.86151599884033 6.48244667053223 6.40190553665161 6.17964124679565 5.32306337356567 5.3126163482666 5.98234748840332 4.1705379486084 4.45710039138794 5.41755342483521 4.87437725067139 4.00914764404297 2.92963528633118 2.43940305709839 0.840872168540955 0.800347506999969 0.794591784477234 0.806567072868347 0.896774232387543 1.12613606452942 0.742346882820129 0.725322544574738 0.741998136043549 0.760406792163849 0.80748575925827 0.840024650096893 0.879667699337006 0.92032778263092 0.997236967086792 1.06170105934143 1.11683893203735 1.26644659042358 1.39718317985535 1.60406649112701 2.02477264404297 2.34943461418152 2.71742653846741 2.83279061317444 2.56698346138 2.77495789527893 3.11848926544189 1.69105637073517 1.94236826896667 2.21523070335388 2.39341950416565 2.41595911979675 1.77739655971527 0.454630196094513 -0.28488364815712 -0.715681314468384 -0.725875794887543 -0.803130030632019 -0.816090941429138 -0.864021837711334 -0.796869397163391 -0.923482596874237 -1.01608228683472 -1.01600849628448 -0.999827325344086 -0.75548779964447 -0.622377455234528 -0.504483103752136 -0.33705997467041 -0.531770288944244 -0.808230817317963 -1.01945209503174 -0.686474978923798 -0.704161286354065 -0.268517732620239 -0.224881187081337 -0.518270254135132 -0.970717489719391 -0.998302102088928 -0.957409560680389 -0.993310749530792 -0.98972076177597 -0.950881898403168 -0.935204088687897 -0.888794958591461 -0.863239824771881 -0.837988257408142 -0.813498497009277 -0.761918246746063 -0.732394993305206 -0.772834420204163 -0.763072788715363 -0.754036724567413 -0.767500996589661 -0.694931328296661 -0.69316840171814 -0.67206746339798 -0.642827391624451 -0.615607619285583 -0.589952230453491 -0.551923215389252 -0.503305613994598 -0.445586085319519 -0.381137847900391 -0.290499150753021 -0.229970544576645 -0.161292627453804 -0.0896551981568336 -0.0344388447701931 0.000322043808409944 0.0144247682765126 0.0309186782687902 0.0481416434049606 0.108994752168655 0.0674177631735802 0.0899114012718201 0.112353183329105 0.170318990945816 0.247098088264465 0.365304887294769 0.545147657394409 0.959160447120667 1.56251132488251 2.02818369865417 2.31431126594543 2.45927500724792 2.56403088569641 2.62743091583252 2.65421772003174 2.69778060913086 2.76852583885193 2.86080479621887 2.99575257301331 3.16668677330017 3.31494235992432 3.62265539169312 3.97523641586304 4.22140884399414 4.38837957382202 4.62389516830444
6.69009447097778 6.75402164459229 6.67550802230835 6.74266290664673 6.96155405044556 7.0356297492981 7.03332281112671 6.89241123199463 6.94200897216797 6.74390077590942 6.69317483901978 6.60502147674561 6.20018243789673 6.23417854309082 6.3848090171814 6.56771421432495 6.41118097305298 6.39783525466919 6.12559080123901 6.1359748840332 8.75417423248291 9.85977935791016 7.00310230255127 4.65053272247314 4.08528995513916 3.88998436927795 4.18639516830444 4.5541467666626 4.86579751968384 4.97785377502441 5.28033971786499 5.9529824256897 6.42947435379028 6.81157350540161 7.12270736694336 7.53645515441895 6.95956563949585 6.2244725227356 5.63459873199463 5.236891746521 4.66352653503418 4.56359624862671 4.40592479705811 3.77533292770386 4.00282430648804 3.35763239860535 3.07147789001465 2.64757919311523 1.66320991516113 1.21785938739777 1.4538813829422 1.62433433532715 0.761155784130096 0.7432741522789 0.736208260059357 0.76020485162735 1.20864188671112 0.910131514072418 0.70760440826416 0.715510547161102 0.744403719902039 0.776021957397461 0.82192999124527 0.9489825963974 0.909538447856903 0.969359219074249 1.01958751678467 1.11544275283813 1.15785658359528 1.26580119132996 1.34654295444489 1.47483599185944 1.57129049301147 1.83816587924957 2.19616150856018 2.67397594451904 2.57507824897766 2.62111496925354 2.93087816238403 2.25780391693115 2.02403330802917 2.39967966079712 2.6405131816864 2.74807643890381 2.52791976928711 1.75168836116791 0.384851545095444 -1.02792406082153 -1.02371418476105 -0.931703269481659 -0.95817905664444 -0.988734126091003 -1.07741832733154 -1.06373262405396 -1.05640113353729 -0.973799705505371 -0.928405225276947 -0.918365061283112 -0.711976706981659 -0.62055104970932 -0.571512460708618 0.263966530561447 0.645719289779663 -0.695689260959625 -0.486080825328827 -0.476978898048401 -0.279147326946259 -0.105632446706295 -0.205735504627228 -0.553144097328186 -0.638185918331146 -0.692329704761505 -1.00392282009125 -1.01948595046997 -0.990143299102783 -0.971356689929962 -0.94378799200058 -0.931171536445618 -0.929237186908722 -0.886143028736115 -0.440842777490616 -0.806798696517944 -0.862342655658722 -0.87152886390686 -0.87033873796463 -0.841326713562012 -0.847420692443848 -0.801809191703796 -0.777904808521271 -0.748847544193268 -0.719365835189819 -0.688818275928497 -0.653508424758911 -0.625621736049652 -0.572317540645599 -0.469655305147171 -0.417045712471008 -0.349587172269821 -0.287042319774628 -0.207849338650703 -0.126230090856552 -0.0820000618696213 -0.0537971183657646 -0.0353029817342758 -0.00931394379585981 0.011372129432857 0.0186805538833141 0.0457166992127895 0.0664045438170433 0.10520900785923 0.177726209163666 0.314960569143295 0.534215807914734 0.965858221054077 1.52006423473358 1.94442689418793 2.20956826210022 2.33594226837158 2.44444561004639 2.50290155410767 2.57519459724426 2.66917991638184 2.81700897216797 2.95073080062866 3.12565064430237 3.33737802505493 3.62133359909058 3.84927725791931 4.16734027862549 4.39251708984375 4.53640270233154 4.65021276473999
6.00742530822754 6.05692958831787 6.15228128433228 6.20242404937744 6.34904766082764 6.44282054901123 5.99064636230469 5.7023286819458 5.62687301635742 5.76653003692627 5.71563673019409 5.75754404067993 5.90054845809937 6.08251762390137 6.015784740448 6.14022731781006 6.15793228149414 5.92873668670654 6.49559783935547 7.33656215667725 8.27463817596436 9.6921911239624 11.3347816467285 8.71689701080322 3.77629113197327 3.82892179489136 4.13459157943726 4.4588303565979 4.63065576553345 5.02092599868774 5.62658023834229 5.98362684249878 6.2258996963501 6.58651828765869 6.10407829284668 5.58807992935181 5.37101888656616 5.20306015014648 4.87045574188232 4.33265066146851 3.79073047637939 3.26055979728699 3.38141179084778 2.75635600090027 2.5819079875946 2.3497326374054 1.72593784332275 0.917945802211761 0.945377886295319 0.986877501010895 1.3304830789566 1.71628069877625 0.88465815782547 0.710947632789612 0.713946282863617 0.744936108589172 1.39399409294128 1.17252922058105 1.02735447883606 1.26859605312347 1.62810814380646 1.51824831962585 1.42910325527191 1.59766662120819 1.30513823032379 1.00689721107483 1.03482663631439 1.05474901199341 1.07372808456421 1.0988085269928 1.19031584262848 1.33278143405914 1.29234278202057 1.45980679988861 1.60948097705841 2.03971695899963 2.6781108379364 2.37567710876465 2.67949080467224 2.93762183189392 2.46785926818848 2.40264654159546 2.68478178977966 2.77639937400818 2.92619562149048 3.41307377815247 2.62566685676575 -0.634071528911591 -1.16761958599091 -1.16132211685181 -1.13917851448059 -1.13172388076782 -1.12206256389618 -1.12124133110046 -1.09872651100159 -1.07757318019867 -0.950789093971252 -0.91680908203125 -0.94093781709671 -0.453118294477463 -0.346817821264267 -0.707148194313049 -0.505415678024292 -0.393731862306595 -0.500292599201202 -0.474822521209717 -0.396028757095337 -0.482363671064377 -0.383835554122925 -0.476248890161514 -0.419590383768082 -0.492021471261978 -0.856048226356506 -1.02645540237427 -1.04194247722626 -1.04040610790253 -1.03525304794312 -1.019171833992 -0.993693947792053 -0.944174587726593 0.36597940325737 -0.514873862266541 -0.944501459598541 -0.962793350219727 -0.997540950775146 -0.970987617969513 -0.958256125450134 -0.943741142749786 -0.883535981178284 -0.845631420612335 -0.806889832019806 -0.778730750083923 -0.756060063838959 -0.739228963851929 -0.675815284252167 -0.572618842124939 -0.587913513183594 -0.48199650645256 -0.401411861181259 -0.332966566085815 -0.24804724752903 -0.197886511683464 -0.166216418147087 -0.131025314331055 -0.103843487799168 -0.0912431180477142 -0.112712025642395 -0.0762820690870285 -0.0340860337018967 0.0222730673849583 0.114704094827175 0.260090589523315 0.47917851805687 0.886593222618103 1.34734737873077 1.72448813915253 1.97544968128204 2.184574842453 2.33031129837036 2.44474720954895 2.55775380134583 2.78180384635925 2.91704988479614 3.08173441886902 3.40757417678833 3.65162515640259 3.89413022994995 4.03273773193359 4.25609970092773 4.41233682632446 4.62757062911987 4.72856473922729
5.56698751449585 5.59125900268555 5.6243577003479 5.69280052185059 5.3998236656189 5.37066459655762 5.13949489593506 5.27646064758301 5.31902456283569 5.37099599838257 5.45250606536865 5.62120246887207 5.57632493972778 5.67285203933716 5.72991704940796 5.54204130172729 5.63113641738892 5.63145685195923 6.31213426589966 7.09733247756958 7.89906024932861 7.56180286407471 8.24612998962402 9.27659797668457 7.41942739486694 3.99845027923584 4.059485912323 4.26056814193726 4.52615785598755 5.06227445602417 5.4201021194458 5.78178071975708 5.39222860336304 4.87361431121826 4.68984937667847 4.58216381072998 4.29891061782837 3.79710507392883 3.59727072715759 3.49778437614441 3.01782011985779 2.54454469680786 2.28367161750793 1.98003542423248 1.72236168384552 1.15365743637085 0.84302031993866 0.916477262973785 1.10759580135345 1.15652763843536 1.40441000461578 1.7012255191803 1.34254825115204 0.748151123523712 0.921132504940033 1.13859915733337 1.73276388645172 1.85608923435211 1.49235987663269 0.901520490646362 0.893494367599487 0.866512894630432 0.89340478181839 0.900162994861603 0.960770666599274 0.951681673526764 0.948736429214478 0.986920714378357 1.01787304878235 1.01404440402985 1.06892013549805 1.07695627212524 1.13308823108673 1.28817427158356 1.44867610931396 1.64147281646729 2.12869739532471 2.62979912757874 2.38139939308167 2.64070844650269 3.00999736785889 2.77457094192505 2.82474422454834 3.19079804420471 3.4073212146759 4.10839319229126 3.49845314025879 1.76750516891479 -0.707337319850922 -1.23256945610046 -1.26593399047852 -1.19626605510712 -1.18326056003571 -1.16875803470612 -1.15874147415161 -1.12960577011108 -1.08365035057068 -0.777411460876465 -0.763902068138123 -0.86899733543396 -0.827213227748871 -0.717456758022308 -0.559747457504272 -0.318372815847397 -0.439166963100433 -0.613310515880585 -0.593466281890869 -0.678076148033142 -0.580669045448303 -0.585931479930878 -0.480188995599747 -0.487678229808807 -0.420378416776657 -0.877101480960846 -1.09607124328613 -1.101975440979 -1.10287594795227 -1.09363067150116 -1.06158220767975 -1.00505149364471 0.830444395542145 -0.478667944669724 -0.981045007705688 -1.07856905460358 -1.1097320318222 -1.14420878887177 -1.1315723657608 -1.09745097160339 -0.990963995456696 -0.938971817493439 -0.898371696472168 -0.871772944927216 -0.865307927131653 -0.844559729099274 -0.748619258403778 -0.786964356899261 -0.791459739208221 -0.659330010414124 -0.565047919750214 -0.510894000530243 -0.445184409618378 -0.369047343730927 -0.307849645614624 -0.273744940757751 -0.251071244478226 -0.268455684185028 -0.276381611824036 -0.244418561458588 -0.175170302391052 -0.0872582793235779 0.0193674843758345 0.148448064923286 0.364624291658401 0.747694730758667 1.19880545139313 1.55687749385834 1.81305885314941 2.09306812286377 2.3612265586853 2.5885021686554 2.71508932113647 2.85748887062073 3.00132489204407 3.33171200752258 3.54541015625 3.82316398620605 4.04607629776001 4.18259716033936 4.27180910110474 4.48719692230225 4.66886615753174 4.77815198898315
5.07659006118774 5.15851926803589 5.00238466262817 5.1636266708374 4.92832612991333 4.97828435897827 5.01297283172607 5.08626937866211 5.10678672790527 5.20515584945679 5.22047662734985 5.23825597763062 5.30237770080566 5.15401649475098 5.22914886474609 4.95291233062744 4.88121461868286 5.25658702850342 5.95717191696167 6.23302698135376 6.07799625396729 6.62446022033691 6.36962223052979 6.32108592987061 7.07318449020386 4.08110284805298 4.0470085144043 4.26846933364868 4.42222738265991 4.72650623321533 4.65454769134521 4.30736589431763 4.12628889083862 4.04874610900879 3.811931848526 3.39950442314148 3.1561062335968 3.04211735725403 2.64422845840454 2.65975952148438 2.18288636207581 1.71225190162659 1.43092739582062 0.931416273117065 0.800092458724976 0.80523407459259 0.910703599452972 0.961888313293457 0.894596934318542 0.932594954967499 0.958612620830536 0.751481115818024 0.730369329452515 0.687731683254242 0.943677842617035 1.00668847560883 0.771732985973358 0.768953323364258 0.777491629123688 0.796386957168579 0.805962562561035 0.813209056854248 0.852058827877045 0.85448145866394 0.848746955394745 0.903315424919128 0.943405032157898 0.940227389335632 0.917093515396118 0.907945990562439 0.998941957950592 1.01477348804474 1.14370584487915 1.32079374790192 1.36400496959686 1.61270952224731 1.90550315380096 2.29903960227966 2.65213918685913 2.67592883110046 2.78956389427185 3.17319869995117 3.22741079330444 3.68828582763672 3.80764031410217 4.30741930007935 4.25194883346558 2.26595020294189 1.80628836154938 -1.03333175182343 -1.31771242618561 -1.26882863044739 -1.24365663528442 -1.2275493144989 -1.20006287097931 -1.18539464473724 -1.03758466243744 -1.00030863285065 -0.932316958904266 -0.905071377754211 -0.827852606773376 -0.76688939332962 -0.665549099445343 -0.461997300386429 -0.395234614610672 -0.625120103359222 -0.691313743591309 -0.787672877311707 -0.834744274616241 -0.861890256404877 -0.660206377506256 -0.316448509693146 -0.412656933069229 -0.555996775627136 -0.680577456951141 -1.1491334438324 -1.15867674350739 -1.15809869766235 -1.1231130361557 -1.04161322116852 1.29109394550323 0.413842022418976 -0.150039330124855 -0.524226188659668 -1.20842278003693 -1.30191004276276 -1.28847622871399 -1.21714079380035 -1.08155953884125 -1.03704607486725 -1.00150692462921 -0.989355981349945 -0.988255023956299 -0.942636668682098 -0.861837863922119 -0.95918607711792 -0.872935712337494 -0.792187690734863 -0.755504190921783 -0.713968992233276 -0.659093677997589 -0.578028917312622 -0.500944197177887 -0.445307195186615 -0.416705578565598 -0.440246611833572 -0.459075421094894 -0.43784686923027 -0.346051424741745 -0.258005112409592 -0.158231809735298 0.0219285953789949 0.207110658288002 0.550041437149048 1.00283062458038 1.49272894859314 1.90692591667175 2.28070092201233 2.54751324653625 2.66986417770386 2.83157563209534 3.13532137870789 3.28327679634094 3.41396856307983 3.71273136138916 3.91708517074585 4.05709075927734 4.25177383422852 4.35314416885376 4.52632522583008 4.75896787643433 4.99589443206787
4.50307559967041 4.66538143157959 4.54690599441528 4.644690990448 4.67360258102417 4.7452392578125 4.77935123443604 4.8870005607605 5.01006698608398 4.95489931106567 5.01747703552246 4.87264108657837 4.82658576965332 4.56946325302124 4.52599668502808 4.54575634002686 4.60183048248291 4.76149082183838 4.60335922241211 5.20857620239258 5.39458990097046 5.42664194107056 5.89481163024902 5.4087929725647 5.45399904251099 4.12955141067505 4.16480159759521 4.029052734375 4.15386152267456 3.93783092498779 3.80939126014709 3.65901970863342 3.36136651039124 3.02361249923706 2.79477000236511 2.72023320198059 2.34856915473938 2.30681586265564 1.92318964004517 1.73852181434631 1.54540717601776 1.1527042388916 0.767547428607941 0.727965533733368 0.676642596721649 0.657629907131195 0.633222460746765 0.597773492336273 0.601219177246094 0.58610075712204 0.601422727108002 0.63919723033905 0.736455619335175 0.685232400894165 0.720927894115448 0.736348152160645 0.740171909332275 0.726613759994507 0.748753607273102 0.756913542747498 0.766095221042633 0.76662290096283 0.782405257225037 0.825934052467346 0.836344063282013 0.833679616451263 0.872609496116638 0.888661503791809 0.845216631889343 0.886447966098785 0.93178802728653 0.999861896038055 1.1691609621048 1.30975019931793 1.46541047096252 1.57068705558777 1.84629535675049 2.17374277114868 2.58894395828247 2.8275933265686 3.04606604576111 3.44865369796753 3.61349558830261 3.86365056037903 3.91732978820801 4.99317836761475 5.45153903961182 2.08004903793335 2.72500872612 1.88044357299805 0.224472403526306 -1.31224024295807 -1.29993140697479 -1.27842545509338 -1.2534943819046 -1.24487173557281 -1.18416655063629 -1.04176616668701 -0.934214532375336 -0.91556578874588 -0.948942899703979 -0.881616413593292 -0.848031759262085 -0.743775606155396 -0.458057194948196 -0.327273517847061 -0.774245500564575 -0.967891812324524 -0.925225257873535 -0.846593379974365 -0.643851399421692 -0.703648209571838 -0.694867670536041 -0.463695526123047 -0.286258161067963 -0.686258137226105 -1.20797097682953 -1.2217720746994 -1.18309092521667 -0.393634110689163 1.61487507820129 1.0607191324234 0.724715232849121 1.56872594356537 0.857598960399628 -1.34837734699249 -1.381756067276 -1.26444065570831 -1.18803143501282 -1.14108502864838 -1.09888780117035 -1.08482766151428 -1.08124387264252 -1.0460718870163 -0.994357943534851 -1.02202618122101 -0.979290783405304 -0.951882004737854 -0.967946887016296 -0.911992788314819 -0.857616543769836 -0.784242749214172 -0.707604706287384 -0.659369707107544 -0.608526945114136 -0.636298656463623 -0.61789071559906 -0.598664283752441 -0.525360643863678 -0.424731492996216 -0.286302328109741 -0.100062362849712 0.113571189343929 0.390892177820206 0.86130028963089 1.45396494865417 2.05446720123291 2.39609098434448 2.5509979724884 2.73759603500366 3.05583548545837 3.23314499855042 3.35261034965515 3.48269176483154 3.70455574989319 3.91637754440308 4.12335729598999 4.27620887756348 4.41484022140503 4.70991611480713 4.87097644805908 4.9740195274353
4.26373386383057 4.36476898193359 4.40294456481934 4.45173978805542 4.47861623764038 4.54918766021729 4.66065740585327 4.63092708587646 4.70526647567749 4.73434591293335 4.60755920410156 4.41298818588257 4.19852018356323 4.18427085876465 4.24379396438599 4.030113697052 4.17393589019775 3.92787289619446 4.16728830337524 4.16280746459961 4.6852240562439 4.80333614349365 5.19776916503906 5.10575151443481 5.05034732818604 4.00801038742065 4.50352954864502 3.60749626159668 3.0642557144165 2.79041147232056 2.97204160690308 2.98818325996399 2.81030774116516 2.47533059120178 2.09869575500488 2.0585343837738 1.70738017559052 1.5184086561203 1.34244632720947 1.1281304359436 0.701325476169586 0.663023054599762 0.677579343318939 0.587409257888794 0.556518852710724 0.543409645557404 0.546750724315643 0.539978444576263 0.548576533794403 0.565853416919708 0.580298066139221 0.597888827323914 0.613389253616333 0.644303560256958 0.681362628936768 0.692195773124695 0.703095316886902 0.714552342891693 0.717680394649506 0.709581077098846 0.729596376419067 0.748794853687286 0.758005559444427 0.756914436817169 0.797948181629181 0.806366324424744 0.785478591918945 0.807975172996521 0.839923739433289 0.945058703422546 0.957347929477692 1.00588309764862 1.20074367523193 1.29109334945679 1.47538805007935 1.64183902740479 1.77302515506744 2.12692308425903 2.61826181411743 2.94369840621948 3.35542678833008 3.64610266685486 3.75125885009766 4.46499300003052 4.46732473373413 6.87628650665283 8.6554012298584 1.65266060829163 1.55175185203552 1.5078192949295 1.69712388515472 -1.38646757602692 -1.39552855491638 -1.34274446964264 -1.31757533550262 -1.29542434215546 -1.22629404067993 -1.13186490535736 -1.03006982803345 -0.963779628276825 -0.988619565963745 -0.963145315647125 -0.95231705904007 -0.908180117607117 -0.869146227836609 -0.615419983863831 -0.916440606117249 -0.934164583683014 -0.855252146720886 -0.947751641273499 -0.920459389686584 -0.834719836711884 -0.632105052471161 -0.513835430145264 -0.0769197195768356 -0.185319110751152 -0.869515895843506 -1.2655416727066 -0.901464819908142 0.00087360228644684 1.84555184841156 1.47900080680847 1.01266229152679 1.38357198238373 1.00364804267883 -0.390125304460526 -1.49853670597076 -1.39192235469818 -1.26892805099487 -1.23004019260406 -1.20365345478058 -1.18642640113831 -1.17480444908142 -1.14426732063293 -1.12298488616943 -1.11250030994415 -1.09276628494263 -1.083371758461 -1.08603775501251 -1.12187361717224 -1.05494201183319 -0.97127765417099 -0.920726537704468 -0.876307487487793 -0.84509414434433 -0.813525497913361 -0.771166741847992 -0.738415360450745 -0.68977016210556 -0.607014954090118 -0.473851382732391 -0.259880393743515 -0.0609200298786163 0.181161403656006 0.640080332756042 1.16663599014282 1.68796074390411 2.03714656829834 2.44434571266174 2.81709456443787 3.03283977508545 3.17367053031921 3.35705876350403 3.54711437225342 3.78387069702148 3.91177010536194 4.13180923461914 4.42530870437622 4.59283447265625 4.69367218017578 4.82413768768311 4.93242216110229
4.15780162811279 4.20843505859375 4.25914669036865 4.26484251022339 4.35335350036621 4.32819271087646 4.39544153213501 4.40195465087891 4.28687429428101 4.29327154159546 4.02840948104858 3.88337421417236 3.95236253738403 3.82544016838074 3.72722887992859 3.61187696456909 3.70034170150757 3.81016492843628 3.90269494056702 3.95526027679443 4.00385189056396 4.31633377075195 4.8507022857666 5.45746994018555 3.9872133731842 3.54293394088745 3.45666408538818 4.01110410690308 2.51449632644653 2.37777996063232 2.39443135261536 2.18053197860718 2.24390077590942 2.00453233718872 1.6609206199646 1.30620682239532 1.16078209877014 0.95233815908432 0.691465735435486 1.51679337024689 0.665238261222839 2.21933603286743 2.42484378814697 0.547681272029877 0.517968237400055 0.507771134376526 0.513153731822968 0.513241052627563 0.531232118606567 0.559373676776886 0.575953841209412 0.58640456199646 0.603739798069 0.601687908172607 0.629769444465637 0.65205979347229 0.647311270236969 0.670057415962219 0.696973979473114 0.681406378746033 0.697072088718414 0.704278111457825 0.736280083656311 0.732253193855286 0.731438398361206 0.769804537296295 0.798975229263306 0.83135986328125 0.906445920467377 0.944251894950867 0.970324754714966 1.1477677822113 1.17944240570068 1.30727398395538 1.48613023757935 1.67254436016083 2.00553941726685 2.16945672035217 2.61196875572205 2.96814727783203 3.47502422332764 3.99640083312988 4.20287990570068 5.67533445358276 6.14591455459595 7.5112190246582 8.56153869628906 2.24078154563904 1.52879726886749 2.51379227638245 1.88098394870758 0.612833142280579 -1.4288444519043 -1.40140581130981 -1.34131467342377 -1.27387607097626 -1.21990406513214 -1.1555587053299 -1.09578108787537 -1.0573867559433 -1.0402295589447 -0.994353473186493 -1.00878465175629 -1.04713809490204 -1.10862243175507 -1.05609667301178 -0.975438475608826 -0.628662943840027 -1.09705138206482 -1.02489900588989 -0.919797718524933 -0.886330187320709 -0.655771791934967 -0.41862216591835 -0.0580731518566608 0.0921619087457657 -0.321179568767548 -0.820193409919739 -0.430521011352539 0.53656142950058 1.41087567806244 2.75486016273499 1.85072708129883 1.61186563968658 2.79935789108276 2.24384832382202 -1.5416225194931 -1.48163425922394 -1.32697141170502 -1.28714668750763 -1.26458632946014 -1.24076128005981 -1.22906363010406 -1.21148633956909 -1.21057260036469 -1.19476544857025 -1.19831788539886 -1.20870697498322 -1.22615790367126 -1.26916754245758 -1.24455618858337 -1.18733727931976 -1.13855850696564 -1.12388598918915 -1.09572315216064 -0.995003879070282 -0.97186005115509 -0.921213209629059 -0.879455029964447 -0.806477606296539 -0.672381699085236 -0.496028542518616 -0.343630433082581 -0.0944220125675201 0.219287768006325 0.606951415538788 1.05036914348602 1.60349833965302 2.14675450325012 2.47524571418762 2.65337014198303 2.77751207351685 3.18595027923584 3.64768862724304 3.87187027931213 4.01439523696899 4.24265098571777 4.41122484207153 4.51184797286987 4.64629793167114 4.75610542297363 4.85170078277588
3.93506240844727 3.96036338806152 4.05227518081665 4.1059889793396 4.09733819961548 4.09575176239014 3.9977388381958 4.00212335586548 3.75936889648438 3.71773266792297 3.65052366256714 3.49932456016541 3.44283270835876 3.25504612922668 3.48259329795837 3.57571792602539 3.65191411972046 3.70743298530579 3.75723958015442 3.86020398139954 4.01455736160278 4.09252214431763 5.08350801467896 3.79055523872375 3.03951930999756 3.38805627822876 6.13426780700684 9.1218376159668 8.42535495758057 2.00638961791992 1.69194185733795 1.30485844612122 1.31042420864105 1.18694698810577 1.08422267436981 0.920535624027252 0.652428567409515 0.65115225315094 0.797602355480194 1.78093802928925 1.32051229476929 3.05838990211487 1.95982182025909 0.509201467037201 0.493967682123184 0.486498594284058 0.495532274246216 0.497560441493988 0.525807857513428 0.55435585975647 0.565252423286438 0.573515236377716 0.589670896530151 0.609256446361542 0.605132460594177 0.601665318012238 0.607682824134827 0.624642848968506 0.645996510982513 0.674462914466858 0.67123156785965 0.670954048633575 0.664403080940247 0.708873093128204 0.741188168525696 0.793333172798157 0.845229506492615 0.869647324085236 0.952553391456604 0.988999247550964 1.02823162078857 1.18580913543701 1.2476110458374 1.336186170578 1.54620981216431 1.77877831459045 2.07014346122742 2.26501822471619 2.52360939979553 2.88506174087524 3.44248604774475 4.63595867156982 5.04875612258911 6.00065135955811 6.55689668655396 7.43069267272949 7.94001436233521 3.74854445457458 1.89657032489777 1.3092896938324 1.21943187713623 1.06269598007202 0.483757525682449 -0.206873312592506 -1.18797159194946 -1.25450837612152 -1.19183659553528 -1.14257645606995 -1.11227965354919 -1.0526670217514 -0.900157809257507 -0.913191378116608 -1.10076224803925 -1.12497127056122 -1.11558043956757 -0.953354239463806 -1.04304528236389 -0.921961843967438 -0.936210632324219 -1.01783299446106 -0.883036077022552 -0.743204474449158 -0.707453608512878 -0.409080237150192 -0.27185931801796 -0.242670595645905 -0.61898547410965 -0.542187392711639 0.027721444144845 0.438857436180115 0.812613546848297 2.20113945007324 2.88065958023071 2.37754511833191 3.47743821144104 3.44711923599243 -1.14716446399689 -1.50401973724365 -1.37140917778015 -1.34220123291016 -1.3136602640152 -1.10953783988953 -1.27345061302185 -1.26561379432678 -1.26562130451202 -1.26578485965729 -1.29388868808746 -0.607766151428223 -1.33274149894714 -1.34247434139252 -1.34387898445129 -1.33765864372253 -1.33858370780945 -1.28723549842834 -1.23308849334717 -1.14610147476196 -1.14881467819214 -1.13365423679352 -1.10787558555603 -1.07516086101532 -0.995533645153046 -0.890315651893616 -0.692539036273956 -0.447153091430664 -0.233458340167999 0.0364271774888039 0.274004876613617 0.854561567306519 1.39579010009766 1.74956631660461 2.04983329772949 2.40553164482117 3.02537155151367 3.6268994808197 4.04813957214355 4.15704870223999 4.22120523452759 4.35810518264771 4.47443723678589 4.56412076950073 4.65841245651245 4.68214225769043
3.712557554245 3.76610112190247 3.7698233127594 3.86298847198486 3.79012417793274 3.69200468063354 3.48244619369507 3.44371485710144 3.40943050384521 3.47682523727417 3.28454971313477 3.05634260177612 3.30664300918579 3.37332940101624 3.46341729164124 3.52267122268677 3.55013394355774 3.625648021698 3.76058769226074 3.84791994094849 3.84523415565491 3.92149806022644 3.47941207885742 4.04252481460571 3.32910919189453 4.03870868682861 3.170982837677 1.67065680027008 1.45612859725952 1.08418989181519 0.923138082027435 0.6650390625 0.508420586585999 0.527425050735474 0.507908463478088 0.597016990184784 0.632005274295807 0.759439706802368 1.0377870798111 1.66978442668915 2.20609903335571 3.17951583862305 0.944144606590271 0.48621279001236 0.476622343063354 0.473839193582535 0.479994565248489 0.497649818658829 0.514553546905518 0.533800184726715 0.55659157037735 0.569086253643036 0.571660459041595 0.58943635225296 0.597419857978821 0.595531642436981 0.607767760753632 0.612630248069763 0.612985193729401 0.62315422296524 0.640036284923553 0.660224437713623 0.675644993782043 0.694304883480072 0.770061910152435 0.822111785411835 0.859973073005676 0.943911671638489 0.980923295021057 1.00306797027588 1.13039314746857 1.1899801492691 1.28587555885315 1.57856905460358 1.6519021987915 1.84001874923706 2.01978278160095 2.28595328330994 2.55106043815613 2.80992436408997 3.72649121284485 4.51370573043823 5.20903158187866 5.87610816955566 6.35388994216919 7.08976125717163 7.44552326202393 5.01150894165039 2.61896920204163 1.87546467781067 0.442862540483475 -0.331254363059998 0.0230182204395533 -0.215650454163551 -0.527250170707703 -1.15402281284332 -1.15292680263519 -1.11999654769897 -1.09967827796936 -1.01441502571106 -0.785673558712006 -0.752134501934052 -1.00781321525574 -1.07851886749268 -1.07576978206635 -1.13547575473785 -1.1873265504837 -1.10113000869751 -1.06619429588318 -1.03843665122986 -0.93967467546463 -0.782240867614746 -0.80450576543808 -0.75946718454361 -0.68610543012619 -0.583800196647644 -0.165970608592033 -0.17397053539753 0.14581473171711 0.489466041326523 1.24973523616791 1.68293070793152 3.18583154678345 3.10070872306824 3.12863492965698 3.1155903339386 -1.04524743556976 -1.52013719081879 -1.40518093109131 -1.39018607139587 -1.36144649982452 -1.22595953941345 -1.31516468524933 -0.99801105260849 -0.794627785682678 -0.791243970394135 -0.778887569904327 -0.655063211917877 -1.43134248256683 -1.43901932239532 -1.42779362201691 -1.45194399356842 -1.48100292682648 -1.45848333835602 -1.43291294574738 -1.41247606277466 -1.4101300239563 -1.40904605388641 -1.39102435112 -1.37691760063171 -1.42138826847076 -1.41484045982361 -1.21435642242432 -0.953902840614319 -0.761515736579895 -0.547117710113525 -0.456310927867889 -0.182585865259171 0.645283818244934 1.14717173576355 1.52540600299835 2.09647107124329 2.91786336898804 3.65568518638611 3.97434210777283 4.02602291107178 4.1492600440979 4.27767372131348 4.35885572433472 4.43048286437988 4.42262315750122 4.48236036300659
3.48137211799622 3.50718903541565 3.46949791908264 3.41064524650574 3.31373405456543 3.13862943649292 3.09086799621582 3.18874287605286 3.03168106079102 3.01327252388 3.11720371246338 3.18909549713135 3.2820885181427 3.35448884963989 3.41073393821716 3.43953990936279 3.55634236335754 3.63060927391052 3.63795518875122 3.69272565841675 3.37831854820251 2.92689752578735 2.73843789100647 3.76338481903076 2.65422773361206 2.15935873985291 2.31046342849731 2.04665112495422 1.15406811237335 0.585514903068542 0.3104068338871 0.181905657052994 0.222616270184517 0.304890960454941 0.405328243970871 0.511253416538239 0.553509116172791 0.842904329299927 1.10036242008209 1.64238047599792 2.80235028266907 2.99017286300659 0.635240197181702 0.472725510597229 0.462825775146484 0.471071243286133 0.471815437078476 0.491002082824707 0.512969255447388 0.520925521850586 0.544214069843292 0.549005806446075 0.554528653621674 0.566173017024994 0.577420175075531 0.592209458351135 0.593468427658081 0.60923558473587 0.614956438541412 0.618484020233154 0.64443176984787 0.649046361446381 0.712087035179138 0.766791701316833 0.78674590587616 0.832293450832367 0.911209106445312 0.97553539276123 1.03381299972534 1.07080459594727 1.19731771945953 1.34633183479309 1.41248643398285 1.66669833660126 1.76015448570251 1.81804203987122 2.06626391410828 2.25915455818176 2.84460496902466 3.12390446662903 3.63149499893188 4.10127592086792 4.79786062240601 5.63907527923584 6.4971866607666 7.73476648330688 8.78879547119141 7.78076314926147 4.93251371383667 2.98964285850525 0.69096714258194 -0.319160878658295 -0.417030811309814 -0.769652307033539 -1.02336812019348 -0.907236516475677 -0.970137298107147 -1.08754086494446 -0.941368341445923 -0.809005796909332 -0.74066960811615 -0.621088564395905 -0.376211732625961 -0.755322873592377 -0.721838295459747 -0.861233651638031 -1.06602001190186 -1.06701123714447 -0.992522835731506 -1.06895399093628 -0.977685451507568 -1.03674077987671 -0.945009112358093 -0.732792913913727 -0.313904106616974 -0.300947397947311 -0.112334497272968 0.0296303909271955 0.199644103646278 0.844984531402588 1.35931444168091 1.78706109523773 2.66026759147644 3.11460256576538 4.23442554473877 4.71711874008179 1.37835454940796 -1.48000550270081 -0.982645511627197 -1.42559158802032 -1.40492749214172 -1.18620383739471 -0.898750007152557 -0.552227854728699 -0.349968045949936 -0.481056421995163 -0.0664426162838936 -0.177853852510452 -0.717880249023438 -0.703153431415558 -0.545380175113678 -1.39698576927185 -1.57473492622375 -1.65965139865875 -1.77265954017639 -1.78944766521454 -1.75513911247253 -1.70526099205017 -1.70523250102997 -1.79237914085388 -1.94867932796478 -2.07424974441528 -2.07204103469849 -1.80565404891968 -1.47683012485504 -1.31294465065002 -1.16184842586517 -0.550168514251709 0.0348083339631557 0.561836302280426 1.08043909072876 1.81608963012695 2.84852576255798 3.46481847763062 3.78212809562683 3.91103029251099 4.00622415542603 4.15229082107544 4.14864826202393 4.07997131347656 3.93653249740601 3.96207189559937
3.23722720146179 3.1122510433197 2.99426221847534 2.78948783874512 2.70766448974609 2.76289629936218 2.67488741874695 2.68272471427917 2.72602796554565 2.97690773010254 3.06555438041687 3.14178967475891 3.21647453308105 3.25089907646179 3.31972646713257 3.43386840820312 3.44395017623901 3.48136258125305 3.19657897949219 2.82152724266052 2.52408170700073 2.47207689285278 2.30110502243042 2.29151296615601 3.37162256240845 3.37403345108032 2.91217517852783 2.23837971687317 1.52012085914612 0.567381083965302 0.05782151222229 0.0885133892297745 0.144599959254265 0.223396360874176 0.315083920955658 0.414422631263733 0.484693437814713 0.554233491420746 0.897887647151947 1.50542593002319 2.82581377029419 3.08995246887207 1.00568580627441 0.458785951137543 0.450545132160187 0.443036198616028 0.471845179796219 0.485210448503494 0.502723395824432 0.509134650230408 0.524719774723053 0.527931272983551 0.542978465557098 0.551817536354065 0.550632119178772 0.566737353801727 0.581965565681458 0.797298550605774 0.624906420707703 0.637701332569122 0.954708993434906 0.855242609977722 0.760950684547424 0.782989084720612 0.862928330898285 0.871987164020538 0.927765667438507 1.02233338356018 1.072110414505 1.25712764263153 1.28871834278107 1.40334236621857 1.5623459815979 1.63910210132599 1.7871527671814 1.91856205463409 2.31797695159912 2.46899652481079 2.78397679328918 3.06061458587646 3.35842895507812 3.70148968696594 4.76902675628662 5.6606822013855 7.0918607711792 7.46319675445557 7.87037754058838 7.51131343841553 5.34498167037964 3.76374077796936 1.69591760635376 0.106053978204727 -0.516810297966003 -0.827400684356689 -0.901983976364136 -0.634924054145813 -0.670762658119202 -0.682128965854645 -0.665728271007538 -0.592519462108612 -0.629029452800751 -0.221399039030075 -0.448753595352173 -0.881703615188599 -0.621778845787048 -0.530853986740112 -0.685073137283325 -0.800937294960022 -0.790559887886047 -0.850984871387482 -1.04531002044678 -0.936551094055176 -0.822203814983368 -0.472086220979691 -0.278635442256927 -0.120922312140465 -0.0962575525045395 0.3906329870224 0.533270359039307 0.940580904483795 1.03491473197937 1.43844187259674 2.59126973152161 3.57381105422974 3.74761748313904 4.87834692001343 3.39939904212952 0.466847628355026 0.119138203561306 -1.16892540454865 -1.10134243965149 -0.898731708526611 -0.533208847045898 -0.0547375828027725 0.1429283618927 0.00284684379585087 0.0943428501486778 -0.0846171751618385 -0.143441528081894 -0.211361914873123 0.145298689603806 1.29754185676575 2.19627785682678 -0.562850594520569 -1.99698579311371 -2.04942607879639 -2.01373529434204 -1.98510348796844 0.24981202185154 -0.139006346464157 -2.75884699821472 -3.14065837860107 -3.06642889976501 -2.78136253356934 -2.294508934021 -2.16389131546021 -2.04202103614807 -1.46669673919678 -0.656168401241302 0.0367693491280079 0.675027251243591 1.34151363372803 2.43993473052979 3.0970516204834 3.46677660942078 3.67191505432129 3.78641176223755 3.82847428321838 3.79175734519958 3.61667776107788 3.45872235298157 3.44931650161743
2.91719317436218 2.65030980110168 2.50946688652039 2.35653328895569 2.27140951156616 2.23413228988647 2.38674688339233 2.65931725502014 2.76618099212646 2.87623929977417 2.9602530002594 3.00945210456848 3.10660099983215 3.22748947143555 3.29789400100708 3.30830931663513 3.08592391014099 2.66019749641418 2.37828063964844 2.31755185127258 2.17313361167908 1.90463578701019 2.08141779899597 2.60356950759888 2.90490579605103 3.11816453933716 2.73976254463196 2.10035920143127 1.47926640510559 0.528257846832275 0.011644184589386 0.0149537594988942 0.0680320113897324 0.142118513584137 0.244405910372734 0.337848514318466 0.396414369344711 0.44527930021286 0.609997153282166 1.18187117576599 2.01632714271545 3.75451731681824 2.9384503364563 1.2221565246582 0.750990450382233 0.444025069475174 0.471508711576462 0.477845549583435 0.487700611352921 0.49843367934227 0.507809579372406 0.513331592082977 0.529127657413483 0.53142124414444 0.540968656539917 0.549682915210724 0.595332860946655 0.943970799446106 0.648079395294189 0.71045196056366 0.756967067718506 1.46232962608337 1.54696428775787 0.993354558944702 0.888303935527802 0.946712791919708 0.997180640697479 1.04379463195801 1.18736684322357 1.34787118434906 1.37743973731995 1.42365980148315 1.62229418754578 1.70641088485718 1.78197991847992 2.11391925811768 2.28111720085144 2.44679665565491 2.57841753959656 2.85719966888428 3.16869163513184 3.90749716758728 4.79161071777344 5.5711932182312 6.47283887863159 7.08500671386719 8.04273891448975 8.66720199584961 6.51904964447021 4.29034328460693 2.73392343521118 1.84885239601135 -0.0660312622785568 -0.760612428188324 -0.710333585739136 -0.548440515995026 -0.445619821548462 -0.39940083026886 -0.14019151031971 -0.386746406555176 -0.409089386463165 -0.140258699655533 -0.268556833267212 -0.668309032917023 -0.689797878265381 -0.445613712072372 -0.625877559185028 -0.763776421546936 -0.830273389816284 -0.909313082695007 -0.855526208877563 -0.549277365207672 -0.562374532222748 -0.420479118824005 -0.264505445957184 0.158858358860016 0.174226358532906 0.42390114068985 0.578083157539368 0.634976625442505 1.03157413005829 1.44937324523926 1.77788186073303 2.74185371398926 2.78191304206848 2.32317996025085 2.14164781570435 1.5403333902359 0.906434714794159 0.0148367555812001 -0.564570486545563 -0.345526903867722 -0.0751032829284668 0.1200315579772 0.319936722517014 0.43280366063118 0.290021270513535 0.103665322065353 0.223133996129036 0.808798134326935 1.67721593379974 3.94629716873169 6.28295803070068 4.38167858123779 -0.532723188400269 -2.05072069168091 -0.258279085159302 2.97863125801086 10.9432764053345 13.3056802749634 -3.51218676567078 -3.52253746986389 -3.3060405254364 -3.04430389404297 -2.81291842460632 -2.59070706367493 -2.33529615402222 -2.05079555511475 -1.32588303089142 -0.418416619300842 0.509547591209412 1.07276046276093 1.72377109527588 2.74559831619263 3.07649683952332 3.30984401702881 3.40182662010193 3.3127110004425 3.23779940605164 3.22354459762573 3.14246487617493 3.20806121826172
2.53929448127747 2.33252429962158 2.32105469703674 2.10497856140137 1.88783705234528 2.18807339668274 2.42074966430664 2.52130460739136 2.6258065700531 2.72250962257385 2.77623534202576 2.91756701469421 3.03531336784363 3.08661341667175 3.09809684753418 2.7871949672699 2.45825600624084 2.28525829315186 2.10233688354492 1.80224740505219 1.55099737644196 1.63332605361938 1.9987850189209 2.16189670562744 2.32994389533997 2.35332703590393 2.50752425193787 2.53330969810486 2.00372123718262 1.04813861846924 -0.0639728307723999 -0.0730926916003227 -0.0131396753713489 0.0477956049144268 0.154371038079262 0.256926566362381 0.307115584611893 0.357280135154724 0.438973695039749 0.933468341827393 1.53833413124084 2.50781083106995 2.80124616622925 3.63624906539917 2.55316710472107 0.997332990169525 0.700943768024445 0.479455858469009 0.4881471991539 0.491336226463318 0.495295494794846 0.496567338705063 0.50696849822998 0.518346428871155 0.551523447036743 0.58505791425705 1.02172529697418 0.634250223636627 0.673877716064453 0.7443887591362 0.825148940086365 0.856106758117676 1.22522068023682 1.74642896652222 1.78847467899323 1.01619565486908 1.15811669826508 1.162473320961 1.27020251750946 1.36336386203766 1.42974376678467 1.54186701774597 1.62327229976654 1.85130679607391 1.96861743927002 2.09999299049377 2.13860535621643 2.33124256134033 2.56288599967957 3.02617812156677 3.39289855957031 3.96532988548279 4.37549734115601 5.14630937576294 6.11322402954102 7.25147867202759 7.82887268066406 8.7166109085083 8.37358951568604 5.37981557846069 2.79083776473999 1.44493460655212 -0.0449932254850864 -0.7655029296875 -0.52424144744873 -0.417174369096756 -0.335288405418396 -0.257594853639603 0.122640132904053 -0.115046545863152 -0.268377214670181 -0.0172460079193115 -0.138908594846725 -0.469300270080566 -0.642519772052765 -0.587315082550049 -0.558379113674164 -0.766451716423035 -0.905299484729767 -0.686208963394165 -0.676710724830627 -0.5295050740242 -0.410905241966248 -0.397853672504425 -0.0199766308069229 0.150318756699562 0.20585997402668 0.202027708292007 0.353710830211639 0.639400005340576 0.702231884002686 0.907633364200592 1.25221061706543 1.19064009189606 1.78611493110657 1.6307520866394 1.92686140537262 1.8705050945282 1.58884477615356 0.798756837844849 0.199426054954529 0.0919725224375725 0.256232559680939 0.384321212768555 0.546021580696106 0.600735366344452 0.46377494931221 0.714376211166382 1.33470225334167 2.18578243255615 3.75551605224609 4.40562200546265 7.42804384231567 6.6281042098999 4.26541662216187 2.76725101470947 8.18981170654297 11.6607494354248 22.3883895874023 17.6828136444092 4.77905225753784 -3.7100145816803 -3.57907843589783 -3.36530232429504 -3.06804156303406 -2.8534049987793 -2.6048595905304 -2.25005745887756 -1.63184177875519 -0.686346352100372 0.335566103458405 0.932862997055054 1.34510004520416 1.92650032043457 2.36239099502563 2.67192935943604 2.7900276184082 2.80384683609009 2.7507152557373 2.82815194129944 2.88854908943176 3.02409267425537
2.28172373771667 2.09636402130127 1.96650314331055 1.80679416656494 2.00679874420166 2.21966862678528 2.32772946357727 2.41399693489075 2.45010995864868 2.52477288246155 2.64010834693909 2.70035743713379 2.76979160308838 2.53929615020752 2.2334680557251 2.09163594245911 2.03995966911316 1.89641737937927 1.65684425830841 1.41228580474854 1.24697828292847 1.2577189207077 1.34318423271179 1.50309002399445 1.630291223526 1.86072933673859 1.92714214324951 2.6121654510498 2.33767127990723 1.81452488899231 0.36064624786377 -0.144109413027763 -0.0736073851585388 -0.0410832948982716 0.0307180900126696 0.156278565526009 0.216574877500534 0.269481688737869 0.352737635374069 0.45425146818161 0.996780455112457 1.58591139316559 1.6312757730484 1.4985032081604 1.5038948059082 2.59829115867615 2.18028807640076 0.965794861316681 0.853262901306152 0.535933196544647 0.475696116685867 0.487900078296661 0.507736086845398 0.544469356536865 1.0268040895462 1.05375707149506 1.52897226810455 0.651305675506592 0.688261687755585 0.782648324966431 0.856090545654297 0.921655118465424 0.960155189037323 1.01518154144287 1.62906360626221 1.68078482151031 2.0251944065094 1.4188996553421 1.32511126995087 1.38176274299622 1.46045911312103 1.71938264369965 1.75398826599121 1.81705570220947 1.9930317401886 1.98529458045959 2.09415316581726 2.46102809906006 2.76833772659302 3.06421232223511 3.38278794288635 3.7048602104187 4.25242948532104 4.93801593780518 5.74469423294067 7.20684576034546 7.72770309448242 8.8499059677124 8.53737640380859 7.59527397155762 4.21598148345947 1.58440494537354 -0.312438100576401 -0.799143552780151 -0.581114947795868 -0.453997939825058 -0.19520965218544 -0.0894922316074371 -0.0101838810369372 -0.0544260181486607 -0.180379942059517 -0.288628429174423 -0.224606275558472 -0.00405033770948648 -0.637907981872559 -1.01539146900177 -0.90615975856781 -0.722968697547913 -0.804901421070099 -0.766030669212341 -0.592040061950684 -0.531333565711975 -0.200198143720627 -0.16685488820076 -0.00737471645697951 -0.0764928385615349 -0.0357829369604588 0.137001171708107 0.306203603744507 0.377122521400452 0.380852937698364 0.253466337919235 0.594372391700745 1.01891601085663 1.53279709815979 1.60156178474426 1.6285879611969 1.78682458400726 1.80939555168152 1.24900674819946 0.526321411132812 0.492504060268402 0.5074183344841 0.573729813098907 0.584352493286133 0.601474463939667 0.805713653564453 1.68052423000336 2.73769640922546 2.99989604949951 4.52024745941162 5.24017095565796 6.33679294586182 6.62607574462891 7.31593036651611 10.0801849365234 16.0783214569092 17.1285362243652 21.3875141143799 16.0023765563965 12.7585506439209 2.77199935913086 -3.61451101303101 -3.50446581840515 -3.30349111557007 -3.02223110198975 -2.6705687046051 -2.23960590362549 -1.79398894309998 -1.05893862247467 0.0463823527097702 0.771344125270844 1.17904531955719 1.52803659439087 1.89923751354218 2.23594951629639 2.6511447429657 2.34073781967163 2.39370059967041 2.55209732055664 2.59508419036865 2.78428792953491
1.91433382034302 1.74186289310455 1.60450625419617 1.8081841468811 1.93533933162689 2.06449580192566 2.1492235660553 2.27706956863403 2.38029861450195 2.43595170974731 2.46133399009705 2.29066228866577 1.98286163806915 1.81830859184265 1.76064991950989 1.60579824447632 1.37475371360779 1.11271595954895 0.992184638977051 0.782294452190399 0.713806807994843 0.6734938621521 0.617235362529755 0.903946578502655 1.23219811916351 1.46473324298859 1.80143082141876 2.33308482170105 2.63730049133301 2.31264090538025 1.02716135978699 -0.206029802560806 -0.125971555709839 -0.121920719742775 -0.10746905952692 0.0333398692309856 0.101225458085537 0.155640229582787 0.212906718254089 0.313678622245789 0.409713864326477 0.66002482175827 1.0368332862854 1.56417417526245 0.447235703468323 0.452888071537018 0.684242129325867 1.98713493347168 1.98511862754822 1.27492952346802 0.520209133625031 0.508196115493774 0.518252193927765 0.602581977844238 0.809691369533539 1.52948522567749 0.867198169231415 0.715768158435822 0.75432676076889 0.798075795173645 0.878282904624939 0.953515946865082 1.08291947841644 1.11083877086639 1.20723247528076 1.29784667491913 1.42302536964417 1.77944231033325 1.96220481395721 1.66651082038879 1.62990307807922 1.66501665115356 1.70891070365906 1.79343354701996 1.92218053340912 2.10721158981323 2.24058818817139 2.50830125808716 2.75531053543091 3.03433418273926 3.28252482414246 3.70855593681335 4.09258556365967 4.72317218780518 5.55422067642212 6.69514131546021 7.84471607208252 8.74635028839111 9.25993728637695 8.54715251922607 6.87337589263916 3.76162481307983 0.0174737572669983 -0.817831695079803 -0.680254399776459 -0.538642406463623 -0.462249040603638 -0.316878169775009 -0.0679821074008942 -0.0544321276247501 -0.157693982124329 -0.234942719340324 -0.0257193390280008 0.287168383598328 -0.951183021068573 -1.02113842964172 -0.814409136772156 -0.49700003862381 -0.714680075645447 -0.860550761222839 -0.495085954666138 -0.356100589036942 -0.189256086945534 -0.132568910717964 -0.190631791949272 -0.120204955339432 -0.0976041257381439 -0.0561752654612064 -0.0837059319019318 0.0557029880583286 -0.0267060957849026 0.190377742052078 0.561474740505219 0.944378316402435 1.11690056324005 1.1051470041275 1.25705420970917 1.13757658004761 1.35353231430054 1.34877502918243 1.09776985645294 0.817825555801392 0.666656732559204 0.582098424434662 0.621762752532959 1.02280867099762 1.42388868331909 2.33395004272461 3.20843386650085 3.7602801322937 4.12864589691162 5.04768753051758 5.59097337722778 7.57383918762207 12.9107732772827 13.7465229034424 16.5689659118652 18.663501739502 19.5649662017822 17.1579570770264 13.5559062957764 9.32698154449463 2.10097026824951 -0.858612954616547 -0.81324303150177 -1.57940518856049 -2.38728260993958 -1.9564151763916 -1.55596542358398 -1.05482995510101 -0.300420433282852 0.550857365131378 1.03726828098297 1.36467027664185 1.72216975688934 1.99179625511169 1.989586353302 2.06807279586792 2.1322910785675 2.18275594711304 2.21752643585205 2.32986950874329
1.5379433631897 1.36582553386688 1.58735060691833 1.72989094257355 1.88644909858704 1.9737411737442 2.07957935333252 2.21855878829956 2.26765966415405 2.26167440414429 2.05460929870605 1.8105845451355 1.63047134876251 1.41941702365875 1.17824184894562 0.860139071941376 0.710517168045044 0.493069916963577 0.138541549444199 -0.0198030658066273 0.0267914868891239 0.0302022378891706 0.0514763593673706 0.32792991399765 0.895247280597687 1.29813814163208 1.68538594245911 2.06099224090576 2.5842616558075 2.34256887435913 1.29363024234772 0.217220470309258 0.411036759614944 -0.186567083001137 -0.195106327533722 -0.0676021426916122 -0.00365030928514898 0.0395380593836308 0.0802880600094795 0.142933234572411 0.201262965798378 0.283760815858841 0.424167931079865 2.5704710483551 0.419559419155121 0.4006707072258 0.434144794940948 0.455734342336655 1.00996899604797 2.97673439979553 2.38554167747498 1.24235463142395 0.595557570457458 0.833385288715363 1.31096875667572 1.01660144329071 0.699855029582977 0.724679529666901 0.817824125289917 0.870146512985229 0.900193095207214 1.03341591358185 1.13495016098022 1.20811402797699 1.23458862304688 1.32558798789978 1.42345321178436 1.44421589374542 1.60278820991516 2.09906029701233 1.90424716472626 1.6880179643631 1.72138714790344 1.96215522289276 2.00496959686279 2.20660781860352 2.33412766456604 2.49409151077271 2.71728944778442 3.02171969413757 3.25508165359497 3.64185881614685 3.9861204624176 4.57114887237549 5.44506549835205 6.32392358779907 7.71704292297363 8.54944038391113 9.53783702850342 9.00742626190186 7.55985164642334 5.31658935546875 1.71136856079102 -0.690521955490112 -0.870054602622986 -0.842037081718445 -0.734624207019806 -0.576397240161896 -0.38859024643898 -0.308946758508682 -0.162196353077888 0.169072091579437 1.05859386920929 0.695353269577026 -0.791250109672546 -0.802305459976196 -0.721484065055847 0.345099270343781 -0.544693410396576 -0.742707788944244 -0.492717564105988 -0.353007525205612 -0.372017234563828 -0.29845529794693 -0.20199166238308 -0.212671101093292 -0.342703402042389 -0.30357351899147 -0.380768984556198 -0.296771585941315 -0.0619210228323936 0.140175983309746 0.405455619096756 0.696902215480804 0.745603799819946 0.714736223220825 0.861197054386139 0.959492146968842 1.03573203086853 1.18219482898712 1.37499976158142 1.23280465602875 0.921961843967438 0.966997027397156 1.26043903827667 1.95158159732819 2.11823511123657 2.7140109539032 3.12488555908203 3.69247961044312 4.07189464569092 6.04845380783081 8.20225715637207 11.4593534469604 13.2256011962891 14.5180282592773 16.0543746948242 16.9248867034912 19.2641582489014 17.067440032959 14.3003044128418 11.7261915206909 5.6690821647644 2.20828819274902 0.597003281116486 1.22328615188599 1.29814851284027 0.465145260095596 -1.18118572235107 -0.778881132602692 -0.271510988473892 0.433665633201599 0.895966231822968 1.2399867773056 1.70198881626129 1.94036722183228 2.00412273406982 1.97313892841339 1.94870495796204 1.8838552236557 1.69323444366455 1.52717006206512
1.29073977470398 1.25099515914917 1.27540159225464 1.56409859657288 1.65211844444275 1.79267382621765 1.95548403263092 2.09912514686584 1.90381753444672 1.67628645896912 1.47786939144135 1.35844373703003 1.21389389038086 1.01344883441925 0.775125324726105 0.443088442087173 0.137617483735085 -0.0944939628243446 -0.403109282255173 -0.659776926040649 -0.641147434711456 -0.560673594474792 -0.432831406593323 -0.166340067982674 0.454705536365509 0.977136313915253 1.20883727073669 1.8724616765976 2.12870955467224 1.70327150821686 1.34467208385468 2.4715301990509 3.76507759094238 1.50063228607178 -0.230888068675995 -0.13122370839119 -0.0867418646812439 -0.0732223764061928 -0.0459789335727692 -0.0238145031034946 -0.00504605425521731 0.0256647281348705 0.213521733880043 0.659467279911041 0.378920197486877 0.365916430950165 0.382073283195496 0.405589133501053 0.462823063135147 0.512819349765778 1.22982263565063 2.47721743583679 0.698475420475006 0.954416930675507 1.59308266639709 0.713664293289185 0.744836330413818 0.798926651477814 0.842224597930908 0.971862375736237 1.00316262245178 1.07231831550598 1.15259003639221 1.21886658668518 1.3181027173996 1.36646628379822 1.52196002006531 1.5472559928894 1.56668341159821 1.58096325397491 1.67306971549988 1.92805016040802 1.91174817085266 2.06691765785217 2.12685346603394 2.21954464912415 2.3902542591095 2.49787902832031 2.72571396827698 2.95041942596436 3.20814180374146 3.55161666870117 3.89785432815552 4.49389839172363 5.16155576705933 6.25111055374146 7.12017679214478 8.47192192077637 9.71442413330078 9.85040760040283 8.66062068939209 5.68298006057739 3.16650605201721 -0.415094345808029 -1.13793301582336 -1.25693941116333 -1.09286379814148 -0.906945466995239 -0.546986699104309 -0.104373976588249 0.286572754383087 0.605707585811615 1.56472134590149 0.656121015548706 -0.415350914001465 -0.302104741334915 -0.290760457515717 0.620960295200348 -0.280891537666321 -0.714773178100586 -0.672936320304871 -0.562694489955902 -0.436552226543427 -0.333550333976746 -0.301341325044632 -0.411200255155563 -0.586230158805847 -0.5091193318367 -0.410620987415314 -0.312315702438354 -0.196924895048141 -0.0273350048810244 0.18435837328434 0.407165139913559 0.535809218883514 0.54403829574585 0.707679629325867 0.795621335506439 1.11046302318573 1.17740738391876 1.31646406650543 1.31458961963654 1.25702333450317 1.78986978530884 1.88357901573181 2.25066924095154 2.55885457992554 2.70403695106506 3.06908750534058 5.12777853012085 6.96559572219849 9.46493148803711 10.0080270767212 11.4915008544922 12.7729959487915 14.1509590148926 15.4365968704224 16.5836524963379 18.0834865570068 16.4833717346191 15.9759979248047 13.580587387085 7.75697040557861 4.25728988647461 0.779171407222748 -0.377095431089401 -1.75394260883331 -1.38910555839539 -0.95439612865448 -0.514693260192871 -0.0781203061342239 0.506715953350067 0.955284059047699 1.26620888710022 1.78169071674347 1.95222365856171 1.89602947235107 1.81696617603302 2.25533080101013 2.06061697006226 1.28189182281494 1.12530887126923
1.12634992599487 1.20533227920532 0.964280366897583 1.13095426559448 1.23332357406616 1.37094855308533 1.41496574878693 1.41020178794861 1.3305424451828 1.26318466663361 1.1639621257782 0.951077997684479 0.732652902603149 1.74989199638367 3.20027112960815 1.65619397163391 0.177267387509346 0.8010533452034 -0.747599363327026 -1.04642200469971 -1.06792426109314 -0.840535044670105 -0.657752215862274 -0.356679081916809 0.331989467144012 0.829719603061676 1.08019399642944 1.41051590442657 1.4275860786438 1.48361921310425 1.91578054428101 3.55471992492676 5.78767442703247 4.30794954299927 -0.232635989785194 -0.157784968614578 -0.117377042770386 -0.138030871748924 -0.180268034338951 -0.200560018420219 -0.144430950284004 -0.0467890575528145 0.118487268686295 0.365327477455139 0.817521214485168 0.363253325223923 0.391962140798569 0.394691556692123 0.438600599765778 0.505733728408813 0.551612138748169 0.592708766460419 0.789723098278046 1.91321682929993 1.97557687759399 1.1819816827774 0.782178580760956 0.913416981697083 0.948171734809875 1.01127791404724 1.07470738887787 1.11592411994934 1.18566477298737 1.25382733345032 1.41721308231354 1.47036719322205 1.48087418079376 1.46445882320404 1.52750754356384 1.57213091850281 1.78161752223969 1.94714915752411 2.04055452346802 2.08973598480225 2.1913046836853 2.24771547317505 2.38974189758301 2.50637173652649 2.68187308311462 2.90046215057373 3.13933491706848 3.50027275085449 3.93817138671875 4.29662799835205 5.13044548034668 5.99487257003784 6.94805431365967 8.60076522827148 9.4754114151001 10.6440010070801 10.3168954849243 7.64771699905396 3.90735197067261 0.765535473823547 -1.49363589286804 -1.72905087471008 -1.60277342796326 -1.22920346260071 -0.734386444091797 -0.249901622533798 0.405491322278976 0.694204926490784 1.26866638660431 0.704576671123505 -0.239848241209984 0.165134817361832 0.144486173987389 0.0591239146888256 -0.853300034999847 -0.909404993057251 -0.835207641124725 -0.688994526863098 -0.628178596496582 -0.621333539485931 -0.51301771402359 -0.568041443824768 -0.565895736217499 -0.523611962795258 -0.473668247461319 -0.455049127340317 -0.369320124387741 -0.211211875081062 0.0112630305811763 0.248328790068626 0.455806463956833 0.504507720470428 0.739645481109619 0.857845902442932 0.985054433345795 1.11776053905487 1.20241332054138 1.39717507362366 1.72712302207947 2.05762219429016 2.25454449653625 2.32208466529846 2.51394104957581 3.26554894447327 4.7316370010376 7.95745992660522 8.4596586227417 9.48259830474854 10.4051094055176 11.2043733596802 12.3675594329834 13.4058933258057 14.0232334136963 14.9127149581909 15.0936336517334 14.8366413116455 14.2542190551758 11.7553768157959 8.57442188262939 4.59890079498291 0.702431082725525 -0.306835860013962 -1.55203855037689 -1.14321768283844 -0.703775823116302 -0.293170034885406 0.207124456763268 0.649914264678955 1.13478028774261 1.49707913398743 3.18754887580872 1.77193534374237 2.40744590759277 4.34678077697754 7.65057325363159 5.09035682678223 0.989900410175323 0.914700031280518
1.52979052066803 1.52115368843079 0.82467246055603 1.28082966804504 1.27132248878479 0.992012321949005 0.859943091869354 0.87125289440155 0.85850602388382 0.665536046028137 0.655847787857056 0.768339097499847 1.87248909473419 2.02427124977112 5.04102849960327 5.38415479660034 4.4097146987915 0.139678344130516 -1.13896381855011 -1.20485830307007 -1.36468946933746 -1.22175121307373 -0.854037523269653 -0.534084737300873 0.137454807758331 0.446650147438049 0.68637228012085 1.15929329395294 1.66916489601135 1.97422540187836 2.8430449962616 3.83375930786133 5.47716236114502 5.72532892227173 0.837627768516541 0.683265089988708 1.85418725013733 1.90632164478302 -0.239940509200096 -0.343629568815231 -0.282210767269135 -0.109376907348633 0.0774361416697502 0.336299240589142 1.8390679359436 0.382618695497513 0.39917117357254 0.436687618494034 0.454791039228439 0.476538985967636 0.543243765830994 0.578966617584229 0.625535070896149 0.713945329189301 1.31676936149597 2.47436356544495 0.913998246192932 0.967994809150696 1.03571927547455 1.06487739086151 1.10618484020233 1.19325339794159 1.27782785892487 1.3727902173996 1.40173089504242 1.40159249305725 1.44991064071655 1.46592366695404 1.63893330097198 1.71075880527496 1.83791661262512 1.92847454547882 2.05896759033203 2.10493326187134 2.16465950012207 2.24367570877075 2.3543336391449 2.51449084281921 2.64153695106506 2.86096549034119 3.20288276672363 3.45404839515686 4.01673555374146 4.37808132171631 4.92537832260132 5.87895774841309 6.9691686630249 8.63467693328857 9.77476978302002 10.9122848510742 12.6664590835571 11.9314794540405 11.3716402053833 2.58425545692444 -1.79347026348114 -1.97644519805908 -1.76785778999329 -1.4585292339325 -1.07735705375671 -0.309217602014542 -0.0966245979070663 0.0407813377678394 0.369931817054749 0.0252550467848778 -0.279116779565811 -0.0830929577350616 0.676503300666809 0.144577816128731 -0.975455105304718 -1.08058381080627 -1.18049383163452 -1.22597622871399 -1.04778873920441 -0.952561557292938 -0.815576434135437 -0.640168309211731 -0.546641170978546 -0.545353829860687 -0.543162107467651 -0.475562930107117 -0.336509793996811 -0.185893177986145 0.0476041026413441 0.290134757757187 0.474612891674042 0.560243487358093 0.678778529167175 0.820091605186462 0.974691331386566 1.16527104377747 1.6306324005127 1.73140919208527 1.95653414726257 2.13266062736511 2.20846128463745 2.39755320549011 4.09580945968628 5.54171848297119 7.21785402297974 7.99428939819336 8.94426441192627 9.43788242340088 10.0913372039795 10.8871536254883 11.6605882644653 12.3427801132202 12.7118501663208 12.8160314559937 13.3530321121216 14.1846332550049 10.491681098938 6.16067934036255 5.23920202255249 2.38650584220886 -1.26972568035126 0.00846158713102341 -1.30561566352844 -0.943359971046448 -0.518474698066711 -0.0746347606182098 0.411503970623016 0.869486629962921 1.19325864315033 1.49490129947662 3.23569583892822 2.80679631233215 5.62743139266968 8.44901275634766 12.3764219284058 7.70953512191772 1.74849414825439 1.06782758235931
1.49605512619019 1.94656527042389 1.77606308460236 1.48693430423737 1.05748844146729 1.31529462337494 0.461083173751831 0.377352833747864 0.303691953420639 0.400669425725937 1.12839758396149 1.39698576927185 3.08825659751892 3.57161331176758 4.2225866317749 8.31556701660156 11.7241725921631 6.24217891693115 4.34310007095337 4.55194759368896 -1.30138611793518 -1.38953065872192 -1.11729264259338 -0.698895335197449 -0.243397116661072 0.22422556579113 0.847329020500183 1.1834329366684 1.93435287475586 2.60223484039307 3.39830851554871 4.16720104217529 4.66369581222534 5.82543802261353 3.88174366950989 2.64008665084839 4.18146514892578 5.63461923599243 5.44567108154297 -0.324046820402145 -0.304252922534943 -0.181877955794334 0.0666159838438034 0.328272074460983 1.65432131290436 1.13121354579926 0.422268837690353 0.434428572654724 0.484979242086411 0.514372229576111 0.524405777454376 0.586047649383545 0.626538693904877 0.667533397674561 0.800737857818604 0.889133930206299 1.29805195331573 1.70504724979401 1.06999814510345 1.13381195068359 1.17542684078217 1.2943366765976 1.31474673748016 1.3456723690033 1.37877798080444 1.39773344993591 1.54882097244263 1.59596049785614 1.68383967876434 1.78116226196289 1.85071694850922 1.95903730392456 2.02915024757385 2.05285334587097 2.11336755752563 2.2446768283844 2.33485221862793 2.45996165275574 2.60924625396729 2.89466953277588 3.27374243736267 3.57190585136414 3.85856413841248 4.49703454971313 4.92317676544189 5.82422685623169 6.81124305725098 8.0039529800415 10.8600597381592 11.7137794494629 12.1274280548096 17.3559951782227 21.0017433166504 12.8979778289795 0.274709701538086 -1.99872708320618 -1.87629342079163 -1.5764057636261 -1.2105575799942 -0.868856906890869 -0.197564676403999 0.458759695291519 1.160968542099 1.48975360393524 0.555098831653595 0.522210299968719 0.904127776622772 0.299245774745941 -1.12372386455536 -1.52318155765533 -1.70214772224426 -1.7737193107605 -1.69893038272858 -1.56225740909576 -1.32572174072266 -1.0881849527359 -0.859435856342316 -0.631469190120697 -0.499988913536072 -0.407426953315735 -0.285454213619232 -0.127145648002625 0.0991162955760956 0.301381766796112 0.463673293590546 0.559651255607605 0.818992018699646 1.0290744304657 1.4768693447113 1.59902143478394 1.82442390918732 2.0129063129425 2.06243515014648 2.23892593383789 3.66552686691284 4.95711326599121 6.36745834350586 6.81661367416382 7.30284309387207 8.11683559417725 8.61952877044678 8.99148750305176 9.56281661987305 10.2942628860474 10.8604307174683 11.1022596359253 10.6990823745728 11.037636756897 12.9790210723877 15.1488103866577 11.5638360977173 5.48221588134766 4.2462043762207 3.69817185401917 -1.86857390403748 -1.4929838180542 2.99173331260681 0.895116746425629 -0.131603553891182 0.211164325475693 0.589845538139343 0.972538709640503 1.20693683624268 2.28726387023926 4.93972206115723 5.2256007194519 8.17842102050781 10.1421022415161 12.7908477783203 9.3202657699585 8.44092178344727 3.55649781227112
1.14943099021912 1.33483040332794 2.37308692932129 2.3026294708252 1.48552405834198 1.15172922611237 1.04620265960693 0.0252534095197916 0.0539755597710609 0.807956874370575 2.23395729064941 2.82740640640259 3.14947962760925 4.97238492965698 5.24948883056641 5.45859575271606 9.38904762268066 11.8774690628052 6.21108436584473 6.87851715087891 8.19320011138916 -1.28018772602081 -1.22625279426575 -0.843622505664825 -0.453577548265457 0.387499183416367 0.833841264247894 1.39267706871033 1.89817452430725 2.68334317207336 2.97137475013733 3.66555857658386 3.31651329994202 4.40801858901978 4.92052841186523 4.58758592605591 5.25952339172363 6.95588970184326 8.56824493408203 4.10709810256958 -0.234966456890106 -0.143403232097626 0.107200495898724 0.343856245279312 1.08763253688812 1.5918755531311 0.529809713363647 0.473261684179306 0.491616606712341 0.541680693626404 0.570013344287872 0.592610895633698 0.690192878246307 0.718787610530853 0.780565142631531 0.848761260509491 0.923619031906128 1.02664232254028 1.13459777832031 1.26247429847717 1.24712979793549 1.27996242046356 1.27200508117676 1.3257600069046 1.39870774745941 1.51710712909698 1.57520401477814 1.64350652694702 1.70863461494446 1.81907844543457 1.85568654537201 1.95413935184479 1.98760974407196 2.06841349601746 2.10814261436462 2.19011497497559 2.32814645767212 2.4944155216217 2.67963838577271 2.93963098526001 3.20548295974731 3.67927646636963 3.96705222129822 4.50140047073364 4.9277286529541 5.66575956344604 7.43000173568726 8.82135963439941 10.4399118423462 14.4507474899292 14.7109117507935 17.5675716400146 22.6399803161621 24.9080142974854 13.1503849029541 -1.74520599842072 -1.79060399532318 -1.7094509601593 -1.32012581825256 -0.989967942237854 -0.358579874038696 0.119325958192348 0.433962285518646 1.32713711261749 1.82215964794159 2.21612739562988 2.79443359375 2.20625138282776 0.356938272714615 -1.78057980537415 -1.92554938793182 -2.10679817199707 -2.17035675048828 -1.75832533836365 -1.44765746593475 -1.26206791400909 -1.05207931995392 -0.844651937484741 -0.628458619117737 -0.429110586643219 -0.269230306148529 -0.113340884447098 0.100624747574329 0.27163377404213 0.500628411769867 0.848571002483368 1.26207423210144 1.39578604698181 1.60431170463562 1.83459389209747 1.9226359128952 2.13782954216003 3.43111038208008 4.50458097457886 5.61884164810181 6.01766109466553 6.36255311965942 7.13972091674805 7.390305519104 7.73142671585083 8.08677101135254 8.4270601272583 8.70770931243896 8.87380695343018 9.42117786407471 9.08195781707764 8.85446166992188 10.0450439453125 11.7723169326782 14.2426586151123 14.4344778060913 8.45430469512939 5.8041205406189 9.50482559204102 1.13963317871094 -0.940079092979431 -0.380649924278259 -0.362832725048065 -0.0229674745351076 0.310304582118988 0.680901408195496 0.96215146780014 1.17167186737061 3.45710444450378 6.55510902404785 6.80508136749268 8.56478023529053 9.34098148345947 10.353196144104 8.29879951477051 5.46582984924316 6.12617015838623
1.16935586929321 1.38288235664368 1.34643447399139 1.07016658782959 1.40860450267792 2.33513426780701 1.57326769828796 0.670154213905334 0.764096975326538 1.54361999034882 2.07646226882935 3.55572605133057 4.08669471740723 4.49645709991455 4.95857286453247 5.3116307258606 6.21349334716797 8.56483459472656 6.60882616043091 7.76439046859741 11.0709047317505 6.28153991699219 -1.18925869464874 -1.03834128379822 -0.670932412147522 0.0716744139790535 0.65547102689743 1.14370632171631 1.37713265419006 2.17246413230896 2.35153031349182 2.44654726982117 3.05659079551697 3.92054486274719 4.45449781417847 5.2033805847168 5.98361253738403 5.9355673789978 7.37786865234375 6.41324758529663 1.13781797885895 -0.0669298768043518 0.13873103260994 0.43406817317009 1.31671440601349 1.9078654050827 0.627417087554932 0.480902254581451 0.524221420288086 0.56060928106308 0.655366957187653 0.665180027484894 0.720424473285675 0.772075772285461 0.78938889503479 0.842812538146973 0.912628293037415 1.03454577922821 1.07179987430573 1.13228130340576 1.22771799564362 1.35365998744965 1.28917193412781 1.46282458305359 1.49941647052765 1.57089912891388 1.61591410636902 1.68653500080109 1.72052896022797 1.82458639144897 1.85425901412964 1.89201414585114 1.9889463186264 2.00957226753235 2.109454870224 2.23221373558044 2.38344287872314 2.55716776847839 2.79015254974365 2.96050190925598 3.34568333625793 3.69763350486755 3.98082327842712 4.40620040893555 5.12317132949829 6.16700267791748 7.45273971557617 10.3985366821289 12.2479391098022 13.6732807159424 16.7685222625732 18.2369232177734 20.1801872253418 23.6686611175537 22.9521064758301 10.9152727127075 0.242370873689651 -1.58435845375061 -1.3228006362915 -1.01998615264893 -0.638108432292938 -0.0141344368457794 0.702074348926544 1.58782374858856 2.25769758224487 3.15846109390259 4.21509790420532 3.06498098373413 1.56200480461121 0.757143080234528 -2.29710578918457 -2.50170636177063 -2.54572582244873 -2.28577899932861 -1.78986310958862 -1.45238161087036 -1.21063578128815 -1.07601523399353 -0.804862499237061 -0.520516633987427 -0.280337482690811 -0.107301250100136 0.160248890519142 0.445836782455444 0.614953219890594 1.0089213848114 1.26142036914825 1.47331559658051 1.59583508968353 1.76375603675842 2.22324752807617 3.18613123893738 5.14646339416504 5.49222898483276 5.75490045547485 6.48005390167236 6.73903512954712 7.03391456604004 7.36946964263916 7.63170719146729 8.0302619934082 8.12744903564453 8.3878345489502 7.7952036857605 7.85646629333496 7.45339012145996 7.89805221557617 8.6474494934082 9.80464553833008 9.90626239776611 10.9542331695557 10.3232069015503 5.63334465026855 4.90064191818237 -0.0276257283985615 -1.06210541725159 -0.749002516269684 -0.50113171339035 -0.309619694948196 0.0159963760524988 0.518420040607452 0.881014168262482 2.65540814399719 4.62221717834473 6.25310850143433 6.7990460395813 7.29977989196777 7.30651378631592 7.31702184677124 7.27279186248779 4.79253911972046 3.39776253700256
