NCOLS 173
NROWS 31
XLLCORNER 353936
YLLCORNER 6700528
CELLSIZE 16 
NODATA_value -3.4e+38 
6.91939067840576 8.07873916625977 9.11617279052734 5.85557317733765 6.73557901382446 8.45908546447754 9.40559482574463 11.1593227386475 11.6549987792969 9.9898567199707 10.607328414917 9.72497844696045 7.87903118133545 7.13754606246948 5.29553127288818 3.59962224960327 2.33216667175293 1.56560862064362 2.23190522193909 2.19086217880249 2.15351462364197 3.78866577148438 5.27616453170776 7.06104516983032 5.07168817520142 4.89421653747559 5.40582609176636 5.73535919189453 5.76459932327271 6.26654052734375 5.44908618927002 4.45255327224731 3.14138507843018 1.67125070095062 0.838815033435822 0.515382468700409 0.450362503528595 0.448955774307251 0.429131627082825 0.418043732643127 0.435981810092926 0.451644539833069 0.467094123363495 0.479521602392197 0.508350908756256 0.523819923400879 0.466647177934647 0.51418274641037 0.520375072956085 0.495082944631577 0.477458596229553 0.45434781908989 0.415486633777618 0.376997113227844 0.388310998678207 0.38760432600975 0.668689012527466 0.816929042339325 0.895771145820618 0.879179835319519 0.765348613262177 0.631354451179504 0.55338579416275 0.391742765903473 0.189762473106384 0.194632321596146 0.110214702785015 0.15548250079155 0.176792219281197 0.281579107046127 0.145218536257744 0.16802217066288 0.253336906433105 0.143000394105911 0.239637956023216 0.280887275934219 0.111709296703339 -0.1384437084198 -0.313263803720474 0.787129759788513 1.35586726665497 1.7664783000946 2.30995106697083 4.12426471710205 6.14228391647339 7.21384620666504 6.65678739547729 6.10292339324951 5.61552047729492 4.47590017318726 3.43138241767883 3.05973935127258 2.58334469795227 3.52382111549377 3.33414483070374 3.57123160362244 3.73789119720459 3.74927616119385 3.96237897872925 4.0543007850647 4.68285655975342 6.25986957550049 7.19602584838867 7.32841014862061 7.21234512329102 6.72385597229004 6.03477048873901 4.97310829162598 4.55579662322998 4.13516330718994 3.74400758743286 3.48177695274353 3.28672623634338 3.11305451393127 3.19114136695862 3.49618196487427 3.75017499923706 4.62932872772217 4.91955375671387 5.20026969909668 5.31402158737183 5.36592531204224 5.41914892196655 5.2121434211731 4.8835620880127 3.58373761177063 2.65249824523926 2.01374316215515 1.73835456371307 1.91181170940399 2.17994332313538 2.00679159164429 1.77578377723694 1.65814328193665 1.76505398750305 1.8569860458374 4.15713787078857 4.6600170135498 -0.0308814942836761 -0.370886445045471 3.44922542572021 6.68292093276978 10.1672019958496 7.95582962036133 3.28461408615112 1.90581464767456 6.12401962280273 16.962553024292 25.2744922637939 21.4850673675537 12.9606075286865 11.0637741088867 10.0260171890259 8.42110919952393 9.10172271728516 7.78514003753662 6.67830848693848 7.90207862854004 10.2379217147827 15.6649255752563 19.6538429260254 20.8712635040283 20.2759838104248 17.397087097168 14.299750328064 11.5613851547241 7.40796375274658 6.29617071151733 5.60016536712646 4.73861408233643 4.05181550979614 3.58015489578247 3.11783385276794
8.3660945892334 6.43091106414795 5.22832679748535 6.81406831741333 9.31443881988525 10.6222152709961 12.2289991378784 14.0063629150391 14.0948905944824 12.0428972244263 11.5860567092896 10.4680109024048 8.4485387802124 6.66621065139771 5.62601900100708 3.83035016059875 1.99919247627258 1.07652962207794 1.24898910522461 0.924700021743774 1.52822017669678 3.28984236717224 6.32782077789307 6.89006328582764 5.43748569488525 5.32748413085938 6.15082836151123 7.02148103713989 7.45198726654053 7.22540187835693 6.64649534225464 4.85028648376465 3.03687334060669 3.65231084823608 1.97841739654541 1.00380802154541 0.879010021686554 0.544506192207336 0.455976545810699 0.449495553970337 0.463412046432495 0.482046186923981 0.668364882469177 0.633100688457489 1.45982825756073 0.496052801609039 0.513711750507355 0.555160403251648 0.592712342739105 0.561172127723694 0.537804245948792 0.503086030483246 0.477654725313187 0.460637599229813 0.503734946250916 0.705200433731079 0.818863153457642 0.943894922733307 0.937521994113922 0.955462753772736 0.786134123802185 0.64837110042572 0.533335626125336 0.31621465086937 0.190438821911812 0.140733569860458 0.118489950895309 0.11955963820219 0.180610820651054 0.138095080852509 0.128647908568382 0.0738135203719139 0.223757117986679 0.215748205780983 0.312850385904312 0.355923891067505 0.180846214294434 0.122387550771236 -0.117190293967724 -0.363206624984741 1.30024480819702 2.30630564689636 3.24128985404968 6.1955771446228 7.52780628204346 8.21543598175049 7.45730257034302 6.52871513366699 5.45077562332153 4.80823564529419 3.61432909965515 2.87466597557068 3.94152426719666 3.55283403396606 3.53548359870911 3.31603789329529 3.35731363296509 4.40586519241333 4.17931413650513 4.71177625656128 5.36240434646606 6.67024755477905 7.71390199661255 7.88242292404175 7.2967848777771 6.76024723052979 6.11288213729858 5.21273279190063 4.53814935684204 4.20661401748657 3.77973890304565 3.54664349555969 3.39160346984863 3.27413749694824 3.4736921787262 3.94835114479065 4.40628099441528 5.12046670913696 5.47375965118408 5.62654685974121 5.64183568954468 5.55185604095459 5.5828857421875 5.32199811935425 4.50011396408081 3.30385994911194 2.50443911552429 2.03453755378723 1.69050168991089 1.96681380271912 2.24099516868591 2.14438843727112 1.95778203010559 1.91772270202637 2.0327787399292 1.96595394611359 1.60191690921783 0.675771772861481 0.155492767691612 -0.264252215623856 -0.38884761929512 -0.300609916448593 0.0159282274544239 0.3483567237854 0.420141905546188 0.687699913978577 1.27887392044067 7.34761571884155 18.7862453460693 20.7662658691406 14.3075542449951 11.1241855621338 10.0298261642456 8.58638000488281 9.76342391967773 7.22366285324097 7.42512845993042 9.83529186248779 12.2076292037964 18.5661334991455 24.3894996643066 27.0027236938477 23.9320621490479 20.8998508453369 16.4443588256836 10.1964292526245 6.98346614837646 6.24204397201538 5.57271814346313 4.84420824050903 4.26327514648438 3.77721381187439 3.2258288860321
4.68814659118652 6.52156782150269 8.76407623291016 11.38108253479 13.6163759231567 13.3708963394165 19.3907566070557 17.5991230010986 16.5407943725586 13.8965721130371 12.1659173965454 11.2716417312622 9.13770008087158 6.42589282989502 5.17231702804565 3.99642062187195 2.03705334663391 0.857684731483459 0.547764480113983 -0.661556363105774 0.464510977268219 2.32561707496643 3.68792700767517 4.83870983123779 4.58835887908936 4.91292715072632 5.78500699996948 7.23615550994873 8.77841949462891 9.38614654541016 9.29943466186523 5.88746070861816 2.83597803115845 1.72511219978333 2.46745038032532 3.31832504272461 2.0670964717865 1.04136097431183 0.702778875827789 0.588142514228821 0.523374199867249 0.73769348859787 0.901690542697906 0.814184725284576 0.750827014446259 0.579726696014404 0.568505704402924 0.596455156803131 0.640179932117462 0.628003358840942 0.58101761341095 0.557544410228729 0.54144287109375 0.547658503055573 0.575755178928375 0.890292346477509 1.02866101264954 1.10673856735229 1.03101289272308 0.918969690799713 0.790590047836304 0.680728733539581 0.487171977758408 0.244962334632874 0.172738343477249 0.123721085488796 0.11646457016468 0.186614587903023 0.176711529493332 0.159667208790779 0.116922035813332 0.10832667350769 0.225559279322624 0.307247906923294 0.520774483680725 0.457144767045975 0.382468521595001 0.30883327126503 0.109313331544399 -0.152248084545135 -0.088696762919426 0.752329409122467 5.16304397583008 8.46163368225098 9.88208675384521 9.17400550842285 8.52499771118164 7.36215782165527 5.5182089805603 4.79161167144775 3.86344885826111 2.71866369247437 3.09221744537354 3.12102341651917 3.3071813583374 3.49092960357666 3.33050870895386 3.2531476020813 4.08626270294189 5.3878002166748 6.99791145324707 8.15143394470215 8.39512252807617 8.57651329040527 7.90845060348511 7.02278566360474 5.91343593597412 5.31998729705811 4.6454610824585 4.25969219207764 3.92430782318115 3.6742799282074 3.48459219932556 3.37885570526123 3.62833619117737 4.10963487625122 4.60964059829712 5.39714765548706 5.76433753967285 5.88284921646118 5.89027261734009 5.82310676574707 5.78591537475586 5.53514003753662 4.46352052688599 3.00674080848694 2.32377743721008 2.03657507896423 1.76539945602417 2.41252732276917 2.4596848487854 2.27856636047363 2.19147539138794 2.17940640449524 2.17646813392639 2.08054375648499 1.65463614463806 1.05479741096497 0.494663387537003 0.0506505034863949 -0.258767306804657 -0.213892832398415 0.306026697158813 0.527552545070648 0.528453409671783 0.939337611198425 1.30333745479584 1.79241788387299 7.00496196746826 14.5132761001587 12.9490261077881 10.2919301986694 9.84620380401611 8.27504253387451 8.40783500671387 9.63540935516357 11.2950258255005 11.9778861999512 19.8911724090576 30.0134754180908 28.3970756530762 29.72532081604 29.3590660095215 27.7309608459473 22.4702816009521 11.8501129150391 7.40955924987793 6.63959836959839 5.35630035400391 4.80659198760986 4.30122661590576 3.78714823722839 3.30332231521606
5.43344783782959 5.30803394317627 6.61666679382324 8.20718002319336 10.3580513000488 10.8883466720581 7.70480060577393 14.8683576583862 16.6211833953857 15.182671546936 13.609522819519 10.5521450042725 9.49578857421875 6.84696578979492 4.51963043212891 2.93034696578979 1.81507897377014 1.00168180465698 -0.449059545993805 -0.781922399997711 -0.668294966220856 -0.767194092273712 0.688231408596039 2.48443937301636 3.65334486961365 4.88903331756592 5.72445058822632 7.19752836227417 8.93685722351074 11.049430847168 9.00746154785156 7.21561241149902 2.50583958625793 0.949460864067078 1.58436381816864 2.04556441307068 2.70334815979004 3.22595500946045 1.79627060890198 1.08713221549988 0.846558630466461 1.23675775527954 1.19167172908783 1.14350867271423 0.64239364862442 0.643811523914337 0.638212919235229 0.666361808776855 0.667689919471741 0.66932487487793 0.6197270154953 0.591936588287354 0.56290465593338 0.58694463968277 0.740139722824097 0.967304706573486 1.10963189601898 1.23656260967255 1.20620548725128 1.04570949077606 0.841946542263031 0.708837807178497 0.47908142209053 0.274466186761856 0.19237194955349 0.124655142426491 0.119802877306938 0.192752569913864 0.152017399668694 0.154486387968063 0.0996760874986649 0.0869302526116371 0.179647505283356 0.44817590713501 0.635761976242065 0.562401056289673 0.584836661815643 0.485987275838852 0.208864137530327 -0.0768291652202606 -0.357984781265259 2.85497617721558 5.86627340316772 9.51839256286621 11.7028379440308 10.5906314849854 8.98561859130859 8.17867946624756 6.11214113235474 4.37826490402222 3.7256190776825 2.71568322181702 2.85613012313843 3.17840933799744 3.35331296920776 3.53138303756714 3.33847880363464 3.01729989051819 4.81446981430054 6.0412163734436 8.078537940979 9.5716609954834 9.86413764953613 9.31374645233154 8.59059143066406 7.59603500366211 6.05497169494629 5.34684705734253 4.79838991165161 4.34982538223267 4.05602264404297 3.7801206111908 3.63266921043396 3.56754541397095 4.07212209701538 4.42657089233398 4.93988466262817 5.64668369293213 6.03495979309082 6.16465377807617 6.15999174118042 6.15999460220337 6.03738784790039 5.77455377578735 4.035484790802 2.98095440864563 2.27064156532288 1.9632420539856 2.18694972991943 2.54643249511719 2.58867645263672 2.51583790779114 2.43467545509338 2.51622247695923 2.68466711044312 2.43119978904724 2.13178181648254 1.55476355552673 0.980958759784698 0.531134188175201 0.158463180065155 0.252916932106018 0.791458010673523 1.25597441196442 1.2230327129364 1.57641792297363 1.8691440820694 2.76093459129333 4.85049629211426 8.08149909973145 9.4812536239624 7.94123888015747 7.5764684677124 8.09573078155518 9.94180297851562 10.5420408248901 11.4922103881836 14.3821182250977 20.6133060455322 20.6651420593262 19.4203147888184 22.4278526306152 27.9450836181641 32.0621070861816 24.378776550293 16.5635452270508 7.51369047164917 6.74995517730713 5.70184946060181 4.825758934021 4.2818775177002 3.76652836799622 3.42844009399414
2.45216512680054 3.5060613155365 3.99879956245422 3.98738050460815 7.47886943817139 10.1552248001099 8.45818710327148 6.13434648513794 13.1321830749512 16.5162467956543 15.8196058273315 11.8340492248535 8.37241744995117 7.23410892486572 4.66824388504028 2.56932091712952 1.06795752048492 0.339674681425095 -0.531453847885132 -0.717768847942352 -0.574049353599548 -0.758829534053802 -0.804063320159912 0.407509535551071 0.951234996318817 2.53479027748108 6.02646541595459 8.2623872756958 7.0448112487793 6.12761354446411 6.21825695037842 6.16039991378784 2.13453936576843 0.619943082332611 0.489683002233505 1.06729853153229 1.77660465240479 2.07073521614075 2.99123811721802 3.26368641853333 1.96302843093872 1.89192485809326 1.48746657371521 0.731876611709595 0.682759582996368 0.706246018409729 0.706949174404144 0.696276009082794 0.697646617889404 0.675184011459351 0.632568776607513 0.608865737915039 0.608903467655182 0.707806408405304 1.01975524425507 1.07482540607452 1.20641708374023 1.29032588005066 1.30025577545166 1.15571415424347 0.978970348834991 0.708596885204315 0.407633900642395 0.299191176891327 0.221055269241333 0.146436274051666 0.134536936879158 0.192781820893288 0.147628292441368 0.13180810213089 0.107984855771065 0.119547449052334 0.214086413383484 0.46256411075592 0.659714341163635 0.742193996906281 0.759092926979065 0.650261282920837 0.273027449846268 -0.0940561667084694 3.80948805809021 6.2078275680542 12.3513145446777 14.2534198760986 14.2514305114746 12.6228246688843 10.8031997680664 7.71894502639771 6.79544830322266 4.81613349914551 3.32315921783447 2.73753142356873 2.92539310455322 3.22301626205444 3.41261458396912 3.56937026977539 3.43087768554688 3.94226408004761 6.00001239776611 7.6256251335144 9.24119567871094 10.7694644927979 11.1192693710327 10.2562189102173 8.99025058746338 7.72016668319702 6.45530796051025 5.38781929016113 4.82603120803833 4.32574081420898 4.06118869781494 3.87428569793701 3.82034230232239 3.87045693397522 4.50880146026611 5.06456136703491 5.89054918289185 6.22024536132812 6.50797128677368 6.47432947158813 6.46679306030273 6.55769443511963 6.27972364425659 5.88740587234497 3.72828531265259 2.83005976676941 2.30666184425354 1.89281868934631 2.22725653648376 2.61297535896301 2.64556789398193 2.57147908210754 2.65257596969604 2.83190941810608 2.92576098442078 2.78530812263489 2.43972849845886 1.93755674362183 1.49470162391663 1.05996894836426 0.983705818653107 1.26420938968658 1.55385148525238 1.68196284770966 1.54154562950134 1.90502381324768 2.29287791252136 4.06141948699951 5.63663721084595 6.86959934234619 6.57316207885742 6.39322328567505 8.20255947113037 12.0098438262939 8.12566757202148 8.69064712524414 9.30466079711914 14.4906167984009 16.6076736450195 14.175705909729 13.4052457809448 16.7347221374512 14.6673259735107 12.1466264724731 14.8197402954102 13.7018823623657 7.66923141479492 6.69984865188599 5.84636878967285 5.16063499450684 4.52859258651733 3.90534687042236 3.51330256462097
2.68124032020569 3.37572073936462 3.37992715835571 1.89172554016113 0.389535248279572 7.59213972091675 7.25910234451294 5.92855596542358 13.913125038147 18.0398139953613 16.5571002960205 14.5266666412354 8.49538993835449 6.64768266677856 5.20459222793579 2.74624609947205 1.09911775588989 -0.0288850422948599 -0.426298409700394 -0.558702409267426 -0.401506990194321 -0.560119092464447 -0.740763902664185 -0.545348525047302 -0.405713587999344 -0.380990236997604 2.35020589828491 6.61252880096436 6.0603461265564 5.27882289886475 6.07066106796265 6.02019166946411 2.02012133598328 0.566552340984344 0.49394702911377 0.437325298786163 0.821629106998444 1.64196491241455 2.07212686538696 2.33697748184204 3.31976819038391 3.89336514472961 2.20559883117676 1.12785542011261 0.72480309009552 0.82354062795639 0.811314344406128 0.737902760505676 0.706185638904572 0.682397067546844 0.65166848897934 0.628998517990112 0.630562961101532 0.780103862285614 1.15492057800293 1.31766283512115 1.38446927070618 1.40210902690887 1.36238360404968 1.20425415039062 1.01236522197723 0.753108441829681 0.382479250431061 0.317563861608505 0.242637753486633 0.188795775175095 0.214655801653862 0.197157174348831 0.154851332306862 0.146581411361694 0.159705996513367 0.171538963913918 0.316599041223526 0.623567640781403 0.683724105358124 0.920629799365997 0.910529136657715 0.796441853046417 0.367838680744171 -0.0147454617545009 -0.40880423784256 10.3695907592773 11.521710395813 12.5570583343506 10.7136373519897 13.0591697692871 12.9108819961548 8.35052585601807 6.52021360397339 5.28733587265015 3.67677187919617 3.30804586410522 3.06970310211182 3.32722640037537 3.58108448982239 3.60251808166504 3.38888430595398 4.8035774230957 7.42650365829468 10.1696529388428 12.3108530044556 13.060417175293 12.7196168899536 11.8044185638428 10.3481245040894 7.59442758560181 6.58537578582764 5.58574390411377 4.99087047576904 4.59119272232056 4.26532793045044 4.06754779815674 4.03963804244995 4.17408323287964 4.68834114074707 5.27032470703125 6.37749338150024 6.83876276016235 7.02445363998413 7.03739404678345 6.88393640518188 6.9345178604126 6.59853219985962 5.41803693771362 3.46391487121582 2.61733388900757 2.27801632881165 1.92302346229553 2.26195120811462 2.67130208015442 2.61313390731812 2.65523338317871 2.86522650718689 2.99918365478516 3.01986694335938 2.91234874725342 2.56119728088379 2.35556435585022 1.96021831035614 1.710413813591 1.96404623985291 2.23415350914001 2.29191827774048 1.92586660385132 1.89856100082397 2.35514545440674 3.50936508178711 5.45317649841309 6.58495759963989 6.89105081558228 6.72529315948486 7.08238554000854 8.01979827880859 7.79888486862183 6.70466899871826 5.84894514083862 6.16157007217407 8.47836685180664 4.67442798614502 3.27235984802246 8.48483467102051 9.62472534179688 14.3467416763306 10.5419797897339 6.74749326705933 12.2325372695923 8.23180675506592 6.71454238891602 5.93384075164795 5.18715572357178 4.58902454376221 4.18147659301758 3.76199173927307
2.69085001945496 3.00654315948486 2.20760297775269 1.43837094306946 0.18269407749176 -0.6346195936203 0.940610110759735 1.60565757751465 -0.907779097557068 10.7849960327148 14.4728803634644 15.1721210479736 10.2590465545654 6.15205192565918 3.63047885894775 2.40889930725098 1.12198233604431 0.332015752792358 -0.216419920325279 -0.263603538274765 -0.268625736236572 -0.43194392323494 -0.590067923069 -0.470389842987061 -0.380844682455063 -0.358205378055573 -0.534745216369629 -0.685718953609467 1.208340883255 3.46627974510193 4.91711139678955 5.09594488143921 1.78324484825134 0.743615627288818 0.455979436635971 0.561546504497528 0.70423412322998 0.990450799465179 1.15525186061859 1.39043545722961 2.05602860450745 2.51799345016479 3.41797375679016 3.00734066963196 1.74253129959106 1.29397630691528 1.18049228191376 1.07021605968475 0.72965931892395 0.683213949203491 0.674841940402985 0.674494087696075 0.837671101093292 0.988588511943817 1.25830066204071 1.45304536819458 1.51550936698914 1.52066278457642 1.41294872760773 1.17183303833008 0.993035912513733 0.886897504329681 0.397401422262192 0.402141273021698 0.27546489238739 0.229075849056244 0.223096325993538 0.210625141859055 0.208511352539062 0.209311664104462 0.226151973009109 0.247233062982559 0.47624596953392 0.717683732509613 0.745371043682098 1.04427635669708 1.06741380691528 0.756522476673126 0.414845585823059 0.0255817994475365 -0.345696300268173 -1.03776955604553 5.40489482879639 8.15290927886963 8.61897850036621 11.1977052688599 12.9287576675415 10.7648935317993 6.26952648162842 4.47154140472412 3.28603291511536 3.14373564720154 3.43593645095825 3.63967967033386 3.81844711303711 4.16656827926636 5.21265983581543 7.42102336883545 8.59835910797119 11.6201725006104 14.206446647644 15.3379335403442 14.5733013153076 12.7711658477783 11.2156114578247 8.69428253173828 6.92419290542603 6.07836246490479 5.13656044006348 4.76966142654419 4.46210050582886 4.31929063796997 4.2851734161377 4.50155210494995 4.89479446411133 5.72242975234985 6.71858978271484 7.3641095161438 7.4210057258606 7.43196439743042 7.52715444564819 7.34496688842773 6.97808408737183 5.3952202796936 3.61908602714539 2.58900952339172 2.16362738609314 2.04408097267151 2.8259551525116 2.91376352310181 2.75473165512085 3.01817965507507 3.54441213607788 3.71584224700928 3.14022827148438 3.12071895599365 3.23167753219604 3.23496985435486 2.53101682662964 2.43164777755737 2.65875864028931 2.93329501152039 2.81159663200378 2.54423332214355 2.25667214393616 2.29503130912781 4.21523332595825 7.06023502349854 8.11994743347168 8.1659688949585 6.53029918670654 6.81239938735962 7.6502480506897 6.99964284896851 6.72870969772339 5.38319683074951 3.84298229217529 1.93556070327759 0.109415762126446 -0.539450347423553 -0.116059429943562 6.10046195983887 9.68386077880859 13.1787137985229 11.5602397918701 11.4110679626465 8.62700939178467 7.10978555679321 6.13887548446655 5.46950435638428 4.75486183166504 4.32570171356201 4.04966926574707
3.98664546012878 2.95244812965393 3.58290672302246 2.63139128684998 0.983121514320374 -0.532680690288544 -0.820743024349213 -0.871149718761444 -1.08077418804169 -1.38436722755432 6.27358102798462 10.9647636413574 12.9051475524902 7.57563257217407 3.96694946289062 1.96146821975708 1.38409733772278 0.722432851791382 0.0973065122961998 -0.13542865216732 -0.178881093859673 -0.26118066906929 -0.287050753831863 -0.251886278390884 -0.233325257897377 -0.267057985067368 -0.431795835494995 -0.654615521430969 -0.578183472156525 -0.333747208118439 2.80367279052734 4.17708969116211 1.53850209712982 0.914898574352264 0.469336956739426 0.621147155761719 0.941385269165039 1.00190114974976 1.05327379703522 0.921507298946381 0.886979460716248 1.06268286705017 1.95316898822784 2.59072685241699 4.21048307418823 3.62576675415039 1.9084997177124 1.55896472930908 1.09650981426239 0.704535365104675 0.694113194942474 0.696851789951324 1.03100371360779 1.3875914812088 1.45414686203003 1.60990476608276 1.66977429389954 1.60652577877045 1.4453399181366 1.25130033493042 0.947960197925568 0.66263884305954 0.420501351356506 0.366162657737732 0.319772660732269 0.293958336114883 0.29095470905304 0.294363796710968 0.286442369222641 0.281956523656845 0.311210513114929 0.377222031354904 0.493992120027542 0.741469860076904 0.855132758617401 1.07129299640656 1.15617442131042 0.773082494735718 0.439890056848526 0.0184265002608299 -0.294135719537735 -0.989289581775665 -1.68057286739349 -1.212641954422 4.46835374832153 6.55444002151489 8.23902702331543 10.4673566818237 7.90201425552368 4.40358209609985 3.02683424949646 3.35096764564514 3.66083407402039 3.79518628120422 3.86601567268372 3.52911400794983 5.3368124961853 7.03945684432983 9.05336952209473 13.0914583206177 16.5673217773438 15.8251647949219 15.6737976074219 13.8313074111938 10.5904741287231 9.09116458892822 8.38851928710938 6.43725109100342 5.51547574996948 4.91079711914062 4.57946109771729 4.60789489746094 4.6954984664917 4.91196966171265 5.45452690124512 7.09953451156616 7.57008218765259 7.97586870193481 7.9150915145874 7.86440277099609 8.11087512969971 7.69549226760864 7.07263994216919 4.88454103469849 3.61570024490356 2.73979353904724 2.58296990394592 2.64010167121887 3.10122060775757 3.49145841598511 6.94671869277954 7.71879196166992 6.70584154129028 5.93766450881958 3.49549245834351 3.53809475898743 3.84670495986938 4.25168943405151 3.79273796081543 3.72252726554871 3.86178874969482 3.65132260322571 2.40248250961304 2.44321775436401 3.00076603889465 4.13656711578369 9.28907775878906 10.1188201904297 9.38131237030029 8.09056091308594 6.99099206924438 7.79113721847534 8.76543140411377 6.79807233810425 6.87649631500244 5.18822860717773 3.42981696128845 1.96520984172821 0.795096457004547 0.352252870798111 0.395161837339401 0.986316025257111 2.91226649284363 10.7315711975098 10.7748804092407 10.5263614654541 9.7277889251709 7.69253015518188 6.50712537765503 5.75962734222412 5.18878269195557 4.64593505859375 4.11522960662842
4.6922779083252 3.00338006019592 1.710129737854 1.4749675989151 2.11422657966614 -0.282248467206955 -0.7130446434021 -0.811283707618713 -0.94241851568222 -1.2361147403717 -1.01044905185699 9.78406715393066 10.4255847930908 9.87161350250244 5.46186494827271 3.21865081787109 2.22492337226868 1.50015151500702 0.369437009096146 -0.0303061213344336 -0.0522043332457542 -0.00655594980344176 0.00453334348276258 0.00590427638962865 0.00699354195967317 -0.0775517225265503 -0.199183225631714 -0.403546571731567 -0.455866247415543 -0.305338323116302 1.05831909179688 3.60628056526184 1.83586144447327 0.564437091350555 0.483466446399689 0.637776672840118 1.02086639404297 0.972902774810791 1.06722927093506 0.93012535572052 0.799430906772614 0.781105160713196 0.851921319961548 0.873363256454468 1.71005833148956 2.51335787773132 4.69381856918335 3.87590575218201 1.5198335647583 1.15240085124969 0.717165052890778 0.916007220745087 1.10011553764343 1.60526835918427 1.83867931365967 1.75036215782166 1.83246731758118 1.70466268062592 1.45900797843933 1.25633716583252 0.924564838409424 0.541016638278961 0.470707803964615 0.462520331144333 0.415375471115112 0.393126487731934 0.381435930728912 0.366909950971603 0.352839231491089 0.383000195026398 0.461964547634125 0.492149442434311 0.678666234016418 0.764342069625854 1.02107727527618 1.12822353839874 1.18918609619141 0.856450140476227 0.44313845038414 0.152427166700363 -0.283390790224075 -0.797059178352356 -1.52600491046906 -1.98082149028778 -2.00680661201477 -0.368087500333786 5.64925813674927 8.10097217559814 8.00148487091064 5.0827260017395 3.35841870307922 3.69153547286987 3.91238451004028 4.17620468139648 4.04441165924072 5.1370005607605 6.40716934204102 7.43383741378784 13.6801013946533 16.1426410675049 14.9852352142334 19.56640625 17.0622444152832 15.7388467788696 10.8720321655273 8.83512878417969 8.9127311706543 7.081711769104 5.96692180633545 5.40384435653687 4.8176531791687 4.84297370910645 5.03079271316528 5.36383676528931 6.10353136062622 7.66618204116821 8.28498649597168 8.57871627807617 8.62663459777832 8.72682189941406 8.63773727416992 8.16052341461182 6.49410486221313 4.4885368347168 3.37476634979248 2.69892358779907 2.13675379753113 2.51579117774963 2.9516909122467 2.9283754825592 2.81648254394531 3.51669073104858 4.24830675125122 4.36114358901978 4.45503616333008 4.23706388473511 5.16974973678589 5.39242935180664 5.27315378189087 5.03201675415039 4.85209798812866 4.70171356201172 3.5433201789856 3.19487452507019 4.61696338653564 8.56152057647705 14.8181791305542 15.2127332687378 13.5602512359619 10.9480285644531 8.58026313781738 7.87663269042969 9.12025928497314 7.33989095687866 7.52924776077271 5.3706488609314 4.33237886428833 2.55496764183044 1.7074533700943 1.35857510566711 1.28661048412323 1.69571316242218 2.79733276367188 6.77331399917603 9.14808368682861 9.55275535583496 10.9207201004028 8.65545558929443 7.21583700180054 6.07091331481934 5.66665840148926 5.14687776565552 4.50998592376709
6.18571281433105 4.01759004592896 2.83550357818604 0.491807371377945 0.961791515350342 -0.109856627881527 -0.627833604812622 -0.748613178730011 -0.791457176208496 -0.969362199306488 -1.26960742473602 -1.29068744182587 7.66491460800171 5.11236381530762 4.17327976226807 2.3683545589447 1.77118051052094 1.50255072116852 0.604162156581879 0.115960903465748 0.160431414842606 0.219165682792664 0.261883318424225 0.210606902837753 0.20481850206852 0.167906671762466 0.0259242970496416 -0.128683298826218 -0.263556689023972 -0.167500331997871 0.143948957324028 3.66798973083496 2.92437386512756 0.647958278656006 0.60265702009201 0.750966370105743 1.04171884059906 1.10184216499329 1.00628936290741 0.946390271186829 0.816991329193115 0.762056887149811 0.733117043972015 0.743622303009033 0.735025703907013 0.746361434459686 0.727666676044464 1.12732744216919 3.47616076469421 2.45215153694153 0.745310127735138 1.4428733587265 1.56903004646301 1.7610170841217 2.09437561035156 2.08268547058105 1.91058301925659 1.85555398464203 1.49371409416199 1.2037205696106 0.818349421024323 0.560942053794861 0.579554498195648 0.641459822654724 0.570914328098297 0.494399905204773 0.471828579902649 0.452756494283676 0.466844171285629 0.531167566776276 0.590764343738556 0.59754079580307 0.786760210990906 0.836950957775116 1.1486896276474 1.2418794631958 1.0833774805069 0.876326858997345 0.51729542016983 0.1988385617733 -0.225092351436615 -0.702674686908722 -1.23034942150116 -1.67957735061646 -1.92044734954834 -0.970979630947113 1.06088030338287 4.32665967941284 6.21266603469849 5.09833908081055 3.67594480514526 4.26936054229736 4.44938611984253 4.55312013626099 4.09152984619141 3.06387305259705 2.41819405555725 3.32957053184509 9.69283866882324 11.7885627746582 12.4551916122437 11.9845399856567 16.4799861907959 14.3453598022461 10.5791797637939 7.48267030715942 7.83997058868408 7.84136772155762 6.11200571060181 5.51683044433594 5.04970836639404 5.09643030166626 5.22238206863403 5.77075386047363 6.90151357650757 8.10131931304932 9.14737510681152 8.97926425933838 9.15355491638184 9.56257724761963 9.20448398590088 8.80631542205811 6.57050752639771 4.43862247467041 3.22216939926147 2.75875306129456 2.52523636817932 3.45467305183411 3.58321022987366 3.44423294067383 5.95207023620605 7.75367879867554 7.09346008300781 4.5270037651062 5.06671333312988 5.2487096786499 6.26659488677979 7.02879858016968 7.55836772918701 6.92094039916992 6.3730993270874 5.94381332397461 5.00288343429565 3.93394780158997 7.15594959259033 19.482458114624 18.1428184509277 12.5382480621338 12.6546649932861 8.51553916931152 7.56376218795776 8.91554737091064 9.46466636657715 10.0864677429199 7.52081823348999 6.07692527770996 5.04615211486816 3.83802056312561 2.6717791557312 2.27428650856018 2.2283673286438 2.63237595558167 4.59042024612427 7.12483644485474 8.33045196533203 9.59496593475342 9.61460018157959 8.20036697387695 7.51222658157349 6.85734891891479 5.96348905563354 5.48417139053345 5.00690221786499
5.93382692337036 4.30316066741943 1.7595454454422 0.597282409667969 -0.375308901071548 -0.483214497566223 -0.516481816768646 -0.61003452539444 -0.691754102706909 -0.741424798965454 -0.932711660861969 -1.19192445278168 -1.13896095752716 -0.530649542808533 0.496859550476074 1.477215051651 0.929565668106079 0.577181100845337 0.350267380475998 0.232719898223877 0.34939980506897 0.419667273759842 0.460973143577576 0.436292678117752 0.38321590423584 0.359593838453293 0.261645615100861 0.111855909228325 -0.0152390385046601 0.0169661790132523 0.194930851459503 2.55948042869568 3.03250551223755 1.23002624511719 0.713447868824005 1.02535653114319 1.0686342716217 1.12894713878632 0.979732990264893 0.891011238098145 0.833687365055084 0.782413303852081 0.724560141563416 0.7598797082901 0.748664498329163 0.753918290138245 0.730620622634888 0.732055425643921 0.703484773635864 0.741482973098755 2.63745713233948 2.23137307167053 2.30223488807678 2.33598661422729 2.30229640007019 2.38510990142822 2.1302502155304 1.85662770271301 1.63868057727814 1.19676601886749 0.81698876619339 0.610152304172516 0.669177293777466 0.716583132743835 0.648617386817932 0.565147995948792 0.530639171600342 0.538459599018097 0.58757346868515 0.637046992778778 0.644151031970978 0.661029994487762 0.835282504558563 0.947684526443481 1.18761992454529 1.28665590286255 1.02214217185974 0.884507179260254 0.53562593460083 0.17553137242794 -0.230006039142609 -0.638990700244904 -1.003089427948 -0.355878561735153 -1.33738029003143 -0.504542529582977 0.244902014732361 1.43912136554718 3.48158931732178 3.88276672363281 3.85918259620667 4.47670316696167 4.68433475494385 4.79715061187744 4.23498582839966 3.10698843002319 2.27743601799011 1.70147347450256 2.07003951072693 5.87768220901489 7.37795448303223 7.21753644943237 7.82625865936279 10.7415256500244 9.68615245819092 6.76619338989258 7.08272838592529 8.00296401977539 6.58951950073242 5.21370649337769 5.39089393615723 5.69255447387695 5.83844757080078 6.58535814285278 8.70428562164307 9.36184501647949 10.0345544815063 10.2205629348755 10.2504386901855 10.5805425643921 9.9871654510498 9.05996799468994 6.00685691833496 4.42128610610962 3.34917640686035 2.67578983306885 3.21822595596313 3.73272061347961 3.76611661911011 5.36718606948853 8.791748046875 6.59763383865356 7.01598978042603 6.60364580154419 6.17440938949585 6.7713885307312 6.81452989578247 7.85471391677856 8.70464324951172 8.74147796630859 7.96259260177612 6.29135322570801 5.13694286346436 5.87208604812622 8.84214401245117 7.37112903594971 8.09716415405273 9.46835613250732 7.85094785690308 6.203200340271 9.28114700317383 11.4615459442139 10.9098014831543 12.2851638793945 8.67057323455811 6.90305471420288 6.00843191146851 5.13604688644409 4.50189876556396 3.20858478546143 3.36494946479797 4.39649295806885 5.96530342102051 8.09115695953369 8.45909023284912 7.59002780914307 8.40689849853516 9.11116027832031 8.24410152435303 8.19884300231934 6.78137159347534 5.88561534881592 5.30634546279907
5.77825927734375 4.19940996170044 2.46556639671326 0.826949238777161 -0.325936675071716 -0.418461054563522 -0.419600933790207 -0.488548189401627 -0.604922592639923 -0.601567804813385 -0.66605269908905 -0.846230983734131 -0.944391250610352 -0.865403711795807 -0.533258438110352 0.123984128236771 0.581438720226288 0.3730229139328 0.184121742844582 0.384226590394974 0.560261070728302 0.62899124622345 0.627764046192169 0.655623376369476 0.566991865634918 0.532746613025665 0.462102383375168 0.320089876651764 0.210497230291367 0.203468725085258 0.296480268239975 0.426921367645264 2.42807102203369 1.10740649700165 0.754916310310364 1.12445485591888 1.06170082092285 1.15952348709106 1.00680375099182 0.860525965690613 0.827238917350769 0.792921662330627 0.758123099803925 0.777462482452393 0.770123183727264 0.778144896030426 0.76225072145462 0.737056255340576 0.739533662796021 0.754378139972687 1.50483798980713 1.86882603168488 2.77357578277588 3.08863377571106 2.82178425788879 2.69305753707886 2.43148303031921 1.95752239227295 1.61523413658142 1.19987261295319 0.68766587972641 0.669710040092468 0.749895751476288 0.729511082172394 0.715050101280212 0.679154515266418 0.603106081485748 0.614224255084991 0.67227029800415 0.695227563381195 0.720470607280731 0.815947711467743 0.89681088924408 1.14879655838013 1.27084755897522 1.33036816120148 1.05616986751556 0.872816324234009 0.601562261581421 0.162440657615662 -0.23600871860981 -0.586346209049225 -0.512625575065613 1.7189131975174 0.879559695720673 0.0761348307132721 0.611578524112701 1.54786813259125 2.72773718833923 3.71120738983154 4.35421180725098 4.85543394088745 5.26957273483276 5.08776617050171 4.58326864242554 3.40596485137939 2.50438809394836 0.850966453552246 -0.474191814661026 0.548884510993958 2.60831260681152 3.04666924476624 3.60903692245483 7.11338520050049 8.03228092193604 6.19829607009888 6.0329155921936 8.37983798980713 8.17068195343018 6.19045305252075 5.8041787147522 6.01047372817993 6.50103712081909 7.46148443222046 9.38765811920166 10.2221059799194 10.9344081878662 11.8275852203369 12.1814136505127 11.6507167816162 10.9660186767578 8.42807960510254 5.61761665344238 4.24112415313721 3.40421891212463 2.83376812934875 3.51507902145386 3.91524195671082 4.64863109588623 7.68642139434814 6.08393001556396 3.14552307128906 4.57060480117798 8.24118137359619 9.56903457641602 7.19452619552612 8.23208522796631 10.2925968170166 10.2707147598267 9.97528266906738 9.1959342956543 7.41622066497803 4.93146419525146 7.1003475189209 10.7601585388184 3.46719145774841 4.82908344268799 5.86218643188477 6.53640270233154 7.63413333892822 10.3433656692505 12.9643440246582 18.381067276001 15.3178834915161 11.0605611801147 8.57726097106934 7.33094501495361 6.01542663574219 5.71467733383179 4.95078611373901 5.97627544403076 7.56088209152222 8.15606117248535 9.51439666748047 8.94745349884033 8.08381080627441 10.5498447418213 9.67029571533203 9.06629180908203 9.64915943145752 7.56434297561646 6.74042415618896 5.94565725326538
-0.0174989439547062 2.68723726272583 1.69070494174957 1.93260359764099 0.501453220844269 -0.310142695903778 -0.328309774398804 -0.340514302253723 -0.458670228719711 -0.473168760538101 -0.529731810092926 -0.641752123832703 -0.745579481124878 -0.732332587242126 -0.724047660827637 -0.447440207004547 0.374354630708694 0.665587782859802 0.83215457201004 0.656418263912201 0.716025292873383 0.783191919326782 0.783688843250275 0.806841254234314 0.761722266674042 0.71768045425415 0.63622510433197 0.514716625213623 0.394223093986511 0.373168230056763 0.392040610313416 0.442881524562836 0.601764678955078 0.767986595630646 0.920978426933289 1.16900324821472 1.20833992958069 1.09494626522064 1.03453230857849 0.886547446250916 0.832844316959381 0.803581297397614 0.812274575233459 0.80610853433609 0.810049891471863 0.790892660617828 0.805651605129242 0.777847766876221 0.778697371482849 1.0689959526062 2.2569739818573 2.77101874351501 2.891921043396 3.52001309394836 3.66988396644592 3.07566428184509 2.70934200286865 2.21763610839844 1.61304402351379 1.08247900009155 0.7314612865448 0.703405439853668 0.772236824035645 0.742924630641937 0.746778130531311 0.744672179222107 0.667080044746399 0.710301995277405 0.735750317573547 0.75396054983139 0.778019964694977 1.00045299530029 1.07014942169189 1.3221263885498 1.41147220134735 1.21429550647736 1.04021966457367 0.853848457336426 0.574171364307404 0.149114191532135 -0.258086740970612 -0.562513470649719 1.49554109573364 3.0071816444397 2.68644714355469 2.02870440483093 1.55678629875183 1.89265429973602 3.02657628059387 4.12403297424316 5.08744192123413 5.5640082359314 5.7702488899231 5.47708225250244 4.3524956703186 3.64515066146851 2.74850583076477 1.02932584285736 0.520691990852356 -0.531256675720215 -0.599198818206787 0.867133736610413 1.7823451757431 5.27178382873535 6.65696001052856 6.08681344985962 5.60509252548218 8.49923896789551 7.29658317565918 6.1176815032959 6.28073740005493 6.82108211517334 7.33024120330811 9.05059432983398 10.9668092727661 12.3486890792847 11.7848501205444 13.3488454818726 13.8387365341187 12.5733947753906 12.1159391403198 8.43011379241943 5.74501800537109 4.05808162689209 3.39498972892761 3.32336473464966 4.49833869934082 4.50637102127075 4.43865871429443 4.07067823410034 3.21675753593445 3.30667281150818 3.29690790176392 4.16243743896484 6.45041513442993 7.90315437316895 9.97370433807373 12.295877456665 15.187873840332 11.8090200424194 10.3717918395996 7.55028867721558 4.28565120697021 3.05204081535339 1.56876051425934 0.238194972276688 -0.14699187874794 4.22639322280884 8.50650501251221 8.71104145050049 15.9564008712769 15.4042434692383 15.4710054397583 14.6301298141479 12.5785703659058 10.8115882873535 9.19981956481934 7.98777008056641 5.83503389358521 8.66553688049316 8.88044548034668 11.9579410552979 11.2591543197632 10.0728693008423 9.30544662475586 8.36205673217773 7.6254825592041 8.61236000061035 7.46166229248047 10.3880815505981 7.980797290802 7.3767032623291 6.67838525772095
-0.275528311729431 -0.39951965212822 1.34293806552887 -0.0810983404517174 -0.277247428894043 -0.27439934015274 -0.283721655607224 -0.309398323297501 -0.34526589512825 -0.385065317153931 -0.446160882711411 -0.518382966518402 -0.582570254802704 -0.614521145820618 -0.631218016147614 -0.563671350479126 -0.29394319653511 0.748750627040863 1.01236915588379 1.01787781715393 0.898618042469025 0.920831203460693 0.94153881072998 0.940480530261993 0.933774888515472 0.915120005607605 0.797979712486267 0.711526572704315 0.612964332103729 0.553898394107819 0.528839886188507 0.565237522125244 0.657380163669586 0.8653843998909 1.23768639564514 1.2168356180191 1.24891829490662 1.0793696641922 0.976553678512573 0.914730370044708 0.855919539928436 0.806109428405762 0.844744682312012 0.837986052036285 0.847882211208344 0.836076498031616 0.847489476203918 0.823642075061798 1.17156934738159 2.71978569030762 2.70611476898193 3.69303750991821 4.10594081878662 3.90969705581665 4.07741832733154 3.76911568641663 3.07691216468811 2.56308627128601 1.91353905200958 1.21620571613312 0.777091979980469 0.775342166423798 0.812087893486023 0.787217676639557 0.780505836009979 0.763942301273346 0.740995466709137 0.754862427711487 0.782211065292358 0.824318885803223 0.88386994600296 1.19243192672729 1.22776246070862 1.40848553180695 1.49785947799683 1.18047499656677 1.00197041034698 0.831248462200165 0.610242605209351 0.239598453044891 -0.242222771048546 0.772862911224365 7.13540363311768 5.7547926902771 4.42658233642578 3.6513888835907 3.41510605812073 2.89090752601624 3.35206532478333 4.44659566879272 5.43880987167358 6.20998096466064 6.27274608612061 6.00338554382324 4.56978225708008 3.72436952590942 2.25071096420288 2.24022531509399 -0.026874890550971 -0.413126409053802 -0.533510446548462 1.31364321708679 2.81465482711792 3.78897976875305 5.06616020202637 5.28945922851562 4.25351524353027 4.37088775634766 5.21774625778198 6.69178771972656 6.66649580001831 7.29606246948242 8.05683708190918 11.1342525482178 12.3696727752686 14.1606512069702 16.4504299163818 15.4181804656982 16.0031394958496 14.1394729614258 12.3651905059814 7.67279434204102 5.71304655075073 4.38381004333496 3.46504020690918 4.09188175201416 4.77342367172241 6.38272380828857 5.74239683151245 4.50832366943359 3.92279100418091 4.00469303131104 3.8884916305542 5.82774543762207 9.37100505828857 11.0842971801758 12.6105632781982 11.1284332275391 10.8313064575195 14.3033771514893 13.4468355178833 9.95170211791992 4.0005989074707 3.15799808502197 0.91157740354538 0.079851895570755 -0.211393132805824 3.44037818908691 8.87559223175049 13.69384765625 14.0090866088867 6.27573871612549 1.49716448783875 7.76025009155273 14.5959787368774 12.3942985534668 10.9187049865723 10.6461782455444 6.44442939758301 4.2704906463623 9.98416805267334 11.1367483139038 14.1038856506348 10.7940473556519 8.04138469696045 6.769935131073 6.35793495178223 6.99024057388306 7.08365488052368 9.24538612365723 9.52911472320557 7.86404752731323 7.52273559570312
-0.168103143572807 -0.333759635686874 -0.439292520284653 -0.304040938615799 -0.27139750123024 -0.236620187759399 -0.254868298768997 -0.293271780014038 -0.28119945526123 -0.29920020699501 -0.381584018468857 -0.441815137863159 -0.477853983640671 -0.531619131565094 -0.560801565647125 -0.533288538455963 -0.397594690322876 0.196023344993591 0.699665665626526 1.0180732011795 1.02497553825378 1.02115762233734 1.07069098949432 1.09348058700562 1.12261736392975 1.12430560588837 0.983235597610474 0.886646509170532 0.850141704082489 0.754857182502747 0.725807011127472 0.72814530134201 0.77074670791626 0.918691456317902 1.35159265995026 1.22175824642181 1.29101455211639 1.11827003955841 0.958981692790985 0.920615077018738 0.878980576992035 0.866839587688446 0.882669031620026 0.875670790672302 0.891753137111664 0.890319347381592 0.873455226421356 0.839588820934296 1.44834721088409 2.70332098007202 3.94201374053955 4.38070869445801 5.18242979049683 4.95379972457886 4.38265180587769 4.16901826858521 3.58322072029114 2.9200804233551 2.37706542015076 1.34460115432739 0.85610419511795 0.894562184810638 0.870042681694031 0.853601515293121 0.855997025966644 0.816647052764893 0.817298829555511 0.83819842338562 0.868042469024658 0.901841342449188 1.18416488170624 1.26608550548553 1.38114106655121 1.49610984325409 1.55183291435242 1.24978613853455 1.05841588973999 0.895534574985504 0.771702885627747 2.13586211204529 -0.140341088175774 2.81708073616028 9.68792915344238 8.79123687744141 6.88683223724365 5.34290266036987 4.76934432983398 4.58007860183716 4.50581789016724 5.50901746749878 6.35915231704712 7.18410348892212 7.04790544509888 6.37463092803955 5.05565786361694 4.10638332366943 2.38603281974792 0.20195047557354 0.0374982617795467 -0.357233852148056 -0.424935698509216 1.82152497768402 3.42271780967712 4.32549905776978 4.33875703811646 4.08233070373535 3.76705837249756 4.3077654838562 6.72161912918091 6.76101160049438 8.55911827087402 7.55506706237793 9.23580837249756 12.2465496063232 14.8899459838867 17.5805740356445 20.623327255249 20.164213180542 17.8500556945801 16.0809803009033 11.4324979782104 7.13363409042358 5.44650650024414 4.4649224281311 3.74218773841858 4.70138216018677 6.55704212188721 9.29380512237549 7.55570936203003 3.88084602355957 4.20061635971069 4.23031377792358 4.25850200653076 5.75951766967773 7.76899433135986 11.5943241119385 16.8138065338135 14.7292757034302 10.839524269104 10.4515352249146 9.52891254425049 7.95870018005371 4.62554264068604 3.63026118278503 1.49554777145386 0.560626327991486 -0.0456283427774906 3.42818260192871 7.85099840164185 4.93172121047974 1.11812388896942 2.57158660888672 -1.30714643001556 -1.57275867462158 7.54182863235474 10.6685266494751 10.0424823760986 9.1154727935791 7.57894134521484 4.38879251480103 2.95026183128357 14.5790910720825 16.3576278686523 14.228385925293 9.06992340087891 6.39877986907959 5.60412931442261 5.81733179092407 6.99776983261108 9.68233489990234 11.276406288147 9.43252754211426 9.14535617828369
-0.0813961923122406 -0.141051486134529 -0.313078582286835 -0.275022774934769 -0.155545935034752 -0.233212932944298 -0.183012306690216 -0.216387271881104 -0.276703894138336 -0.256976157426834 -0.306357592344284 -0.384335547685623 -0.407031774520874 -0.446469575166702 -0.482691526412964 -0.476089328527451 -0.0101869609206915 0.329619318246841 0.755753993988037 0.957316875457764 1.12077176570892 1.14671969413757 1.21196174621582 1.29373180866241 1.34305465221405 1.27433693408966 1.21241772174835 1.12277817726135 1.04684352874756 0.955141842365265 0.90413498878479 0.886245489120483 0.89988100528717 1.1151317358017 1.40793120861053 1.39521849155426 1.2467098236084 1.17418158054352 1.01188826560974 0.950934171676636 0.918269693851471 0.933296322822571 0.927388846874237 0.936889946460724 0.922827005386353 0.946148097515106 0.886949896812439 0.857864737510681 1.47758865356445 2.56366586685181 4.04080247879028 5.12457418441772 6.20830106735229 6.17765712738037 5.3701605796814 4.39227485656738 3.88311433792114 3.14971709251404 2.2235906124115 1.77094662189484 1.01615130901337 1.00758910179138 0.980137467384338 1.04207932949066 0.93378609418869 0.90480762720108 0.929102301597595 0.948444843292236 0.968771398067474 1.04833793640137 1.35577595233917 1.37069797515869 1.5172107219696 1.62575852870941 1.4086731672287 1.22504210472107 1.03299164772034 0.940462529659271 0.722154676914215 1.63019931316376 6.3868522644043 17.2817649841309 13.2510061264038 11.7024631500244 9.25905227661133 7.89657545089722 6.31845426559448 5.99702548980713 5.88261318206787 6.67950391769409 7.56780481338501 8.2646369934082 8.21567344665527 6.44096946716309 5.74125576019287 4.81769943237305 2.67861676216125 0.636187255382538 0.0514368154108524 -0.278350025415421 -0.333690226078033 3.22802472114563 5.36665439605713 6.15002489089966 5.06043815612793 3.78939342498779 3.43838477134705 4.30606460571289 5.00330686569214 6.88728284835815 7.76784086227417 9.50178337097168 11.1885032653809 21.6270084381104 27.9477920532227 27.2128314971924 27.0370979309082 25.4924716949463 19.6731071472168 18.5554523468018 11.3702430725098 7.73418426513672 5.45893859863281 4.45494318008423 4.75457239151001 5.99947452545166 7.83791399002075 6.55646228790283 4.69673109054565 5.01288080215454 4.83300065994263 5.65166616439819 7.25152111053467 7.04152917861938 9.99606609344482 12.3699798583984 12.860330581665 13.4650793075562 13.2031192779541 10.2828636169434 7.54897308349609 5.60308361053467 4.76943922042847 3.8509373664856 2.28015446662903 0.839333057403564 -0.176556035876274 2.89806151390076 4.00116491317749 4.1388897895813 -0.405137002468109 -1.67339694499969 -1.54986202716827 -1.44686579704285 -1.51759386062622 0.623517036437988 1.68258726596832 6.16308116912842 6.84837484359741 5.16017913818359 8.2500114440918 7.29181861877441 11.0509634017944 13.6592960357666 9.97079086303711 7.1161584854126 5.5525484085083 4.89010000228882 5.86442136764526 8.47405052185059 10.469820022583 11.0701169967651 10.7308130264282
-0.0759026929736137 -0.0407591834664345 -0.139727637171745 -0.15704981982708 -0.0919157117605209 -0.131340950727463 -0.126916572451591 -0.184592008590698 -0.204964891076088 -0.22746542096138 -0.260735839605331 -0.307655334472656 -0.348863154649734 -0.374688416719437 -0.407204568386078 -0.427225291728973 0.315654724836349 0.540333688259125 0.927291750907898 1.10677909851074 1.18919932842255 1.28219091892242 1.44044196605682 1.57718884944916 1.67902266979218 1.52138483524323 1.42596054077148 1.3534848690033 1.21222305297852 1.15039467811584 1.09058630466461 1.03877389431 1.06657993793488 1.48172497749329 1.49391078948975 1.52664291858673 1.32753694057465 1.1655250787735 1.0816695690155 1.01475059986115 0.965569972991943 1.00117647647858 0.98505574464798 0.997959554195404 0.989797353744507 0.97272264957428 0.923993051052094 0.889474034309387 0.874906539916992 1.40614914894104 3.99858212471008 6.43282651901245 6.30973768234253 6.85393333435059 6.84487009048462 5.67956256866455 4.11576890945435 3.61112546920776 2.52036190032959 1.62345170974731 1.01057314872742 1.07120990753174 1.12057828903198 1.09025168418884 0.943839848041534 0.954963266849518 0.958846747875214 0.983932256698608 0.999727070331573 1.09146666526794 1.39458727836609 1.42511630058289 1.56143641471863 1.6764258146286 1.36544919013977 1.18516790866852 1.04877412319183 0.989413142204285 0.815803408622742 0.279657006263733 10.5437040328979 19.7439861297607 21.2211647033691 14.6246566772461 11.9530334472656 9.91460609436035 8.60083293914795 7.83071136474609 7.31680345535278 7.85235643386841 10.3783512115479 9.86860370635986 9.59356307983398 7.5106406211853 6.55451059341431 4.62451267242432 2.67455506324768 0.863959610462189 0.403871029615402 -0.124146275222301 -0.316533297300339 3.50905537605286 4.31804800033569 6.02141189575195 4.99539089202881 3.46318316459656 2.85241460800171 3.50902676582336 4.00437307357788 5.64227771759033 5.74079084396362 7.48984050750732 14.1187543869019 12.4028902053833 16.830753326416 28.8067321777344 34.4756355285645 32.6288909912109 24.5188083648682 18.7674541473389 10.1987266540527 7.53234481811523 5.72887945175171 4.72430038452148 5.76004123687744 6.15437746047974 4.85319137573242 3.84103393554688 4.96634817123413 6.00172281265259 7.10104703903198 6.84861135482788 7.28550148010254 6.39794158935547 6.07698726654053 8.22622203826904 8.14177227020264 10.1610879898071 9.02054119110107 5.40413665771484 5.4111967086792 5.50873565673828 5.70416736602783 3.62172818183899 2.39544224739075 1.11716628074646 1.15471935272217 1.40231287479401 4.93722629547119 1.68184697628021 1.1013240814209 -1.49520814418793 -1.33975458145142 -1.2672358751297 -1.28970563411713 -1.34119784832001 0.815551459789276 3.49824190139771 5.89487791061401 5.39975023269653 1.68329381942749 2.02744626998901 4.82193803787231 9.20923328399658 8.83606719970703 7.84832811355591 6.3692455291748 4.00024318695068 3.45868492126465 5.04801321029663 10.0781869888306 11.9325313568115 12.2964134216309
0.0549342297017574 -0.0823033526539803 -0.0524634532630444 -0.0626734346151352 0.0624845996499062 -0.0410819239914417 -0.0453234538435936 -0.139068081974983 -0.0996019840240479 -0.18584206700325 -0.247560426592827 -0.266658782958984 -0.305100202560425 -0.332200020551682 -0.372790694236755 0.350885719060898 0.7814621925354 1.03553140163422 1.17381107807159 1.51886487007141 1.62430894374847 2.80055856704712 4.97853851318359 3.56016874313354 2.03357219696045 1.97803294658661 1.44603300094604 1.37824881076813 1.27691042423248 1.21584165096283 1.17832946777344 1.12611520290375 1.10741937160492 1.59484648704529 1.50812232494354 1.60467398166656 1.4258314371109 1.23362565040588 1.1241842508316 1.06160855293274 1.05074107646942 1.05212187767029 1.03870749473572 1.05121898651123 1.04627311229706 0.993052661418915 0.958605647087097 0.910100638866425 0.756246864795685 0.743808031082153 1.83891582489014 3.69256591796875 6.29605293273926 5.5807580947876 6.38259220123291 6.597092628479 5.41406059265137 3.54102110862732 2.66940712928772 1.4065614938736 1.08967316150665 1.10537767410278 1.19979095458984 1.27862560749054 1.04853117465973 1.12848675251007 1.02645218372345 1.00120306015015 1.02180874347687 1.40918862819672 1.46445298194885 1.53101861476898 1.67101216316223 1.73273110389709 1.40868496894836 1.21151757240295 1.13462543487549 1.06653010845184 0.897081255912781 0.353809416294098 7.03921508789062 3.6849479675293 9.95005893707275 13.509708404541 12.1206741333008 11.7689657211304 10.6640939712524 9.78487586975098 9.72260856628418 10.0688991546631 12.4474792480469 12.4510469436646 10.2946424484253 8.75472164154053 7.67924356460571 5.63033056259155 2.18211483955383 1.12999761104584 0.753690481185913 0.0894079729914665 -0.261552810668945 -0.27230030298233 1.34524536132812 4.26723337173462 4.49594688415527 3.25490832328796 2.35238790512085 3.34863018989563 3.35790872573853 5.3428521156311 7.8792552947998 10.8231134414673 13.8805704116821 16.3490371704102 13.0506076812744 13.1449956893921 23.1773891448975 35.0661239624023 31.2729606628418 16.9032649993896 10.3004865646362 6.89010953903198 5.49085330963135 5.08430767059326 7.56942081451416 6.39730453491211 7.74509477615356 7.27480268478394 7.92490291595459 8.87980556488037 7.06870698928833 7.07476091384888 7.25638723373413 7.50471830368042 5.02792453765869 3.54707789421082 1.65490424633026 1.34852206707001 -0.816393852233887 0.803078591823578 3.57319450378418 5.61967086791992 6.91161632537842 4.75436735153198 2.16469168663025 0.967386662960052 -0.894093453884125 -1.79423713684082 -1.86518728733063 -1.67199563980103 -1.42526113986969 -1.24686920642853 -1.14712929725647 -1.10119915008545 -1.10163962841034 -1.22242248058319 -1.12062478065491 3.59086656570435 5.14919185638428 3.24749684333801 -0.188307374715805 0.112837001681328 0.609621047973633 4.31480598449707 7.00594282150269 6.419273853302 5.41320705413818 2.74950981140137 2.85079765319824 2.99295163154602 6.79758262634277 10.5786619186401 7.04972314834595
0.125451281666756 0.00474064238369465 -0.0347896292805672 0.0460629835724831 0.181751996278763 0.26685357093811 -0.0709580034017563 -0.0599626637995243 -0.0802822634577751 -0.146742969751358 -0.227568849921227 -0.260211616754532 -0.288805812597275 -0.325956672430038 0.178487583994865 1.2578192949295 1.66396903991699 2.10155987739563 2.17952656745911 2.36991047859192 6.1677680015564 3.89354181289673 1.61524832248688 1.71505379676819 1.58414268493652 1.67522525787354 1.61689174175262 1.40873682498932 1.34912073612213 1.28487396240234 1.24088644981384 1.17997753620148 1.29553425312042 1.64995622634888 1.69901955127716 1.55769085884094 1.47119963169098 1.25418794155121 1.15444612503052 1.10931360721588 1.12223136425018 1.10963976383209 1.11407601833344 1.09772539138794 1.11357319355011 1.0360826253891 1.00176620483398 0.951314687728882 1.5105015039444 0.883777856826782 1.09904754161835 0.89464795589447 2.93091154098511 4.31180000305176 4.87850427627563 5.61050796508789 5.56387138366699 4.36244535446167 2.4994010925293 1.30440247058868 1.09575271606445 1.30736124515533 1.48597955703735 1.26824367046356 1.17080998420715 1.31275427341461 1.93790054321289 1.08159983158112 1.21622776985168 1.56435310840607 1.60600697994232 1.68901920318604 1.81363964080811 1.57980811595917 1.38512241840363 1.21058082580566 1.21271347999573 1.10216462612152 0.89715588092804 0.471196204423904 1.32008290290833 -0.105731211602688 2.02204346656799 7.5273289680481 9.97836399078369 9.39079189300537 10.3284521102905 9.52206039428711 9.70646858215332 10.5560674667358 13.8793449401855 14.2234210968018 10.9414310455322 9.79900169372559 8.81869506835938 6.72233581542969 3.1120765209198 1.34772980213165 1.07421481609344 0.308506488800049 0.0196243822574615 -0.310086697340012 -0.263534158468246 2.30052781105042 3.6043758392334 2.76935982704163 1.79862642288208 1.95476734638214 4.41143274307251 5.88806295394897 8.98250865936279 14.9165830612183 17.321985244751 19.6789989471436 11.7892436981201 8.59328556060791 11.2651767730713 26.597412109375 34.6096687316895 20.0895805358887 10.5391864776611 7.1375560760498 5.6119556427002 6.79520130157471 9.18591594696045 7.72112560272217 7.02301406860352 8.81538677215576 8.82699203491211 6.77297353744507 9.01585102081299 8.55118370056152 7.60537338256836 5.98809480667114 6.16366291046143 1.82847630977631 -0.163528427481651 -1.27772116661072 -0.401517629623413 1.91135668754578 4.88539361953735 6.13382196426392 5.64054298400879 4.18230056762695 2.04100728034973 0.569380879402161 -0.836200356483459 -1.6320013999939 -1.58684194087982 -1.53000020980835 -1.28124570846558 -1.05320107936859 -0.999527275562286 -0.971309244632721 -0.960651636123657 -1.041299700737 0.754965424537659 3.17526936531067 2.6834774017334 -0.322944611310959 0.0332042388617992 0.431533366441727 0.996526718139648 1.52005767822266 1.91201615333557 2.26673293113708 2.59720230102539 2.78158950805664 2.89780282974243 2.9977560043335 3.1038932800293 3.19660806655884 3.59772968292236
0.223162293434143 0.07734365016222 -0.0411631278693676 0.163560196757317 0.189278051257133 0.269267857074738 0.160301551222801 0.0133812725543976 -0.0911521166563034 -0.147819593548775 -0.193747937679291 -0.24118085205555 -0.276968151330948 -0.212976858019829 0.663822829723358 2.51306056976318 4.7560977935791 5.54825782775879 7.49060583114624 2.88765144348145 1.62891912460327 1.54978692531586 1.65367496013641 1.69151437282562 1.65173995494843 1.62632417678833 1.78534662723541 1.53121364116669 1.43702638149261 1.38439905643463 1.30524671077728 1.26072072982788 1.65026116371155 1.70101428031921 1.7475563287735 1.53377223014832 1.39805102348328 1.30856418609619 1.21394419670105 1.16808712482452 1.19754481315613 1.19148790836334 1.1953889131546 1.1948207616806 1.16752362251282 1.08976089954376 1.01364040374756 0.965177178382874 0.902776122093201 0.961994886398315 1.20948779582977 1.46214890480042 1.35814702510834 2.28099250793457 3.28338861465454 4.38508749008179 4.76511335372925 4.6641263961792 2.24071907997131 1.27240538597107 1.15200853347778 1.38373291492462 1.59430110454559 1.31960964202881 1.35158407688141 1.27823662757874 1.29518759250641 1.26076221466064 1.30856597423553 1.68466031551361 1.72361826896667 1.7616480588913 1.88908636569977 1.76097798347473 1.7059280872345 1.53042638301849 1.30193650722504 1.18058800697327 0.907637417316437 0.641872763633728 -0.335262626409531 -0.933189272880554 0.873458862304688 2.82456088066101 6.27846670150757 8.78753185272217 9.79471969604492 10.2206087112427 12.5568761825562 20.0665588378906 17.0141983032227 15.1174087524414 12.2307462692261 11.4989023208618 8.60116386413574 6.20129013061523 3.4016375541687 1.7248307466507 1.14612090587616 0.520873427391052 0.179582893848419 -0.32613730430603 -0.46712926030159 -0.176323592662811 0.548654317855835 1.55057692527771 2.08410620689392 2.83074760437012 5.95428657531738 6.9629921913147 8.71840953826904 19.1226596832275 13.5625057220459 8.88055229187012 14.1301364898682 9.37331962585449 8.54410362243652 18.2899837493896 28.4804019927979 18.5335807800293 9.75954627990723 6.98574018478394 6.51365232467651 9.33242321014404 9.62243175506592 7.85764694213867 4.99498319625854 5.45065402984619 7.11907148361206 8.72401523590088 6.8681902885437 6.76117324829102 5.71578121185303 4.41773366928101 3.13201546669006 1.43493390083313 0.181534290313721 -0.398458540439606 1.02596616744995 4.48904943466187 7.32408618927002 8.68213176727295 5.56645011901855 3.84031534194946 2.44881796836853 0.506833434104919 -0.702035665512085 -1.31540668010712 -1.224245429039 -1.14958488941193 -1.04573750495911 -0.892143249511719 -0.842999637126923 -0.845557570457458 -0.825141072273254 0.164525151252747 2.05475974082947 -0.476599603891373 -0.447528958320618 -0.118869915604591 0.315496563911438 0.85136753320694 1.39982604980469 1.73647117614746 2.05651092529297 2.33345508575439 2.70963716506958 2.9407742023468 3.05471730232239 3.1754469871521 3.38821935653687 3.50880694389343 3.72462701797485
0.223112612962723 0.124136343598366 0.0138041647151113 0.206612378358841 0.288146466016769 0.20996105670929 0.237912848591805 0.140286654233932 -0.0121953459456563 -0.0998947769403458 -0.145505502820015 -0.186890482902527 0.290343523025513 2.98551654815674 12.4379186630249 12.9168090820312 8.93864345550537 7.29050159454346 3.70833253860474 2.19743680953979 1.66656243801117 1.68171262741089 1.85036098957062 1.85459494590759 1.81334912776947 1.71556627750397 1.83278906345367 1.6268618106842 1.51264595985413 1.46294379234314 1.38149154186249 1.30514144897461 1.77229571342468 1.71161031723022 1.80942642688751 1.58286774158478 1.38715410232544 1.31112134456635 1.26864778995514 1.28213238716125 1.27915179729462 1.26043903827667 1.26060616970062 1.24427115917206 1.17425060272217 1.12042379379272 1.57606470584869 1.03407621383667 1.09145390987396 2.25993418693542 2.38140749931335 2.89198446273804 2.3966805934906 1.74258005619049 2.08122658729553 3.09267902374268 3.85650181770325 4.08307218551636 1.89034950733185 1.27452766895294 1.4460836648941 1.5108060836792 1.7347047328949 1.44142746925354 1.37863266468048 1.37212026119232 1.30843305587769 1.27234935760498 1.33590805530548 1.73693513870239 1.79972171783447 1.88750541210175 1.96014225482941 1.84315264225006 1.85796248912811 1.60654103755951 1.43076503276825 1.28060007095337 0.956221640110016 0.763746201992035 -0.0983675867319107 -0.717601835727692 -0.793452560901642 -0.61491197347641 1.37746572494507 6.5109691619873 9.63617992401123 12.9755973815918 13.8085298538208 8.70826625823975 10.9946546554565 12.7755899429321 13.0048904418945 13.7681941986084 10.381646156311 6.08747291564941 3.46582865715027 1.93521595001221 1.35590386390686 0.836850941181183 0.36450520157814 -0.125504538416862 -0.281769603490829 -0.554720044136047 -0.59784060716629 1.50895893573761 2.90836215019226 4.76921272277832 5.68039798736572 6.41518211364746 10.1464757919312 8.95985126495361 11.0186891555786 9.03370571136475 10.3862180709839 9.11557388305664 5.85095024108887 5.38835716247559 17.9627590179443 16.9994792938232 10.4380760192871 6.82124948501587 7.09999752044678 15.599889755249 12.9249458312988 10.0331583023071 7.5503396987915 4.18072700500488 3.00600337982178 3.97226333618164 6.14799928665161 7.12044334411621 7.90005683898926 5.59219169616699 2.32803559303284 2.05744385719299 2.31762981414795 0.914321303367615 2.42344164848328 6.36001348495483 10.5229835510254 12.8463869094849 8.39780521392822 3.42789053916931 2.08535671234131 0.00442394986748695 -1.08968615531921 -0.930620014667511 -0.910794675350189 -0.772499442100525 -0.713579058647156 -0.666542172431946 -0.655214309692383 -0.691032826900482 2.94433164596558 1.83156049251556 -0.841906368732452 -0.662809729576111 -0.169795140624046 0.122506469488144 0.570429980754852 1.3126847743988 1.74846208095551 2.04352426528931 2.29598879814148 2.67144012451172 2.99694919586182 3.22578096389771 3.37498712539673 3.50644278526306 3.63541173934937 3.80164384841919 3.95656180381775
0.272321343421936 0.213187173008919 0.175194725394249 0.237145602703094 0.32196843624115 0.219644457101822 0.269913226366043 0.241516932845116 0.0984876826405525 0.00117239123210311 0.614263713359833 4.24546766281128 6.21654891967773 5.6827244758606 1.87264883518219 1.17163753509521 0.993911385536194 2.21849727630615 2.14131355285645 1.91856575012207 1.8028290271759 1.94943821430206 2.13271808624268 1.86869597434998 1.94047117233276 1.88373124599457 1.88959324359894 1.75086402893066 1.62299835681915 1.5364226102829 1.48152077198029 1.46843361854553 1.84177923202515 1.89905965328217 1.73264908790588 1.6444650888443 1.45682537555695 1.38075125217438 1.32975399494171 1.34487080574036 1.32447957992554 1.33122253417969 1.31277024745941 1.30980694293976 1.21323692798615 1.13338470458984 1.06328082084656 1.07004809379578 1.27880883216858 3.17654967308044 0.936869263648987 1.86607158184052 1.13978087902069 0.883856534957886 1.16082191467285 1.7346088886261 2.2150354385376 3.86850643157959 2.11889362335205 1.42676520347595 1.72416615486145 2.01013422012329 1.68600475788116 1.59212982654572 1.42563962936401 1.3834639787674 1.36285316944122 1.31978034973145 1.76872944831848 1.81451737880707 1.87921535968781 2.03063869476318 1.88010430335999 1.89847552776337 1.78062522411346 1.72226297855377 1.5738217830658 1.37391209602356 1.07226574420929 0.864964365959167 0.271768093109131 -0.27833753824234 -0.47811633348465 -0.629887998104095 -0.903189718723297 -1.00150430202484 5.90822887420654 9.02888202667236 8.50295352935791 6.2163462638855 4.2015700340271 8.81061172485352 16.7466144561768 14.7950639724731 13.3667364120483 7.80811452865601 4.73915195465088 2.08234643936157 1.51001691818237 1.19017541408539 0.551445007324219 0.240336939692497 0.305312514305115 -0.298820674419403 -0.713719666004181 -0.896348237991333 1.58117258548737 3.19302773475647 3.37237191200256 5.70185327529907 7.38394641876221 1.47203361988068 3.05290675163269 5.46229553222656 6.14894437789917 7.05571031570435 6.1158299446106 5.61258363723755 17.9890785217285 14.8967475891113 9.63405990600586 7.0268087387085 11.1573181152344 11.931040763855 12.2481384277344 8.57191467285156 4.77292966842651 4.2460789680481 5.30268430709839 5.72395038604736 7.04325151443481 9.08142375946045 8.86252307891846 6.69971036911011 4.82523536682129 4.91751050949097 2.91435718536377 2.11759614944458 4.06279468536377 7.57474422454834 9.40353012084961 9.38029479980469 7.52830743789673 4.43119382858276 1.26500272750854 0.241428539156914 -0.454855710268021 -0.21373650431633 -0.683326244354248 -0.571635067462921 0.239902168512344 -0.42266833782196 -0.458535730838776 -0.524555146694183 -0.635040581226349 -0.657588720321655 -0.591009974479675 -0.299056172370911 0.0798434987664223 0.454412341117859 0.947322368621826 1.50719273090363 1.9862242937088 2.34262609481812 2.5360803604126 2.88639378547668 3.14491820335388 3.29659414291382 3.43353319168091 3.65123891830444 3.83338713645935 4.02322244644165 4.13921499252319
0.373192489147186 0.22667071223259 0.303747564554214 0.232092842459679 0.419830799102783 0.258764058351517 0.279134631156921 0.296906352043152 0.377199709415436 2.2436351776123 4.3480110168457 2.28306579589844 1.35346436500549 -0.395896792411804 -0.52103191614151 -0.201107263565063 0.0495325177907944 1.4953625202179 1.96790993213654 2.06736493110657 2.06201863288879 2.39986157417297 2.22642374038696 2.11887168884277 2.01608824729919 2.07109332084656 1.96895945072174 1.90873336791992 1.73660147190094 1.64192593097687 1.57600522041321 1.87889051437378 1.92782604694366 1.99036347866058 1.76148450374603 1.61108922958374 1.5280327796936 1.46303987503052 1.38256275653839 1.39225685596466 1.38207650184631 1.37749886512756 1.37925493717194 1.32583498954773 1.23825192451477 1.19605886936188 1.18032109737396 1.16241610050201 1.18891274929047 1.21945214271545 0.982691407203674 0.815934062004089 0.78570145368576 0.806312739849091 0.701306402683258 1.43178045749664 2.24763917922974 3.39441537857056 1.75323057174683 1.63417077064514 1.91759479045868 2.33962154388428 1.79638373851776 1.59449744224548 1.45219457149506 1.41720831394196 1.40268695354462 1.48799467086792 1.93675172328949 1.99970984458923 1.93302500247955 2.08804988861084 1.91892802715302 1.93512785434723 1.88146805763245 1.78010189533234 1.59302091598511 1.28729355335236 1.12123823165894 0.919864475727081 0.719027519226074 0.425910204648972 -0.0937926545739174 -0.349598079919815 -0.595341086387634 -0.385626643896103 -1.21603441238403 -1.46250832080841 -1.63275647163391 -1.82273054122925 -1.93193781375885 4.5810022354126 6.83048534393311 12.1491384506226 9.56508159637451 6.96883344650269 4.00302743911743 2.24692392349243 1.80533981323242 1.5544102191925 1.08897316455841 0.847640514373779 0.628326654434204 0.0597797147929668 -0.625081062316895 -1.07829451560974 1.64749991893768 4.71589469909668 9.94398975372314 10.0962219238281 8.75599002838135 6.56910848617554 3.61089539527893 0.709784269332886 0.664110541343689 7.45511198043823 3.06072568893433 5.58617734909058 12.6186361312866 10.9070663452148 7.62747478485107 6.41588354110718 9.39640331268311 3.7504460811615 3.47462272644043 4.9205207824707 4.41705465316772 4.81419467926025 9.25732135772705 8.13049983978271 6.97187519073486 5.56932401657104 3.10390377044678 3.26955509185791 2.3995988368988 -0.0103818876668811 0.541372001171112 1.21086692810059 -0.618144333362579 -0.894728124141693 -1.26067304611206 3.46317100524902 6.34410715103149 4.83191013336182 3.49488234519958 0.31800365447998 0.361896634101868 0.00893414672464132 -0.45350781083107 -0.354658663272858 -0.353444278240204 -0.242552220821381 -0.231387481093407 -0.343353897333145 -0.421049356460571 -0.407062590122223 -0.177985176444054 0.080353818833828 0.363235354423523 0.848975241184235 1.30155551433563 1.8298591375351 2.23762893676758 2.54139304161072 2.76890254020691 3.02844452857971 3.25215411186218 3.4692051410675 3.69366240501404 3.95511293411255 4.13843107223511 4.2436089515686 4.22221612930298
0.402978956699371 0.26944774389267 0.3422591984272 0.460959106683731 0.350986957550049 0.305569857358932 0.285346031188965 0.41170945763588 1.14192545413971 2.16471314430237 0.705891668796539 0.372376680374146 0.501760184764862 -0.390406578779221 -0.504689455032349 -0.554665982723236 0.344196408987045 0.928073227405548 1.88800024986267 2.07347226142883 2.32935523986816 3.11477184295654 2.52435708045959 2.44308304786682 2.25122737884521 2.13785004615784 2.06315755844116 2.09476447105408 1.81531572341919 1.77883470058441 1.6736091375351 2.0510458946228 1.98613631725311 2.08558535575867 1.81854486465454 1.58053517341614 1.51079297065735 1.52177047729492 1.47722923755646 1.45684623718262 1.43099117279053 1.43798828125 1.43307435512543 1.32520043849945 1.27430891990662 1.25984013080597 1.24431133270264 1.31788885593414 1.38254225254059 1.30219006538391 1.10799539089203 0.905993163585663 0.798073530197144 0.724578440189362 0.724208176136017 0.688460230827332 1.38418257236481 2.3551812171936 1.9453638792038 2.21915626525879 2.46809148788452 2.67094111442566 2.19311118125916 1.65303194522858 1.48387801647186 1.44066560268402 1.4022091627121 1.59263098239899 2.05224418640137 2.11303734779358 2.07847166061401 2.15244817733765 1.95544850826263 1.97701370716095 2.07513475418091 1.94024515151978 1.64529943466187 1.32292461395264 1.14301359653473 1.00634670257568 0.986641585826874 1.00659584999084 0.519610226154327 0.0368023104965687 -0.28198504447937 -0.571100056171417 -0.832719326019287 -1.0944367647171 -1.39566171169281 -1.64289772510529 -1.86388230323792 -2.11310458183289 -2.31310224533081 -1.92419064044952 0.899821877479553 1.7268853187561 2.395268201828 2.28843140602112 2.16270303726196 1.96404266357422 1.52670478820801 1.22622513771057 0.418218165636063 -0.163749247789383 -0.660882651805878 1.66276788711548 1.98399209976196 1.96737205982208 10.0268001556396 14.138409614563 9.8773136138916 5.64866304397583 0.381774604320526 -2.70165801048279 -3.50732779502869 -3.50071740150452 -3.08524608612061 -0.488912165164948 7.25778198242188 7.24674415588379 5.7606782913208 4.15846967697144 1.00106728076935 -0.395738393068314 -0.202259257435799 0.156821265816689 1.62962603569031 6.38666296005249 4.01679754257202 4.31505966186523 2.0992066860199 -0.401171445846558 -0.955919206142426 -1.39420354366302 -2.03055691719055 -1.25914752483368 -0.875965476036072 -1.57769346237183 -0.501850306987762 -1.77400624752045 -0.677126348018646 2.71005415916443 3.86536836624146 4.62283277511597 4.79671478271484 2.85971522331238 1.32109236717224 0.117259874939919 -0.245181396603584 -0.163485497236252 -0.114574529230595 -0.0918300375342369 -0.012838994152844 0.0509435683488846 0.111342757940292 0.188383668661118 0.28823646903038 0.518475353717804 0.913830995559692 1.21544313430786 1.76570165157318 2.20201778411865 2.55117416381836 3.11304807662964 3.43004536628723 3.49610567092896 3.63454413414001 3.71532607078552 3.89354944229126 4.07231855392456 4.25264644622803 4.35515832901001 4.33217239379883
0.342488616704941 0.286096423864365 0.451334059238434 0.557944595813751 0.337752819061279 0.347724705934525 0.489869624376297 1.41724967956543 1.82958173751831 0.101530820131302 -0.0342907831072807 -0.147996217012405 0.273041576147079 -0.0360224135220051 0.132314190268517 0.856783390045166 0.426127642393112 0.644046068191528 1.54728996753693 2.05092215538025 3.22071218490601 3.48854637145996 2.95499753952026 2.53617525100708 2.52050113677979 2.83188366889954 2.20539140701294 2.23523807525635 2.1788809299469 2.00568509101868 1.87180125713348 2.12154865264893 2.15725326538086 1.95690512657166 1.86639833450317 1.62812852859497 1.56227040290833 1.57224941253662 1.55767595767975 1.51818764209747 1.5201975107193 1.4965535402298 1.49430119991302 1.39302921295166 1.34067130088806 1.32743895053864 1.30859792232513 1.44553744792938 1.71355426311493 1.5117746591568 1.3050582408905 1.08143711090088 0.8951016664505 0.707415401935577 0.602212429046631 0.680202007293701 0.820793926715851 2.25464773178101 2.55624675750732 2.94112682342529 3.36548280715942 2.87230348587036 2.56503081321716 1.94402611255646 1.48335516452789 1.47263610363007 1.43388628959656 2.15200185775757 2.17678189277649 2.24314212799072 2.24353551864624 2.00640511512756 2.21584105491638 2.1974515914917 2.28314423561096 2.12420868873596 1.68418645858765 1.26822102069855 1.1437509059906 1.14030599594116 1.30387938022614 1.35495495796204 0.996985495090485 0.544162094593048 0.0976335182785988 -0.218042984604836 -0.290755718946457 -0.550687253475189 -0.927112102508545 -1.18489289283752 -1.59168708324432 -1.8961443901062 -2.13116097450256 -1.04231834411621 0.606487631797791 1.8174934387207 2.59880471229553 2.6868953704834 2.69850182533264 2.34408593177795 1.81045687198639 1.42725598812103 0.581796288490295 -0.275144875049591 -0.790393471717834 2.67412948608398 3.69294881820679 2.70517516136169 -0.17099717259407 2.03686022758484 0.707544326782227 -3.09472370147705 -3.40229487419128 -3.41328167915344 -3.32173538208008 -3.11756944656372 -2.63026928901672 -1.51582336425781 3.80810260772705 3.55761671066284 4.23828983306885 1.24720931053162 -0.177140817046165 0.0595871731638908 0.371260672807693 0.605833292007446 1.90740406513214 2.63996529579163 0.51864355802536 0.672535240650177 0.61267215013504 0.166109323501587 -0.468345910310745 -1.51913964748383 -2.34238862991333 -2.30901956558228 -1.53748857975006 -0.633023500442505 -1.25217974185944 -0.0276986882090569 1.23207795619965 1.96112453937531 1.26727414131165 1.60095119476318 3.36014676094055 3.26896262168884 1.98022353649139 0.753417134284973 0.553162455558777 0.302801162004471 0.0668498873710632 0.184388488531113 0.317326575517654 0.402065992355347 0.456042498350143 0.538226068019867 0.80775111913681 1.23462224006653 1.52265405654907 1.69289982318878 1.89282381534576 2.28178405761719 2.62412405014038 3.29906678199768 3.71950697898865 3.68787813186646 3.92845773696899 3.8220546245575 4.06420135498047 4.20837163925171 4.35550594329834 4.45942783355713 4.43668127059937
0.282485902309418 0.470140486955643 0.549222648143768 0.591654062271118 0.367775768041611 0.346487134695053 1.21822893619537 2.64321374893188 0.239314779639244 0.110046535730362 0.00962766166776419 -0.134866505861282 -0.281563133001328 -0.385307163000107 -0.492793351411819 -0.570286273956299 -0.360916078090668 0.575123608112335 1.31935930252075 2.33307695388794 2.34713745117188 2.97072911262512 2.96700644493103 2.92646980285645 3.72770309448242 2.96448159217834 2.88557696342468 2.24706244468689 2.37257862091064 2.04015278816223 2.14411425590515 2.16892290115356 2.22094368934631 1.95368218421936 1.77590620517731 1.68173038959503 1.61239790916443 1.63630056381226 1.63271594047546 1.57848739624023 1.59047436714172 1.59064292907715 1.52515816688538 1.43685376644135 1.3878333568573 1.37408196926117 1.38100147247314 1.48199844360352 1.79790914058685 1.68413817882538 1.45105493068695 1.21846985816956 1.07473468780518 0.86777651309967 0.709059298038483 0.729742467403412 0.886321306228638 2.00648522377014 3.22613501548767 3.98054552078247 4.72646474838257 3.73851418495178 2.69984340667725 2.15952587127686 1.5175803899765 1.49612557888031 1.82128489017487 2.3573203086853 2.44752621650696 2.20438718795776 2.31870794296265 2.04684829711914 2.50076413154602 2.60097932815552 2.42038011550903 2.17776727676392 1.96049606800079 1.5943009853363 1.17238628864288 1.28770887851715 1.51046693325043 1.59920513629913 1.36203026771545 0.928136467933655 0.560625016689301 0.278122663497925 0.160644546151161 -0.0440854728221893 -0.392593145370483 -0.773886680603027 -1.20691359043121 -1.54202568531036 -1.40059399604797 0.52901029586792 1.6581152677536 2.18902492523193 2.93330144882202 3.00148367881775 3.07788324356079 2.5152223110199 1.94357931613922 1.53448379039764 0.671572923660278 -0.169279158115387 -0.163687974214554 3.16419696807861 4.118980884552 3.3710925579071 0.154487162828445 -3.0557234287262 -3.17605495452881 -3.23196363449097 -3.2697856426239 -3.26893496513367 -2.93617844581604 -2.52081274986267 -1.94292879104614 -0.886188566684723 1.31476664543152 2.00709533691406 2.93254470825195 0.0965495407581329 0.257587492465973 0.541999280452728 0.810688316822052 0.914686977863312 1.24027788639069 0.92134290933609 0.907698154449463 1.00218200683594 0.943994522094727 0.630045473575592 0.273536860942841 -0.288920730352402 -1.4477117061615 -2.30408382415771 -1.66350650787354 -2.60230731964111 -2.19910216331482 -0.0472722575068474 1.0609450340271 1.62505090236664 0.994939088821411 0.503743946552277 0.660963833332062 1.71009087562561 1.78958165645599 0.378698021173477 0.0839879438281059 0.151533588767052 0.277065485715866 0.431617856025696 0.570630669593811 0.726491451263428 0.87308543920517 1.04162156581879 1.44931650161743 1.94705545902252 2.02671933174133 2.07273769378662 2.1781702041626 2.39070677757263 2.67906284332275 2.9383544921875 3.23960542678833 3.45076656341553 3.68043661117554 3.94606041908264 4.24578905105591 4.44851398468018 4.56047391891479 4.53354835510254 4.49390888214111
1.61300718784332 0.945964217185974 0.615370273590088 0.44816118478775 0.372333496809006 0.454922020435333 0.796963393688202 2.69487619400024 0.179361447691917 0.0923688560724258 0.0246397983282804 -0.0907788872718811 -0.239468812942505 -0.288982838392258 -0.476506024599075 -0.55189037322998 0.297042280435562 0.421046257019043 1.01879286766052 1.01496922969818 1.14758276939392 2.69815564155579 3.18952822685242 2.9327335357666 2.14377522468567 2.31725597381592 2.59131336212158 2.6614727973938 2.39710211753845 2.25844120979309 2.2897424697876 2.2049674987793 2.31552767753601 2.02656888961792 1.76006853580475 1.68966794013977 1.70510852336884 1.74256372451782 1.73075664043427 1.67510199546814 1.69938242435455 1.68479537963867 1.55547225475311 1.5175998210907 1.46161067485809 1.41275429725647 1.50819742679596 1.74097788333893 1.88536489009857 1.81879162788391 1.6027706861496 1.30102896690369 1.08076906204224 1.00768554210663 0.862098693847656 0.863672196865082 0.953178107738495 2.09118509292603 4.84391212463379 6.92991924285889 5.31624126434326 4.50889730453491 3.52721810340881 2.04412841796875 1.54404425621033 1.52059364318848 1.94275498390198 2.53131413459778 2.61795258522034 2.38116645812988 2.39844822883606 2.25624990463257 2.81558465957642 2.94408893585205 2.62355446815491 1.83247900009155 1.35364711284637 1.20929658412933 1.25273966789246 1.42241132259369 1.67337656021118 1.80212712287903 1.63482677936554 1.32708346843719 0.923249781131744 0.701249659061432 0.586952388286591 0.358427375555038 0.177979424595833 -0.117309227585793 -0.766975104808807 -1.21123659610748 -0.327058613300323 1.55578553676605 2.55388164520264 3.10942769050598 3.15677261352539 3.39779186248779 3.49134564399719 3.01240587234497 2.24034357070923 1.48844218254089 0.743589043617249 0.103833332657814 4.31256771087646 4.68489027023315 5.07486867904663 4.23465776443481 0.434597194194794 -2.92427015304565 -3.02369809150696 -3.04410076141357 -3.08635711669922 -3.06071519851685 -2.52473163604736 -2.07899165153503 -1.23673439025879 -0.443157762289047 1.84585094451904 2.04189825057983 0.57902866601944 0.455427706241608 0.650290489196777 0.971828937530518 1.16332399845123 1.38040018081665 1.18028092384338 1.26580786705017 1.30782449245453 1.33710289001465 1.3027948141098 1.03181052207947 0.777348220348358 0.255368798971176 -0.383755266666412 -1.69762206077576 -2.10312438011169 -2.26425623893738 -2.18997573852539 -1.86365509033203 -1.48546350002289 0.563473641872406 1.23814761638641 -0.228919237852097 -0.315726280212402 0.802720785140991 0.509168446063995 0.147389218211174 0.267827391624451 0.407399237155914 0.51473993062973 0.654487550258636 0.834032237529755 1.12725603580475 1.30948877334595 1.61954939365387 2.11351776123047 2.32366299629211 2.42368936538696 2.35390591621399 2.3471405506134 2.58929777145386 2.79028391838074 3.12689805030823 3.37956500053406 3.60066628456116 3.82894325256348 4.08972120285034 4.3496356010437 4.57746028900146 4.70025157928467 4.6733660697937 4.56841850280762
0.954911589622498 1.15272450447083 0.682733714580536 0.391086518764496 0.384133636951447 0.31534531712532 0.249112755060196 2.29885911941528 1.11457586288452 0.0671689584851265 0.0153171140700579 -0.0667704045772552 -0.191696345806122 -0.329678773880005 -0.445948928594589 0.810648381710052 0.0975759848952293 0.203251913189888 0.513070106506348 1.18380379676819 1.80114209651947 2.24531269073486 2.66990208625793 2.97515225410461 2.54782104492188 2.16971898078918 2.69032955169678 3.47160124778748 2.39920091629028 2.46493482589722 2.37898445129395 2.43004536628723 2.20354413986206 2.10488963127136 1.83705341815948 1.78833222389221 1.80375683307648 1.83366298675537 1.83510518074036 1.85708928108215 1.77814054489136 1.77917742729187 1.65085780620575 1.5796377658844 1.56513488292694 1.52230978012085 1.63943910598755 2.03352355957031 2.02770972251892 1.96333599090576 1.80697059631348 1.49958944320679 1.15092813968658 0.95279324054718 0.941639542579651 0.9410280585289 0.9896439909935 1.09913539886475 2.52100658416748 3.6065821647644 3.78606796264648 3.92754745483398 3.95302200317383 2.54927778244019 1.78643405437469 1.83972752094269 2.75952315330505 2.72245049476624 2.80169439315796 2.53488612174988 2.89041018486023 3.58974838256836 3.46622085571289 3.09179210662842 2.73331570625305 1.79848098754883 1.29929006099701 1.16937351226807 1.30911755561829 1.59681415557861 1.82419669628143 1.98362636566162 1.85769164562225 1.60207557678223 1.29839324951172 1.12695145606995 1.04078662395477 0.911451399326324 0.757610321044922 0.457414954900742 -0.367284327745438 1.24569046497345 2.50737881660461 2.99217200279236 3.69256401062012 4.08515501022339 3.98362874984741 4.07955026626587 3.93271541595459 3.38120412826538 2.50524091720581 1.09977126121521 0.247442558407784 0.913146317005157 6.44691753387451 8.1770191192627 7.96003007888794 4.75914764404297 1.3737131357193 -2.51683020591736 -2.85327792167664 -2.8356659412384 -2.82282090187073 -2.80993175506592 -2.17197322845459 -1.6664707660675 -1.06197845935822 -0.19052030146122 1.25870108604431 1.87504613399506 0.787590563297272 0.790836095809937 0.83796238899231 1.12248837947845 1.39152467250824 1.57421505451202 1.66394460201263 1.51145148277283 1.58248901367188 1.58729469776154 1.47776412963867 1.25938427448273 0.928762376308441 0.609100997447968 0.0256578288972378 -1.11385881900787 -1.59918069839478 -1.80582869052887 -1.8372118473053 -1.52899897098541 -1.02833676338196 -0.547185122966766 -0.297381520271301 -0.126135393977165 0.21249820291996 1.83828341960907 0.570828258991241 0.398588746786118 0.575242340564728 0.698361873626709 0.813863277435303 0.932652652263641 1.18184471130371 1.45729684829712 1.80565547943115 2.13603234291077 2.48710536956787 2.60613751411438 2.56532835960388 2.49353861808777 2.55097365379333 2.77868223190308 2.88478803634644 3.21577739715576 3.46960735321045 3.68952202796936 3.91025710105896 4.24051904678345 4.48476409912109 4.68972969055176 4.82810115814209 4.80193948745728 4.6514630317688
1.05254185199738 0.988453149795532 0.646143138408661 0.403416156768799 0.372522562742233 0.343958556652069 0.220735609531403 0.579603731632233 1.58949327468872 0.0869073420763016 -0.00963226985186338 -0.0603232644498348 -0.159765899181366 -0.294696718454361 -0.420483201742172 -0.553865194320679 -0.588157057762146 -0.609905242919922 0.0651736333966255 0.5470951795578 0.261334896087646 1.32304561138153 2.28116989135742 2.86159825325012 3.31310153007507 2.97114324569702 4.76388120651245 3.35643291473389 2.57003569602966 2.44777894020081 2.49042534828186 2.52606582641602 2.22330403327942 2.01878571510315 1.92265033721924 1.91219878196716 1.92920100688934 1.91067242622375 1.88714373111725 1.92297971248627 1.93462932109833 1.82986056804657 1.71481287479401 1.67836785316467 1.67217469215393 1.63533270359039 1.72303879261017 2.12305951118469 2.13910746574402 2.0840368270874 1.92482960224152 1.72767329216003 1.35396683216095 1.10605943202972 1.03649866580963 1.04362809658051 1.09607946872711 1.1274653673172 0.98396623134613 1.06126248836517 1.43431329727173 2.24078297615051 3.22497200965881 2.54270529747009 1.97985947132111 2.3389732837677 3.01554799079895 3.09007215499878 2.67434287071228 3.12629508972168 3.74858260154724 4.10470008850098 3.94355320930481 3.47771143913269 2.63641762733459 1.61212158203125 1.2370799779892 1.19733023643494 1.35763931274414 1.7168163061142 1.92671036720276 2.04127883911133 1.92037236690521 1.74907803535461 1.64640831947327 1.50305068492889 1.393221616745 1.31237864494324 1.05526399612427 0.666253685951233 -0.0872519314289093 3.04315662384033 4.92833566665649 5.65188694000244 5.26453351974487 5.19082069396973 4.92969417572021 4.83707141876221 4.32111501693726 3.49370861053467 2.75720930099487 1.08858072757721 1.30693483352661 4.29444026947021 8.00052165985107 10.3383817672729 10.2332706451416 6.65448188781738 0.420368820428848 -1.983891248703 -2.61005878448486 -2.59461808204651 -2.53265905380249 -1.73003876209259 -1.59650933742523 -1.4739476442337 -0.636019110679626 -0.128830924630165 0.363973766565323 1.9375706911087 1.12249028682709 0.944397568702698 1.03063917160034 1.28097319602966 1.54801166057587 1.72977709770203 1.87537717819214 1.83899819850922 1.77196455001831 1.81406021118164 1.65083169937134 1.37949645519257 1.12496507167816 0.73894852399826 0.217811450362206 -0.588250160217285 -0.982383728027344 -1.24635851383209 -1.30855047702789 -1.0917546749115 -0.575653851032257 0.14682649075985 0.399855256080627 0.381936430931091 0.38118252158165 0.943283081054688 0.592152535915375 0.71458911895752 0.87343555688858 1.0461802482605 1.18966901302338 1.35432183742523 1.54630827903748 1.88415014743805 2.30310249328613 2.5288097858429 2.75693678855896 2.7540111541748 2.72131371498108 2.64871096611023 2.75613188743591 2.92575645446777 3.12923669815063 3.36847066879272 3.59264612197876 3.80643701553345 4.0620059967041 4.39319801330566 4.68759965896606 4.87264919281006 4.89321708679199 4.86076068878174 4.92282295227051
0.766079127788544 0.632192373275757 0.477199494838715 0.410647064447403 0.359614044427872 0.350598484277725 0.256168216466904 0.150131419301033 1.10198974609375 0.110385335981846 -0.0129542220383883 -0.0729842707514763 -0.152475297451019 -0.264702796936035 -0.389388889074326 -0.511471569538116 -0.561099112033844 -0.473034501075745 -0.474468737840652 -0.104064650833607 0.29868146777153 0.728659927845001 1.73040759563446 2.3958215713501 2.98722767829895 3.35884380340576 2.06791710853577 2.62098693847656 2.79412508010864 2.7413535118103 2.63368892669678 2.62578344345093 2.31799554824829 2.17951679229736 2.12535285949707 1.99853479862213 2.00707745552063 1.99918234348297 1.97117173671722 2.03928351402283 2.01905345916748 1.9271696805954 1.86552119255066 1.8086462020874 1.78028440475464 1.80853390693665 2.05808806419373 2.22688627243042 2.23990988731384 2.19630002975464 1.99890196323395 1.75318264961243 1.58865714073181 1.31322014331818 1.1922904253006 1.17855334281921 1.2622162103653 1.15416204929352 1.11074090003967 1.14762675762177 1.31527400016785 1.44794690608978 2.17067503929138 1.863365650177 2.24330234527588 2.57172799110413 3.29228186607361 3.27567768096924 2.69882702827454 2.51701831817627 3.16492938995361 4.85723400115967 5.23435211181641 4.31648731231689 2.27381563186646 1.51800942420959 1.22549855709076 1.27810263633728 1.48298358917236 1.79119253158569 2.03606295585632 2.10664510726929 2.01018190383911 1.79518139362335 1.7859058380127 1.75550436973572 1.67177140712738 1.5228077173233 1.13310050964355 0.909323334693909 3.97217154502869 4.64765930175781 6.51403045654297 7.27759647369385 6.94181680679321 6.31948900222778 5.7539119720459 5.57044219970703 4.91908264160156 3.91961312294006 2.69618225097656 1.24217545986176 2.36425232887268 16.4009456634521 17.6326656341553 17.0830707550049 12.8901071548462 9.53472328186035 2.29826045036316 -2.3714873790741 -2.36738753318787 -2.08882546424866 -2.02558445930481 -0.744683563709259 -1.01531839370728 -0.807801067829132 -0.232950016856194 0.0695874467492104 0.411647439002991 0.824051797389984 0.993476271629333 1.10947120189667 1.38643622398376 1.63344573974609 1.93907976150513 2.01296281814575 2.03052449226379 1.99200916290283 1.95531976222992 2.03881597518921 2.00080823898315 1.79222989082336 1.5507515668869 1.30272173881531 0.634659051895142 0.0239160899072886 -0.365913569927216 -0.640165209770203 -0.733858942985535 -0.496963024139404 0.150400668382645 0.652741134166718 1.01105439662933 0.911855041980743 0.844769537448883 0.90720009803772 1.01319634914398 1.1461865901947 1.27147924900055 1.42359447479248 1.5027312040329 1.67216312885284 1.88639295101166 2.37159085273743 2.63086271286011 2.82985901832581 2.90103650093079 2.90126371383667 2.86896872520447 2.95593667030334 3.09836840629578 3.15967655181885 3.42417240142822 3.60902309417725 3.81348609924316 4.04439830780029 4.28077554702759 4.54423713684082 4.80594921112061 4.97645616531372 4.98828363418579 4.92907524108887 5.06763124465942
0.519429266452789 0.666997849941254 0.424231708049774 0.427941858768463 0.38658332824707 0.309122562408447 0.256382524967194 0.177887931466103 0.607362985610962 0.124038897454739 -0.00220494461245835 -0.107196040451527 -0.172252878546715 -0.254244804382324 -0.367580354213715 -0.469661563634872 -0.538526713848114 -0.584365427494049 -0.488619893789291 -0.206202521920204 0.157462790608406 0.272965043783188 0.814486145973206 1.37771677970886 2.19530177116394 3.16419243812561 2.55526518821716 3.69703435897827 3.20619082450867 3.47895383834839 2.71218752861023 2.4916729927063 2.46165537834167 2.29696702957153 2.16648507118225 2.05224514007568 2.08130097389221 2.09816145896912 2.17865228652954 2.1874840259552 2.15548205375671 2.0152759552002 1.94446337223053 1.89936566352844 1.91981637477875 1.98865079879761 2.39045310020447 2.40544247627258 2.35981869697571 2.30474472045898 2.10500693321228 1.79239249229431 1.54105889797211 1.4339747428894 1.33168113231659 1.26288497447968 1.36337196826935 1.24781906604767 1.21338331699371 1.30184614658356 1.357790350914 1.47746479511261 1.5561443567276 2.4317831993103 2.46552515029907 3.75013399124146 3.56859683990479 3.51038885116577 2.7978208065033 6.63013219833374 7.74970865249634 6.99698829650879 6.53408098220825 5.85394620895386 2.28867220878601 1.62492632865906 1.24003994464874 1.34099471569061 1.65628850460052 1.93734753131866 2.15497279167175 2.22453451156616 2.2154860496521 2.02363348007202 1.93888521194458 1.95794796943665 1.88895225524902 1.7562050819397 1.35309660434723 1.93451356887817 6.38106393814087 7.95082330703735 8.43347454071045 8.58095455169678 8.16186428070068 7.4743332862854 6.86187601089478 6.16268491744995 5.50077342987061 4.41006660461426 2.51560926437378 0.822782158851624 0.122478768229485 7.9511399269104 12.9766092300415 14.618824005127 12.5599212646484 9.02052402496338 4.80503797531128 -1.54047214984894 -2.26750922203064 -1.36808848381042 -0.578158557415009 0.1895502358675 -0.0604573078453541 -0.475126594305038 0.119888380169868 0.467159450054169 0.540806353092194 0.892326891422272 1.03322315216064 1.214275598526 1.58841276168823 1.88658738136292 2.19397449493408 2.48869657516479 2.36239123344421 2.21161556243896 2.21227645874023 2.27620053291321 2.38741159439087 2.38346028327942 2.28117489814758 1.9698234796524 1.31201362609863 0.673391580581665 0.169961959123611 -0.0175988283008337 -0.0585049241781235 0.00196324964053929 0.739584505558014 1.04490923881531 1.22761595249176 1.29369401931763 1.32970213890076 1.4340432882309 1.45120441913605 1.55961132049561 1.63489019870758 1.68727397918701 1.72169983386993 1.86767876148224 2.16494226455688 2.60657453536987 2.86884808540344 2.95219659805298 3.03464198112488 3.01859879493713 2.98552989959717 3.18110489845276 3.399906873703 3.44693350791931 3.6474916934967 3.8010094165802 3.98334789276123 4.19274473190308 4.53927707672119 4.82345676422119 4.96589469909668 5.10902881622314 5.10221242904663 4.99138784408569 5.35324335098267
