NCOLS 171
NROWS 32
XLLCORNER 353680
YLLCORNER 6699984
CELLSIZE 16 
NODATA_value -3.4e+38 
2.00257921218872 1.98118031024933 2.89295196533203 3.38206434249878 2.50095987319946 2.44690537452698 1.89944469928741 1.83677852153778 1.77938890457153 1.70204854011536 1.67644512653351 1.67336189746857 2.86033129692078 2.25530362129211 1.44071471691132 1.38026678562164 1.34783482551575 1.34181678295135 4.14045095443726 2.82347083091736 2.07265424728394 1.64740073680878 1.21005117893219 1.19089341163635 1.17964601516724 2.30828332901001 0.949602365493774 0.69125097990036 0.592604756355286 0.514180541038513 0.438195377588272 0.355177074670792 0.258228480815887 0.126771464943886 0.0300711616873741 -0.0186007991433144 -0.0409372113645077 -0.0479485727846622 0.112807258963585 0.572542011737823 1.07237839698792 1.81892383098602 3.08354091644287 3.1982569694519 2.36547040939331 3.5183367729187 3.71963667869568 2.78743076324463 2.53150916099548 2.40299391746521 2.3455536365509 2.02782034873962 1.83508276939392 1.73281991481781 1.64766025543213 1.60239839553833 1.52887582778931 1.43957042694092 1.3525482416153 1.27869319915771 1.2111132144928 1.15006220340729 1.11993134021759 1.07975935935974 1.02268755435944 0.918927013874054 0.737048149108887 0.645747423171997 0.554190278053284 0.452450156211853 0.381150394678116 0.327333778142929 2.41690325737 1.47304964065552 0.764598846435547 0.300043106079102 0.25311341881752 0.244062662124634 1.00612008571625 2.52967762947083 2.32401466369629 1.77652728557587 1.20791077613831 1.17974352836609 0.465554416179657 0.144293278455734 0.0669970884919167 0.0225010123103857 1.29730927944183 9.23598957061768 6.0043625831604 3.89372754096985 2.869873046875 2.14834380149841 1.88335943222046 1.69619715213776 1.58506429195404 1.49119925498962 1.27346730232239 1.08941411972046 0.872705936431885 0.823489367961884 0.692823648452759 0.405818074941635 -0.233971193432808 -0.63159191608429 -0.669124662876129 -0.69111567735672 -0.800524353981018 -0.23942406475544 -0.424174964427948 -0.193346858024597 -0.597914278507233 -0.727385520935059 -0.800947844982147 -0.889971315860748 -1.13552308082581 -1.51476311683655 -1.64942812919617 -1.78313446044922 -2.07226181030273 -2.12848973274231 -2.11278557777405 0.592921197414398 9.68537902832031 9.6083869934082 7.97338104248047 7.14801502227783 5.6274299621582 3.95941591262817 3.48087191581726 3.0128448009491 2.27808427810669 1.75479924678802 1.74390637874603 1.61567330360413 1.1629786491394 1.40553486347198 5.73293018341064 5.22440528869629 4.53824377059937 3.84055614471436 2.09339237213135 1.18160319328308 2.54192066192627 3.72062969207764 2.24308037757874 2.06093645095825 1.28241276741028 1.07143032550812 0.767763316631317 0.683893263339996 0.645498216152191 3.64920878410339 2.98578882217407 2.21484637260437 1.8270503282547 1.43696165084839 1.12742304801941 3.00130558013916 4.68947649002075 4.24312400817871 4.15883684158325 4.31503248214722 4.1807746887207 3.77410936355591 3.04354882240295 2.66462516784668 2.5907518863678 2.56666684150696 2.98084354400635
1.94653987884521 1.88654279708862 2.52993679046631 2.91522932052612 2.18881607055664 3.38470530509949 1.88035190105438 1.60502350330353 1.55059814453125 1.49076247215271 1.46520280838013 2.74798464775085 2.59489154815674 1.98189473152161 1.23304808139801 0.962089955806732 1.35275447368622 1.7882319688797 2.55755829811096 1.98257231712341 1.80176532268524 1.498570561409 1.10377025604248 1.03504395484924 1.01278614997864 1.75939524173737 0.912167429924011 0.687658965587616 0.569697499275208 0.476396888494492 0.397921860218048 0.323083430528641 0.23933619260788 0.120854452252388 0.0327613539993763 -0.0342291742563248 -0.0577606484293938 -0.0702353492379189 0.0486582554876804 0.20035594701767 0.800691902637482 1.38116550445557 2.6175684928894 2.62731528282166 2.40871691703796 3.28924322128296 3.52032351493835 2.92115926742554 2.62159729003906 2.34332680702209 2.18812680244446 2.37300729751587 2.02480792999268 1.85552227497101 1.73199725151062 1.64507734775543 1.61818957328796 1.53876745700836 1.44357287883759 1.35666286945343 1.27072405815125 1.24225521087646 1.18597495555878 1.07950031757355 0.947287023067474 0.870402157306671 0.795147061347961 0.648822486400604 0.513979971408844 0.45784792304039 0.403609275817871 0.351314723491669 0.986250221729279 0.718727469444275 0.623914957046509 0.370123594999313 0.30017414689064 0.24903666973114 0.184471935033798 1.08948874473572 3.7911274433136 2.92968535423279 1.86084067821503 1.16579437255859 0.63437956571579 0.10558196157217 0.0478483512997627 0.0261174496263266 3.09336161613464 8.43561267852783 5.00947523117065 3.32102966308594 2.75731682777405 2.28316330909729 2.00314426422119 1.80335521697998 1.65613794326782 1.57106924057007 1.3960382938385 1.20203971862793 1.03466510772705 1.0279107093811 0.913709402084351 0.455092519521713 -0.148297220468521 -0.493201375007629 -0.601550042629242 -0.626741051673889 -0.676034331321716 1.19368970394135 1.1722936630249 2.26038074493408 1.60668838024139 0.677491724491119 0.0565730147063732 -0.361531049013138 -0.862699627876282 -1.21311902999878 -1.35837268829346 -1.20831561088562 -1.0359890460968 -0.957696974277496 -1.30878508090973 -1.57612979412079 0.526702046394348 7.53796195983887 6.55278158187866 5.46479558944702 4.83275651931763 3.59241104125977 2.46775698661804 1.86730146408081 1.48571670055389 1.08008968830109 0.862517535686493 2.6372663974762 0.646181762218475 1.43393099308014 4.61789226531982 3.76818251609802 4.17314529418945 4.60157871246338 3.92958235740662 3.09332752227783 2.41326928138733 2.22922706604004 2.04181170463562 2.98941278457642 1.75797927379608 1.41114366054535 1.11877775192261 1.03508651256561 2.41588044166565 1.76630091667175 1.17653501033783 0.955181181430817 0.870921313762665 0.918731987476349 0.822591960430145 3.93342113494873 4.37991333007812 4.50243186950684 4.27109813690186 4.0018482208252 3.81689310073853 3.60784769058228 3.1144015789032 2.87493085861206 2.73625612258911 2.68108820915222 2.62419605255127
1.70999014377594 1.68762528896332 1.67322337627411 2.23490595817566 1.73830282688141 2.16865539550781 1.52489960193634 1.07958436012268 1.03871369361877 1.02692484855652 1.46477007865906 1.46158242225647 2.24714040756226 1.84294831752777 1.10027515888214 0.982703268527985 1.79273557662964 2.71449732780457 1.61032569408417 1.5215619802475 1.09896969795227 1.43285250663757 1.09797585010529 1.05307018756866 1.03821885585785 1.03845691680908 0.995088696479797 0.765242576599121 0.615201890468597 0.474458694458008 0.384731888771057 0.318100988864899 0.24549987912178 0.17080993950367 0.0728079080581665 -0.0129887312650681 -0.0447077006101608 -0.0584368370473385 -0.066692590713501 0.121071755886078 0.523929178714752 1.04975092411041 1.94294917583466 2.43424797058105 3.03330492973328 2.83748626708984 2.27157759666443 3.12678551673889 2.69589257240295 2.35950922966003 2.11815595626831 1.95204508304596 1.81877255439758 1.7148585319519 1.64341473579407 1.5863721370697 1.57923853397369 1.55723083019257 1.48761057853699 1.41459941864014 1.3485860824585 1.25946450233459 1.14076447486877 0.990386784076691 0.90747731924057 0.869115889072418 0.78768116235733 0.534391343593597 0.320674300193787 2.18802499771118 1.96518969535828 1.31925463676453 0.76112174987793 0.359382092952728 0.356584548950195 0.360139071941376 0.342837065458298 0.279663473367691 0.158856466412544 0.131880700588226 3.5173704624176 3.31715416908264 2.35864281654358 1.22672963142395 0.839469969272614 0.0187248419970274 -0.0202748570591211 1.09586584568024 6.68410682678223 7.23704242706299 4.70889329910278 3.52379727363586 3.02053236961365 2.51182436943054 2.18383765220642 1.95557200908661 1.77563416957855 1.66018962860107 1.55577218532562 1.37915635108948 1.22831428050995 1.16787755489349 1.03618812561035 0.298835188150406 -0.335009276866913 -0.799051940441132 -1.01561939716339 0.0972618013620377 3.17994046211243 3.23281121253967 4.64821481704712 5.88868188858032 5.12063646316528 3.70805597305298 2.51209664344788 1.69904112815857 1.29141926765442 0.961781561374664 0.595497846603394 0.380572259426117 0.981557607650757 0.962127983570099 0.572996973991394 0.253759980201721 0.214883968234062 1.72617673873901 3.48208117485046 2.63528990745544 3.45453381538391 3.29191184043884 2.76481628417969 2.0410418510437 1.8313707113266 1.52373850345612 1.11555063724518 2.79553437232971 1.7242659330368 1.09135711193085 1.06841576099396 2.55274558067322 2.55484509468079 8.68326473236084 6.485191822052 5.57631969451904 4.95222234725952 3.12870240211487 2.69501042366028 2.69481420516968 2.5338613986969 1.81246209144592 1.47246563434601 1.33359432220459 1.29201304912567 1.25288367271423 1.23279631137848 1.19450294971466 1.15057647228241 1.01643002033234 2.82924866676331 5.17267799377441 4.81263446807861 4.6478443145752 4.42818260192871 4.52565336227417 4.34173536300659 4.26552820205688 4.14904832839966 3.86154270172119 3.65421938896179 3.45060133934021 3.21260380744934
1.10301172733307 1.08822810649872 1.79163014888763 1.32138001918793 1.18546962738037 1.67106449604034 1.15949165821075 0.913468837738037 0.909900724887848 0.889271378517151 1.90152287483215 2.06590580940247 2.72289323806763 2.49394273757935 1.94115579128265 1.90270793437958 1.77059710025787 1.5921186208725 1.40806496143341 1.33058893680573 1.11432194709778 2.66555094718933 1.66475880146027 1.0593593120575 1.05644226074219 1.04384326934814 1.00357818603516 0.788560330867767 0.689893782138824 0.585788607597351 0.479565978050232 0.379671573638916 0.29790797829628 0.220750823616982 0.117276087403297 0.0761812031269073 0.0290573313832283 0.00624420959502459 -0.0146449860185385 -0.0152538120746613 0.171491876244545 0.749748051166534 1.62150466442108 1.93307030200958 2.27162265777588 2.47793555259705 2.15676498413086 2.46855473518372 2.74895238876343 2.61864852905273 2.3457944393158 1.96390640735626 1.77260041236877 1.66009378433228 1.51800453662872 1.43345129489899 1.40278851985931 1.39532577991486 1.39887404441833 1.36014974117279 1.28543603420258 1.17021584510803 1.03226327896118 0.990272045135498 0.904985725879669 0.820970892906189 0.734886705875397 0.647024273872375 0.425450593233109 0.538353323936462 0.416216999292374 0.393036603927612 0.391954153776169 0.37448850274086 0.35758438706398 0.349721252918243 0.351303428411484 0.313551068305969 0.137522041797638 0.0365359932184219 1.59989738464355 3.17111587524414 3.11206912994385 1.62871611118317 2.09532141685486 1.04710018634796 0.739808797836304 1.76598703861237 8.29800987243652 7.70152711868286 5.16979217529297 3.86061787605286 3.274827003479 2.71831703186035 2.32437777519226 2.0671284198761 1.89916253089905 1.76021444797516 1.65732526779175 1.50191450119019 1.33292257785797 1.27463316917419 0.897557258605957 -0.525255143642426 -1.23080432415009 -1.3337641954422 -1.4512734413147 1.5569816827774 8.70262050628662 7.29238986968994 7.05692529678345 8.76357364654541 8.33462238311768 7.3962345123291 5.57186222076416 4.2649941444397 3.64051985740662 3.2348461151123 2.83971333503723 2.41587543487549 2.15349149703979 2.43094277381897 1.98227250576019 1.55369246006012 1.29087603092194 1.21476030349731 1.2096254825592 1.12276208400726 2.18288254737854 4.10479116439819 4.91574764251709 3.98594856262207 3.09908890724182 3.3293993473053 2.88354802131653 2.67509984970093 2.47294425964355 2.19157314300537 1.72283542156219 2.98800945281982 4.55530738830566 4.70715665817261 6.05763101577759 5.62133502960205 5.18959188461304 4.88868093490601 3.94920921325684 3.26852774620056 3.0517373085022 2.28959989547729 1.85778975486755 1.69557952880859 1.60069012641907 1.5213828086853 1.48633944988251 1.42694771289825 1.30558681488037 1.06635534763336 2.869624376297 9.89208221435547 7.51709127426147 6.5366473197937 5.97842025756836 5.60015201568604 5.25881147384644 4.96570158004761 4.83602046966553 4.66925001144409 4.3466100692749 4.02662897109985 3.67059206962585
0.9569993019104 1.28446137905121 1.49171769618988 0.957023322582245 0.942403316497803 1.24777388572693 1.13052082061768 1.17965865135193 1.16535353660583 1.13168179988861 2.25400114059448 3.11620283126831 3.43809151649475 3.01292133331299 2.9118025302887 2.86538505554199 2.41125226020813 1.81080436706543 1.47148513793945 1.71796059608459 1.42519843578339 1.40870130062103 1.2969114780426 1.18966150283813 1.00625491142273 1.55075716972351 1.03499710559845 0.894087672233582 0.795838415622711 0.693494737148285 0.585413753986359 0.483426451683044 0.395528942346573 0.316603302955627 0.216995030641556 0.137061253190041 0.0809487327933311 0.0521270595490932 0.0236557349562645 0.00844643265008926 0.0267470180988312 0.526565432548523 1.24741888046265 1.52173614501953 1.70515859127045 1.74683952331543 1.8964741230011 2.17280220985413 2.05904698371887 4.08391618728638 2.54610633850098 2.17902326583862 2.14263248443604 2.09227132797241 1.73658215999603 1.50237357616425 1.3301819562912 1.27717578411102 1.28143346309662 1.28860902786255 1.2328667640686 1.15081930160522 1.06776702404022 0.956587255001068 0.865953624248505 0.770842373371124 0.660862565040588 0.576623141765594 0.496163249015808 0.463876277208328 0.45134910941124 0.439264118671417 0.420203924179077 0.417809158563614 0.388888299465179 0.363707989454269 0.357582628726959 0.304165482521057 0.0558657236397266 -0.213795483112335 1.98071670532227 4.19829559326172 5.23876476287842 3.86526727676392 2.31977605819702 1.6492772102356 1.31335318088531 1.57323908805847 6.55259275436401 9.46156883239746 5.60348510742188 4.18067979812622 3.37919998168945 2.8030207157135 2.41233992576599 2.11752772331238 1.92556953430176 1.80060839653015 1.70254647731781 1.58279311656952 1.43371319770813 1.28453207015991 0.984908103942871 -0.535756826400757 -1.46355664730072 -1.74746131896973 -1.85022950172424 1.6746951341629 2.330322265625 12.7001924514771 9.8174409866333 8.3016471862793 9.34178447723389 9.11230659484863 7.42093706130981 6.10994720458984 5.35337495803833 4.75853824615479 4.24907398223877 3.838942527771 3.4314911365509 3.06242752075195 2.82133340835571 2.14816999435425 1.85716795921326 1.7553688287735 1.669557929039 1.48678874969482 1.36319530010223 5.62398672103882 7.59477043151855 7.2956018447876 5.6474814414978 4.54624271392822 3.77812433242798 3.37167501449585 3.02869176864624 2.78143382072449 2.44798946380615 2.13779520988464 4.40564775466919 3.60253429412842 5.37388849258423 7.20187139511108 6.89997243881226 5.82387399673462 5.05959558486938 3.7062885761261 2.96390676498413 2.76442098617554 2.53140163421631 2.17613172531128 1.92004799842834 1.80669844150543 1.69741463661194 1.53702747821808 1.33846294879913 1.0603574514389 1.02997326850891 9.97631072998047 9.10443305969238 7.94029521942139 7.05347347259521 5.56363725662231 4.88421630859375 4.60455131530762 4.48886013031006 4.4023175239563 4.10143375396729 3.7305850982666 3.40186667442322
1.29890823364258 1.2864693403244 1.41595137119293 1.26550507545471 1.23145747184753 1.2070586681366 1.24218893051147 1.273810505867 1.25571143627167 1.21934545040131 1.21647334098816 4.04144144058228 4.26761102676392 3.6563241481781 3.36322736740112 3.08757162094116 2.65845608711243 2.09764409065247 1.77855038642883 1.74181222915649 1.64862847328186 1.51734340190887 1.39435195922852 1.2669004201889 1.16083431243896 1.13259124755859 1.03810799121857 0.978288590908051 0.882106363773346 0.783367335796356 0.672124981880188 0.5612513422966 0.466040015220642 0.384884864091873 0.30000364780426 0.199467584490776 0.103319950401783 0.0574081242084503 0.0230161156505346 -0.00511609157547355 0.00110649061389267 0.0532754585146904 0.958732485771179 0.978507041931152 1.14150142669678 1.55706357955933 1.59162557125092 1.43310034275055 1.54741978645325 2.06085801124573 4.80762958526611 2.950026512146 2.0090856552124 1.66475236415863 1.43156123161316 1.33904910087585 1.24970948696136 1.15336227416992 1.12186527252197 1.148921251297 1.10287868976593 1.03965044021606 0.9534050822258 0.840727984905243 0.751353621482849 0.687215745449066 0.596767783164978 0.507275700569153 0.471025258302689 0.966598629951477 0.467903345823288 0.460929900407791 0.444939881563187 0.655725955963135 0.497340798377991 0.384253710508347 0.371543645858765 0.267605841159821 -0.070211187005043 -0.272976666688919 -0.291852533817291 4.27747344970703 5.65740203857422 5.12711524963379 2.9589946269989 1.34343528747559 1.19675874710083 1.93399822711945 5.46666812896729 7.83757877349854 5.84514427185059 4.27570104598999 3.04072380065918 2.5199339389801 2.15473127365112 1.89907646179199 1.73929226398468 1.61265671253204 1.52528250217438 1.43274343013763 1.3194637298584 1.17180323600769 0.911802649497986 -0.387605488300323 -1.39719820022583 -1.90134310722351 -2.08481478691101 1.40223097801208 2.81543064117432 7.89389133453369 8.67852592468262 7.44032049179077 8.01175308227539 8.7606372833252 8.57899284362793 7.75673389434814 6.66992855072021 5.77706480026245 5.08358287811279 4.57413768768311 4.14813327789307 3.69004964828491 2.88376021385193 1.83231401443481 2.00062394142151 2.0686206817627 1.91465127468109 1.76888310909271 1.68772089481354 4.98541212081909 6.85677146911621 10.0640840530396 7.33616733551025 5.80772542953491 4.58029651641846 3.80326247215271 3.56529188156128 3.37150764465332 3.15943098068237 2.98284578323364 3.02094268798828 3.02323818206787 3.76612877845764 6.07339429855347 7.41804122924805 6.4917459487915 5.44645738601685 4.12562465667725 3.26548862457275 3.24757194519043 3.01147174835205 2.66275429725647 2.38079476356506 2.23855209350586 2.10099053382874 1.92444264888763 1.56879711151123 1.28635227680206 1.22484028339386 6.34726524353027 8.20640468597412 7.03821229934692 6.3580060005188 5.8185453414917 4.68213558197021 4.25662851333618 4.08996963500977 3.89160680770874 3.55104541778564 3.20558571815491 2.86189675331116
1.39915561676025 1.31252682209015 2.08560562133789 2.45048809051514 1.48088324069977 1.29757678508759 1.54690039157867 1.69594609737396 1.48160123825073 1.29076862335205 1.09619832038879 3.75924634933472 4.99300384521484 4.10517168045044 3.53401732444763 3.09118556976318 2.71669411659241 1.99651253223419 1.7397369146347 1.62178492546082 1.61081862449646 1.49378097057343 1.41187632083893 1.33709025382996 1.32490205764771 1.20924782752991 1.04704618453979 0.916977524757385 0.86098176240921 0.77783203125 0.668497979640961 0.55865865945816 0.46135950088501 0.381390601396561 0.312175542116165 0.238363295793533 0.112918436527252 0.0462965182960033 -0.00653083110228181 -0.0427970625460148 -0.0493690446019173 -0.0507754497230053 0.407331973314285 0.333097755908966 0.858053505420685 1.58192050457001 1.4874175786972 2.33062219619751 1.64839375019073 1.81210398674011 4.05900287628174 2.1704306602478 1.80487763881683 1.6659916639328 1.54530644416809 1.36657893657684 1.18972110748291 1.05274879932404 0.956814110279083 0.93346506357193 0.890140891075134 0.839830279350281 0.757598042488098 0.670522928237915 0.598543286323547 0.54367196559906 0.497984409332275 0.462303817272186 0.427061527967453 1.5444643497467 1.33453464508057 0.890398263931274 0.81919401884079 0.826179504394531 0.7863529920578 0.606072247028351 0.431469053030014 0.264268070459366 -0.0316201187670231 -0.198635742068291 -0.253321945667267 0.273150861263275 6.8911337852478 5.65534591674805 3.56296730041504 2.06427884101868 0.535965323448181 1.6633939743042 4.29763221740723 4.90492677688599 5.03426885604858 3.75412535667419 2.6816930770874 1.7314395904541 1.50502443313599 1.39814078807831 1.25808835029602 1.18218672275543 1.13285112380981 1.0834789276123 1.0058034658432 0.937957584857941 0.856811225414276 0.0551634468138218 -1.11462104320526 -1.77224552631378 -2.09579706192017 -2.16707444190979 3.28725552558899 4.42647838592529 5.01268815994263 10.7244777679443 8.63930130004883 8.29857158660889 8.86417388916016 8.69496059417725 7.78843975067139 6.90913391113281 6.154700756073 5.5197901725769 4.95698547363281 4.44352197647095 3.67778587341309 2.32258582115173 1.84472954273224 2.64187383651733 2.53326344490051 4.88691759109497 4.66114330291748 6.98756790161133 6.86517429351807 6.83413553237915 6.64265918731689 6.17754650115967 5.64706611633301 5.22324419021606 4.95168924331665 4.68642282485962 4.41676139831543 4.12809944152832 3.96931147575378 3.85743856430054 3.72520232200623 3.80342221260071 6.09622097015381 6.31180238723755 5.24803495407104 4.13146829605103 3.63055801391602 3.45751428604126 3.11388754844666 2.84927368164062 2.63280320167542 2.46141648292542 2.30624794960022 2.15382099151611 1.88213622570038 1.60251295566559 1.47476303577423 1.41979146003723 5.15462970733643 6.15548038482666 5.75855731964111 5.48602437973022 5.2390661239624 4.58024549484253 4.16314792633057 3.70600748062134 3.30050849914551 2.91805076599121 2.58851909637451
1.23561990261078 1.11002910137177 1.10000121593475 4.99581050872803 3.07049202919006 2.22662210464478 2.04169321060181 2.22456884384155 1.88091862201691 1.65665113925934 1.48971784114838 2.12483978271484 4.88630771636963 4.41394519805908 3.68256258964539 3.27653646469116 2.63424777984619 2.19843721389771 1.64873325824738 1.58902764320374 1.54888796806335 1.46503984928131 1.37893795967102 1.37655007839203 1.26163184642792 1.13926410675049 1.01663768291473 0.925288438796997 0.807616174221039 0.695430815219879 0.620479226112366 0.514815866947174 0.42064306139946 0.339930176734924 0.271258801221848 0.211623057723045 0.115583024919033 0.0352438502013683 -0.0252913665026426 -0.0673827603459358 -0.0879988446831703 0.0559938736259937 -0.00181000016164035 -0.0541360639035702 0.230326399207115 1.59971988201141 1.11550211906433 1.9107061624527 3.09069180488586 2.48874115943909 1.97936594486237 1.95038771629333 1.59458601474762 1.43530583381653 1.36941516399384 1.23926770687103 1.09518146514893 0.951529264450073 0.828393518924713 0.769489288330078 0.739275634288788 0.693223297595978 0.611045718193054 0.542333126068115 0.470958977937698 0.430397689342499 0.53387314081192 0.430284023284912 0.489455878734589 0.712154150009155 3.20025873184204 1.76746094226837 1.28030157089233 0.95760977268219 0.807888150215149 0.700987637042999 0.623588085174561 0.38454195857048 0.13209480047226 -0.0480921305716038 -0.0765365064144135 -0.0842886343598366 3.2994818687439 2.16982841491699 1.68075513839722 1.50246107578278 1.34222805500031 1.55917942523956 2.55698561668396 3.53438138961792 3.40445709228516 2.49359154701233 1.93009233474731 1.56699061393738 1.41483628749847 1.30576229095459 1.22155117988586 1.14982879161835 1.09996974468231 0.968455970287323 0.922223091125488 0.858435690402985 0.800890147686005 0.32063239812851 -0.698847591876984 -1.50238561630249 -1.91176533699036 -2.10449385643005 -0.723060071468353 -0.746087670326233 4.77830171585083 11.5865116119385 10.5511503219604 9.61423492431641 8.6059513092041 8.29305267333984 6.68920850753784 6.27749919891357 6.13298511505127 5.88187694549561 5.40606880187988 4.81749820709229 4.06903982162476 3.22311973571777 2.19137024879456 1.471644282341 1.51709485054016 9.53417682647705 9.44262790679932 8.96778583526611 8.10914611816406 8.13052654266357 7.68408966064453 7.37564373016357 6.99107694625854 6.54465007781982 6.13869619369507 5.78970241546631 5.48781538009644 5.12737846374512 4.78930854797363 4.3972692489624 4.1849536895752 4.01689863204956 4.00178003311157 5.45747661590576 4.39061450958252 3.89365553855896 3.71838736534119 3.51065993309021 3.15013480186462 2.88605451583862 2.70743536949158 2.59159588813782 2.45373439788818 2.30951857566833 2.13481307029724 1.91397488117218 1.70138835906982 1.52999377250671 1.43398916721344 4.86713123321533 6.38968515396118 6.18410587310791 5.89368581771851 5.08459186553955 3.78181648254395 3.26809024810791 2.8288688659668 2.48432588577271 2.20801401138306
1.0472047328949 0.895915329456329 0.867686986923218 3.69291973114014 3.31317186355591 2.78341889381409 2.46725940704346 2.04922747612 1.86781072616577 1.72841536998749 1.62197351455688 1.61136472225189 3.7472767829895 4.02519798278809 3.54470562934875 3.15205979347229 2.46463131904602 2.10279536247253 1.70871841907501 1.68589174747467 1.6533864736557 1.48723661899567 1.3662440776825 1.27208471298218 1.12331521511078 1.05486118793488 0.99046778678894 0.903163254261017 0.8161900639534 0.699538290500641 0.553973615169525 0.47127640247345 0.378509819507599 0.293151438236237 0.220666244626045 0.162351787090302 0.108865424990654 0.0729211792349815 0.00740334950387478 -0.04699881747365 -0.0781442299485207 -0.0806213170289993 -0.0833101272583008 -0.0851224809885025 -0.0856592878699303 0.788304328918457 0.709340393543243 1.22633707523346 2.24802708625793 1.92370307445526 1.74942350387573 1.65009093284607 1.30621945858002 1.06994962692261 1.02432250976562 1.02246904373169 0.957395613193512 0.952614784240723 0.950215041637421 0.808402419090271 0.617931425571442 0.549293398857117 0.474820047616959 0.403706341981888 0.330357015132904 0.304619669914246 1.19504153728485 1.14312636852264 0.896484792232513 0.948142051696777 1.61280989646912 2.90398859977722 1.46791899204254 1.15760636329651 0.996955990791321 0.902943134307861 0.865550875663757 0.720804333686829 0.314722269773483 0.171829953789711 0.0760390087962151 0.285759091377258 0.632012724876404 0.134631618857384 0.637489914894104 2.43193006515503 2.94630718231201 2.94157266616821 2.66892242431641 2.56470537185669 2.0584671497345 1.75891840457916 1.55955910682678 1.38448691368103 1.2530677318573 1.13955426216125 1.07206797599792 1.035924077034 0.994751572608948 0.832424700260162 0.694195747375488 0.657853424549103 0.61604106426239 0.45804163813591 -0.305903524160385 -1.18272876739502 -1.67024159431458 -1.97677206993103 -2.08562922477722 -2.19714045524597 4.12338256835938 8.9374303817749 14.8736400604248 11.7822666168213 9.53585052490234 7.60462188720703 6.59753704071045 5.54596710205078 7.37760496139526 6.86933469772339 5.7621545791626 4.99159240722656 4.20263338088989 3.15037631988525 2.17881917953491 0.968620359897614 2.42785286903381 12.5305318832397 12.2713317871094 11.1572208404541 9.44307327270508 7.94081497192383 7.18563842773438 6.82182931900024 6.62572765350342 6.52267551422119 6.44459009170532 6.27966403961182 5.97714233398438 5.65063285827637 5.31306409835815 4.90233421325684 4.63445472717285 4.37648820877075 4.21099948883057 4.15183925628662 4.08577394485474 3.92615699768066 3.73903059959412 3.55778217315674 3.17293858528137 2.89138960838318 2.73911094665527 2.63795757293701 2.53798174858093 2.40103459358215 2.24570298194885 2.08903193473816 1.89699232578278 1.69007658958435 1.36114597320557 2.43393445014954 4.78873348236084 6.97550916671753 6.28140258789062 4.83757829666138 3.81551289558411 2.78878593444824 2.38164687156677 2.06224989891052 1.84401190280914
0.883731961250305 0.733643352985382 0.695952296257019 1.94712436199188 3.28235387802124 2.58732557296753 2.26925420761108 2.13357710838318 2.40893959999084 1.91889071464539 1.70539855957031 1.69977080821991 2.18777942657471 3.39370322227478 3.30933928489685 2.96004486083984 2.53391790390015 1.91737699508667 1.75041508674622 3.44654417037964 1.65651297569275 1.34173893928528 2.10845613479614 1.21203172206879 1.10827708244324 1.03656375408173 0.97189873456955 0.931005239486694 0.849111020565033 0.730050623416901 0.60605001449585 0.485416382551193 0.385696053504944 0.306000143289566 0.226871162652969 0.164900436997414 0.118145152926445 0.152289107441902 0.165486723184586 0.107928164303303 0.0666814297437668 0.0448540709912777 0.0417337417602539 0.01636927947402 0.152258217334747 0.224534496665001 0.440237998962402 1.00894689559937 1.1900030374527 1.59537935256958 1.45689308643341 1.20762276649475 1.01392221450806 0.817653894424438 0.752134680747986 1.25723600387573 1.09033536911011 0.934825599193573 0.985511779785156 0.982611298561096 0.735230207443237 0.52000629901886 0.44767752289772 0.452745884656906 0.371514946222305 0.31681016087532 1.16018128395081 1.96658134460449 1.60733640193939 1.45697045326233 1.59551584720612 2.19408130645752 1.39695835113525 1.20752155780792 0.989456295967102 0.887065470218658 0.853736340999603 0.690763413906097 0.479990929365158 0.314533323049545 0.23786672949791 0.22987973690033 0.885081112384796 0.340256601572037 0.325767338275909 2.74419593811035 3.80192637443542 3.86801862716675 3.04597783088684 2.37504243850708 1.46622729301453 1.21476471424103 1.05724108219147 0.945365250110626 0.878744661808014 0.865140080451965 0.804681479930878 0.78280508518219 0.775095283985138 0.767506122589111 0.743861317634583 0.748599112033844 0.940047860145569 0.939954698085785 0.104299373924732 -0.934299111366272 -1.46592426300049 -1.79091787338257 -1.92764341831207 -2.13069820404053 3.68131566047668 2.74118375778198 16.8666667938232 13.150785446167 11.0782279968262 9.37273406982422 6.99139738082886 6.224609375 5.78313636779785 5.56433773040771 5.34979057312012 4.80129051208496 4.08548593521118 3.07418608665466 1.98353397846222 0.755839824676514 3.19485235214233 12.3325424194336 12.1283912658691 11.1958608627319 9.39999294281006 7.53169918060303 6.6711802482605 6.37483787536621 6.17451906204224 6.07194328308105 7.28419780731201 7.53072547912598 6.68204021453857 5.97222423553467 5.69406747817993 5.19595766067505 4.91154670715332 4.63715934753418 4.39734983444214 4.21562194824219 4.04972362518311 3.8600013256073 3.66170835494995 3.55562829971313 3.1685516834259 2.83317279815674 2.63743138313293 2.53154945373535 2.43740248680115 2.3179874420166 2.1936993598938 2.04021692276001 1.8946487903595 1.73049104213715 1.443035364151 1.07332122325897 2.13549375534058 5.38557386398315 5.97705554962158 4.57446908950806 3.66076946258545 2.46010088920593 1.95043230056763 1.67268180847168 1.46702337265015
0.632892906665802 0.52411276102066 0.454746246337891 1.16516530513763 2.48664808273315 3.48027110099792 2.37935280799866 2.53965759277344 2.31337714195251 2.13190102577209 2.00785231590271 1.95601534843445 1.80478298664093 2.5172164440155 2.49726939201355 2.53536295890808 2.27157163619995 1.84350752830505 1.87643790245056 3.15477323532104 1.68600451946259 1.50531399250031 1.40040910243988 1.28119671344757 1.17193710803986 1.08098948001862 1.00214731693268 1.03943991661072 1.08193409442902 0.963935732841492 0.813706338405609 0.698078393936157 0.592164039611816 0.471532344818115 0.38595786690712 0.313361912965775 0.255430400371552 0.219020366668701 0.411011934280396 0.392247140407562 0.340926200151443 0.309179455041885 0.274978458881378 0.236264541745186 0.231933504343033 0.32171219587326 0.430403113365173 0.434828817844391 0.492257922887802 0.561232328414917 1.51046049594879 0.986140966415405 0.901491045951843 0.900708973407745 0.764367640018463 0.83241856098175 1.09986686706543 0.911049962043762 0.787223517894745 0.81431919336319 0.85682088136673 0.67623108625412 0.5386723279953 0.593535900115967 0.581539332866669 0.513531923294067 1.0205682516098 2.12560367584229 2.10421347618103 1.95075380802155 1.87108981609344 1.67530584335327 1.27957856655121 1.08891797065735 0.9549720287323 1.47196435928345 0.779440641403198 0.654176950454712 0.53602147102356 0.451089143753052 0.377729743719101 0.76989358663559 1.73940145969391 1.07630431652069 0.765393495559692 1.87226676940918 3.43762874603271 3.07683277130127 2.164794921875 1.65465176105499 1.25939345359802 1.13748967647552 1.04542589187622 1.37267935276031 1.45907306671143 1.37375783920288 1.30459141731262 1.23265516757965 1.18693125247955 1.16824853420258 1.13563978672028 1.0869836807251 1.3982093334198 1.32714366912842 0.997961699962616 -0.567705273628235 -1.24887347221375 -1.59849834442139 -1.73783934116364 -1.89206719398499 -0.361312210559845 -0.842142641544342 9.74252605438232 12.300311088562 10.5996084213257 9.25528621673584 7.87389707565308 5.94669198989868 4.80164527893066 4.28455543518066 4.14590358734131 4.04347944259644 3.20074224472046 2.30329370498657 1.20253002643585 0.0493054240942001 1.00961601734161 12.1811456680298 11.6013240814209 10.8768243789673 9.23890399932861 6.90151357650757 6.17594575881958 5.96547365188599 5.89914321899414 5.88286685943604 6.64387941360474 7.38672733306885 6.92425203323364 6.03802633285522 5.75186681747437 5.24601173400879 4.74005270004272 4.48930311203003 4.23937559127808 3.99595499038696 3.80048418045044 3.60634756088257 3.43063259124756 3.3236289024353 3.09635853767395 2.5292637348175 2.15848660469055 2.03907942771912 1.94539391994476 1.8476734161377 1.75017499923706 1.63003933429718 1.51198291778564 1.35988140106201 1.20030009746552 0.996018588542938 0.972424566745758 3.12927794456482 4.67357301712036 3.69740200042725 2.99607443809509 2.31794238090515 1.37924158573151 1.14767301082611 1.01506400108337
0.504117786884308 0.403873383998871 0.345220029354095 0.343428134918213 2.35957479476929 3.97027850151062 2.82503795623779 2.22563433647156 2.73247480392456 2.69340491294861 2.17864298820496 2.09758234024048 2.01648736000061 1.94204115867615 1.89922797679901 2.52535581588745 2.37282991409302 2.07328200340271 3.00473856925964 2.46842527389526 2.26331090927124 1.98493528366089 1.83398962020874 1.6904422044754 1.54234778881073 1.4062911272049 1.29896056652069 1.19130766391754 1.41710579395294 1.37333142757416 1.21603012084961 1.08468353748322 0.956305682659149 0.825050473213196 0.708702743053436 0.608715534210205 0.533421754837036 0.476063817739487 0.4349245429039 0.407974302768707 0.353194087743759 0.290431499481201 0.253724247217178 0.226071789860725 0.244792491197586 0.223635956645012 0.218902051448822 0.206800624728203 0.103519797325134 0.310073912143707 1.14075040817261 1.22942292690277 0.845875680446625 1.14112532138824 1.09737479686737 0.84709221124649 0.805464923381805 0.79614782333374 0.702820539474487 0.67293518781662 0.774262130260468 0.980131208896637 0.952298760414124 0.979533970355988 0.877575814723969 0.838845908641815 1.24341833591461 1.96940577030182 2.18985295295715 1.9475564956665 1.75417852401733 1.47301888465881 1.29029405117035 1.12196183204651 1.05397295951843 1.00769829750061 0.93218719959259 0.794771790504456 0.704683244228363 0.629003167152405 0.607081055641174 2.05666971206665 3.1466019153595 3.04726362228394 3.5205991268158 3.25647926330566 2.93015742301941 2.69054222106934 2.40836954116821 2.16963696479797 1.96619367599487 1.80332577228546 1.67755234241486 2.10284042358398 1.98054111003876 1.86252284049988 1.76762998104095 1.68544411659241 1.60293579101562 1.55008947849274 1.5152770280838 1.46208214759827 1.63080644607544 1.60822057723999 1.505415558815 0.505518674850464 -0.929367482662201 -1.33219885826111 -1.5011134147644 -0.371038019657135 -1.01111817359924 -1.33128297328949 5.66938734054565 7.68494558334351 9.64061450958252 8.07150077819824 7.40246868133545 7.00297689437866 5.67337417602539 3.9178192615509 2.79406905174255 2.78785395622253 2.77068877220154 1.27430045604706 -0.165182009339333 -0.818451285362244 -1.04619097709656 8.91524600982666 12.7555084228516 10.8857517242432 8.65418815612793 6.62225723266602 5.01064348220825 5.9723801612854 5.61988735198975 6.20542430877686 6.29520273208618 6.4497275352478 7.05032873153687 6.16729879379272 5.37336397171021 5.09107398986816 4.53840398788452 4.15122699737549 3.80291056632996 3.51371717453003 3.24288988113403 3.02073860168457 2.83813619613647 2.70438408851624 2.58140921592712 2.43570446968079 2.28977370262146 2.14907717704773 2.01883840560913 1.73412024974823 1.6155424118042 1.49993062019348 1.3662748336792 1.26383852958679 1.17671191692352 1.08623445034027 1.00709581375122 0.973020255565643 1.41775345802307 2.44860625267029 2.7194721698761 2.06911182403564 1.55756866931915 1.29046154022217 1.18546903133392
0.380576223134995 0.304608196020126 0.229755282402039 0.191117867827415 1.86225068569183 3.1705846786499 3.13077592849731 3.35869073867798 3.23755669593811 3.8477087020874 4.0697135925293 3.64246988296509 3.33340668678284 3.02505731582642 2.87567281723022 2.79108381271362 2.70812058448792 2.59174704551697 2.48409104347229 2.91849994659424 2.8073148727417 2.61367464065552 2.44084477424622 2.2663791179657 2.07817196846008 1.91498672962189 1.76492774486542 1.63142061233521 1.51196885108948 1.38223302364349 1.23799002170563 1.1008665561676 0.963348090648651 0.828085064888 0.712320744991302 0.599967420101166 0.497215837240219 0.445251226425171 0.395397126674652 0.23978553712368 0.166532963514328 0.130158275365829 0.0970274582505226 0.0815285220742226 0.0680820867419243 0.0617299899458885 0.192446693778038 0.0534488335251808 0.0138216065242887 -0.0492430664598942 1.16952109336853 1.11096858978271 1.01623463630676 1.17034149169922 1.43781781196594 1.02451086044312 0.75912606716156 0.723411500453949 0.697767674922943 0.849408388137817 0.708382666110992 0.9859938621521 1.10876178741455 1.22196781635284 1.30414962768555 1.59372770786285 1.63120937347412 1.76879167556763 1.81474816799164 1.74843335151672 1.64230155944824 1.51968860626221 1.42887020111084 1.24911987781525 1.09248208999634 1.05710089206696 0.834249019622803 0.664582669734955 0.521839439868927 0.479305148124695 4.01519346237183 6.09915208816528 5.84861850738525 5.70971059799194 5.53678464889526 4.77501916885376 4.12506246566772 3.62179470062256 3.23012900352478 2.90619707107544 2.6390700340271 2.43175840377808 2.26075911521912 2.47426509857178 2.43731331825256 2.29780983924866 2.17978096008301 2.06406736373901 1.96590924263 1.87645864486694 1.81029653549194 1.75587868690491 1.84449326992035 1.76114344596863 1.68133878707886 1.25172460079193 0.0863384678959846 -0.656158864498138 -0.904468297958374 0.431796371936798 1.22875392436981 -0.258625626564026 -0.501814842224121 3.83485150337219 6.53886747360229 7.41233205795288 7.02963447570801 6.48446655273438 6.31668424606323 4.65131139755249 3.9767427444458 3.54843878746033 2.46644687652588 0.269911378622055 -0.343543142080307 -0.586789071559906 -0.871012330055237 5.7043662071228 11.6103162765503 9.56386756896973 7.2525110244751 5.71968650817871 3.71389269828796 5.67049646377563 6.3226523399353 5.89342880249023 5.89521312713623 6.01318502426147 6.86409664154053 6.43708896636963 5.38947677612305 4.89598798751831 4.48220348358154 4.12863349914551 3.82357048988342 3.5335955619812 3.11919665336609 2.83371114730835 2.6752827167511 2.53086018562317 2.40641617774963 2.28092050552368 2.16234636306763 2.04839062690735 1.9449211359024 1.72811639308929 1.43353688716888 1.29624855518341 1.18378639221191 1.10293328762054 1.03755950927734 0.949630856513977 0.855318248271942 0.756297528743744 0.705790460109711 1.39515912532806 2.47829008102417 2.93027114868164 1.9815262556076 1.65450167655945 1.35793149471283
0.387489020824432 0.325167655944824 0.232753828167915 0.130557745695114 0.0660003200173378 0.772584199905396 5.67651605606079 7.89145231246948 6.20403385162354 5.65018224716187 6.216468334198 5.56971788406372 4.98332405090332 4.40521907806396 4.03233289718628 3.76409268379211 3.5455014705658 3.38858485221863 3.24063754081726 3.13553380966187 2.85657119750977 2.65616226196289 2.47874999046326 2.29762315750122 2.11403155326843 1.93335068225861 1.77332639694214 1.64469921588898 1.50738871097565 1.26740396022797 1.07930529117584 0.946490526199341 0.81193071603775 0.679604530334473 0.554590463638306 0.43052813410759 0.323480576276779 0.233187898993492 0.142302975058556 0.0971888676285744 0.305552452802658 -0.0224314667284489 -0.0406723991036415 0.53627872467041 1.6505674123764 1.14487814903259 1.45188295841217 1.056072473526 0.703037738800049 0.520065188407898 1.17757737636566 1.04658961296082 1.50048172473907 1.38431918621063 1.52835357189178 1.23930072784424 1.1099910736084 1.03738558292389 1.01362872123718 1.10904324054718 1.00444114208221 0.987756967544556 0.993515372276306 1.56371128559113 1.8575564622879 2.53518581390381 2.38928270339966 2.08062767982483 1.97614574432373 1.82782638072968 1.66968297958374 1.55880236625671 1.40966200828552 1.25747668743134 1.18615531921387 1.08368134498596 0.847759366035461 0.568917632102966 0.337769359350204 2.3297221660614 4.89757680892944 8.88456630706787 8.56105518341064 7.16002464294434 7.17783308029175 6.35954809188843 5.34380674362183 4.59324026107788 4.07297897338867 3.68074250221252 3.34288263320923 3.07119536399841 2.83876609802246 2.80703115463257 2.63305735588074 2.48744034767151 2.35877633094788 2.24088716506958 2.13462424278259 2.0367317199707 1.95422291755676 1.89422464370728 2.03780341148376 1.95673871040344 1.87485039234161 1.6817878484726 1.03400385379791 0.522091329097748 0.136691749095917 -0.00997570715844631 -0.0616916604340076 0.218155190348625 0.0264265537261963 0.0257628168910742 3.85009598731995 6.55150079727173 7.02637815475464 6.30727672576904 8.04714775085449 5.88562679290771 5.27374315261841 4.99425458908081 2.19392609596252 0.120448008179665 -0.272215396165848 -0.422690808773041 2.59123134613037 2.33431816101074 5.14172983169556 4.50579166412354 2.31145191192627 2.15806317329407 5.70435237884521 5.93139410018921 5.95905685424805 5.95179986953735 5.79569864273071 5.80028581619263 5.96932649612427 5.79827117919922 5.10720062255859 4.6234188079834 4.19170236587524 3.86040782928467 3.57790660858154 3.30800580978394 2.99763584136963 2.56292605400085 2.26874017715454 2.14403080940247 2.02165532112122 1.91242730617523 1.80535864830017 1.71119701862335 1.63364613056183 1.56234800815582 1.37671673297882 1.06999158859253 0.955299019813538 0.893886148929596 0.829222857952118 0.756355583667755 0.675038576126099 0.594346463680267 0.518344521522522 0.482233881950378 1.04391992092133 2.43032097816467 2.71703243255615 2.07494163513184 1.48525726795197
0.445031583309174 0.406452655792236 0.323569715023041 0.137347966432571 -0.0717987418174744 -0.0914597287774086 6.88064527511597 11.1055679321289 9.64321041107178 7.93341207504272 6.47300338745117 6.1858868598938 5.28772830963135 4.60006380081177 4.06115531921387 3.76002025604248 3.51791310310364 3.35413384437561 3.21971559524536 3.11052322387695 2.87905287742615 2.53386402130127 2.34795331954956 2.16160440444946 1.97560977935791 1.7791121006012 1.62105453014374 1.47183275222778 1.33178222179413 1.20220029354095 0.928225755691528 0.803711116313934 0.66961807012558 0.530753791332245 0.402966499328613 0.302012354135513 0.175147160887718 -0.0172188840806484 -0.147996127605438 -0.350530475378036 4.98059940338135 3.91902947425842 2.74665808677673 1.95214223861694 3.26246619224548 2.3954029083252 2.18318176269531 2.07205748558044 1.68311631679535 1.31964874267578 1.27170825004578 1.93957889080048 1.44447696208954 1.25001561641693 1.38174176216125 1.28381788730621 1.23611032962799 1.17944622039795 1.10592079162598 1.09688878059387 1.09434854984283 1.08858108520508 1.2971727848053 1.75646102428436 2.29153537750244 3.08651041984558 2.68111729621887 2.18614268302917 2.05626153945923 1.83913564682007 1.68639981746674 1.56653296947479 1.34792411327362 1.29173350334167 1.1337229013443 0.917824387550354 0.685906291007996 0.32160085439682 0.113318584859371 0.293285757303238 4.36122560501099 9.06987476348877 12.7979545593262 9.85152339935303 8.08217716217041 6.86910104751587 5.77769184112549 4.97012901306152 4.35892820358276 3.91517996788025 3.56389403343201 3.27213954925537 3.02292633056641 3.12579011917114 2.93503069877625 2.76081538200378 2.61299657821655 2.48580980300903 2.36890316009521 2.26401805877686 2.15619325637817 2.07715845108032 2.19794917106628 2.13309741020203 2.04601716995239 1.9485901594162 1.69125878810883 1.28540539741516 0.762524783611298 0.570064544677734 0.528618991374969 0.444271773099899 0.271900832653046 1.57812583446503 3.42967987060547 4.83513689041138 8.96267700195312 8.04884910583496 7.01017236709595 6.03363561630249 4.23140954971313 2.67372584342957 2.06535863876343 0.226043358445168 0.0649650096893311 0.0163527857512236 0.557298541069031 -0.269895434379578 -0.454033851623535 -0.000464452867163345 -0.870880305767059 -0.584001958370209 4.28010892868042 6.03811073303223 5.991614818573 6.53513240814209 5.93529939651489 5.79486703872681 5.52731847763062 5.08639430999756 4.56436634063721 4.0912823677063 3.6925733089447 3.37732124328613 3.1074595451355 2.85304260253906 2.65105032920837 2.35860633850098 1.95064342021942 1.66403114795685 1.57342088222504 1.48150074481964 1.39973521232605 1.33881449699402 1.28057873249054 1.20038163661957 1.1202164888382 0.943664312362671 0.703128159046173 0.581573843955994 0.531449437141418 0.478611767292023 0.420368701219559 0.36530527472496 0.298233419656754 0.241008788347244 0.209753528237343 1.04135251045227 2.44075226783752 2.23703360557556 1.55447006225586
0.479895234107971 0.401081502437592 0.350336998701096 0.216088324785233 0.0283114481717348 -0.081367589533329 3.86528539657593 8.26732349395752 10.9022312164307 9.2277250289917 7.50431251525879 5.97640514373779 5.38320636749268 4.53439664840698 3.97111034393311 3.56718921661377 3.25925874710083 3.11768627166748 3.00520753860474 2.90487027168274 2.84084248542786 2.46392607688904 2.22434306144714 2.02706289291382 1.82092046737671 1.63398671150208 1.45354974269867 1.28586542606354 1.14309537410736 1.02457857131958 0.906574606895447 0.696768403053284 0.579907715320587 0.459193676710129 0.33088493347168 0.188036188483238 0.0419652834534645 -0.0759248062968254 -0.338764578104019 -0.745490908622742 6.56634473800659 7.47518968582153 5.2256965637207 4.04915189743042 3.46767401695251 2.77114868164062 2.27297687530518 2.10702419281006 1.82273924350739 1.53184545040131 1.38704133033752 2.66640973091125 1.90754735469818 1.72444796562195 1.25212168693542 1.51347029209137 1.44791233539581 1.39649307727814 1.33133637905121 1.28123390674591 1.26921260356903 1.26712346076965 1.55687248706818 1.55381262302399 1.86368358135223 3.341632604599 3.1090521812439 2.49522423744202 2.16834402084351 1.89756178855896 1.74933755397797 1.53292262554169 1.32156419754028 1.1376895904541 0.973231077194214 0.728088080883026 0.421369105577469 0.0161790531128645 -0.162635326385498 3.20871543884277 4.08206748962402 5.86428642272949 12.9368457794189 12.2311000823975 9.63350677490234 7.25910902023315 5.87359428405762 5.22024774551392 4.71433210372925 4.29147624969482 3.94024109840393 3.63675785064697 3.35113883018494 3.400226354599 3.18069291114807 3.0002806186676 2.86053419113159 2.70715546607971 2.57529544830322 2.4680871963501 2.34868216514587 2.25527143478394 1.94157242774963 1.89604318141937 1.8379715681076 1.75023865699768 1.65663623809814 1.26150631904602 0.857997179031372 0.664449512958527 0.601644456386566 0.550020158290863 2.49244284629822 4.17735719680786 4.00172901153564 4.09054851531982 7.5092568397522 6.03103160858154 4.34217071533203 3.31809687614441 2.0233416557312 1.83426988124847 1.65620052814484 1.36428117752075 1.07336163520813 0.549874007701874 0.226893618702888 -0.0901216045022011 -0.257300108671188 -0.481511622667313 -0.696970164775848 -0.835964262485504 0.558623492717743 3.97605633735657 5.64683675765991 5.66311073303223 6.03120756149292 5.51744890213013 5.15459251403809 4.73404121398926 3.84120893478394 3.37914705276489 3.0268862247467 2.75132489204407 2.51058268547058 2.28599882125854 2.11578059196472 1.95049560070038 1.67468917369843 1.33339142799377 1.09072351455688 1.02862417697906 0.980441629886627 0.907068252563477 0.865541875362396 0.814872682094574 0.759753167629242 0.713149964809418 0.591286957263947 0.412929087877274 0.290407329797745 0.257246553897858 0.219179213047028 0.182588368654251 0.147438332438469 0.109436936676502 0.069461926817894 0.060491818934679 0.615799784660339 1.41899585723877 0.985478639602661
0.424065679311752 0.358343899250031 0.310660421848297 0.266314893960953 0.140948846936226 0.0162013322114944 0.00604768050834537 4.38571214675903 8.73274326324463 10.3449382781982 8.17091178894043 6.77630090713501 5.46104049682617 4.55655479431152 3.96730351448059 3.46660542488098 3.04418587684631 2.85415506362915 2.76239538192749 2.70895957946777 2.64623594284058 2.52922058105469 2.07715654373169 1.88119757175446 1.68839979171753 1.49318611621857 1.30294513702393 1.12770044803619 0.998808443546295 0.923636853694916 0.807232081890106 0.644552946090698 0.547212958335876 0.443057715892792 0.274142295122147 0.107957273721695 -0.0214576590806246 -0.162742838263512 -0.459473878145218 -0.900286793708801 1.9953430891037 10.8037128448486 6.80622959136963 4.3227071762085 3.43025827407837 3.44663214683533 2.80086994171143 2.42733526229858 2.21472454071045 2.01183795928955 1.84278249740601 2.16360831260681 1.78459882736206 1.67057108879089 1.62660813331604 1.32686018943787 1.26046586036682 1.11217772960663 1.0384978055954 2.24112558364868 1.48788857460022 1.31957316398621 1.29437041282654 1.73087155818939 1.95986843109131 3.20906949043274 3.16703701019287 2.60118293762207 2.19774222373962 1.9387868642807 1.70469355583191 1.52082824707031 1.3380354642868 1.11413335800171 0.870169401168823 0.578307688236237 0.180284798145294 -0.256803244352341 -0.383459717035294 7.66597461700439 6.80446529388428 6.28561115264893 8.60209846496582 12.3853454589844 9.52542114257812 7.28350114822388 6.4159517288208 5.70716094970703 5.15701627731323 4.68618679046631 4.30418348312378 3.96933484077454 3.65962743759155 3.01530647277832 2.82445955276489 2.66161394119263 2.52469325065613 2.39816808700562 2.30033111572266 2.19642615318298 2.09526324272156 2.00642824172974 1.7283411026001 1.62875699996948 1.59116852283478 1.53057706356049 1.46719360351562 1.35096490383148 1.00452995300293 0.7302086353302 0.607604742050171 2.49398350715637 3.93959355354309 3.70550966262817 4.81522560119629 3.98131060600281 3.42789316177368 2.63242721557617 1.42140531539917 0.961423695087433 0.865111768245697 0.790856301784515 0.746368288993835 0.735826015472412 0.718520224094391 0.688042044639587 0.391910463571548 0.066411979496479 3.26143980026245 0.513964772224426 -0.502260804176331 -0.622373282909393 -0.649221539497375 1.54060125350952 3.67620038986206 4.80899953842163 4.7236008644104 5.03628826141357 4.48799657821655 4.14457845687866 3.50695943832397 2.60523176193237 2.26684284210205 2.05146098136902 1.85043942928314 1.67365515232086 1.52480065822601 1.39616000652313 1.28976356983185 1.11449408531189 0.877189636230469 0.670065641403198 0.60950756072998 0.579231083393097 0.545032322406769 0.514081537723541 0.470370233058929 0.430342823266983 0.401032447814941 0.325917810201645 0.15326090157032 0.0712050125002861 0.0340808667242527 -0.00239907577633858 -0.0381106808781624 -0.0719079077243805 -0.0976328030228615 -0.130003720521927 -0.143002107739449 0.592238247394562 0.975188553333282
0.397385120391846 0.364136606454849 0.306108921766281 0.302417725324631 0.245807707309723 0.130820214748383 0.0935670658946037 0.639975786209106 5.55765914916992 9.78491592407227 9.18501758575439 7.24777030944824 5.51974630355835 4.71121549606323 4.08572864532471 3.50215435028076 2.90987920761108 2.6129949092865 2.49616575241089 2.4831554889679 2.44129323959351 2.40460205078125 2.13349294662476 1.91086363792419 1.69160091876984 1.46955561637878 1.26743972301483 1.07792234420776 0.972002863883972 0.913858115673065 0.791287660598755 0.676360130310059 0.498825460672379 0.370064944028854 0.240944176912308 0.0849898755550385 -0.0652771666646004 -0.206346780061722 -0.420622587203979 -0.830832421779633 -0.954360604286194 10.7880277633667 8.28931522369385 5.26445245742798 3.97302794456482 2.89477205276489 2.08386206626892 1.8602442741394 1.62422859668732 1.58887648582458 1.57927572727203 1.56170451641083 1.47992622852325 1.37408316135406 1.29237151145935 1.19635403156281 0.852738797664642 0.80419784784317 1.66626012325287 1.12960112094879 0.907905697822571 0.899852871894836 1.86220979690552 2.1714653968811 2.1711311340332 2.90984725952148 2.59476208686829 2.30473661422729 2.03703737258911 1.80585026741028 1.99719607830048 1.85606980323792 1.71576464176178 1.52677440643311 1.2807936668396 1.0234602689743 0.316345423460007 -0.450019657611847 -0.574908912181854 10.8719463348389 8.6883373260498 7.4658203125 8.1370735168457 11.5621652603149 9.77271747589111 7.27478885650635 5.7160267829895 5.09599590301514 4.6039891242981 4.18141317367554 3.8114287853241 3.52580809593201 3.26162505149841 2.79084730148315 2.4472484588623 2.30766487121582 2.17663335800171 2.07720446586609 1.97923398017883 1.8968403339386 1.81785070896149 1.73407828807831 1.63415431976318 1.44157731533051 1.39985704421997 1.35812127590179 1.31932890415192 1.27598011493683 1.19350183010101 0.996100187301636 0.843454420566559 2.02320337295532 2.50035095214844 2.10819673538208 2.50381398200989 1.77610313892365 1.10819315910339 0.861212074756622 0.840097427368164 0.818605482578278 0.799747943878174 0.758241295814514 0.738737523555756 0.721778094768524 0.7046257853508 0.685923278331757 0.604942202568054 0.407035946846008 0.20877867937088 -0.0932738929986954 -0.305896610021591 -0.385106205940247 -0.402256160974503 -0.428562104701996 0.457107543945312 2.35009670257568 3.34730958938599 4.13546371459961 4.03533840179443 3.73467206954956 3.09453964233398 2.21824479103088 1.70685505867004 1.47313702106476 1.31935596466064 1.173419713974 1.05080032348633 0.938783824443817 0.876740753650665 0.802590548992157 0.660499095916748 0.463972896337509 0.333059400320053 0.295994907617569 0.274294316768646 0.244073823094368 0.218749836087227 0.199848458170891 0.164137631654739 0.135320782661438 0.0484380535781384 -0.0735839456319809 -0.141454875469208 -0.166586712002754 -0.193738147616386 -0.212607204914093 -0.230196714401245 -0.248291954398155 -0.258778959512711 0.00508166057989001 0.304241091012955
0.45525997877121 0.437097489833832 0.410130798816681 0.399172455072403 0.378400146961212 0.297448962926865 0.258716881275177 0.601157546043396 1.92859482765198 6.81682920455933 9.99833106994629 8.14142417907715 6.03196382522583 5.08444452285767 4.52301502227783 3.76526045799255 3.13796091079712 2.66842150688171 2.43185329437256 2.35632181167603 2.31549286842346 2.29887223243713 2.24251341819763 1.86430680751801 1.61004030704498 1.39727783203125 1.19119644165039 1.02020764350891 0.930270195007324 0.854357898235321 0.777881324291229 0.625433444976807 0.381541073322296 0.263810217380524 0.164423033595085 0.0271541569381952 -0.12931627035141 -0.262285888195038 -0.373042523860931 -0.64128839969635 -0.909612059593201 2.49200654029846 7.19474506378174 4.31925678253174 3.13258743286133 2.71057200431824 1.59805262088776 1.33014690876007 1.17900013923645 1.82973182201385 1.33988666534424 1.13382697105408 1.02785992622375 0.935224890708923 0.75618302822113 0.73589038848877 1.78920090198517 1.65553212165833 1.20719838142395 1.60248553752899 2.95503997802734 2.5661792755127 2.49941325187683 2.4714879989624 2.45610547065735 2.45253348350525 2.3865282535553 2.24029684066772 2.06933927536011 1.93629658222198 2.30589389801025 2.31936287879944 2.11247849464417 1.85417366027832 1.60647571086884 1.25156021118164 0.795110404491425 0.138740330934525 -0.018181499093771 6.5951132774353 6.76138877868652 6.10247898101807 8.06785202026367 10.3386716842651 8.85862159729004 6.90366125106812 5.30112457275391 4.65604066848755 4.15812158584595 3.73353052139282 3.39087438583374 3.10258555412292 2.84313893318176 2.62706756591797 2.20107650756836 2.06846594810486 1.94710850715637 1.86177825927734 1.77362370491028 1.6951847076416 1.62688660621643 1.5599889755249 1.46591091156006 1.33894693851471 1.2940366268158 1.25582838058472 1.21767151355743 1.18531227111816 1.14834260940552 1.10800755023956 1.05614829063416 1.01577198505402 0.97520923614502 0.948754191398621 0.923513174057007 0.898328244686127 0.869316577911377 0.845923185348511 0.825526237487793 0.802962481975555 0.813172578811646 0.818775475025177 0.799098491668701 0.779370784759521 0.762104511260986 0.743418276309967 0.609515309333801 0.435582190752029 0.247627526521683 0.0699290037155151 -0.129453286528587 -0.197395652532578 -0.20639780163765 -0.23342353105545 -0.266789138317108 -0.118421651422977 1.36266624927521 2.68862748146057 3.2523033618927 3.22142720222473 2.5475172996521 1.98564219474792 1.19232428073883 1.0033084154129 0.883683443069458 0.770913660526276 0.68541955947876 0.610569059848785 0.512635290622711 0.433945119380951 0.392569661140442 0.272127747535706 0.121638059616089 0.022798478603363 -0.00728697469457984 -0.0192360989749432 -0.0320723801851273 -0.0568062402307987 -0.100097082555294 -0.130839288234711 -0.148557111620903 -0.159044817090034 -0.16436642408371 -0.164354786276817 -0.1648128926754 -0.146159008145332 -0.189933806657791 -0.231283947825432 -0.183624804019928 0.101207934319973 0.179400026798248
0.646831035614014 0.620205521583557 0.591065585613251 0.616482734680176 0.609837710857391 0.545500218868256 0.551317036151886 0.573278367519379 0.540376663208008 4.39447164535522 8.87673854827881 8.76557731628418 7.02877330780029 5.69970655441284 4.79761648178101 3.92987275123596 3.32820820808411 2.677086353302 2.30024337768555 2.13042449951172 2.07890725135803 2.05105757713318 2.36958432197571 1.86256158351898 1.51973342895508 1.30253195762634 1.10596084594727 0.947606325149536 0.831681370735168 0.764497399330139 0.659365296363831 0.46280375123024 0.341331571340561 0.178643450140953 0.106915898621082 -0.000606420973781496 -0.140512526035309 -0.281033933162689 -0.379064977169037 -0.575968861579895 -0.757988035678864 -0.804657995700836 2.49951910972595 2.39901924133301 3.12874674797058 2.41761231422424 1.94717216491699 1.38402891159058 1.213822722435 1.16822874546051 1.01192498207092 0.926163733005524 0.86175924539566 0.688051521778107 0.244660466909409 -0.310564458370209 3.99451732635498 6.89176654815674 4.41302156448364 3.25289916992188 4.05935001373291 4.43828344345093 4.06125736236572 3.80117130279541 3.57184410095215 3.38332962989807 3.14466786384583 2.84646463394165 2.61367225646973 2.44509434700012 2.29750084877014 2.20842266082764 1.95961081981659 1.69965994358063 1.50529682636261 1.12368988990784 0.888010621070862 0.612318396568298 0.365681111812592 2.46845936775208 7.74453163146973 6.80953598022461 7.64606237411499 8.7636890411377 7.4803466796875 5.86099815368652 4.75694704055786 4.181809425354 3.72547221183777 3.35547876358032 3.05278706550598 2.79027628898621 2.54972124099731 2.36328554153442 2.04531788825989 1.92451441287994 1.82201969623566 1.73696517944336 1.65797984600067 1.58374345302582 1.5165239572525 1.45685315132141 1.36171245574951 1.30577087402344 1.2596607208252 1.21640300750732 1.18252968788147 1.14577341079712 1.11600255966187 1.08341586589813 1.0456018447876 1.04898452758789 1.05405950546265 1.02627050876617 0.994840145111084 0.966946721076965 0.936359584331512 0.91138106584549 0.88846617937088 0.864056169986725 0.843838930130005 0.873630046844482 0.854129076004028 0.833597302436829 0.813896238803864 0.796174347400665 0.640887975692749 0.404352277517319 0.209287628531456 0.356135129928589 -4.65326811536215e-05 -0.0678729489445686 -0.0811755433678627 -0.0844696313142776 -0.120267264544964 -0.160948842763901 -0.0186190959066153 1.28463888168335 2.00085520744324 1.89162993431091 1.8127373456955 1.46990644931793 1.04482460021973 0.615451514720917 0.396261185407639 0.330861777067184 0.275074988603592 0.214094445109367 0.135904014110565 0.0786161348223686 0.0406477339565754 0.036873959004879 -0.0209134463220835 -0.0765335932374001 -0.0819597244262695 -0.0913393869996071 -0.106229230761528 -0.129046365618706 -0.164110645651817 -0.195165053009987 -0.209959283471107 -0.168841794133186 -0.219594061374664 -0.0278055518865585 0.0825110971927643 0.252528190612793 0.260878533124924 0.0830501094460487 0.532862305641174 0.670611262321472 0.881689846515656
0.790448188781738 0.76427698135376 0.730852067470551 0.693571448326111 0.693660318851471 2.10123944282532 0.766953706741333 0.724269807338715 0.685423016548157 2.65276503562927 5.57650899887085 8.30512619018555 7.92162656784058 6.17647266387939 4.79918909072876 4.08499240875244 3.48956489562988 2.88123989105225 2.36309242248535 2.0524377822876 1.93179249763489 1.92742812633514 2.69906830787659 1.8316605091095 1.3542652130127 1.15584242343903 0.99733293056488 0.849787533283234 0.731580555438995 0.612824141979218 0.461859226226807 0.335405945777893 0.220085233449936 0.127940252423286 0.062309630215168 -0.0393880903720856 -0.166178598999977 -0.298354119062424 -0.414577126502991 -0.612319648265839 -0.720908880233765 -0.767250418663025 -0.700086891651154 1.47214186191559 4.14850902557373 3.0629255771637 2.35057854652405 1.78919756412506 1.0332692861557 0.83490264415741 0.670463263988495 0.669381260871887 0.606911301612854 0.414527475833893 -0.261738538742065 -1.04717814922333 -0.670584678649902 10.2599115371704 8.27143001556396 6.29937744140625 4.85489797592163 4.62296485900879 4.86169385910034 4.24767684936523 3.64570784568787 3.45200252532959 3.13841319084167 2.87988114356995 2.67178964614868 2.52566242218018 2.23543691635132 1.8224755525589 1.59755194187164 1.48868501186371 1.30633270740509 0.968759894371033 0.819214105606079 0.746839642524719 0.538725674152374 2.17583036422729 6.87709045410156 7.0930700302124 7.98590755462646 7.62361860275269 6.55705881118774 4.99419116973877 4.32921171188354 3.80078601837158 3.38473224639893 3.05308437347412 2.7875964641571 2.56128454208374 2.37103605270386 2.15515947341919 1.99550032615662 1.87630236148834 1.78199636936188 1.69842398166656 1.62161886692047 1.54721248149872 1.47830045223236 1.43843197822571 1.46001839637756 1.39984452724457 1.35070753097534 1.30742168426514 1.26517581939697 1.21846234798431 1.18422114849091 1.15526843070984 1.12209689617157 1.0897604227066 1.11894977092743 1.09103357791901 1.05853426456451 1.02852630615234 0.999010443687439 0.972276508808136 0.947190761566162 0.922721803188324 0.900276899337769 0.797377049922943 0.77919065952301 0.759971797466278 0.743621230125427 0.728247463703156 0.586463093757629 0.353581696748734 0.181994467973709 0.0744263604283333 0.103381633758545 0.0400863736867905 0.0317817814648151 0.0285238474607468 0.0162927508354187 -0.0234395377337933 -0.0523908287286758 -0.0184688307344913 0.306454002857208 0.906017363071442 0.580245733261108 1.51970207691193 0.891110718250275 0.514977812767029 0.353850513696671 0.0702010244131088 0.13720577955246 0.0201107114553452 -0.0365809760987759 -0.0530753694474697 -0.0632278993725777 -0.0696131065487862 -0.0772153586149216 -0.0948880389332771 -0.104924939572811 -0.127741754055023 -0.158807829022408 -0.191279873251915 -0.225863009691238 -0.269766807556152 -0.302024483680725 -0.117957197129726 0.106892339885235 0.142737001180649 0.0859750658273697 0.39137202501297 0.658198356628418 0.103630132973194 1.15624868869781 2.26086163520813 1.25804805755615
0.908361971378326 0.882171750068665 0.870027303695679 0.846839606761932 0.875168323516846 1.6219277381897 1.08653616905212 1.03708064556122 0.994415998458862 0.982348918914795 3.70587015151978 6.31303024291992 8.08280944824219 6.60606527328491 5.12834167480469 4.1075758934021 3.48050260543823 2.88739776611328 2.34179878234863 1.9308032989502 1.75082874298096 1.74739301204681 3.60469102859497 1.55131137371063 1.3056857585907 1.03785979747772 0.892564833164215 0.766281306743622 0.569972634315491 0.406272828578949 0.299472332000732 0.199807688593864 0.109820373356342 0.054516427218914 -0.00563670601695776 -0.0739697143435478 -0.160697281360626 -0.271483600139618 -0.407076239585876 -0.565696239471436 -0.721020698547363 -0.742925941944122 -0.0258590951561928 0.510857284069061 3.28145527839661 2.52846431732178 1.97817444801331 1.71482491493225 0.911070466041565 0.368451029062271 0.240100964903831 0.398808300495148 0.277487933635712 0.0382685549557209 -0.518605828285217 -1.09642279148102 -1.17414689064026 0.667142748832703 10.3147144317627 8.62227058410645 6.40421485900879 5.14845752716064 4.33576345443726 3.60013389587402 2.46958994865417 3.09589505195618 3.34819459915161 2.56137084960938 2.36983180046082 2.2489161491394 1.70874977111816 1.39345729351044 1.23119282722473 0.930608749389648 0.821571707725525 0.709514439105988 0.624558389186859 0.532158195972443 0.419165402650833 2.82120871543884 5.67408132553101 7.91344499588013 9.09453010559082 7.70429515838623 6.18857145309448 4.74890232086182 4.12123775482178 3.6042366027832 3.24912166595459 2.95764875411987 2.71821713447571 2.50564312934875 2.32584095001221 2.32218647003174 2.16245365142822 2.03576803207397 1.92740094661713 1.83011448383331 1.74470901489258 1.66560029983521 1.59266293048859 1.51955139636993 1.54650735855103 1.49525237083435 1.44380629062653 1.39173424243927 1.34706032276154 1.29504227638245 1.25683057308197 1.21399748325348 1.18103528022766 1.15117967128754 1.01563608646393 0.984255135059357 0.960528671741486 0.93622088432312 0.90926319360733 0.887312352657318 0.862534880638123 0.839448511600494 0.819870173931122 0.689321458339691 0.674240052700043 0.657562375068665 0.64277982711792 0.630129814147949 0.547072947025299 0.340649902820587 0.192289963364601 0.110526904463768 0.0518632419407368 0.0394308716058731 0.0386074334383011 0.0376449190080166 0.036412138491869 0.0315915420651436 0.0274144932627678 0.0148687176406384 -0.00319181988015771 -0.00354807777330279 -0.00521545996889472 -0.0165877547115088 1.19205117225647 0.58765572309494 0.444668263196945 0.165798962116241 -0.0135921984910965 -0.0224622841924429 -0.0435306392610073 -0.069482758641243 -0.0936285108327866 -0.108411610126495 -0.120932288467884 -0.129535958170891 -0.158807262778282 -0.185944691300392 -0.219972088932991 -0.26752582192421 -0.311686277389526 -0.356149792671204 -0.409734338521957 -0.433019638061523 0.113695181906223 0.978411436080933 0.160269305109978 0.31615874171257 0.650181114673615 0.802817761898041 0.890817761421204 0.702245950698853 0.384727537631989
1.24011325836182 1.19487750530243 1.18156015872955 1.40965783596039 1.34248065948486 1.31152057647705 1.28286814689636 1.23952734470367 1.18781304359436 1.15476167201996 1.91213893890381 3.74584865570068 6.50794839859009 6.28032255172729 4.97615671157837 4.36942529678345 3.37124133110046 2.82160925865173 2.3646035194397 2.00420808792114 1.73958933353424 2.33715462684631 1.60956335067749 1.33301305770874 1.13599109649658 0.880416572093964 0.811817586421967 0.648220181465149 0.48499870300293 0.367931514978409 0.278915345668793 0.196927234530449 0.100457705557346 0.0343693420290947 -0.0231535583734512 -0.0776140093803406 -0.161550790071487 -0.246731817722321 -0.365770220756531 -0.498629033565521 -0.641227543354034 0.107028938829899 -0.16503056883812 -0.307041376829147 0.821314990520477 1.07835948467255 1.1256343126297 1.21428048610687 0.999090492725372 0.60704106092453 0.198085993528366 0.175239995121956 0.15982311964035 -0.0126365469768643 -0.495788007974625 -0.93176281452179 -1.08586072921753 -1.20708072185516 2.22088408470154 8.08949089050293 7.10557317733765 5.46438455581665 4.41550302505493 2.50891613960266 1.41743624210358 3.06458044052124 3.93057942390442 2.88499450683594 2.04549622535706 1.32607519626617 1.03480994701385 0.953539788722992 0.84096223115921 0.606088757514954 0.288483768701553 1.06723022460938 0.406304180622101 0.140173062682152 0.17270764708519 3.6470320224762 5.92196083068848 8.05350971221924 9.12695980072021 7.42674970626831 5.76491832733154 4.9237847328186 4.36575555801392 3.88961005210876 3.49888944625854 3.18085885047913 2.92071223258972 2.69736456871033 2.50751519203186 2.471107006073 2.31813287734985 2.17345523834229 2.05355596542358 1.94585430622101 1.85549736022949 1.7711216211319 1.69414591789246 1.6218888759613 1.40550255775452 1.35098373889923 1.30831265449524 1.27081048488617 1.22626638412476 1.18042826652527 1.14496612548828 1.10552632808685 1.06996142864227 1.03412199020386 0.864673852920532 0.838412165641785 0.82206916809082 0.798681795597076 0.782153069972992 0.770503222942352 0.752244710922241 0.73582935333252 0.719756722450256 0.704599320888519 0.68752247095108 0.663000285625458 0.633781969547272 0.599077224731445 0.514952540397644 0.361853003501892 0.225775435566902 0.151285395026207 0.123515158891678 0.118455000221729 0.114323981106281 0.112528145313263 0.105109043419361 0.0971935018897057 0.082611083984375 0.0389052368700504 0.0210099816322327 0.0153782358393073 0.0119530390948057 -0.0028465676587075 -0.0127539653331041 0.933262825012207 0.0843117907643318 -0.0144246248528361 -0.026184169575572 -0.0369136333465576 -0.0655625611543655 -0.103648364543915 -0.141429156064987 -0.168663814663887 -0.193899765610695 -0.21161849796772 -0.22824127972126 -0.265030831098557 -0.308963537216187 -0.355723530054092 -0.404106348752975 -0.436419188976288 -0.503322184085846 -0.555388152599335 -0.564260721206665 0.338076770305634 0.180193454027176 0.498919039964676 0.815361142158508 1.40217125415802 1.46276760101318 1.41163051128387 0.42276868224144
1.44405841827393 1.37834453582764 1.36603260040283 1.51698565483093 1.89268064498901 1.86616027355194 1.54462814331055 1.36226725578308 1.30168187618256 1.25136935710907 1.23765802383423 2.80703616142273 4.56932926177979 5.06208276748657 4.47967720031738 4.0464334487915 3.04711413383484 2.7879114151001 2.52200937271118 2.22319650650024 1.96563100814819 1.71389973163605 1.33389830589294 1.17368876934052 1.0166130065918 0.729929149150848 0.600787222385406 0.495827525854111 0.456680357456207 0.36798682808876 0.276292026042938 0.186850771307945 0.105698987841606 0.0225172732025385 -0.0332669802010059 -0.0939477607607841 -0.171213865280151 -0.21254988014698 -0.303139358758926 -0.414037019014359 -0.51821494102478 -0.544890403747559 -0.545411646366119 -0.381952166557312 -0.429405957460403 -0.332530856132507 0.866493701934814 1.75313103199005 1.1943519115448 0.929493546485901 0.571302473545074 0.347220927476883 0.205741479992867 0.0351647734642029 -0.275965005159378 -0.771104276180267 -0.966267824172974 -1.10572588443756 -0.276593178510666 2.69634222984314 6.00787544250488 4.37742137908936 3.32217335700989 2.16919422149658 0.35266849398613 0.66131055355072 1.77420270442963 3.56157040596008 1.55888366699219 0.524714589118958 0.40963938832283 0.246438175439835 0.197312444448471 0.139197468757629 1.77459847927094 1.3005383014679 0.691468417644501 0.00755751691758633 -0.0179585218429565 6.14781045913696 8.02045440673828 8.590012550354 8.10434627532959 7.25063943862915 6.14716958999634 5.27041578292847 4.64373970031738 4.14126491546631 3.72739243507385 3.38901090621948 3.11227011680603 2.87442827224731 2.66279768943787 2.23347640037537 2.09064817428589 1.9657928943634 1.85969936847687 1.76435470581055 1.68132638931274 1.59978032112122 1.53207814693451 1.47785997390747 1.20622742176056 1.15193772315979 1.11379837989807 1.09052205085754 1.05643689632416 1.01678383350372 0.984135448932648 0.946755111217499 0.915282964706421 0.887343943119049 0.865099191665649 0.845129430294037 0.822848916053772 0.809613227844238 0.792156040668488 0.796648263931274 0.786414504051208 0.768238008022308 0.749758958816528 0.736220002174377 0.721198976039886 0.696012794971466 0.674511969089508 0.632577478885651 0.538267731666565 0.401229619979858 0.275419533252716 0.31365492939949 0.319981962442398 0.312695920467377 0.301149368286133 0.293474972248077 0.288649469614029 0.246431306004524 0.20411778986454 0.161530911922455 0.130725249648094 0.114956922829151 0.0305943116545677 0.0083987507969141 -0.0215773191303015 -0.0330850481987 -0.0767228752374649 1.38564348220825 0.358737349510193 -0.0886869579553604 -0.114935532212257 -0.0721978321671486 -0.114513829350471 -0.169923111796379 -0.227538987994194 -0.276567906141281 -0.302126526832581 -0.348378300666809 -0.408538162708282 -0.461874932050705 -0.505608797073364 -0.479894042015076 -0.525741934776306 -0.609725713729858 -0.661004543304443 -0.689231395721436 -0.723422050476074 3.23784255981445 0.173069640994072 -0.911393761634827 -1.14947128295898 -1.21059370040894 5.39451026916504
1.56598734855652 1.47673940658569 1.44393134117126 1.60744559764862 2.0989203453064 1.82899487018585 1.49822926521301 1.2940685749054 1.23757088184357 1.17998433113098 1.09390461444855 2.76687407493591 3.53649067878723 4.50374841690063 4.00656175613403 3.44222259521484 3.76135468482971 2.67078065872192 2.2006516456604 1.96953237056732 1.7311954498291 1.20262575149536 0.939722836017609 0.883094608783722 0.732089400291443 0.6485635638237 0.575312197208405 0.568481981754303 0.500405073165894 0.408904522657394 0.325456082820892 0.225294232368469 0.13301981985569 0.0560693927109241 -0.00955157354474068 -0.0756132677197456 -0.139089033007622 -0.16460807621479 -0.160536870360374 -0.243162825703621 -0.347064733505249 -0.386462032794952 -0.392670392990112 -0.402805387973785 -0.420115143060684 -0.447496592998505 0.143133148550987 1.82013833522797 1.32514142990112 0.962501645088196 0.651138305664062 0.260666906833649 0.16873636841774 0.0605737380683422 -0.134528666734695 -0.5152388215065 -0.838609933853149 -0.959682166576385 -1.03281164169312 0.992340922355652 1.13706350326538 1.25733160972595 1.06502711772919 0.696617662906647 0.377276450395584 0.163383528590202 0.281825006008148 3.73351120948792 2.14373993873596 0.928933620452881 0.435467392206192 0.110798664391041 -0.00488285394385457 0.451698362827301 3.17430257797241 1.91525685787201 1.25405013561249 0.0701767429709435 -0.201995447278023 7.27872753143311 10.936315536499 9.92213344573975 8.89676284790039 7.44077157974243 5.57480335235596 4.81428861618042 4.21303606033325 3.76106905937195 3.39385986328125 3.0808413028717 2.82916402816772 2.61002397537231 2.41263461112976 1.89921307563782 1.75929534435272 1.66581678390503 1.59041321277618 1.51193106174469 1.43973064422607 1.37037456035614 1.3119410276413 1.26028335094452 1.17719984054565 1.12472259998322 1.08513355255127 1.0612211227417 1.03589797019958 1.00320327281952 1.00546014308929 1.04829335212708 1.01965463161469 1.00006687641144 0.980306327342987 0.960164129734039 0.860442519187927 0.862188041210175 0.889385223388672 0.940957129001617 0.946781039237976 0.928430438041687 0.907110035419464 0.887931108474731 0.868114769458771 0.794569134712219 0.760211527347565 0.725284099578857 0.599000096321106 0.455872446298599 0.443164587020874 0.498982846736908 0.485094636678696 0.474460124969482 0.458669930696487 0.453205287456512 0.445729225873947 0.410758852958679 0.368858754634857 0.308777987957001 0.251060962677002 0.212088152766228 0.360495179891586 0.302072376012802 0.200658157467842 0.138502523303032 0.136450633406639 0.0744682475924492 -0.00217209500260651 -0.0764746740460396 -0.136100649833679 -0.0832117274403572 -0.0957861170172691 -0.147795394062996 -0.206995353102684 -0.267276018857956 -0.318798243999481 -0.364304512739182 -0.435095697641373 -0.509834945201874 -0.547542333602905 -0.540086388587952 -0.601007640361786 -0.709347367286682 -0.823446452617645 -0.949038028717041 -1.11248028278351 -1.41291308403015 -1.66350960731506 -0.961654961109161 -1.6925482749939 -1.8150337934494 -0.60935777425766
1.48813092708588 1.36255085468292 1.31110274791718 2.00123715400696 2.24434447288513 1.9082955121994 1.62476003170013 1.35576140880585 1.14102673530579 1.09494638442993 1.04281115531921 2.27005434036255 2.31477499008179 2.66920399665833 3.17465662956238 2.85997009277344 2.5166027545929 2.41977024078369 1.98843574523926 1.54871010780334 1.28704071044922 1.09327983856201 0.950253844261169 0.878840565681458 0.812472879886627 0.740658044815063 0.6498002409935 0.611142575740814 0.648541629314423 0.573716998100281 0.485710769891739 0.390782207250595 0.274411350488663 0.186668038368225 0.109806202352047 0.0400181785225868 -0.0300470069050789 -0.0904147773981094 0.000284504058072343 0.0533730238676071 -0.0259904395788908 -0.0879034772515297 -0.122556962072849 -0.152720093727112 -0.170364186167717 -0.196289747953415 -0.21469834446907 0.790639817714691 1.05397057533264 0.722663998603821 0.49838975071907 0.227990508079529 0.0396521762013435 -0.0334684439003468 -0.163986265659332 -0.390225738286972 -0.75067275762558 -0.922297716140747 -1.02328443527222 1.05681097507477 0.826416075229645 0.510479390621185 0.26295018196106 1.31231427192688 0.723538100719452 0.200378715991974 0.14724400639534 1.30324852466583 1.5005909204483 0.727102875709534 0.403326243162155 0.107163287699223 -0.00496927183121443 1.25901103019714 1.45113217830658 1.06636536121368 0.845847249031067 0.237812161445618 -0.0474836193025112 6.72226572036743 10.884539604187 9.40741157531738 7.98027610778809 6.70283985137939 4.9286150932312 4.14081716537476 3.63325166702271 3.21087908744812 2.90522646903992 2.64320063591003 2.42235732078552 2.23125243186951 2.07582139968872 1.79566395282745 1.66318130493164 1.56920123100281 1.50677084922791 1.4434220790863 1.39395952224731 1.37030422687531 1.31986713409424 1.28414189815521 1.2415167093277 1.21007812023163 1.17745840549469 1.14980781078339 1.13040363788605 1.12868106365204 1.19167149066925 1.23069286346436 1.20043385028839 1.17447400093079 1.14874911308289 1.12354040145874 1.03847324848175 1.00836133956909 1.07393777370453 1.24082541465759 1.27524244785309 1.24631345272064 1.22203636169434 1.19546759128571 1.17048668861389 1.01511561870575 0.881934583187103 0.795705378055573 0.645536780357361 1.24881160259247 0.621144711971283 0.654430329799652 1.24704790115356 1.36648607254028 1.13041889667511 0.975426316261292 0.855138301849365 0.775171458721161 0.678817272186279 0.612388074398041 0.575544118881226 0.50505006313324 0.501203238964081 0.463334828615189 0.319271981716156 0.192340776324272 0.112183675169945 0.067511148750782 -0.0389814861118793 -0.135350987315178 -0.184669390320778 -0.1756951212883 -0.213467136025429 -0.245690584182739 -0.240531772375107 -0.345068126916885 -0.402819722890854 -0.455098241567612 -0.512752771377563 -0.59278666973114 -0.650615990161896 -0.648360669612885 -0.713398694992065 -0.805683732032776 -1.012286901474 -1.18214869499207 -1.43889987468719 -1.99269711971283 -2.33212208747864 -2.29185223579407 4.90126514434814 -1.23484361171722 -2.31840372085571
1.37779068946838 1.20623159408569 1.15250515937805 1.14768552780151 1.93558096885681 2.08388662338257 1.70849788188934 1.49170744419098 1.64592313766479 1.63674700260162 1.50727641582489 1.81545758247375 1.68601667881012 1.61571729183197 2.37105703353882 2.23489212989807 2.20563459396362 1.95100975036621 1.94215774536133 1.73210442066193 1.51430201530457 1.31780278682709 1.22292387485504 1.10697031021118 1.01512765884399 0.91405975818634 0.831591904163361 0.741934597492218 0.856058716773987 0.947907030582428 0.83830463886261 0.736586809158325 0.620195925235748 0.507646560668945 0.414357572793961 0.34004533290863 0.254492908716202 0.179521530866623 0.127379536628723 0.175849288702011 0.118231236934662 0.0643194392323494 0.0212649237364531 -0.0196003988385201 -0.0511036776006222 -0.0700146853923798 -0.0923596993088722 -0.101454079151154 0.676307559013367 0.533620417118073 0.36423996090889 0.210792347788811 -0.0163744073361158 -0.0258663073182106 -0.266854465007782 -0.428667992353439 -0.630977153778076 -0.83386904001236 -0.944676041603088 -0.717200696468353 -0.794607400894165 -0.840722262859344 0.0160509441047907 0.879413425922394 0.863932967185974 0.513475298881531 0.321900010108948 0.24174627661705 1.03380084037781 0.466539412736893 0.240595415234566 0.0690064579248428 0.077426977455616 0.372417658567429 0.317040473222733 0.606197655200958 0.929370641708374 0.818433225154877 0.730952560901642 4.00146389007568 9.62476062774658 8.28478717803955 6.80820035934448 5.79975843429565 4.52505159378052 3.89397001266479 3.42520976066589 3.02577447891235 2.73444223403931 2.49685001373291 2.27224636077881 2.11789417266846 2.05338144302368 1.92150437831879 1.79404020309448 1.70589864253998 1.61372017860413 1.56502997875214 1.65159499645233 1.66345751285553 1.59448742866516 1.53881251811981 1.48364675045013 1.43374013900757 1.38575530052185 1.34625828266144 1.31558907032013 1.36692702770233 1.57613337039948 1.61276888847351 1.56664216518402 1.52318775653839 1.48265564441681 1.44439268112183 1.40672540664673 1.37054085731506 1.35636901855469 1.70620489120483 1.66723346710205 1.6343092918396 1.60152018070221 1.56767356395721 1.51475119590759 1.34668409824371 1.07994556427002 0.747953355312347 0.615044116973877 6.61298704147339 3.36650466918945 2.28669810295105 1.83097457885742 2.09770512580872 1.75947880744934 1.50297009944916 1.31983327865601 1.17669665813446 1.04048633575439 0.945746600627899 0.880932152271271 0.744014978408813 0.568668127059937 0.391751438379288 0.247622326016426 0.117659643292427 -0.00590818468481302 -0.117333061993122 -0.206472307443619 -0.295479834079742 -0.336708217859268 -0.313600569963455 -0.355422288179398 -0.173458009958267 -0.184329375624657 -0.325283199548721 -0.502283692359924 -0.556491017341614 -0.604950845241547 -0.671150088310242 -0.737769603729248 -0.76952201128006 -0.854986965656281 -0.964472770690918 -1.1151065826416 -1.32036089897156 -1.6034117937088 -1.93318033218384 -2.45251297950745 -2.49437499046326 0.658729076385498 -0.80526727437973 -1.23803865909576
1.32185125350952 1.11873650550842 1.03360223770142 0.982152283191681 0.963165283203125 1.39402604103088 3.90220332145691 2.80161905288696 2.28197002410889 2.55869126319885 2.7281129360199 2.57374572753906 2.43951296806335 2.27479386329651 2.18184065818787 2.1412672996521 2.11051297187805 2.1403911113739 2.10265612602234 1.94798135757446 2.04647374153137 1.90593528747559 1.72888457775116 1.56478679180145 1.45152473449707 1.329665184021 1.23367011547089 1.13096165657043 1.04872381687164 1.09449887275696 0.974594533443451 0.861422121524811 0.753998398780823 0.634107768535614 0.537263035774231 0.454430907964706 0.376121401786804 0.293157160282135 0.236195310950279 0.15056686103344 0.234916433691978 0.192181974649429 0.147473439574242 0.107670143246651 0.0695496574044228 0.0459847748279572 0.0270689502358437 0.00634328275918961 -0.00596762634813786 0.0667445808649063 0.060249075293541 -0.0433307103812695 -0.109470725059509 -0.161259531974792 -0.249164760112762 -0.402434170246124 -0.575123190879822 -0.764796555042267 -0.868566393852234 -0.973597764968872 -1.05303454399109 -0.946400582790375 -0.337298154830933 0.588768899440765 0.463623136281967 0.285080641508102 0.208715990185738 0.326698064804077 0.314267516136169 0.240392461419106 0.512124001979828 0.349741786718369 0.233005329966545 0.282180160284042 0.310005605220795 0.765386462211609 1.12246632575989 1.41537797451019 1.62576329708099 3.92723488807678 7.23637056350708 6.81747579574585 5.68760299682617 4.82364368438721 4.15360260009766 3.61798691749573 3.12979984283447 2.70149278640747 2.57979416847229 2.52317881584167 2.57790231704712 2.46357655525208 2.50281167030334 2.21230816841125 2.09365391731262 1.98709535598755 1.89456462860107 1.90219354629517 2.20357418060303 2.25323629379272 2.15470719337463 2.08183121681213 2.00813102722168 1.94150650501251 1.87730312347412 1.80945289134979 1.76020097732544 1.71616804599762 2.15991568565369 2.10374617576599 2.0448305606842 1.98861408233643 1.93802165985107 1.8882474899292 1.84189343452454 1.79470670223236 1.74992775917053 1.7702339887619 1.78679418563843 1.75080251693726 1.71488404273987 1.67856466770172 1.64447343349457 1.39299237728119 1.19153249263763 0.792637467384338 0.768756628036499 9.66106033325195 5.29755115509033 3.55077028274536 2.65154504776001 1.9378547668457 1.66850674152374 1.45250034332275 1.2969583272934 1.16673076152802 1.04666841030121 0.96605259180069 0.893119752407074 0.660657703876495 0.478812426328659 0.302204340696335 0.148731037974358 0.0158185120671988 -0.127183422446251 -0.292325019836426 -0.402539908885956 -0.433075904846191 -0.435427248477936 -0.372102499008179 -0.392019331455231 -0.410371094942093 -0.174012571573257 -0.361772805452347 -0.537429809570312 -0.584022760391235 -0.631735265254974 -0.658659696578979 -0.565372586250305 -0.693694293498993 -0.885378181934357 -1.04721307754517 -1.22091770172119 -1.37899899482727 -1.54958891868591 -1.8132232427597 -2.15242171287537 -2.37826299667358 -2.45304679870605 -2.478182554245 -0.890147924423218
1.40492641925812 1.0319185256958 0.911149322986603 0.833332657814026 0.759949564933777 0.724323153495789 4.61398363113403 4.69544696807861 3.78549218177795 3.5111722946167 4.61364889144897 4.19760942459106 3.84257388114929 3.52980947494507 3.24835848808289 3.0515730381012 2.93402743339539 2.9103090763092 2.74705052375793 2.36382579803467 2.32731699943542 2.12299561500549 1.9027339220047 1.7484769821167 1.60140192508698 1.46907842159271 1.35797429084778 1.25345897674561 1.16869211196899 1.07514703273773 1.14570999145508 1.01128625869751 0.892941772937775 0.773670256137848 0.657455265522003 0.578659415245056 0.493671357631683 0.408419877290726 0.344358950853348 0.293609499931335 0.0635329633951187 0.0298022404313087 -0.0109214261174202 -0.0399218797683716 -0.0663488879799843 -0.0934709087014198 -0.106757394969463 -0.11608500033617 -0.137057542800903 -0.141976937651634 -0.141739800572395 -0.144378423690796 -0.159326031804085 -0.222618281841278 -0.24257330596447 -0.323451459407806 -0.524114727973938 -0.709690392017365 -0.844079554080963 -0.949987232685089 -1.0401326417923 -1.09218347072601 -0.593959271907806 0.149867668747902 -0.0800497680902481 -0.622188687324524 0.283040732145309 1.59183037281036 0.876538574695587 0.48653456568718 1.3667243719101 2.16869974136353 1.70703232288361 1.58630442619324 1.38198852539062 1.28817105293274 1.27961194515228 1.25317585468292 2.01347541809082 4.3973503112793 6.48014116287231 6.21238374710083 5.1252064704895 4.998131275177 4.08167123794556 3.19042611122131 2.57774496078491 2.26617407798767 2.3229866027832 2.92211127281189 3.13669180870056 3.03935241699219 3.04364895820618 3.48793339729309 3.2341570854187 2.69560122489929 2.57293653488159 2.46563243865967 3.03327560424805 2.92723679542542 2.81507706642151 2.70311665534973 2.60198497772217 2.52183794975281 2.43619537353516 2.3609414100647 2.29300570487976 2.22388982772827 2.23527860641479 2.26407885551453 2.20515656471252 2.14393615722656 2.0864143371582 2.03259873390198 1.97896933555603 1.92879617214203 1.88342249393463 1.83742892742157 1.71667861938477 1.67894411087036 1.6446704864502 1.60863983631134 1.57717382907867 1.38983416557312 1.15176439285278 0.863968968391418 2.69696927070618 8.29645824432373 4.48299694061279 3.01439714431763 2.54681730270386 2.13238978385925 1.819828748703 1.59764981269836 1.42180383205414 1.28014588356018 1.15871500968933 1.05612230300903 0.932299137115479 0.601082861423492 0.508325934410095 0.284562259912491 0.131607428193092 -0.0222380887717009 -0.161898702383041 -0.3057561814785 -0.398685157299042 -0.45775306224823 -0.20396015048027 -0.187381580471992 -0.206374824047089 -0.246238082647324 -0.285668164491653 -0.324800103902817 -0.374748021364212 -0.393914580345154 -0.425772219896317 -0.397281378507614 -0.334814757108688 -0.468704581260681 -0.733825623989105 -0.934060335159302 -1.18715381622314 -1.36122941970825 -1.36754262447357 -1.63719999790192 -1.91665089130402 -2.06424641609192 -2.09555506706238 -2.10347962379456 -1.66486799716949
1.56470763683319 1.07029962539673 0.909010410308838 0.795095086097717 0.606406152248383 0.50524240732193 7.37775278091431 7.70582008361816 6.48447895050049 5.38147115707397 5.29557228088379 5.48445749282837 4.86656475067139 4.36171340942383 3.97553491592407 3.6806480884552 3.52375602722168 3.51518654823303 3.11308455467224 2.74719071388245 2.33196616172791 2.36528158187866 2.15678715705872 1.96433258056641 1.81469178199768 1.67867732048035 1.53787004947662 1.43005537986755 1.33322715759277 1.22657072544098 0.870459794998169 0.758442878723145 0.642789661884308 0.538228452205658 0.438290596008301 0.368145972490311 0.286679714918137 0.21506179869175 0.163721859455109 0.122536018490791 0.0701879262924194 0.0342780910432339 0.00365665834397078 -0.0243817158043385 -0.0481942221522331 -0.073910653591156 -0.089460477232933 -0.0984034091234207 -0.17875300347805 -0.194417074322701 -0.225654363632202 -0.231704503297806 -0.24795363843441 -0.256011992692947 -0.2668816447258 -0.311681926250458 -0.461843132972717 -0.659767806529999 -0.822899162769318 -0.937928736209869 -1.0396683216095 -1.08012747764587 -0.954498946666718 -0.226747438311577 -0.649277329444885 -1.22063994407654 -1.34358203411102 6.02543878555298 4.65717363357544 3.27417993545532 2.39410662651062 3.40042638778687 2.61273503303528 2.07600879669189 1.55681788921356 1.36581754684448 3.48493933677673 2.52808952331543 2.48815298080444 5.9543137550354 6.68292093276978 6.42052888870239 5.87037897109985 5.27715635299683 4.44784259796143 3.60294365882874 3.05909371376038 2.84437012672424 2.7511522769928 3.7418839931488 3.7641167640686 3.696448802948 3.58763957023621 5.78164005279541 4.56776809692383 3.84674310684204 3.33233857154846 3.19487166404724 3.14123868942261 3.1757481098175 3.05673933029175 2.93492603302002 2.82685804367065 2.72983407974243 2.63160753250122 2.55720067024231 2.48407483100891 2.41035294532776 2.33390069007874 2.16535663604736 2.1054253578186 2.05452990531921 2.00013136863708 1.9477311372757 1.89664888381958 1.85051000118256 1.80595624446869 1.76218438148499 1.72597324848175 1.6762387752533 1.63048827648163 1.58953142166138 1.54798913002014 1.48624134063721 1.25648295879364 1.11154270172119 6.55648946762085 6.12215852737427 4.16087961196899 3.14970350265503 3.07971000671387 2.6036810874939 2.24116730690002 1.96249890327454 1.74148070812225 1.57006549835205 1.41060352325439 1.23125410079956 1.02069962024689 1.05508661270142 0.882505834102631 0.61896425485611 0.398802012205124 0.210504755377769 0.0496335998177528 -0.0683693066239357 -0.108761489391327 -0.0327943600714207 0.159631580114365 0.229778453707695 0.181364804506302 0.115160897374153 0.0564262829720974 0.0106793502345681 -0.0533740594983101 0.0129706710577011 -0.0629307702183723 -0.0941779389977455 0.0129152070730925 0.0195900779217482 -0.215978875756264 -0.450241327285767 -0.703652858734131 -0.601115465164185 -0.99550199508667 -1.16171371936798 -1.38227295875549 -1.61938536167145 -1.62644028663635 -1.05274152755737 -1.24186170101166
1.64178276062012 1.16894781589508 0.933604896068573 0.76112824678421 0.592093765735626 0.40766966342926 1.44093430042267 12.5914516448975 9.82468223571777 7.78826904296875 6.41261577606201 6.3823094367981 5.65547704696655 5.10831689834595 4.64604234695435 4.31757926940918 4.10227108001709 3.92257761955261 3.43083882331848 3.03515338897705 2.67081165313721 1.95698249340057 1.74168276786804 1.56198787689209 1.43533527851105 1.31459379196167 1.19716727733612 1.10025084018707 1.00677371025085 0.93896871805191 0.812642693519592 0.741320490837097 0.617205858230591 0.514762341976166 0.424877285957336 0.356127023696899 0.28950446844101 0.225272580981255 0.175015196204185 0.0561246387660503 0.00550189986824989 -0.059182807803154 -0.0841915234923363 -0.112261362373829 -0.134580701589584 -0.159960612654686 -0.178514569997787 -0.194105893373489 -0.206772446632385 -0.22049705684185 -0.275836199522018 -0.289496570825577 -0.295016139745712 -0.306268513202667 -0.314113080501556 -0.343122035264969 -0.461910456418991 -0.630639910697937 -0.795132040977478 -0.953243255615234 -1.06034958362579 -1.08597767353058 -0.825685381889343 -0.849865913391113 -0.989254593849182 -1.27495241165161 -1.52778804302216 4.17737102508545 7.83873176574707 5.34822845458984 3.97526431083679 2.92588877677917 2.50800704956055 1.13342702388763 -0.0398911610245705 -0.199091747403145 7.30317544937134 6.77763414382935 5.66869306564331 8.21446704864502 9.09703731536865 8.50426292419434 7.51655244827271 6.47368240356445 5.34715557098389 4.42544651031494 3.90389728546143 3.71401762962341 3.55192995071411 3.54695272445679 3.76505613327026 3.73711133003235 5.97360992431641 8.63864707946777 5.35754013061523 4.53843259811401 3.77571392059326 3.46849989891052 3.32626724243164 3.10276889801025 2.93067526817322 2.81928992271423 2.71536231040955 2.614417552948 2.52503395080566 2.44756317138672 2.37056946754456 2.31746435165405 2.4398832321167 2.33712649345398 2.24488663673401 2.16557097434998 2.10131621360779 2.02895665168762 1.9587869644165 1.89389741420746 1.83125865459442 1.87906098365784 2.00728011131287 1.95200514793396 1.89620411396027 1.83641219139099 1.76238703727722 1.60674238204956 1.37618255615234 1.27367877960205 6.20620727539062 6.04027891159058 4.63601922988892 4.2254753112793 4.51965808868408 3.84854817390442 3.32215094566345 2.92509579658508 2.63038516044617 2.33475685119629 2.02711248397827 1.77812516689301 1.62914860248566 1.77181506156921 1.58071422576904 1.23350954055786 0.957419037818909 0.704461574554443 0.507756650447845 0.500498235225677 0.4187952876091 0.470179826021194 0.788137257099152 1.03350257873535 1.01111304759979 0.911649644374847 1.10478270053864 1.81275868415833 1.87407338619232 1.68634581565857 1.51165509223938 1.31342148780823 1.06218326091766 0.757937550544739 0.477119415998459 0.316385239362717 0.280419796705246 0.293612003326416 0.0706056505441666 -0.162860065698624 -0.268193930387497 -0.395290166139603 0.489302843809128 -0.00527290580794215 0.978097319602966
1.70919644832611 1.28507673740387 0.98599761724472 0.751468241214752 0.56424355506897 0.370921492576599 0.241465270519257 10.4935512542725 10.2693948745728 8.83335876464844 7.44157075881958 5.39050245285034 4.83592748641968 4.38813638687134 3.98368763923645 3.67021441459656 3.51677560806274 3.32923793792725 2.87053179740906 2.58129930496216 2.25498104095459 1.88305997848511 1.6498703956604 1.45857763290405 1.33088111877441 1.20689117908478 1.11826193332672 1.0226035118103 0.92610627412796 0.813052117824554 0.716546356678009 0.585671186447144 0.538428366184235 0.485832184553146 0.394531339406967 0.340260028839111 0.24778163433075 0.10930372774601 0.0421752519905567 -0.00224752235226333 -0.0324057973921299 -0.102594286203384 -0.140007257461548 -0.175077557563782 -0.197004720568657 -0.2128566801548 -0.239514693617821 -0.258174449205399 -0.269910663366318 -0.278692215681076 -0.313105762004852 -0.391181409358978 -0.391475707292557 -0.400447577238083 -0.405853062868118 -0.41120246052742 -0.503392517566681 -0.626771569252014 -0.776350438594818 -0.948537349700928 -1.0830739736557 -1.1112242937088 -1.12300896644592 -1.05444848537445 -1.177894115448 -1.35072422027588 -1.49356508255005 -1.02301263809204 3.04501986503601 6.23554277420044 4.99844026565552 3.08478951454163 1.69959199428558 -0.341444194316864 -1.68189764022827 2.44977903366089 7.88566207885742 12.459020614624 10.7868413925171 9.08697414398193 9.32703304290771 8.75874805450439 7.47706079483032 5.95976066589355 4.68066596984863 4.019362449646 3.77229332923889 3.62112069129944 3.5334939956665 4.2370171546936 4.04861545562744 4.16332149505615 9.68758296966553 9.27783298492432 6.40145826339722 5.17984056472778 4.48709344863892 4.00358200073242 3.67497420310974 3.86133766174316 3.62449240684509 3.41521883010864 3.22938466072083 3.05008029937744 2.90159559249878 2.76479482650757 2.63692259788513 2.64483666419983 2.83110523223877 2.72837233543396 2.62438082695007 2.52986884117126 2.44528317451477 2.36176943778992 2.28137397766113 2.20014977455139 2.12824678421021 2.08978056907654 2.19839310646057 2.1708071231842 2.00220823287964 1.83665454387665 1.72065126895905 1.55602216720581 1.3386048078537 1.26979720592499 6.36248540878296 6.22784805297852 4.78346109390259 5.83831691741943 6.18663883209229 5.68412446975708 5.05656957626343 5.57453918457031 4.86741781234741 3.8956995010376 3.15427565574646 2.70433306694031 2.47143769264221 2.84469962120056 2.9954297542572 2.6574068069458 2.26376223564148 2.54559516906738 3.56330704689026 3.61390781402588 3.28798794746399 3.0055046081543 2.7783727645874 2.50772142410278 2.33642935752869 2.18569159507751 2.60851144790649 3.3925404548645 3.76133394241333 3.49093103408813 3.2293336391449 2.9300479888916 2.64518427848816 2.29633355140686 1.91964626312256 1.58799481391907 1.03252780437469 0.394098520278931 0.263322800397873 0.0917570665478706 -0.0176746621727943 1.79070210456848 3.7873055934906 2.76288104057312 4.89085054397583
