NCOLS 171
NROWS 32
XLLCORNER 353936
YLLCORNER 6699888
CELLSIZE 16 
NODATA_value -3.4e+38 
2.71669411659241 1.99651253223419 1.68309533596039 1.50140976905823 1.50263857841492 1.3911988735199 1.31438946723938 1.24280226230621 1.23542475700378 1.09260559082031 0.950210094451904 0.821093201637268 0.767772078514099 0.710248470306396 0.601840138435364 0.492689728736877 0.396117269992828 0.317027598619461 0.333237648010254 0.339589536190033 0.248644202947617 0.175193071365356 0.116455644369125 0.0880511254072189 0.293081849813461 0.313092440366745 0.407331973314285 0.333097755908966 0.858053505420685 1.58192050457001 1.49662256240845 2.33062219619751 1.96017801761627 2.21620392799377 4.05900287628174 2.22074413299561 1.80487763881683 1.69324111938477 1.69901084899902 1.54016077518463 1.33220887184143 1.21201002597809 1.15243780612946 1.06734108924866 1.00182640552521 0.929137706756592 0.866613566875458 0.788321316242218 0.71877783536911 0.659872531890869 0.600944697856903 0.580326795578003 0.521468579769135 1.5444643497467 1.33453464508057 1.21122288703918 1.34524667263031 0.988804399967194 0.851235806941986 0.737888753414154 0.698405981063843 0.552412986755371 0.283616542816162 0.38692232966423 0.32473760843277 0.323708385229111 6.8911337852478 5.65534591674805 1.88838911056519 0.756147861480713 0.535965323448181 1.6633939743042 4.29763221740723 4.90492677688599 5.03426885604858 2.90519428253174 2.06301474571228 1.7314395904541 1.49549114704132 1.30630016326904 1.113938331604 1.04117298126221 1.00756144523621 0.971612632274628 0.914235472679138 0.735551238059998 0.646083891391754 0.214394852519035 -0.894361257553101 -1.6035224199295 -1.93556761741638 -2.01788902282715 3.28725552558899 4.42647838592529 5.01268815994263 10.7244777679443 9.75675773620605 10.6362113952637 9.79249668121338 8.69496059417725 7.78843975067139 6.9456934928894 6.53773546218872 5.88764333724976 5.30696821212769 4.74385404586792 3.70875954627991 2.38367486000061 1.684934258461 2.64187383651733 2.53326344490051 4.88691759109497 5.19084024429321 6.98756790161133 6.93612957000732 6.83413553237915 6.64265918731689 6.17754650115967 5.97085285186768 5.53287935256958 5.24396181106567 4.96225261688232 4.49232578277588 4.2128438949585 3.93187546730042 3.7283136844635 3.60744905471802 3.80342221260071 6.09622097015381 6.31180238723755 4.82305192947388 3.6312997341156 3.30709671974182 3.1537389755249 2.89447045326233 2.63278651237488 2.16103315353394 1.98084986209869 1.84067642688751 1.70206677913666 1.44090604782104 1.02126705646515 0.550289630889893 1.37519931793213 5.15462970733643 6.15548038482666 5.75855731964111 5.15072059631348 4.80827856063843 4.57860612869263 4.16314792633057 3.70600748062134 3.07439589500427 2.36954164505005 2.10177707672119 1.68263733386993 1.12413549423218 0.646699607372284 0.641518294811249 0.584087014198303 0.536247491836548 0.413732528686523 0.0525177270174026 -0.47929173707962 -0.670139908790588 4.85013771057129 4.36085891723633 3.66084098815918 4.23882007598877 3.1315643787384 2.41091632843018
2.63424777984619 2.19843721389771 1.64873325824738 1.51427173614502 1.43681979179382 1.35748648643494 1.27507221698761 1.32204902172089 1.1653003692627 1.06925010681152 0.987360179424286 0.91796338558197 0.797930061817169 0.78078705072403 0.815159499645233 0.697354912757874 0.592302262783051 0.501986086368561 0.426615208387375 0.620079338550568 0.583115041255951 0.49084398150444 0.41266405582428 0.355179905891418 0.321481764316559 0.323555707931519 0.313632130622864 0.301644712686539 0.300011843442917 1.59971988201141 1.11550211906433 1.9107061624527 3.09069180488586 2.66856789588928 2.58441400527954 2.1145281791687 1.59458601474762 1.44322967529297 1.50532293319702 1.59754991531372 1.57890284061432 1.18965065479279 0.998501181602478 0.922950029373169 0.866392135620117 0.800273895263672 0.694166600704193 0.651821672916412 0.625415086746216 0.635003566741943 0.864890336990356 1.17270267009735 1.17084586620331 0.930940270423889 3.20025873184204 1.76746094226837 1.45267188549042 1.19264006614685 1.02688264846802 0.992232620716095 0.962483465671539 0.880130290985107 0.676182389259338 0.586790382862091 0.546790242195129 0.525683283805847 3.2994818687439 2.16982841491699 0.870222151279449 0.967418015003204 1.34222805500031 1.55917942523956 2.55698561668396 3.53438138961792 3.40445709228516 1.96125745773315 1.66003680229187 1.39430785179138 1.26337134838104 1.17057907581329 0.950647413730621 0.804574489593506 0.786267995834351 0.806589186191559 1.034827709198 1.07976853847504 1.02694916725159 0.651591002941132 -0.570991218090057 -1.3801121711731 -1.76747405529022 -1.96726393699646 -0.723060071468353 -0.746087670326233 4.77830171585083 11.5865116119385 10.5511503219604 10.460259437561 9.40419101715088 8.29305267333984 6.68920850753784 6.27749919891357 5.79327535629272 6.03503227233887 5.5138373374939 4.87514162063599 4.06398630142212 2.75380182266235 1.77622163295746 1.0252388715744 1.51709485054016 9.53417682647705 9.44262790679932 9.66758346557617 8.75816440582275 8.13052654266357 7.68408966064453 7.37564373016357 6.67527389526367 6.28456401824951 5.91932106018066 5.60077476501465 5.12014627456665 4.80436277389526 4.50222969055176 4.25700902938843 4.05779075622559 3.69417524337769 3.71706557273865 5.45747661590576 4.39061450958252 3.64366626739502 3.22445845603943 2.962970495224 2.70459222793579 2.46229958534241 2.1670138835907 1.68773031234741 1.46559107303619 1.36084365844727 1.17889380455017 0.955423891544342 0.625720679759979 0.451544642448425 1.22355163097382 4.86713123321533 6.38968515396118 6.18410587310791 5.64534854888916 4.41678142547607 3.78181648254395 3.26809024810791 2.8288688659668 2.15451717376709 1.70708048343658 1.30558621883392 0.746186435222626 0.375259965658188 1.18653476238251 1.02118957042694 0.326062887907028 0.16194786131382 -0.0719515010714531 -0.515255093574524 -0.820058405399323 -0.893993079662323 2.86386060714722 3.13796710968018 2.64543843269348 1.31152236461639 0.947656989097595
2.36708855628967 2.10279536247253 1.70871841907501 1.64477372169495 1.64179015159607 1.48088538646698 1.36343991756439 1.27180016040802 1.12364685535431 1.16549050807953 1.25477004051208 1.19338607788086 1.08895432949066 0.954053699970245 1.09866523742676 1.06359875202179 0.945281803607941 0.836329638957977 0.740467607975006 0.660782814025879 0.60163289308548 0.525955200195312 0.444447696208954 0.375364005565643 0.331276327371597 0.217993527650833 0.181376546621323 0.17258220911026 0.165484994649887 0.788304328918457 0.734086692333221 1.22633707523346 2.24802708625793 2.07981705665588 2.20360445976257 1.96520042419434 1.32677674293518 1.06994962692261 1.10637772083282 1.42893671989441 1.71437180042267 1.63280594348907 1.12000942230225 0.884563684463501 0.883469521999359 0.809233009815216 0.69838547706604 0.59915417432785 0.523810088634491 0.708143174648285 1.19504153728485 1.27611005306244 1.56584095954895 1.32423794269562 1.61280989646912 2.90398859977722 1.41240656375885 1.15580034255981 1.01733648777008 1.08168756961823 1.06661176681519 1.01707720756531 0.876235842704773 0.709474086761475 0.744777858257294 0.734266042709351 0.732273876667023 0.693350374698639 0.692426741123199 2.43193006515503 2.94630718231201 2.94157266616821 2.5301821231842 2.25195527076721 2.01862359046936 1.75891840457916 1.38995254039764 0.969321191310883 0.923926055431366 1.20606207847595 1.29266953468323 1.25673091411591 1.21691799163818 1.18139183521271 1.51966500282288 1.45344805717468 1.38452756404877 1.1957631111145 0.155734613537788 -1.09347259998322 -1.55759620666504 -1.86167979240417 -2.00140404701233 -2.14010405540466 4.12338256835938 8.9374303817749 14.8736400604248 11.7822666168213 10.7459287643433 8.69056510925293 6.59753704071045 5.54596710205078 7.37760496139526 6.86933469772339 5.15098285675049 4.57200717926025 3.83453845977783 2.19642782211304 0.848027110099792 -0.24518808722496 2.42785286903381 12.5305318832397 12.2713317871094 10.4655618667603 8.84679222106934 7.94081497192383 7.18563842773438 6.82182931900024 6.30746412277222 6.25387287139893 6.21280813217163 6.07766103744507 5.4783730506897 5.20607423782349 4.91334438323975 4.666090965271 4.41783952713013 3.87885880470276 3.60100317001343 3.57707595825195 3.54259443283081 3.41248488426208 3.13458800315857 2.56327080726624 2.11415410041809 1.85757064819336 1.73220467567444 1.58040916919708 1.50936114788055 1.39358520507812 1.23681402206421 0.941119372844696 0.759765386581421 0.560187757015228 0.463065266609192 2.43393445014954 4.78873348236084 6.97550916671753 6.28140258789062 4.16308832168579 3.37349939346313 2.78878593444824 2.38164687156677 2.04932379722595 1.34456348419189 1.08353757858276 0.633790254592896 0.204381749033928 -0.0250880233943462 1.49271416664124 0.859282672405243 -0.0192600544542074 -0.11823195964098 -0.351444095373154 -0.707301080226898 -0.801755607128143 -0.875113964080811 0.275445759296417 1.89966714382172 1.17191064357758 0.593535840511322
2.24982213973999 1.91737699508667 1.78262627124786 3.44654417037964 1.82482874393463 1.72634780406952 2.10845613479614 1.5965564250946 1.46562731266022 1.37168979644775 1.6267055273056 1.63295567035675 1.51693606376648 1.36376523971558 1.20773196220398 1.06430196762085 0.93913996219635 0.836607217788696 0.73604279756546 0.654756724834442 0.482967764139175 0.391185283660889 0.321981340646744 0.257417947053909 0.210210338234901 0.183537542819977 0.0709055736660957 0.0439037531614304 0.152258217334747 0.224534496665001 0.534096419811249 1.00894689559937 1.1900030374527 1.59537935256958 1.75466871261597 1.66187143325806 1.30968368053436 0.87506502866745 0.791502416133881 1.25723600387573 1.54727530479431 1.78379511833191 1.44752168655396 1.01329743862152 0.934345245361328 0.883752167224884 0.784915804862976 0.736898601055145 0.67253190279007 1.02251553535461 1.16018128395081 1.96658134460449 1.60733640193939 1.48490226268768 1.59551584720612 2.19408130645752 1.39695835113525 1.20752155780792 1.10920023918152 1.05202925205231 1.1811203956604 1.12128138542175 1.02599990367889 0.887491703033447 0.735384047031403 0.717023193836212 0.885081112384796 0.680015802383423 0.658111929893494 2.74419593811035 3.80192637443542 3.86801862716675 2.66758871078491 1.65981841087341 1.68898415565491 1.78169751167297 1.64695954322815 1.53729093074799 1.45659911632538 1.8447026014328 1.74090015888214 1.67515206336975 1.62600207328796 1.58063089847565 1.76292943954468 1.75025880336761 1.66479802131653 1.54978358745575 0.880204141139984 -0.775059461593628 -1.35195422172546 -1.6832674741745 -1.84404540061951 -2.06651449203491 3.68131566047668 2.74118375778198 16.8666667938232 13.150785446167 9.42851638793945 8.25210094451904 6.99139738082886 6.224609375 5.78313636779785 4.96067428588867 3.79571437835693 3.41093373298645 2.82969093322754 1.59399950504303 -0.0971811339259148 -1.25275635719299 3.19485235214233 12.3325424194336 12.1283912658691 10.624095916748 8.7847785949707 7.53169918060303 6.6711802482605 6.37483787536621 5.69800996780396 5.6606297492981 7.28419780731201 7.53072547912598 6.38039636611938 5.40651416778564 4.93989992141724 4.6807713508606 4.43293285369873 4.09296703338623 3.38801980018616 3.13443064689636 2.9895133972168 2.81049513816833 2.56329298019409 2.49255108833313 2.36828851699829 2.07180261611938 1.8684184551239 1.5918915271759 1.52004516124725 1.41613137722015 1.30505466461182 1.03489708900452 0.693231344223022 0.536328792572021 0.389988541603088 0.361647337675095 2.13549375534058 5.38557386398315 5.97705554962158 4.16820573806763 2.7107617855072 2.30704212188721 1.95043230056763 1.67268180847168 1.22985351085663 0.74898773431778 0.52085554599762 0.208066552877426 0.0367951467633247 0.120361417531967 -0.105823412537575 -0.134742319583893 -0.172143697738647 -0.229757994413376 -0.46497318148613 -0.627445220947266 0.0341919213533401 -0.735003173351288 -0.833412051200867 1.217857837677 0.672298789024353
2.52829456329346 2.50180411338806 2.44995427131653 3.15477323532104 2.1672694683075 2.33248376846313 2.35155701637268 2.1729896068573 2.01069307327271 1.8729190826416 1.75222015380859 1.64573848247528 1.52195501327515 1.37637400627136 1.21267950534821 0.970810413360596 0.807861685752869 0.673520147800446 0.576829612255096 0.494395405054092 0.42789950966835 0.250388622283936 0.203790858387947 0.153875529766083 0.108677312731743 0.0829672962427139 0.0379865914583206 -0.0434570051729679 0.0652009546756744 0.32171219587326 0.508564293384552 0.568655908107758 0.682460129261017 0.851204037666321 1.51046049594879 1.72083270549774 1.50910687446594 1.0386745929718 0.764367640018463 0.83241856098175 1.09986686706543 1.36385023593903 1.53336691856384 1.28141212463379 0.98120504617691 1.23934590816498 1.18023109436035 1.1408793926239 1.08328402042389 1.14794087409973 1.14436054229736 2.12560367584229 2.10421347618103 1.86331510543823 1.63790428638458 1.53571283817291 1.34103167057037 1.29483342170715 1.2545393705368 1.47196435928345 1.08399486541748 1.01580202579498 0.918281197547913 0.827375471591949 0.700129210948944 0.76989358663559 1.73940145969391 1.30505526065826 1.0137380361557 1.87226676940918 3.43762874603271 3.07683277130127 2.36590003967285 2.15115714073181 2.56861615180969 2.37466812133789 2.21463394165039 2.0797073841095 1.96158468723297 2.15852618217468 2.15201663970947 2.0379581451416 1.95354580879211 1.8992246389389 1.98590075969696 1.90596175193787 1.82791531085968 1.741947889328 1.5761456489563 0.0116276992484927 -1.10046052932739 -1.48393070697784 -1.63814795017242 -1.68732988834381 -0.361312210559845 -0.842142641544342 9.74252605438232 12.300311088562 10.5996084213257 7.46556091308594 5.47321796417236 5.35416507720947 4.80164527893066 4.08294630050659 3.41679739952087 3.09263968467712 1.31869041919708 0.519695997238159 -0.892568349838257 -1.25710010528564 1.00961601734161 12.1811456680298 11.6013240814209 10.2202711105347 8.29630374908447 6.90151357650757 6.17594575881958 5.96547365188599 5.46223640441895 5.71143960952759 6.64387941360474 7.38672733306885 6.92425203323364 5.64718294143677 5.2699179649353 4.78438568115234 4.32927322387695 3.9854371547699 3.57796716690063 3.30312657356262 3.0943431854248 2.88817930221558 2.51895022392273 2.38078618049622 2.28471374511719 2.10888504981995 1.93306565284729 1.68711817264557 1.37082004547119 1.23104465007782 1.13300895690918 1.00628399848938 0.760266244411469 0.448620110750198 0.321140229701996 0.249174922704697 0.248812481760979 3.12927794456482 4.67357301712036 3.69740200042725 2.0885112285614 1.73906719684601 1.37924158573151 1.14767301082611 1.01506400108337 0.863883852958679 0.790222108364105 0.614634931087494 0.424361169338226 0.269886136054993 0.0445463769137859 -0.000171178297023289 -0.0851465165615082 -0.182592585682869 -0.285894215106964 -0.389843672513962 -0.484535753726959 -0.579267680644989 -0.67537122964859 -0.730104148387909 -0.0747358873486519
3.16543936729431 3.35210418701172 3.33300852775574 3.24078440666199 2.89342069625854 2.58133149147034 2.39410471916199 2.22546076774597 2.05436491966248 1.89691650867462 1.76943922042847 1.53776240348816 1.3626366853714 1.22539091110229 1.07052552700043 0.941905379295349 0.675044476985931 0.542220950126648 0.433905899524689 0.341573387384415 0.273779541254044 0.209957480430603 0.114150635898113 0.0857522338628769 0.0394139923155308 -0.0155287515372038 -0.0625570192933083 -0.139144226908684 0.244792491197586 0.220727264881134 0.381332546472549 0.425616860389709 0.329177409410477 0.366373747587204 1.14075040817261 1.75720632076263 1.86357855796814 1.52358090877533 1.09737479686737 0.84709221124649 1.40355885028839 1.36858677864075 1.29691123962402 1.37085723876953 1.37472558021545 1.31973612308502 1.27871632575989 1.25320279598236 1.21797204017639 1.15352094173431 1.35456728935242 1.96940577030182 2.18985295295715 1.93663167953491 1.61516940593719 1.53628098964691 1.43311059474945 1.27961885929108 1.18760013580322 1.13721084594727 1.01845371723175 0.798384666442871 0.705365538597107 0.627312183380127 0.995322227478027 3.20355367660522 4.5697865486145 4.05411863327026 3.5205991268158 3.25647926330566 3.70533418655396 3.54099273681641 3.18026804924011 2.87502145767212 3.01156187057495 2.98761296272278 2.7819492816925 2.59930968284607 2.44042706489563 2.45464110374451 2.33209776878357 2.22440648078918 2.11852169036865 2.04377102851868 2.18974614143372 2.11092376708984 2.02649974822998 1.93875217437744 1.98339140415192 1.02169013023376 -0.435496270656586 -1.03939390182495 -1.23500955104828 -0.371038019657135 -1.01111817359924 -1.40508496761322 5.66938734054565 7.68494558334351 9.64061450958252 8.07150077819824 6.1323413848877 6.08488893508911 5.2136754989624 3.30924892425537 2.64323854446411 2.71861362457275 2.65930128097534 -0.521356284618378 -0.851790547370911 -1.17427980899811 -1.36001551151276 8.91524600982666 12.7555084228516 10.8857517242432 6.9466552734375 5.57399225234985 5.01064348220825 5.9723801612854 5.61988735198975 6.20542430877686 6.29520273208618 6.4497275352478 7.05032873153687 5.96196222305298 5.29944705963135 4.72039461135864 4.37035322189331 3.88122582435608 3.39430689811707 3.15123200416565 2.94196963310242 2.76098585128784 2.49001455307007 2.14249300956726 1.94688093662262 1.8301899433136 1.71011233329773 1.59277093410492 1.36597466468811 1.05902910232544 0.918337166309357 0.827240705490112 0.682790577411652 0.478500545024872 0.239070653915405 0.14008092880249 0.0887032672762871 0.0828267782926559 1.41775345802307 2.44860625267029 2.7194721698761 2.07130098342896 1.63736832141876 1.29046154022217 1.18546903133392 1.12075841426849 1.00243353843689 0.791333496570587 0.635743319988251 0.478145867586136 0.330513685941696 0.158759400248528 0.0389391928911209 0.00598565302789211 -0.0693464800715446 -0.192505657672882 -0.353361755609512 -0.482448130846024 -0.598979711532593 -0.647748291492462 -0.668242931365967
3.56995320320129 3.36430859565735 3.20770668983459 3.17090344429016 2.80339002609253 2.61354470252991 2.35364508628845 2.09998822212219 1.91612076759338 1.7571793794632 1.61100423336029 1.48126363754272 1.22278726100922 1.07070755958557 0.930252909660339 0.796871840953827 0.662598371505737 0.442763417959213 0.338538289070129 0.236885771155357 0.144205570220947 0.0861402675509453 -0.0164286475628614 -0.0508417598903179 -0.0901721492409706 0.00364590343087912 0.0929790958762169 -0.0451910607516766 -0.121404998004436 0.0100435139611363 0.425356447696686 1.20711541175842 0.904191851615906 0.800838351249695 1.16952109336853 1.70075416564941 1.89345228672028 1.87473332881927 1.6564416885376 1.35812866687775 1.41870450973511 1.36890518665314 1.32504951953888 1.30305850505829 1.52024841308594 1.47427403926849 1.39485645294189 1.39374315738678 1.60636413097382 1.79609882831573 1.81743896007538 1.80819857120514 1.81474816799164 1.75801193714142 1.71924257278442 1.60117852687836 1.5110799074173 1.35800123214722 1.15041410923004 1.15106523036957 0.744942367076874 0.51647937297821 0.355406552553177 0.314780354499817 4.01519346237183 6.30039262771606 7.32447290420532 6.91381359100342 5.65948486328125 4.77501916885376 4.50782346725464 4.47484922409058 4.00861835479736 3.62027907371521 3.43208050727844 3.19217681884766 2.98308849334717 2.79366087913513 2.60905790328979 2.72412133216858 2.59431457519531 2.46739053726196 2.35760498046875 2.25678443908691 2.35811138153076 2.28585886955261 2.20414757728577 2.10896968841553 1.79181516170502 1.36711311340332 0.217944711446762 -0.517349123954773 -0.766831874847412 0.431796371936798 1.22875392436981 -0.603820979595184 -0.911455452442169 3.83485150337219 6.53886747360229 7.41233205795288 7.02963447570801 5.99196577072144 5.86723327636719 3.30553388595581 3.95631623268127 3.54843878746033 1.68417239189148 -0.322656899690628 -0.740874409675598 -1.0698744058609 -1.24770867824554 5.7043662071228 11.6103162765503 9.56386756896973 5.03827428817749 2.11408281326294 3.68814468383789 5.67049646377563 6.3226523399353 5.89342880249023 5.89521312713623 6.01318502426147 6.86409664154053 6.43708896636963 5.16629505157471 4.46938753128052 4.09272909164429 3.72813677787781 3.19926023483276 2.71283006668091 2.52026343345642 2.35622239112854 2.22023224830627 1.97830677032471 1.63898491859436 1.42613780498505 1.34621453285217 1.2672837972641 1.17884612083435 0.972925305366516 0.7126225233078 0.557010769844055 0.4671950340271 0.409200042486191 0.287752240896225 0.0962094366550446 -0.02791378647089 -0.104952268302441 -0.130562290549278 1.39515912532806 2.47829008102417 2.93027114868164 1.7514146566391 1.63415265083313 1.42614960670471 1.27981507778168 1.10673749446869 0.940104246139526 0.719823777675629 0.622667610645294 0.457114279270172 0.347238600254059 0.104731969535351 -0.0920364186167717 -0.135419264435768 -0.196876004338264 -0.302343904972076 -0.398318231105804 -0.498619675636292 -0.540332853794098 -0.585660636425018
3.53857684135437 3.33975219726562 3.06286811828613 2.97126221656799 2.68601036071777 2.48796153068542 2.31329846382141 1.99332880973816 1.78179144859314 1.60461926460266 1.44903361797333 1.326655626297 1.1940530538559 0.951146304607391 0.816107749938965 0.690815985202789 0.562987148761749 0.377948611974716 0.260946452617645 0.140905126929283 0.0383436046540737 -0.0470143854618073 -0.133399799466133 -0.214775636792183 0.305552452802658 1.25409853458405 3.20388102531433 2.32543301582336 1.6505674123764 1.14487814903259 1.45188295841217 2.32329797744751 1.84546327590942 1.55681359767914 1.5253621339798 1.73819959163666 1.96298694610596 2.11591649055481 1.6998747587204 1.44448006153107 1.26152074337006 1.47819590568542 1.43137681484222 1.41644334793091 1.38344252109528 1.3494758605957 1.35931265354156 1.56371128559113 1.8575564622879 2.53518581390381 2.38928270339966 2.14708781242371 1.97614574432373 1.82782638072968 1.69963645935059 1.6188622713089 1.4893217086792 1.37786209583282 1.16245651245117 0.935726344585419 0.57207053899765 0.289210438728333 0.0163462348282337 2.3297221660614 4.89757680892944 8.88456630706787 9.36988830566406 9.36134243011475 7.81488800048828 6.35954809188843 5.34380674362183 4.75520753860474 4.26556015014648 3.86020183563232 3.83481216430664 3.55997562408447 3.31961894035339 3.09923768043518 2.9110996723175 2.97707056999207 2.82743358612061 2.68997049331665 2.56542158126831 2.45048093795776 2.08217263221741 2.01967549324036 1.96432828903198 1.88810610771179 1.6206226348877 1.38787627220154 0.761747300624847 0.267278790473938 -0.104116447269917 -0.305788069963455 -0.334963023662567 0.218155190348625 -0.420769572257996 0.00286867935210466 3.85009598731995 6.55150079727173 7.02637815475464 6.18507766723633 8.04714775085449 5.58585214614868 4.58111095428467 4.40158748626709 1.63949298858643 -0.116715312004089 -0.497701585292816 -0.785606622695923 2.59123134613037 2.33431816101074 5.14172983169556 4.50579166412354 0.89119952917099 1.69772017002106 5.70435237884521 5.93139410018921 5.95905685424805 5.95179986953735 5.64609289169312 5.80028581619263 5.96932649612427 5.79726362228394 4.96898794174194 4.22518491744995 3.59554696083069 3.2959041595459 2.95458436012268 2.4285409450531 1.99935150146484 1.85928165912628 1.73526298999786 1.63776242733002 1.40637683868408 1.10559022426605 0.909181594848633 0.853597581386566 0.812102735042572 0.773903012275696 0.649613320827484 0.426479756832123 0.295331656932831 0.254201948642731 0.207851439714432 0.103399366140366 -0.0687961429357529 -0.16174989938736 -0.218917414546013 -0.234147772192955 1.04391992092133 2.43032097816467 2.71703243255615 1.89719045162201 1.39299201965332 1.1338198184967 0.992184221744537 0.835688591003418 0.674181580543518 0.395029634237289 0.309856921434402 0.225833564996719 0.128572046756744 0.0369844473898411 0.035493541508913 -0.00315357698127627 -0.0541708618402481 -0.172446250915527 -0.348810374736786 -0.442453414201736 -0.488845825195312
3.34271955490112 3.18603491783142 2.93582653999329 2.78067255020142 2.62418293952942 2.36408591270447 2.18101620674133 1.99667716026306 1.65413153171539 1.46954476833344 1.32305681705475 1.18424379825592 1.05367422103882 0.8855260014534 0.761046409606934 0.649458110332489 0.518353939056396 0.37754088640213 0.193498864769936 0.0947466790676117 -0.0315681919455528 -0.226947233080864 -0.357621848583221 -0.546440780162811 4.98059940338135 3.91902947425842 5.95513963699341 4.46938419342041 3.26246619224548 2.3954029083252 2.18318176269531 2.45367789268494 2.03599238395691 1.64670872688293 1.5721834897995 1.93957889080048 1.93710160255432 1.84163916110992 1.70449340343475 1.58177399635315 1.5145183801651 1.25864243507385 1.17951714992523 1.16745269298553 1.16227960586548 1.15392887592316 1.37976384162903 1.75646102428436 2.29153537750244 3.08651041984558 2.73326826095581 2.48887920379639 2.09096074104309 1.83913564682007 1.77898395061493 1.66766357421875 1.51223433017731 1.41272640228271 1.21483385562897 0.829852998256683 0.617253601551056 0.356573134660721 0.0172481294721365 0.293285757303238 4.36122560501099 9.06987476348877 12.7979545593262 9.92728996276855 9.19361400604248 7.0724835395813 5.77769184112549 5.13580417633057 4.64317655563354 4.24645280838013 4.2013897895813 3.89835858345032 3.62019944190979 3.3849184513092 3.18234968185425 2.6412672996521 2.50517010688782 2.38769197463989 2.27903032302856 2.18117260932922 1.86560916900635 1.72735273838043 1.68784391880035 1.6444696187973 1.54128766059875 1.33889210224152 1.10766541957855 0.728142857551575 0.231211170554161 -0.01108667999506 -0.0213500615209341 -0.0691018924117088 0.21128411591053 1.57812583446503 3.42967987060547 4.83513689041138 8.96267700195312 8.04884910583496 6.02745819091797 4.00333309173584 2.86218094825745 2.29160070419312 1.16154527664185 0.171733736991882 0.0146141033619642 -0.188281312584877 0.557298541069031 -0.683480262756348 -0.888946235179901 -0.000464452867163345 -1.02401959896088 -0.584001958370209 4.28010892868042 6.03811073303223 5.991614818573 6.53513240814209 5.87897300720215 5.47617053985596 5.17524576187134 4.85939884185791 4.56436634063721 3.8656690120697 3.08454155921936 2.67485070228577 2.44982433319092 2.10093641281128 1.67079341411591 1.31687486171722 1.22230672836304 1.13436961174011 1.07212352752686 0.917279124259949 0.700996279716492 0.552825808525085 0.527375996112823 0.473780035972595 0.43750324845314 0.355223745107651 0.195029497146606 0.108122363686562 0.0738520249724388 0.0354220047593117 -0.06217897310853 -0.189405530691147 -0.23604628443718 -0.271525591611862 -0.287517696619034 1.04135251045227 2.44075226783752 2.23703360557556 1.11102318763733 0.875769376754761 0.713839530944824 0.58478707075119 0.508875727653503 0.562473297119141 0.562377214431763 0.48280456662178 0.366277396678925 0.27331081032753 0.122669458389282 0.000415698799770325 -0.0517675317823887 -0.0987628921866417 -0.152898982167244 -0.156301841139793 -0.18319046497345
3.06544065475464 2.93607449531555 2.83473205566406 2.505375623703 2.51095509529114 2.26026511192322 2.04914236068726 1.8608318567276 1.64917635917664 1.45680058002472 1.28090298175812 1.11728739738464 0.978693664073944 0.864519774913788 0.681986212730408 0.582251667976379 0.466172605752945 0.342228502035141 0.114284723997116 -0.030864791944623 -0.165434807538986 -0.285436183214188 -0.51400887966156 -0.856791317462921 6.56634473800659 7.47518968582153 6.06584692001343 5.59852457046509 3.80395865440369 2.77114868164062 2.27297687530518 2.10702419281006 2.42504811286926 2.04876732826233 1.84497153759003 2.66640973091125 1.90754735469818 1.72936081886292 1.41015303134918 1.30924880504608 1.25754928588867 1.13863754272461 0.925192832946777 0.896140158176422 1.13766181468964 1.59563779830933 1.60138773918152 1.56443810462952 1.86368358135223 3.341632604599 3.1090521812439 2.65732169151306 2.20624423027039 1.98600947856903 1.86608135700226 1.66554665565491 1.90881729125977 1.76042449474335 1.58507132530212 1.27859473228455 0.748395264148712 0.415579289197922 0.151059225201607 3.20871543884277 4.08206748962402 5.86428642272949 12.9368457794189 12.2311000823975 8.89987754821777 6.85254859924316 6.28206968307495 5.61063146591187 5.083336353302 4.63912153244019 3.74490737915039 3.46965217590332 3.20631885528564 2.99723219871521 2.80602478981018 2.40383529663086 2.17109298706055 2.05722403526306 1.96040892601013 1.88443577289581 1.76044034957886 1.53662109375 1.49609065055847 1.46920263767242 1.39807152748108 1.26232647895813 1.18793404102325 0.815185487270355 0.432364284992218 0.230886474251747 0.18256950378418 0.145230621099472 2.49244284629822 4.17735719680786 4.00172901153564 4.09054851531982 7.5092568397522 6.03103160858154 2.74737143516541 1.97597050666809 1.47411394119263 0.853041648864746 0.827359616756439 0.685806632041931 0.613714039325714 0.367170810699463 -0.137115672230721 -0.477882117033005 -0.602851569652557 -0.717491447925568 -0.784821510314941 -0.842868685722351 0.558623492717743 3.97605633735657 5.64683675765991 5.66311073303223 6.03120756149292 5.37985992431641 4.46045160293579 4.08701467514038 3.78234148025513 3.33292150497437 2.67566466331482 2.05281782150269 1.79031026363373 1.61466026306152 1.40960824489594 1.09107804298401 0.800504922866821 0.747796773910522 0.690386831760406 0.649957001209259 0.575406193733215 0.383887082338333 0.287389397621155 0.262232005596161 0.229710727930069 0.204229146242142 0.12249781191349 -0.00701052974909544 -0.0887091085314751 -0.108029767870903 -0.137842312455177 -0.158143937587738 -0.179615542292595 -0.200528502464294 -0.227615341544151 -0.219152376055717 0.615799784660339 1.41899585723877 1.14453184604645 1.32460069656372 1.27103245258331 0.937157392501831 0.77190238237381 0.63479208946228 0.52582460641861 0.426285743713379 0.357720464468002 0.265835970640182 0.239489033818245 0.0961014553904533 0.0969090908765793 0.067156195640564 0.0472555235028267 0.0972514078021049 0.142849579453468
2.81922078132629 2.64273238182068 2.56835532188416 2.53127551078796 2.45408082008362 2.34988832473755 2.07271671295166 1.86814033985138 1.66746294498444 1.36827921867371 1.17932021617889 1.00528275966644 0.878710806369781 0.807204842567444 0.600355684757233 0.472381323575974 0.377643197774887 0.281564950942993 0.109009213745594 -0.0944629460573196 -0.190964475274086 -0.33185002207756 -0.585238039493561 -1.00155186653137 1.9953430891037 10.8037128448486 6.80622959136963 5.82599210739136 4.65414094924927 3.44663214683533 2.80086994171143 2.42733526229858 1.81688356399536 1.66428959369659 1.53414142131805 2.16360831260681 1.48478972911835 1.13970589637756 1.12780594825745 1.04774594306946 0.996703207492828 0.857509911060333 0.689785182476044 2.24112558364868 1.48788857460022 1.14505350589752 1.21875905990601 1.79596507549286 2.14858508110046 3.20906949043274 3.16703701019287 2.65419673919678 2.41181755065918 2.27124357223511 2.11709833145142 1.98010635375977 2.25345039367676 2.21379971504211 1.97414076328278 1.60261404514313 0.908252537250519 0.154726505279541 0.0342050902545452 7.66597461700439 6.80446529388428 7.36636543273926 8.60209846496582 12.3853454589844 9.52542114257812 7.28350114822388 5.7702054977417 5.00134515762329 4.53483438491821 4.12972068786621 3.54438042640686 3.03446125984192 2.7836582660675 2.58447623252869 2.41932034492493 2.26859974861145 1.92241311073303 1.83033680915833 1.76292145252228 1.68649065494537 1.58241367340088 1.43142521381378 1.38238573074341 1.35501933097839 1.29163932800293 1.24373042583466 1.19208633899689 1.08751904964447 0.795951664447784 0.568961560726166 0.453893840312958 2.49398350715637 3.93959355354309 3.70550966262817 4.81522560119629 3.98131060600281 2.71087861061096 1.2806179523468 0.948103845119476 0.815470457077026 0.796640992164612 0.772974133491516 0.75294816493988 0.63580733537674 0.621142268180847 0.520581305027008 0.0768124312162399 -0.277136504650116 3.26143980026245 0.513964772224426 -0.521401882171631 -0.61915385723114 -0.648620188236237 1.54060125350952 3.67620038986206 4.80899953842163 4.7236008644104 5.03628826141357 4.25223970413208 3.45064783096313 3.00946116447449 2.60523176193237 2.25224685668945 1.82120096683502 1.25528848171234 1.12392199039459 1.01392889022827 0.877924799919128 0.628230512142181 0.441975295543671 0.413197249174118 0.374827146530151 0.329402327537537 0.253989845514297 0.126266747713089 0.0468891113996506 0.0233872514218092 0.00187129585538059 -0.00981832016259432 -0.0415225736796856 -0.108534425497055 -0.12281359732151 -0.139586597681046 -0.160105004906654 -0.181253924965858 -0.20721723139286 -0.226795747876167 -0.248622357845306 -0.256006866693497 0.592238247394562 0.975188553333282 1.42124831676483 1.14257335662842 0.926307082176208 0.679374814033508 0.526026964187622 0.475419342517853 0.470855236053467 0.5274618268013 0.570556402206421 0.32672443985939 0.342313200235367 0.363612234592438 0.350711047649384 0.655646502971649 0.463274598121643 0.393972307443619
2.86590528488159 2.58517217636108 2.47679924964905 2.46858739852905 2.27829599380493 2.25878381729126 2.00645470619202 1.79949915409088 1.59018182754517 1.29682302474976 1.06274735927582 0.878513932228088 0.779858529567719 0.729691624641418 0.612085223197937 0.386384785175323 0.278628319501877 0.155454650521278 0.0313413217663765 -0.132560461759567 -0.245106309652328 -0.367251962423325 -0.561926543712616 -0.976894736289978 -1.09835290908813 10.7880277633667 8.28931522369385 4.0915961265564 3.33146476745605 2.97553634643555 2.08386206626892 1.8602442741394 1.49941408634186 1.29289925098419 1.48363614082336 1.43084561824799 1.13980770111084 0.924638152122498 0.822069883346558 1.1451199054718 0.699199736118317 0.982789933681488 1.66626012325287 1.18785798549652 0.907905697822571 0.899852871894836 1.86220979690552 2.54425692558289 2.51110911369324 2.90984725952148 2.66105461120605 2.99480152130127 3.09618902206421 2.88243961334229 2.68979811668396 2.49848794937134 2.31359004974365 2.19024991989136 1.9700231552124 1.65463352203369 0.85582309961319 0.0313713364303112 -0.205182522535324 10.8719463348389 8.6883373260498 5.74108505249023 8.1370735168457 11.5621652603149 9.77271747589111 6.70686197280884 5.58439970016479 4.63568115234375 4.08507823944092 3.68430256843567 3.33429098129272 2.71107912063599 2.49876403808594 2.32847332954407 2.17139434814453 2.04015254974365 1.78747844696045 1.71107888221741 1.63362777233124 1.56944072246552 1.46178889274597 1.39589786529541 1.34679245948792 1.32769823074341 1.35280764102936 1.31440079212189 1.27855312824249 1.23793387413025 1.15849304199219 1.03286385536194 0.882585167884827 2.02320337295532 2.50035095214844 2.10819673538208 2.50381398200989 1.44388997554779 0.887964844703674 0.867263913154602 0.726547122001648 0.718750596046448 0.704245865345001 0.683688580989838 0.657496988773346 0.62670910358429 0.590547502040863 0.503100693225861 0.344823807477951 0.135876581072807 0.0363876968622208 -0.114491648972034 -0.233694076538086 -0.304410755634308 -0.311276942491531 -0.323505073785782 0.457107543945312 2.35009670257568 3.34730958938599 4.13546371459961 4.03533840179443 3.53413653373718 2.35168886184692 2.02534484863281 1.70685505867004 1.47313702106476 1.11650228500366 0.729197144508362 0.640942335128784 0.557597219944 0.45401930809021 0.260094672441483 0.0873417258262634 0.0766346976161003 0.063608855009079 0.0411091297864914 0.0162056721746922 -0.0581707246601582 -0.0698946788907051 -0.017991928383708 -0.085879884660244 -0.0960047766566277 -0.111547842621803 -0.126555532217026 -0.142912417650223 -0.15953217446804 -0.177429303526878 -0.0747622102499008 -0.0797345787286758 -0.0985500440001488 -0.107867769896984 0.00508166057989001 0.304241091012955 0.689952373504639 0.682754397392273 0.681324183940887 0.597923755645752 0.556436359882355 0.50730299949646 0.648692548274994 0.890103399753571 0.915722012519836 0.467010855674744 0.312067657709122 2.28790950775146 7.98512268066406 7.22969579696655 5.48440933227539 4.37316799163818
2.95608806610107 2.47037196159363 2.26036596298218 2.20366382598877 2.13235902786255 2.09137630462646 2.07287120819092 1.7607079744339 1.50081813335419 1.28474795818329 0.920057535171509 0.758453071117401 0.679428935050964 0.613669812679291 0.546253323554993 0.328372418880463 0.142864286899567 0.0533128827810287 -0.0196886193007231 -0.124817557632923 -0.250604718923569 -0.381425678730011 -0.506697058677673 -0.776739776134491 -1.04962027072906 2.49200654029846 7.19474506378174 4.31925678253174 2.15603470802307 2.00360560417175 1.59805262088776 1.33014690876007 1.17900013923645 1.82973182201385 1.33988666534424 0.922155559062958 0.829570412635803 0.748492836952209 0.491369068622589 0.469278156757355 1.78920090198517 2.46550536155701 4.76622772216797 3.67389726638794 2.95503997802734 2.5661792755127 2.49941325187683 3.33987903594971 3.70074963569641 3.57122588157654 3.39670634269714 3.15374231338501 3.03731369972229 2.99924230575562 2.78784322738647 2.5655312538147 2.33366799354553 2.05021286010742 1.75021159648895 1.37661063671112 0.898958623409271 0.215738505125046 0.050139557570219 6.5951132774353 6.76138877868652 5.85581731796265 8.06785202026367 10.3386716842651 8.85862159729004 6.1386022567749 5.30112457275391 4.21086072921753 3.6711483001709 3.30557036399841 3.008793592453 2.50164389610291 2.31062984466553 2.14967823028564 2.03567457199097 1.85753417015076 1.74644088745117 1.67424881458282 1.5977520942688 1.54647302627563 1.56903183460236 1.5071849822998 1.44721698760986 1.39325964450836 1.42476117610931 1.38348567485809 1.34235978126526 1.30704164505005 1.26729202270508 1.10988748073578 1.05960118770599 1.02041029930115 1.00437033176422 0.977823734283447 0.818948864936829 0.799810171127319 0.776241838932037 0.76798141002655 0.752507209777832 0.749673128128052 0.736857950687408 0.719694495201111 0.693075060844421 0.670111775398254 0.626810967922211 0.530556499958038 0.38895508646965 0.259075671434402 0.191690683364868 0.168498978018761 0.10618419200182 0.0832194611430168 0.0770444422960281 0.0514602847397327 -0.0232457127422094 -0.0662963688373566 1.36266624927521 2.68862748146057 3.2523033618927 3.22142720222473 2.12421917915344 1.36843609809875 1.15198087692261 1.0033084154129 0.825870990753174 0.522511720657349 0.270212739706039 0.23011726140976 0.158819273114204 0.085341714322567 -0.00893884524703026 -0.0436986610293388 -0.0495433136820793 -0.051345020532608 -0.0644235014915466 -0.0730588734149933 -0.0825854018330574 -0.0937456786632538 -0.115018919110298 -0.13256673514843 -0.141954809427261 0.152151316404343 0.483312666416168 0.387993365526199 0.00165447988547385 -0.0234911851584911 -7.86304735811427e-05 0.265933066606522 0.413288831710815 0.410727322101593 0.573998928070068 0.447346061468124 0.595624923706055 0.689644038677216 0.648971021175385 0.843029260635376 0.654756724834442 0.693384051322937 0.649993181228638 0.342251420021057 -0.609074056148529 2.35681986808777 10.5771703720093 15.6734857559204 18.0022430419922 14.1816740036011 11.5522508621216
3.32820820808411 2.57510161399841 2.18180632591248 2.01304459571838 1.97051787376404 1.79169571399689 2.36958432197571 1.62684047222137 1.33992409706116 1.13653123378754 0.891761898994446 0.640651881694794 0.541374623775482 0.489722430706024 0.399079352617264 0.198778495192528 0.109508849680424 0.029524952173233 -0.0384831316769123 -0.123614884912968 -0.240635812282562 -0.380540102720261 -0.489753127098083 -0.674388885498047 -0.860620975494385 -0.906676352024078 2.49951910972595 2.39901924133301 3.12874674797058 2.41761231422424 1.87349057197571 1.38402891159058 1.213822722435 1.16822874546051 0.945568025112152 0.592584908008575 0.55971497297287 0.412347823381424 -0.0496071577072144 -0.81092381477356 3.99451732635498 6.89176654815674 6.448655128479 6.71443796157837 5.17710256576538 4.43828344345093 4.06125736236572 3.80117130279541 3.77101159095764 3.91242074966431 3.60443592071533 3.24284291267395 2.9610013961792 2.69605565071106 2.54622101783752 2.27591824531555 1.92771434783936 1.67334711551666 1.43617272377014 0.853014826774597 0.624281704425812 0.349958777427673 0.095898799598217 2.46845936775208 7.74453163146973 6.80953598022461 7.64606237411499 8.7636890411377 7.39744091033936 5.47139644622803 4.75694704055786 3.79366230964661 3.33558058738708 3.01396012306213 2.74871754646301 2.45234680175781 2.26025152206421 2.11066222190857 1.98206675052643 1.98972952365875 1.88756847381592 1.80216073989868 1.72248959541321 1.64734637737274 1.66878700256348 1.60523295402527 1.54185175895691 1.48037159442902 1.29096853733063 1.2482134103775 1.21454358100891 1.17793762683868 1.14812898635864 0.95819354057312 0.925458967685699 1.00531029701233 0.981118977069855 0.854528546333313 0.853473603725433 0.839523077011108 0.815060496330261 0.819499731063843 0.845592498779297 0.889183461666107 0.893329977989197 0.872143983840942 0.79812753200531 0.763058006763458 0.724114239215851 0.596580982208252 0.453499317169189 0.337861299514771 0.31420761346817 0.356135129928589 0.399427026510239 0.390426278114319 0.370903640985489 0.356153428554535 0.287491887807846 0.206571578979492 0.146926537156105 1.28463888168335 2.00085520744324 1.89162993431091 1.71866345405579 1.04802346229553 0.669943690299988 0.554497063159943 0.396261185407639 0.330861777067184 0.180789515376091 0.0968232601881027 -0.0190411955118179 -0.0297508668154478 -0.0379851721227169 -0.0124309444800019 -0.0624943412840366 -0.0653929635882378 -0.0562263801693916 -0.0828584656119347 0.0444879420101643 0.026842350140214 -0.0206990726292133 -0.0612513311207294 -0.0790203809738159 0.200670748949051 0.771869719028473 1.11643397808075 0.668167948722839 0.410684138536453 0.341713011264801 0.772616863250732 1.24579119682312 1.31659603118896 2.2133526802063 1.74761247634888 1.27666509151459 1.06350302696228 1.1424388885498 0.900015711784363 0.648051202297211 0.425755143165588 0.169901549816132 -0.710505068302155 -1.44284701347351 -1.48772251605988 18.2856845855713 20.8709774017334 22.2080421447754 22.3398513793945 17.8596115112305
3.48956489562988 2.76093053817749 2.06011939048767 1.77752363681793 1.68487751483917 1.87196660041809 2.69906830787659 1.47946155071259 1.16957759857178 0.991461038589478 0.835464358329773 0.584852814674377 0.477264225482941 0.367776066064835 0.245366975665092 0.158456966280937 0.077277198433876 0.00496330764144659 -0.0251161325722933 -0.1001261100173 -0.196453452110291 -0.333589315414429 -0.453918397426605 -0.62486207485199 -0.695348262786865 -0.745564758777618 -0.700086891651154 1.47214186191559 4.14850902557373 3.0629255771637 1.58940052986145 1.24421536922455 1.0332692861557 0.83490264415741 0.670463263988495 0.655833423137665 0.37745127081871 0.0130829969421029 -0.700487852096558 -1.14090311527252 -0.670584678649902 10.2599115371704 8.27143001556396 6.69916725158691 6.64438152313232 5.55039072036743 4.86169385910034 4.24767684936523 3.64570784568787 3.35507082939148 3.15699553489685 3.64662623405457 2.93518710136414 2.52566242218018 1.92959761619568 1.50869512557983 1.31930065155029 1.22364139556885 1.04884850978851 0.587218523025513 0.220921993255615 0.176840469241142 -0.0104796588420868 2.17583036422729 6.87709045410156 7.0930700302124 7.98590755462646 7.62361860275269 5.9365668296814 4.99419116973877 4.32921171188354 3.5526921749115 3.21235203742981 2.93298959732056 2.85970091819763 2.63840842247009 2.45044374465942 2.2799665927887 2.13141989707947 2.11736679077148 2.01392221450806 1.92157876491547 1.8364542722702 1.75422990322113 1.51302564144135 1.44783127307892 1.39789569377899 1.3415834903717 1.10700738430023 1.07397472858429 1.1153302192688 1.08691895008087 1.06637442111969 1.04892694950104 1.02792274951935 1.17266488075256 1.14523816108704 1.05908858776093 1.0096173286438 1.01252949237823 0.986478805541992 0.962766885757446 1.02384567260742 1.17806458473206 1.20613217353821 1.17945194244385 1.02324068546295 0.887921810150146 0.814774036407471 0.682651042938232 0.533861458301544 0.517387747764587 0.501974880695343 0.504228889942169 0.593187391757965 0.622552692890167 0.607820749282837 0.571823120117188 0.528304874897003 0.44978803396225 0.37005689740181 0.299843072891235 0.306454002857208 0.906017363071442 0.580245733261108 1.51970207691193 0.891110718250275 0.238619551062584 0.369263589382172 0.218440130352974 0.13720577955246 0.0201107114553452 -0.0267869308590889 -0.0417172648012638 -0.0503572858870029 0.107840433716774 0.120987623929977 0.153019592165947 0.226433619856834 0.077674113214016 0.0707555785775185 0.0618640147149563 0.0106445821002126 -0.0518664307892323 -0.0957568436861038 0.0885297283530235 0.785297453403473 1.62730705738068 1.29658854007721 0.955954432487488 0.786401152610779 0.238597959280014 1.27414548397064 2.26086163520813 2.25724840164185 1.95257544517517 1.78482222557068 1.74748730659485 1.60742592811584 1.16800904273987 0.627683520317078 -0.0852591469883919 -0.812568426132202 -1.42218410968781 -1.82358169555664 -2.00326466560364 3.68626737594604 27.9783458709717 26.6976051330566 26.2696094512939 22.682107925415
3.48050260543823 2.88739776611328 2.14005446434021 1.72750771045685 1.5560519695282 1.70286560058594 3.60469102859497 1.24417316913605 1.05207598209381 0.915280938148499 0.779384970664978 0.544108808040619 0.396160811185837 0.332249671220779 0.256357491016388 0.178567826747894 0.0893905684351921 0.0320017896592617 0.0052272267639637 0.0110450470820069 -0.0689093023538589 -0.187336713075638 -0.331312447786331 -0.498941570520401 -0.534019827842712 -0.472207605838776 -0.0258590951561928 0.510857284069061 3.28145527839661 2.52846431732178 1.32568073272705 0.924385905265808 0.587394893169403 0.368451029062271 0.240100964903831 0.398808300495148 0.277487933635712 -0.233290985226631 -0.71830153465271 -1.10362374782562 -1.24734055995941 0.667142748832703 10.3147144317627 8.62227058410645 6.02607154846191 5.7552227973938 4.82194089889526 3.60013389587402 2.46958994865417 3.09589505195618 3.34819459915161 3.48369860649109 2.94171023368835 2.2489161491394 1.37633419036865 0.798909425735474 0.701079308986664 0.612689673900604 0.471980512142181 0.331880837678909 0.235031023621559 0.164435639977455 0.0709632039070129 2.82120871543884 5.67408132553101 7.91344499588013 9.09453010559082 7.59964227676392 5.6688060760498 4.74890232086182 4.28094339370728 3.81281447410583 3.44863414764404 3.14708137512207 3.03876280784607 2.81274604797363 2.61932182312012 2.4501690864563 2.28568553924561 1.93563413619995 1.83654093742371 1.74704718589783 1.66822743415833 1.59479510784149 1.30186665058136 1.24354469776154 1.22471213340759 1.19956004619598 1.17290997505188 1.14456188678741 1.30581295490265 1.27122962474823 1.2454799413681 1.21584975719452 1.19265913963318 1.15271639823914 1.17511403560638 1.15071284770966 1.3285768032074 1.36204826831818 1.32802021503448 1.29883193969727 1.28876280784607 1.61511075496674 1.58181869983673 1.53005301952362 1.36099553108215 1.09150767326355 0.89605724811554 0.776730597019196 0.704576134681702 0.687218129634857 0.670589625835419 0.771910667419434 0.815372049808502 0.798526465892792 0.77181601524353 0.730740129947662 0.67810183763504 0.584594964981079 0.517799496650696 0.425004035234451 0.207993179559708 0.0177016928792 0.00754117220640182 -0.0120449485257268 1.19205117225647 0.58765572309494 0.242675766348839 0.179516971111298 0.042755912989378 0.212264731526375 0.20132677257061 0.142125725746155 0.0927143841981888 0.15461653470993 0.184140622615814 0.246170416474342 0.326037019491196 0.347315579652786 0.0583428107202053 -0.0127380508929491 -0.0747759342193604 -0.13306613266468 -0.200046241283417 -0.189604580402374 0.333639591932297 1.56412291526794 1.9173229932785 1.52377951145172 1.2175053358078 1.18045771121979 1.27147722244263 1.49217188358307 1.22466540336609 1.32845723628998 1.31572675704956 1.15055119991302 0.643371284008026 2.00997734069824 2.78111982345581 2.57412767410278 0.557373702526093 -0.851881682872772 -1.15955591201782 -1.46352112293243 -1.26665830612183 16.9836654663086 37.9121055603027 27.2698192596436 24.6838874816895
3.37124133110046 2.82160925865173 2.29906702041626 1.78380596637726 1.54726850986481 2.33715462684631 1.33359098434448 0.933729350566864 0.769734859466553 0.723544716835022 0.705394446849823 0.591400265693665 0.47349339723587 0.411204546689987 0.415928512811661 0.324869811534882 0.219059064984322 0.145693019032478 0.0817149877548218 0.166431739926338 0.217039555311203 0.114065147936344 -0.0243272259831429 -0.17655985057354 -0.338268727064133 0.107028938829899 -0.16503056883812 -0.24835766851902 0.821314990520477 1.07835948467255 1.1256343126297 1.21428048610687 0.896177530288696 0.489847362041473 0.198085993528366 0.175239995121956 0.15982311964035 -0.102905660867691 -0.540695071220398 -0.888966262340546 -1.12279784679413 -1.27665615081787 2.22088408470154 8.08949089050293 7.10557317733765 4.22228813171387 3.76777601242065 2.50891613960266 1.41743624210358 3.06458044052124 3.93057942390442 2.79671621322632 2.43754267692566 1.3466215133667 0.662029564380646 0.565499663352966 0.382964193820953 0.372567623853683 0.454890340566635 1.06723022460938 0.78747421503067 0.0613218657672405 0.17270764708519 3.6470320224762 5.92196083068848 8.05350971221924 9.12695980072021 7.11268901824951 5.76491832733154 4.9237847328186 4.55117177963257 4.07348251342773 3.6770350933075 3.3514199256897 2.75924491882324 2.55803894996643 2.38536620140076 2.22354364395142 2.08842134475708 1.66366624832153 1.57499825954437 1.49484503269196 1.42887616157532 1.36636996269226 1.30169725418091 1.26648366451263 1.43674159049988 1.40025889873505 1.37078702449799 1.34414064884186 1.29494571685791 1.31255638599396 1.28454065322876 1.27275705337524 1.46610879898071 1.49864387512207 1.46275985240936 1.4399893283844 1.81499087810516 1.77154040336609 1.73503971099854 1.69760048389435 1.65964567661285 1.6787177324295 1.69590389728546 1.66071939468384 1.40812337398529 1.22545766830444 1.00990962982178 0.918958783149719 0.896563529968262 0.877061545848846 0.96967476606369 1.04363286495209 1.02313876152039 0.961801528930664 0.890698790550232 0.828613638877869 0.789040327072144 0.692594587802887 0.582229316234589 0.444921344518661 0.228578448295593 0.091062530875206 0.0750900432467461 0.0262936931103468 0.288896650075912 0.933262825012207 0.316570192575455 0.286166787147522 0.245042487978935 0.524947881698608 0.32076296210289 0.233734995126724 0.156411394476891 0.142131835222244 0.0879314765334129 0.064971536397934 0.144371420145035 0.144483745098114 0.0327267311513424 -0.100178241729736 -0.166881322860718 -0.228548586368561 -0.288383960723877 -0.274262815713882 -0.290255486965179 0.567036092281342 1.67445731163025 2.609943151474 2.63203573226929 3.42724609375 2.29129695892334 2.16615462303162 3.9390344619751 7.13450002670288 5.8522367477417 1.35258519649506 1.24406313896179 0.619209289550781 1.88404548168182 4.19410276412964 1.24418067932129 0.0900883078575134 -0.395052969455719 -0.890530347824097 -0.316412836313248 14.7736806869507 34.0919494628906 27.94118309021 21.8919277191162
2.96149253845215 2.7879114151001 2.48423433303833 1.95537984371185 1.62167227268219 1.40544307231903 1.02430987358093 0.933626770973206 0.83806848526001 0.759727895259857 0.818397402763367 0.710534870624542 0.658460855484009 0.552422046661377 0.612006187438965 0.669896721839905 0.564545750617981 0.458494931459427 0.38356277346611 0.304474532604218 0.329395473003387 0.243061169981956 0.13515767455101 0.00694763381034136 -0.113402791321278 -0.196776732802391 -0.0866642817854881 -0.0945179983973503 -0.104417614638805 -0.110202297568321 0.866493701934814 1.75313103199005 1.1943519115448 0.874443531036377 0.548600852489471 0.347220927476883 0.205741479992867 0.0198518875986338 -0.399307876825333 -0.691175758838654 -0.972885549068451 -1.15594589710236 -0.276593178510666 2.69634222984314 6.00787544250488 4.37742137908936 1.9730761051178 0.998035132884979 0.35266849398613 0.66131055355072 1.77420270442963 3.56157040596008 1.78323841094971 0.87910783290863 0.438245445489883 0.225180432200432 0.130951523780823 0.109360717236996 1.77459847927094 1.51011264324188 1.20078647136688 0.00755751691758633 -0.0480748079717159 6.14781045913696 8.02045440673828 8.590012550354 8.10434627532959 7.25063943862915 6.14716958999634 5.27041578292847 4.2634744644165 3.70208477973938 3.34250211715698 3.04618310928345 2.44684839248657 2.19886040687561 2.04152131080627 1.89798891544342 1.77806949615479 1.57258415222168 1.49501657485962 1.65818738937378 1.61140120029449 1.5633133649826 1.52203238010406 1.52682423591614 1.46664750576019 1.4418683052063 1.46080088615417 1.70138263702393 1.74687552452087 1.69162356853485 1.64343047142029 1.59954559803009 2.007976770401 1.95582044124603 1.91020882129669 1.8657009601593 1.88021266460419 1.89765298366547 1.85429441928864 1.81597244739532 1.77737045288086 1.73811185359955 1.62345242500305 1.59230756759644 1.40600216388702 1.25649976730347 1.1756579875946 1.14908695220947 1.12173867225647 1.09745562076569 1.23465692996979 1.29440367221832 1.26692175865173 1.14197289943695 1.02787721157074 0.934714794158936 0.885473787784576 0.825215697288513 0.705770909786224 0.521883904933929 0.579045534133911 0.537877976894379 0.466626524925232 0.383380889892578 0.438373506069183 0.49092310667038 0.363345056772232 1.38564348220825 0.364097326993942 0.32320237159729 0.253343135118484 0.162005811929703 0.0911878868937492 0.0789008066058159 0.0154963554814458 -0.0394417531788349 -0.071726880967617 -0.112042009830475 -0.0915638580918312 -0.160569921135902 -0.218035712838173 -0.264202088117599 -0.154614001512527 -0.198853328824043 -0.22778894007206 -0.1744195073843 -0.0744556859135628 3.23784255981445 3.21209287643433 2.29822158813477 2.22605538368225 4.7106556892395 6.70559692382812 6.83615350723267 4.55955743789673 3.25715136528015 1.65731108188629 2.13048005104065 2.66557192802429 2.79178595542908 2.45295357704163 1.51525390148163 -0.00893219374120235 0.743285179138184 2.81285071372986 17.2071304321289 27.0120506286621 23.270751953125 17.4608211517334
3.76135468482971 2.67078065872192 2.18809700012207 1.87381851673126 1.44136440753937 1.3109587430954 1.1761280298233 1.1247136592865 1.00431287288666 0.907950580120087 1.00966691970825 1.13623857498169 1.02668118476868 0.912023842334747 0.807254433631897 0.807017147541046 0.691130816936493 0.591164112091064 0.504509091377258 0.418643534183502 0.300328850746155 0.359522819519043 0.283855855464935 0.184619188308716 0.0640331134200096 0.0115297390148044 -0.180928722023964 -0.197074294090271 -0.220350697636604 -0.249728456139565 0.143133148550987 1.82013833522797 1.32514142990112 0.611974477767944 0.400709718465805 0.260666906833649 0.16873636841774 0.0605737380683422 -0.26520511507988 -0.541615426540375 -0.807175815105438 -0.994612693786621 -1.04446613788605 0.992340922355652 1.13706350326538 1.25733160972595 1.02900767326355 0.606151342391968 0.377276450395584 0.163383528590202 0.281825006008148 3.73351120948792 2.14373993873596 0.859962582588196 0.406119793653488 0.0731992051005363 -0.073545053601265 0.451698362827301 3.17430257797241 1.91525685787201 0.835982143878937 -0.0068556135520339 -0.255098342895508 7.27872753143311 10.936315536499 9.92213344573975 7.86806297302246 6.61150074005127 5.57480335235596 4.81428861618042 3.85140705108643 3.1786105632782 2.87816262245178 2.61798524856567 2.26314449310303 2.08053803443909 1.9808634519577 1.89433801174164 1.82027614116669 1.76507639884949 1.77338039875031 1.7851288318634 1.71335399150848 1.7306694984436 2.0021059513092 2.05588722229004 1.9901214838028 1.91318035125732 1.84879493713379 2.32744431495667 2.26630425453186 2.20010876655579 2.13979363441467 2.07595467567444 2.08022022247314 2.10544586181641 2.05326342582703 2.00217390060425 1.9533771276474 1.81946527957916 1.77622759342194 1.73820376396179 1.70106518268585 1.66683948040009 1.47013008594513 1.40172100067139 1.3615882396698 1.383540391922 1.45061135292053 1.41925513744354 1.38712120056152 1.35505735874176 1.4105224609375 1.50256776809692 1.46836495399475 1.38930869102478 1.25558817386627 1.12790548801422 1.02462029457092 0.930409014225006 0.810632705688477 0.781266748905182 0.885103642940521 0.817797005176544 0.696565926074982 0.553447008132935 0.476969033479691 0.404859036207199 0.38965255022049 0.319532841444016 0.236270323395729 0.211455211043358 0.143489018082619 0.0753041282296181 0.170281335711479 0.113238848745823 0.00990528054535389 -0.0595313683152199 -0.115213751792908 0.0527291670441628 0.019330121576786 -0.0655313953757286 -0.0811983868479729 -0.0322516411542892 0.0601523220539093 0.0975356698036194 -0.0227086190134287 -0.102515697479248 -0.0620367527008057 -0.204521656036377 -0.438121885061264 -0.449461311101913 2.44311380386353 5.24734687805176 4.84251642227173 2.76674818992615 1.63275849819183 1.3945072889328 1.62686240673065 1.28292763233185 2.99998545646667 3.59432864189148 3.18858051300049 0.866743147373199 0.387855380773544 3.40643072128296 8.28297519683838 21.0525054931641 21.2103137969971 17.3665428161621 13.489275932312
2.14113521575928 2.28187918663025 2.04202818870544 1.83565652370453 1.56453323364258 1.54007279872894 1.67584407329559 1.5645387172699 1.46214556694031 1.35732901096344 1.23565912246704 1.28051781654358 1.16956830024719 1.06490349769592 0.959419786930084 0.824387073516846 0.843975901603699 0.731610417366028 0.63222074508667 0.541633784770966 0.451987385749817 0.167895317077637 0.113704420626163 0.0493335276842117 -0.031070539727807 -0.0937706157565117 -0.128381758928299 -0.157965913414955 -0.175271466374397 -0.270113289356232 -0.303227484226227 0.790639817714691 1.05397057533264 0.688675284385681 0.246693089604378 0.118639647960663 0.0396521762013435 -0.0334684439003468 -0.163986265659332 -0.477409720420837 -0.700979173183441 -0.930272042751312 -1.06930613517761 1.05681097507477 0.826416075229645 0.237272590398788 -0.300566554069519 1.31231427192688 0.723538100719452 0.2792809009552 0.178202658891678 1.30324852466583 1.5005909204483 0.514982938766479 0.258900582790375 0.031601183116436 -0.073543094098568 1.25901103019714 1.45113217830658 0.970033228397369 0.492958068847656 0.251569747924805 0.0663817450404167 6.72226572036743 10.884539604187 9.40741157531738 6.94513988494873 6.01887702941895 4.9286150932312 4.14081716537476 3.5766384601593 2.99023365974426 2.71511960029602 2.52787017822266 2.36294770240784 2.30733942985535 2.3202486038208 2.17314648628235 2.04550313949585 2.02005434036255 2.35395932197571 2.42246150970459 2.32400250434875 2.22935056686401 2.75373482704163 2.66646432876587 2.5750298500061 2.48996877670288 2.40889096260071 2.41118550300598 2.44790434837341 2.37607979774475 2.30806493759155 2.24097323417664 2.17620897293091 2.02140879631042 1.96867799758911 1.91785836219788 1.87013864517212 1.64489781856537 1.56050789356232 1.52618634700775 1.49602723121643 1.53178429603577 1.61157095432281 1.56961131095886 1.53029477596283 1.58303320407867 1.68647587299347 1.63219618797302 1.57494401931763 1.5682989358902 2.00148630142212 2.21855473518372 1.69313848018646 1.60661602020264 1.561518907547 1.43447208404541 1.30981600284576 1.18373513221741 1.05081903934479 0.958643734455109 0.901257932186127 0.815696597099304 0.663769125938416 0.504391014575958 0.437280088663101 0.31352174282074 0.23281592130661 0.185258314013481 0.0849955901503563 0.119717657566071 0.0627389699220657 0.0335345342755318 0.364425599575043 0.424757272005081 0.354326337575912 0.164890289306641 0.174837529659271 0.304270207881927 0.291650593280792 0.288539528846741 0.21487532556057 0.2325559258461 0.445194095373154 0.486729621887207 0.257032036781311 0.0522905103862286 0.0270208921283484 -0.275928169488907 -0.504462718963623 -0.488723158836365 4.90126514434814 2.24776387214661 3.08418226242065 2.07550287246704 0.125040471553802 -0.167742729187012 0.773267090320587 0.147958070039749 2.23171019554138 3.53056502342224 4.09129571914673 2.85903692245483 2.47289967536926 8.32558917999268 16.613920211792 16.0707588195801 12.5087385177612 11.2745323181152 13.0362958908081
2.32196092605591 2.73062014579773 2.67720603942871 2.42310333251953 2.07810735702515 1.85051441192627 1.89854907989502 1.76544606685638 1.63669562339783 1.50174558162689 1.39260184764862 1.27131903171539 1.36865055561066 1.24159669876099 1.11788904666901 1.00317943096161 0.62531054019928 0.51096123456955 0.41617813706398 0.340690523386002 0.253747135400772 0.167020007967949 0.116261601448059 0.0682925954461098 0.0144441304728389 -0.108814410865307 -0.16213122010231 -0.224904224276543 -0.251546412706375 -0.265732079744339 -0.28713721036911 -0.334596395492554 0.676307559013367 0.533620417118073 0.20819690823555 -0.0748316943645477 -0.12269489467144 -0.190389260649681 -0.287494301795959 -0.428667992353439 -0.61948549747467 -0.804081320762634 -0.980652511119843 -0.717200696468353 -0.794607400894165 -0.902480185031891 0.0160509441047907 0.879413425922394 0.863932967185974 0.330488711595535 0.147596225142479 0.24174627661705 1.03380084037781 0.466539412736893 0.178524032235146 0.0413580164313316 0.077426977455616 0.372417658567429 0.327982872724533 0.615451514720917 0.929370641708374 0.945779800415039 1.28655529022217 4.00146389007568 9.62476062774658 8.28478717803955 6.01249837875366 5.2821102142334 4.52505159378052 3.89397001266479 3.53877305984497 3.2572078704834 3.02600574493408 2.86312913894653 2.70418238639832 3.05863523483276 3.13442134857178 2.96405744552612 2.80092263221741 2.67565870285034 3.25108361244202 3.1435272693634 3.01186966896057 2.89610052108765 2.85596752166748 2.89077091217041 2.79007172584534 2.69742298126221 2.60930418968201 2.52615213394165 2.33624219894409 2.27872538566589 2.2124457359314 2.14816451072693 2.08857107162476 1.84186398983002 1.73541676998138 1.69203627109528 1.77613770961761 1.86258101463318 1.80371630191803 1.75173878669739 1.70145869255066 1.7546843290329 1.87311482429504 1.82459676265717 1.777339220047 1.75872993469238 1.84570264816284 1.6898649930954 1.63575148582458 6.61298704147339 3.36650466918945 3.39826822280884 2.59561610221863 2.09770512580872 1.76608490943909 1.72785604000092 1.58789372444153 1.33803474903107 1.09852182865143 1.0456827878952 0.981597125530243 0.85132884979248 0.64683723449707 0.467236965894699 0.49215966463089 0.351839572191238 0.218570753931999 0.097979724407196 0.298837155103683 0.266196221113205 0.211038872599602 0.315787613391876 0.492899596691132 0.546143591403961 0.56314343214035 0.488493800163269 0.507505238056183 0.723941624164581 0.890203177928925 0.804961025714874 0.661966800689697 0.72704666852951 1.18473815917969 1.13587176799774 0.901625752449036 0.702643692493439 0.732452571392059 0.834874987602234 0.387983530759811 0.145598337054253 0.658729076385498 0.265482544898987 1.1203590631485 2.18150234222412 1.28351485729218 -0.014856468886137 0.108238086104393 0.36442694067955 1.19890570640564 3.48177051544189 5.03069067001343 5.06727027893066 5.64657974243164 13.5002927780151 12.3325300216675 6.54414224624634 6.21296119689941 16.5317993164062 16.7242412567139
2.87798309326172 3.04466557502747 3.08683013916016 2.64223790168762 2.29599976539612 2.13360691070557 1.93503701686859 1.98302793502808 1.84525895118713 1.70063841342926 1.58459222316742 1.4631974697113 1.06593680381775 0.975468933582306 0.857704102993011 0.746520400047302 0.608645677566528 0.496148496866226 0.405702620744705 0.328547477722168 0.179796069860458 0.0929547920823097 0.00628505134955049 -0.0365251936018467 -0.0750978589057922 -0.109626486897469 -0.146636635065079 -0.223641976714134 -0.260598123073578 -0.276043713092804 -0.2872054874897 -0.324573814868927 -0.39617645740509 0.0667445808649063 0.060249075293541 -0.0983682870864868 -0.279188603162766 -0.356686800718307 -0.431762427091599 -0.480693817138672 -0.579928636550903 -0.708591938018799 -0.86752849817276 -1.03258538246155 -1.09584105014801 -0.946400582790375 -0.337298154830933 0.588768899440765 0.463623136281967 0.193426549434662 0.143408462405205 0.340918183326721 0.984858512878418 0.846638977527618 0.564691185951233 0.349741786718369 0.233005329966545 0.933025360107422 1.51539123058319 1.43844366073608 1.41049528121948 1.47290122509003 2.04275441169739 3.92723488807678 7.23637056350708 6.81747579574585 5.74149990081787 4.89891815185547 4.15360260009766 3.86194157600403 4.00806093215942 4.05197477340698 3.86671161651611 3.68104267120361 3.70559859275818 4.1733775138855 4.05220365524292 3.83938193321228 3.6430823802948 3.46557545661926 3.36882305145264 3.41142201423645 3.275395154953 3.14010000228882 3.00999402999878 2.76692676544189 2.67184090614319 2.5849437713623 2.50158286094666 2.41569924354553 2.13725423812866 2.02378582954407 1.9465274810791 2.11897850036621 2.2222740650177 2.14177656173706 2.0702588558197 2.00105857849121 2.03755879402161 2.16806387901306 2.10034084320068 2.03831601142883 1.97836196422577 1.95120322704315 2.04967784881592 2.05374979972839 2.00229549407959 1.95095276832581 1.94863069057465 1.78290796279907 1.75867700576782 9.66106033325195 5.29755115509033 2.89620971679688 2.31549406051636 1.9378547668457 1.91357278823853 1.87202072143555 1.73715555667877 1.47727477550507 1.1839359998703 1.29255127906799 1.19926834106445 0.951869904994965 0.674173891544342 0.840588510036469 0.789543688297272 0.625292122364044 0.453931987285614 0.449247807264328 0.603240013122559 0.705927848815918 0.638489007949829 0.70100212097168 1.00608992576599 1.24878811836243 1.21291279792786 1.10510492324829 1.26589632034302 1.87951934337616 1.92426872253418 1.76134097576141 1.58159303665161 1.82329308986664 2.2114622592926 2.33314061164856 2.03479695320129 1.71652698516846 1.30858862400055 1.06263327598572 0.79751992225647 0.403350740671158 0.242858543992043 0.335367798805237 0.645204365253448 0.670318186283112 0.559175312519073 0.395102083683014 0.326882034540176 0.420956164598465 3.00648236274719 7.24533700942993 6.69829559326172 6.85699415206909 11.7535285949707 13.7673511505127 10.3398742675781 7.40627193450928 5.37890625 19.9550457000732 16.6098194122314
3.36394619941711 3.30430936813354 3.40313410758972 2.95772790908813 2.66516137123108 2.38675546646118 2.15405201911926 1.5951931476593 1.46059238910675 1.33885061740875 1.23231542110443 1.13097596168518 0.991336345672607 0.922461211681366 0.828198492527008 0.650139033794403 0.543039977550507 0.391371756792068 0.287042200565338 0.219850465655327 0.145494669675827 0.0701023414731026 -0.0301233511418104 -0.0852754488587379 -0.115168265998363 -0.144333392381668 -0.180866971611977 -0.22992417216301 -0.328843653202057 -0.349713951349258 -0.356864869594574 -0.361046314239502 -0.450007259845734 -0.354004204273224 -0.141739800572395 -0.196667701005936 -0.446386516094208 -0.427343338727951 -0.502914428710938 -0.554947137832642 -0.59976053237915 -0.678081214427948 -0.814082622528076 -0.978996276855469 -1.02641725540161 -1.03210985660553 -0.593959271907806 0.149867668747902 -0.0800497680902481 -0.492232382297516 0.283040732145309 1.59183037281036 2.46539330482483 3.78984022140503 2.77844595909119 2.16869974136353 1.70703232288361 1.58630442619324 2.30202913284302 2.11584305763245 2.03005123138428 2.88741993904114 3.58043026924133 4.3973503112793 6.48014116287231 6.73820304870605 5.88494157791138 5.65038824081421 4.98389101028442 4.28483819961548 4.90916109085083 4.68798494338989 4.49555492401123 4.32272672653198 4.17795562744141 4.15296411514282 4.13522100448608 4.10576581954956 3.95247912406921 3.75767731666565 3.5898916721344 3.27106094360352 3.13789916038513 3.00804233551025 2.89564728736877 2.68861246109009 2.54312801361084 2.43207383155823 2.31451034545898 2.48043704032898 2.61182689666748 2.50325202941895 2.40303730964661 2.420001745224 2.58595371246338 2.49386262893677 2.4084780216217 2.32954359054565 2.2657732963562 2.37489891052246 2.38043355941772 2.31447982788086 2.24382472038269 2.179856300354 2.19030237197876 2.24010443687439 2.25328969955444 2.2138032913208 2.0456211566925 1.81832432746887 2.69696927070618 8.29645824432373 4.48299694061279 3.15942001342773 2.54681730270386 2.13238978385925 1.98193907737732 1.94109511375427 1.83706915378571 1.67402970790863 1.82717144489288 1.9365257024765 1.75339829921722 1.37429594993591 1.18147754669189 1.35239636898041 1.32446396350861 1.11051118373871 0.944974780082703 0.95555967092514 1.25457942485809 1.47284138202667 1.43643283843994 1.33295714855194 1.59880983829498 2.35483574867249 2.44098019599915 2.28106951713562 2.65101075172424 3.31030964851379 3.61831307411194 3.38583421707153 3.13299250602722 2.81305313110352 2.53294920921326 2.54266715049744 2.25977468490601 1.81834304332733 1.55217146873474 1.27972936630249 1.26081681251526 0.945420563220978 0.691110074520111 0.644717991352081 0.756092727184296 0.72736006975174 0.642112255096436 0.548276305198669 0.526609003543854 0.546308815479279 2.5799298286438 10.0904750823975 9.36059284210205 12.3094911575317 14.6350412368774 12.1939496994019 8.25398445129395 7.10462045669556 5.47362089157104 11.0550622940063 11.8161020278931
3.90138030052185 3.86389803886414 2.8636634349823 2.52983140945435 2.14153790473938 1.91803085803986 1.73983860015869 1.46606957912445 1.35314500331879 1.24916064739227 1.13749122619629 1.01215660572052 0.932209551334381 0.786539375782013 0.719755709171295 0.611224293708801 0.498546719551086 0.356724679470062 0.227142214775085 0.163195326924324 0.0872290208935738 0.020852155983448 -0.0476874485611916 -0.174059957265854 -0.213196337223053 -0.243507698178291 -0.268487989902496 -0.291029065847397 -0.390656352043152 -0.409150660037994 -0.417235434055328 -0.418688088655472 -0.48681166768074 -0.296181678771973 -0.449963599443436 -0.498167783021927 -0.525748193264008 -0.549844980239868 -0.55060088634491 -0.592525243759155 -0.599076986312866 -0.687663197517395 -0.794843554496765 -0.922853171825409 -0.981675624847412 -1.00496447086334 -0.954498946666718 -0.226747438311577 -0.503998577594757 -1.15087914466858 -1.24842536449432 6.02543878555298 4.65717363357544 5.5740065574646 4.22002363204956 3.40042638778687 2.61273503303528 2.07600879669189 1.44781875610352 1.54948210716248 3.48493933677673 5.71168661117554 6.67228698730469 6.56119298934937 6.68292093276978 6.97206163406372 7.30125379562378 7.12932634353638 6.13582420349121 5.15232086181641 4.48528146743774 4.58301258087158 4.37095928192139 4.20791006088257 4.12085151672363 4.20313024520874 4.1178035736084 5.78164005279541 5.17311477661133 4.00014209747314 3.7591016292572 3.55686354637146 3.30610227584839 3.08337378501892 3.19249200820923 3.34358787536621 3.16587042808533 3.01059579849243 2.85875844955444 2.84381246566772 3.04407119750977 2.9223108291626 2.80036950111389 2.69054508209229 2.82005381584167 2.83405160903931 2.75866794586182 2.6609947681427 2.5679988861084 2.53898644447327 2.59794592857361 2.608158826828 2.56445074081421 2.48694968223572 2.41519355773926 2.34992098808289 2.38346910476685 2.37507271766663 2.10910129547119 1.93456208705902 6.55648946762085 6.12215852737427 4.9122486114502 3.79713726043701 3.07971000671387 2.6036810874939 2.73813581466675 2.90849828720093 2.59607124328613 2.34808373451233 2.79649949073792 2.88459730148315 2.56107902526855 2.10198616981506 1.8823424577713 2.20479297637939 2.44453406333923 2.27341532707214 1.99821269512177 2.28359270095825 3.20890831947327 3.27764463424683 3.02703547477722 2.86716508865356 3.25764155387878 4.06289339065552 4.46557140350342 4.22901010513306 3.98549032211304 3.83159446716309 4.04167079925537 3.96590542793274 3.63397312164307 3.26254034042358 2.93580341339111 3.08937835693359 2.7493896484375 2.21613001823425 1.65548813343048 1.41174185276031 1.32320964336395 1.07604515552521 0.917184174060822 0.920264542102814 0.942193329334259 0.945831954479218 0.845831692218781 0.799954235553741 0.780558228492737 0.901401340961456 4.07130336761475 8.58690071105957 11.7966003417969 14.4737901687622 11.9404163360596 7.35281562805176 5.62997579574585 4.94040250778198 4.39032697677612 4.50148153305054 3.56826519966125
3.41186809539795 3.2996232509613 2.81933784484863 2.43064546585083 2.09675240516663 1.8544704914093 1.63566470146179 1.45426249504089 1.25305557250977 1.13908100128174 1.02751970291138 0.936340153217316 0.847993016242981 0.755540013313293 0.617676675319672 0.549805045127869 0.425309747457504 0.310295075178146 0.109851852059364 0.0463157035410404 -0.0153502281755209 -0.0748234316706657 -0.119528345763683 -0.254667967557907 -0.287153601646423 -0.31321457028389 -0.331454902887344 -0.353182673454285 -0.432431250810623 -0.486334770917892 -0.49739083647728 -0.505752921104431 -0.540132582187653 -0.586136281490326 -0.566673278808594 -0.53788024187088 -0.5057652592659 -0.51300036907196 -0.436294764280319 -0.506878852844238 -0.532917261123657 -0.659331500530243 -0.75538045167923 -0.907002985477448 -0.967369616031647 -0.991636216640472 -0.825685381889343 -0.714197218418121 -0.642645597457886 -1.18149209022522 -1.43124377727509 4.17737102508545 7.83873176574707 5.34822845458984 5.15220069885254 4.07478713989258 2.50800704956055 1.13342702388763 0.320414274930954 0.143083676695824 7.30317544937134 10.1689033508301 10.4724283218384 9.95096874237061 9.33747386932373 8.50426292419434 7.51655244827271 7.06039905548096 5.90810632705688 4.95582866668701 4.39988327026367 3.8532657623291 3.79321217536926 4.04806137084961 4.22835874557495 4.48601531982422 5.97360992431641 8.63864707946777 6.05505657196045 4.67622804641724 4.67510032653809 4.36083555221558 4.07594108581543 3.81797981262207 3.66378593444824 3.90641283988953 3.69905996322632 3.50576901435852 3.33732557296753 3.19252109527588 3.31968379020691 3.33782935142517 3.25512790679932 3.11325621604919 3.00961685180664 3.08235788345337 3.10916614532471 3.05619120597839 2.94505548477173 2.84219479560852 2.74407005310059 2.75595879554749 2.77798056602478 2.69669437408447 2.61620259284973 2.53269672393799 2.45705437660217 2.33045125007629 2.06790494918823 1.94243490695953 6.20620727539062 6.04027891159058 6.9589056968689 5.5656852722168 4.51965808868408 3.84854817390442 4.1613302230835 4.39449548721313 3.95719718933105 3.54348969459534 4.111403465271 4.62315607070923 4.50223159790039 3.88222408294678 4.23642683029175 5.38368606567383 5.36444234848022 4.70530796051025 4.17341375350952 4.38092947006226 5.41736173629761 5.93190050125122 5.54933214187622 5.19948101043701 4.923668384552 4.69465494155884 4.98934125900269 4.99611377716064 4.71485900878906 4.41116380691528 4.7555251121521 4.69774055480957 4.32534503936768 3.90671229362488 3.50845861434937 3.28091788291931 2.85224032402039 2.17797565460205 1.57445669174194 1.32943964004517 1.28481113910675 1.20753014087677 1.18930053710938 1.14648997783661 1.14286267757416 1.14143812656403 1.10765993595123 1.18407690525055 4.32269334793091 3.26504802703857 3.88995218276978 5.67582607269287 9.17173767089844 8.90762042999268 6.81005477905273 4.02711486816406 3.29620385169983 4.69697666168213 3.46819472312927 2.0466456413269 3.1950159072876
3.51762628555298 3.31734347343445 2.81784963607788 2.45667958259583 2.11228275299072 1.81817197799683 1.57188248634338 1.37847399711609 1.230841755867 1.01205694675446 0.922287404537201 0.824360966682434 0.725470125675201 0.669169425964355 0.443956196308136 0.369078427553177 0.329540938138962 0.283854365348816 0.081623837351799 0.0376681499183178 -0.0459571778774261 -0.177097052335739 -0.236205235123634 -0.343161463737488 -0.407580316066742 -0.422799974679947 -0.4396733045578 -0.467086851596832 -0.51278680562973 -0.566469252109528 -0.617731392383575 -0.627365291118622 -0.637670040130615 -0.601193487644196 -0.543698489665985 -0.585708677768707 -0.402059316635132 -0.576945245265961 -0.470220297574997 -0.412563145160675 -0.511799514293671 -0.64939671754837 -0.764683187007904 -0.895720303058624 -0.972087979316711 -0.994743704795837 -1.00858426094055 -0.818574905395508 -0.856995582580566 -1.25684380531311 -1.40767502784729 -1.02301263809204 3.04501986503601 6.23554277420044 4.99844026565552 3.22079157829285 1.69959199428558 -0.341444194316864 -1.61292254924774 2.44977903366089 7.88566207885742 12.459020614624 11.1984024047852 9.97061252593994 9.32703304290771 8.75874805450439 7.47706079483032 5.44901275634766 4.2576789855957 3.65329194068909 3.44592666625977 4.33953952789307 4.23906946182251 4.54278230667114 4.55855321884155 5.26236057281494 9.68758296966553 9.27783298492432 6.29755306243896 5.20612049102783 5.4914870262146 5.19720220565796 4.82373237609863 4.49812078475952 4.21124601364136 4.2809624671936 4.28935670852661 4.16097688674927 3.94410586357117 3.7460150718689 3.56286287307739 3.62972688674927 3.65735268592834 3.60541749000549 3.45558261871338 3.31952500343323 3.29198551177979 3.313143491745 3.19378972053528 3.07591390609741 2.97032070159912 2.88542056083679 2.88155555725098 2.76314115524292 2.57107877731323 2.38327884674072 2.29411697387695 2.17364025115967 1.93341624736786 1.84783458709717 6.36248540878296 7.34752988815308 8.50349235534668 7.86169528961182 6.7536506652832 8.5837230682373 7.92736339569092 7.1227707862854 7.08258724212646 6.49226093292236 7.40042638778687 9.46207046508789 9.69961643218994 8.33645153045654 7.3322434425354 8.49384498596191 9.0383129119873 8.14427185058594 7.39796781539917 6.76842546463013 6.26139450073242 6.61434364318848 6.62617015838623 6.14916706085205 5.79325246810913 5.47508525848389 5.82612705230713 5.89431715011597 5.58155012130737 5.2349271774292 5.01772832870483 4.87428951263428 4.51907873153687 4.10303401947021 3.66242289543152 3.34963130950928 2.90616512298584 2.0066294670105 1.57032930850983 1.31826257705688 1.17667627334595 1.79070210456848 3.7873055934906 2.96533107757568 4.89085054397583 5.2723445892334 4.46275997161865 3.71963739395142 4.14773464202881 3.1953399181366 3.026850938797 2.89056658744812 3.92715334892273 3.0948326587677 2.34002089500427 3.95891308784485 7.79018211364746 6.57950592041016 4.86686849594116 1.67029094696045 1.46834969520569
3.64332127571106 3.42824268341064 2.89981293678284 2.57495307922363 1.94514107704163 1.78587985038757 1.51367032527924 1.29916477203369 1.12039816379547 0.809048473834991 0.72884601354599 0.631186842918396 0.54308146238327 0.474596470594406 0.27129790186882 0.203381881117821 0.132809430360794 0.0759667977690697 -0.067293219268322 -0.20108138024807 -0.25545859336853 -0.316961765289307 -0.361424565315247 -0.429536730051041 -0.507559299468994 -0.569386005401611 -0.582711458206177 -0.602169990539551 -0.619862139225006 -0.648720860481262 -0.701085388660431 -0.746339380741119 -0.73178893327713 -0.594243705272675 -0.454756438732147 -0.460337251424789 -0.479641109704971 -0.488880485296249 -0.513190388679504 -0.376892000436783 -0.458402127027512 -0.641116619110107 -0.850194573402405 -0.973092794418335 -1.0062962770462 -1.09095811843872 -1.09686267375946 -1.04267382621765 -1.18294596672058 -1.3257645368576 -1.50036180019379 2.72833132743835 2.51824569702148 2.05083060264587 2.98467183113098 2.01657390594482 0.607814848423004 -1.25881206989288 -1.65416765213013 -0.805226266384125 11.6924734115601 10.1060590744019 10.0798559188843 9.50891208648682 8.03189563751221 7.51299905776978 5.838303565979 3.03392624855042 1.94798815250397 2.78471374511719 4.65443468093872 6.45849466323853 5.35289192199707 5.23600387573242 5.25528860092163 6.50885677337646 9.94893264770508 9.73913478851318 7.71134233474731 6.27945184707642 6.0182466506958 6.03394508361816 5.87639856338501 5.44616413116455 5.08084058761597 4.75772047042847 4.68580913543701 4.6933536529541 4.60957050323486 4.35948705673218 4.13928127288818 3.94471669197083 3.86355710029602 3.89749646186829 3.74117136001587 3.59563899040222 3.4626202583313 3.43489122390747 3.31364631652832 3.18881440162659 3.07590746879578 3.01367425918579 2.96895432472229 2.63528680801392 2.29420042037964 2.07862591743469 1.98586308956146 1.83474850654602 1.99227046966553 1.55299735069275 6.67238283157349 8.18166065216064 9.56324005126953 10.5746402740479 11.4102916717529 14.853214263916 22.6600513458252 24.1129055023193 21.1552486419678 16.4140911102295 13.1496515274048 14.0574531555176 15.0846033096313 13.2658081054688 11.5790176391602 10.1530618667603 10.0221557617188 9.87367153167725 8.9732027053833 8.17285823822021 7.5165581703186 7.72869396209717 7.70646476745605 7.12848567962646 6.65329360961914 6.3336615562439 6.11239004135132 6.11538219451904 5.82336282730103 5.46561813354492 5.08785104751587 4.99975347518921 4.65992403030396 4.22452783584595 3.76270318031311 3.26102876663208 2.61252927780151 1.9718371629715 1.4590128660202 1.16796863079071 1.12900590896606 5.74791479110718 5.69591236114502 6.36680316925049 9.22599506378174 8.94390869140625 6.09985446929932 5.43373203277588 4.57333278656006 3.83151698112488 3.3957998752594 3.07620906829834 2.52927827835083 2.2604022026062 1.60515654087067 1.39782321453094 12.3270406723022 8.20478534698486 1.58584249019623 1.45069682598114 5.12743377685547
3.50017881393433 3.32376575469971 2.85779571533203 2.52993535995483 1.88194191455841 1.60281527042389 1.33367955684662 1.11339831352234 0.920980513095856 0.622054517269135 0.512114346027374 0.43444636464119 0.360208332538605 0.280782550573349 0.147721141576767 0.000439923402154818 -0.059490293264389 -0.111440151929855 -0.204671487212181 -0.311587393283844 -0.424261152744293 -0.464801847934723 -0.505734622478485 -0.541637182235718 -0.588874459266663 -0.658083617687225 -0.720011234283447 -0.735052049160004 -0.742476522922516 -0.699088931083679 -0.715894639492035 -0.684654295444489 -0.679389178752899 -0.536212980747223 -0.390269786119461 -0.323298364877701 -0.369263589382172 -0.339535921812057 -0.463857650756836 -0.388909131288528 -0.377371490001678 -0.664384961128235 -0.89729630947113 -1.0010085105896 -1.0828332901001 -1.15767872333527 -1.18426930904388 -1.22396469116211 -1.29388356208801 -0.561330258846283 -1.37074506282806 -0.261512458324432 2.24791789054871 1.70588874816895 1.73452258110046 1.03333556652069 -0.138823121786118 -0.770660638809204 -1.3525857925415 -1.22054076194763 8.72999382019043 7.87225818634033 9.36879825592041 8.33777236938477 7.24723625183105 6.41168594360352 3.83877396583557 1.04416978359222 -0.00208641868084669 5.85921716690063 5.50330209732056 7.89368009567261 7.47362089157104 6.46844530105591 6.29846286773682 9.76310539245605 11.922082901001 11.1552352905273 8.87349033355713 8.00392436981201 7.3300666809082 6.5851263999939 6.61038684844971 6.50835275650024 6.0407772064209 5.6328330039978 5.27695274353027 4.97145938873291 4.98713493347168 4.71915340423584 4.48794937133789 4.27224826812744 4.08570098876953 4.02758693695068 3.86520743370056 3.71816301345825 3.58093404769897 3.58964371681213 3.51156067848206 3.38823890686035 3.27372670173645 3.13526725769043 2.73564028739929 2.25735521316528 1.87020063400269 1.61064004898071 2.21699690818787 3.98202633857727 2.29895901679993 0.833073258399963 0.81207263469696 4.47081232070923 5.17455911636353 1.74283480644226 1.68566608428955 12.0173711776733 25.4122047424316 31.8198471069336 30.1287708282471 24.8560123443604 20.7729778289795 17.5253028869629 16.5554237365723 16.3422698974609 14.237340927124 12.4809894561768 11.6673574447632 11.5613403320312 10.5302228927612 9.64370536804199 8.87147617340088 8.19630336761475 8.04743766784668 7.35583448410034 6.84805822372437 6.5136022567749 6.20484209060669 6.25076961517334 5.90212869644165 5.56140899658203 5.19239616394043 4.80392217636108 4.43432903289795 3.99762511253357 3.58254051208496 2.97646188735962 2.33073210716248 1.70142018795013 1.2474457025528 1.01988840103149 4.05406904220581 7.11191558837891 9.74703788757324 10.6660995483398 9.95871353149414 7.71499061584473 6.88073682785034 5.99819755554199 4.55166006088257 3.54847860336304 2.98142170906067 2.53476309776306 2.34977602958679 2.20869016647339 1.96632742881775 1.81959652900696 1.81749713420868 1.6895147562027 1.64841628074646 1.60200619697571 8.75889873504639
3.40147423744202 3.04528212547302 2.65211892127991 2.32064175605774 1.83101868629456 1.39517378807068 1.13882184028625 0.928415477275848 0.733110547065735 0.488126158714294 0.264722377061844 0.204428985714912 0.130671679973602 0.0717219486832619 -0.00914289150387049 -0.133473321795464 -0.26839542388916 -0.312946379184723 -0.353036344051361 -0.418709546327591 -0.51307874917984 -0.608615398406982 -0.647595286369324 -0.672621548175812 -0.70209014415741 -0.736233830451965 -0.814646422863007 -0.831867456436157 -0.840187191963196 -0.718710720539093 -0.745851874351501 -0.73219496011734 -0.682801365852356 -0.605439364910126 -0.512637495994568 -0.410230576992035 -0.403470456600189 -0.381012916564941 -0.347609311342239 -0.354382485151291 -0.306844770908356 -0.613309144973755 -0.762976109981537 -0.842930436134338 -0.968599081039429 -1.25634908676147 -1.40323328971863 -1.47324502468109 1.78225457668304 0.000983547186478972 0.033314224332571 0.371630728244781 1.77473497390747 1.47729516029358 0.722787976264954 0.516640186309814 0.0881291478872299 -0.182487055659294 -0.297809302806854 -0.4107326567173 1.83576357364655 4.58356761932373 7.64170122146606 7.26530599594116 6.49802350997925 4.8221173286438 1.63711655139923 -0.596894562244415 -0.780091285705566 3.72953939437866 6.03028869628906 7.11740159988403 8.69817638397217 9.42906761169434 9.30002403259277 10.7131690979004 13.0844469070435 12.6657676696777 10.1449031829834 9.65902042388916 8.89185047149658 7.99246168136597 7.22218751907349 7.05524635314941 6.54880857467651 6.10855865478516 5.72372388839722 5.36174058914185 5.16763830184937 4.89859294891357 4.65259695053101 4.43342256546021 4.23564910888672 4.21624279022217 4.12714719772339 3.95974850654602 3.80858325958252 3.66014099121094 3.56297636032104 3.44660878181458 3.30998873710632 2.96488499641418 2.37056994438171 1.46489107608795 1.07006502151489 0.934069633483887 5.84369802474976 5.69811964035034 2.04089426994324 0.112113311886787 -0.0772853568196297 -0.231546655297279 -0.75866436958313 -1.19534242153168 -1.40555691719055 15.6339731216431 34.7055244445801 30.8934345245361 33.041877746582 28.8225517272949 25.024133682251 21.5799903869629 18.8914527893066 18.7271881103516 16.4418411254883 14.4584245681763 12.8354892730713 12.1175117492676 11.134220123291 10.1377267837524 9.27975940704346 8.54778575897217 8.28171348571777 7.70825004577637 7.21610689163208 6.79836463928223 6.3894362449646 6.03109502792358 5.68599510192871 5.29372406005859 4.92599391937256 4.53709697723389 4.03125619888306 3.64217042922974 3.16274809837341 2.51023244857788 1.93804895877838 1.52732336521149 1.21329689025879 1.17295789718628 3.4844491481781 8.54036331176758 13.8892478942871 12.7492580413818 9.36956882476807 7.32736492156982 6.31570243835449 5.36095905303955 4.05418395996094 3.43601584434509 2.89415431022644 2.57719588279724 2.37317204475403 2.27710390090942 2.16924262046814 2.08639311790466 1.90628957748413 1.6221216917038 1.56217193603516 8.14656448364258 7.40444660186768
3.21595692634583 2.92353487014771 2.51416110992432 2.08963322639465 1.704305768013 1.31316077709198 0.90189665555954 0.694325089454651 0.49534147977829 0.301996499300003 0.126249134540558 -0.0672117173671722 -0.114185951650143 -0.157092690467834 -0.206959575414658 -0.276321113109589 -0.386163085699081 -0.499764859676361 -0.522905230522156 -0.566793024539948 -0.592899143695831 -0.702717423439026 -0.737681806087494 -0.768209099769592 -0.798790752887726 -0.837460219860077 -0.883889675140381 -0.973788738250732 -0.978306531906128 -0.874408960342407 -0.820941686630249 -0.839733123779297 -0.761115372180939 -0.680421471595764 -0.527915358543396 -0.551464736461639 -0.517086505889893 -0.521561443805695 -0.420321077108383 -0.328032702207565 -0.250330299139023 -0.343635261058807 -0.578881561756134 -0.678157985210419 -0.776841223239899 -1.24041044712067 -1.46650457382202 -1.59803986549377 -1.60590696334839 3.38881635665894 0.801825523376465 1.38509571552277 1.2336083650589 1.14919924736023 1.01808547973633 0.797953367233276 0.285587787628174 -0.0591963157057762 -0.143943473696709 -0.21152076125145 0.0177721511572599 1.65824830532074 3.3957314491272 7.55792474746704 5.83434295654297 2.14224076271057 -0.239030867815018 -0.874101459980011 -0.955591380596161 -0.127232551574707 2.03159379959106 5.98390626907349 6.57174682617188 9.46821784973145 11.9422760009766 13.4256391525269 14.0279312133789 14.4791078567505 12.1525211334229 10.4714059829712 9.7207727432251 8.72847366333008 7.91233348846436 7.32078504562378 6.93397378921509 6.43604135513306 6.00635480880737 5.60766839981079 5.41869211196899 5.30258846282959 5.03607511520386 4.77442216873169 4.54704523086548 4.35242652893066 4.20703935623169 4.0354700088501 3.88068866729736 3.7331428527832 3.36479878425598 3.20505475997925 2.86315107345581 2.35618805885315 1.6227046251297 0.565521895885468 0.243436828255653 1.08193731307983 6.26310682296753 5.16120767593384 1.11718440055847 -0.671506762504578 -1.13421738147736 -1.44967937469482 -1.67802929878235 -1.56032001972198 -0.816661655902863 0.0372452326118946 27.7346324920654 38.5297737121582 35.2306098937988 34.600715637207 30.9947090148926 25.7871761322021 21.958854675293 19.3649559020996 17.8283729553223 16.1092071533203 14.0316762924194 12.5011520385742 11.7795038223267 11.1150989532471 10.0502004623413 9.20162487030029 8.46797370910645 7.70864009857178 7.0667610168457 6.66800022125244 6.24207496643066 5.75750398635864 5.29804134368896 4.85370922088623 4.47553777694702 4.11660480499268 3.61746311187744 3.09464550018311 2.65026187896729 2.22244668006897 1.98788893222809 1.6998485326767 1.69006204605103 3.71962308883667 4.50829648971558 8.53290843963623 13.7900810241699 11.4446105957031 7.37866640090942 6.35660552978516 5.23656988143921 4.62885236740112 4.052330493927 3.45681667327881 2.76352047920227 2.3928484916687 2.31537079811096 2.23987150192261 3.5574471950531 4.37454891204834 2.32163500785828 1.96854484081268 1.93115258216858 3.38258171081543 3.55709338188171
3.13200092315674 2.9913055896759 2.54905271530151 1.96397137641907 1.5435379743576 1.2094259262085 0.78545731306076 0.462668836116791 0.259504765272141 0.0743419677019119 -0.0491297245025635 -0.188647881150246 -0.33988144993782 -0.368994474411011 -0.402700573205948 -0.448857367038727 -0.503900408744812 -0.61603832244873 -0.640213072299957 -0.671189665794373 -0.705648362636566 -0.752512693405151 -0.797863841056824 -0.864219069480896 -0.918884873390198 -0.958825051784515 -0.992647469043732 -1.03463923931122 -0.991985857486725 -0.934344112873077 -0.896361231803894 -0.94848757982254 -0.779557526111603 -0.641881108283997 -0.476211428642273 -0.407124817371368 -0.454346090555191 -0.454207867383957 -0.429504454135895 -0.261933028697968 -0.123182967305183 -0.188998803496361 -0.408521682024002 -0.510927200317383 -0.687019348144531 -1.1261043548584 -1.4082612991333 -1.65827095508575 -1.64637005329132 2.39396691322327 2.16142559051514 1.56779265403748 0.774216294288635 0.124389410018921 0.0894729495048523 0.0781826972961426 1.25759100914001 1.14742767810822 0.439612179994583 0.178599014878273 -0.0945415943861008 1.46090662479401 4.74747943878174 4.16036510467529 2.38931584358215 0.384575664997101 -0.582711458206177 -0.872750401496887 -0.961861610412598 -0.990352928638458 -0.375545740127563 1.3957052230835 6.57779026031494 11.6218233108521 11.3538303375244 16.3895301818848 15.4577007293701 15.0255279541016 13.2123413085938 11.3031787872314 10.2937145233154 9.39872741699219 8.44668102264404 7.66910600662231 7.51388883590698 7.1422438621521 6.63099431991577 6.17297601699829 5.75747966766357 5.40763568878174 5.12673473358154 4.86637878417969 4.63239479064941 4.43363761901855 3.99625754356384 3.7382504940033 3.5967755317688 3.39309287071228 3.10096287727356 2.92122578620911 2.34071063995361 1.76179933547974 0.849661409854889 -0.402590245008469 -0.399172484874725 6.06796455383301 6.00479507446289 6.84336757659912 0.923421442508698 -1.55824661254883 -2.00690269470215 -2.36434292793274 -2.49689030647278 -2.65414071083069 -2.46174120903015 -0.87285852432251 15.4604740142822 23.4127998352051 38.6364517211914 36.1679573059082 34.9418792724609 32.1153297424316 26.4432907104492 21.7852993011475 18.2213306427002 17.4831371307373 15.2342939376831 13.3996782302856 11.9607038497925 10.6239528656006 9.80696964263916 9.02255916595459 8.29809379577637 7.55415296554565 6.91432666778564 6.38259172439575 5.90695285797119 5.40436267852783 4.94515419006348 4.63468790054321 4.25783348083496 3.76984286308289 3.03631401062012 2.69265747070312 2.43067240715027 2.1478259563446 2.12738370895386 2.09209585189819 2.84306645393372 8.20285797119141 8.33024311065674 8.17886161804199 10.1755399703979 8.28475379943848 6.78923034667969 6.01492023468018 5.20954179763794 4.68749284744263 4.2004451751709 3.61393141746521 2.89769077301025 2.46682095527649 2.38574552536011 2.32022166252136 2.83121109008789 6.59954786300659 4.92437171936035 2.96999931335449 2.48171234130859 2.32082533836365 2.20603919029236
3.15722250938416 2.96364259719849 2.61333060264587 1.88482284545898 1.37421178817749 1.03637194633484 0.650897324085236 0.272734671831131 0.0730462223291397 -0.1013358309865 -0.239586994051933 -0.348859041929245 -0.478082031011581 -0.494732916355133 -0.511310577392578 -0.560700416564941 -0.591814041137695 -0.630166888237 -0.66362464427948 -0.69341367483139 -0.726455092430115 -0.762286841869354 -0.802208244800568 -0.845925450325012 -0.904901444911957 -0.967302203178406 -1.00493931770325 -1.04829561710358 -1.07806372642517 -1.09053778648376 -1.13433289527893 -1.11573433876038 -0.863486766815186 -0.743882358074188 -0.569390177726746 -0.309540241956711 -0.251259028911591 -0.31494414806366 -0.272581070661545 -0.135356083512306 0.0753932669758797 0.0356469117105007 -0.181659564375877 -0.358283668756485 -0.525356352329254 -0.759181022644043 -1.06554162502289 -1.45218563079834 -1.49396574497223 0.389000624418259 0.96909773349762 1.16459178924561 0.690526008605957 -0.155342265963554 -0.308574646711349 0.411306917667389 3.29829740524292 2.09896802902222 0.360672324895859 0.0375036038458347 -0.170393243432045 0.739477157592773 5.59114980697632 3.36028337478638 0.783456325531006 -0.294964790344238 -0.66280734539032 -0.90398246049881 -0.993920564651489 -1.00811612606049 -0.312335073947906 0.753094911575317 6.36224269866943 12.0434789657593 13.4013681411743 18.3819389343262 17.7545642852783 18.2025775909424 15.6578969955444 12.8025007247925 11.1263236999512 10.6137971878052 9.54077434539795 8.63270568847656 7.8833589553833 7.10685062408447 6.63014698028564 6.20453786849976 5.80835390090942 5.23058891296387 4.69818449020386 4.46923494338989 4.26988363265991 4.0190954208374 3.6232373714447 3.4820876121521 3.34925556182861 3.18039393424988 2.66010093688965 2.42034864425659 1.63833963871002 1.09467852115631 -0.00799457263201475 -0.590173363685608 -0.707780778408051 9.29425811767578 7.48582553863525 6.0514554977417 -0.0728622823953629 -1.89675903320312 -2.31566643714905 -2.78422546386719 -3.02893447875977 -3.20274424552917 -3.40009355545044 0.606942474842072 9.52904891967773 10.9060106277466 20.9203243255615 42.6505241394043 39.1685180664062 34.7102928161621 29.5854778289795 23.9038314819336 19.3248710632324 16.3048610687256 15.2415151596069 13.1273174285889 11.4572696685791 10.2247381210327 9.01779460906982 8.33193397521973 7.73080778121948 7.11735486984253 6.68785047531128 6.19508266448975 5.66631412506104 5.24629735946655 4.95543718338013 4.7263240814209 4.16357374191284 3.39850735664368 2.62707448005676 2.49740266799927 2.34033536911011 2.13821935653687 2.55193829536438 4.19415140151978 5.68012762069702 10.1951780319214 10.0675010681152 8.71195030212402 7.93232250213623 7.44940662384033 6.69823789596558 6.05174016952515 5.44110107421875 4.8803277015686 4.48271322250366 3.96644806861877 3.39054298400879 2.83389282226562 2.66228747367859 5.40378475189209 4.58742237091064 3.47505831718445 5.71621417999268 4.93612766265869 2.70758724212646 2.5660195350647 2.40832757949829
