NCOLS 166
NROWS 32
XLLCORNER 353728
YLLCORNER 6699872
CELLSIZE 16 
NODATA_value -3.4e+38 
0.998264729976654 0.999244689941406 0.999456822872162 0.999471008777618 0.999470353126526 0.999505758285522 0.999524414539337 0.999435484409332 0.998362004756927 0.997692406177521 0.99828839302063 0.998701512813568 0.998827934265137 0.998959243297577 0.99884706735611 0.999103546142578 0.998961389064789 0.999097108840942 0.999280452728271 0.999348223209381 0.999135732650757 0.998949885368347 0.999045252799988 0.999295353889465 0.99927031993866 0.999198496341705 0.999159693717957 0.999049067497253 0.999132394790649 0.999289155006409 0.999417841434479 0.999450623989105 0.999269723892212 0.999225437641144 0.999338150024414 0.999497771263123 0.999525368213654 0.999683678150177 0.999772012233734 0.999725222587585 0.999759793281555 0.999688267707825 0.999617099761963 0.999500632286072 0.999138057231903 0.998947441577911 0.99895453453064 0.999057352542877 0.998957335948944 0.998940467834473 0.99864798784256 0.998536646366119 0.998754858970642 0.998916625976562 0.998956859111786 0.998902678489685 0.998800218105316 0.998670220375061 0.998594462871552 0.998585760593414 0.998541295528412 0.998534679412842 0.998549342155457 0.998740553855896 0.999074101448059 0.999076008796692 0.998429536819458 0.998031675815582 0.998719692230225 0.998776078224182 0.998682498931885 0.998541474342346 0.998233616352081 0.997560441493988 0.994986534118652 0.992926180362701 0.995070040225983 0.996270477771759 0.99641627073288 0.996989607810974 0.998235881328583 0.998283565044403 0.997294068336487 0.99563068151474 0.994528293609619 0.994225263595581 0.994533836841583 0.995832085609436 0.996712803840637 0.996756970882416 0.996660828590393 0.995758235454559 0.995054364204407 0.993398904800415 0.991405308246613 0.989157915115356 0.984996974468231 0.979674637317657 0.96958863735199 0.958096325397491 0.930515110492706 0.900174856185913 0.941300988197327 0.98390394449234 0.997876286506653 0.999352931976318 0.995822489261627 0.989772498607635 0.986111342906952 0.989245235919952 0.991840064525604 0.993110358715057 0.992071628570557 0.98997950553894 0.988229513168335 0.988977491855621 0.990727543830872 0.992509245872498 0.992471396923065 0.989561080932617 0.986648678779602 0.990509748458862 0.995796501636505 0.992405951023102 0.990123391151428 0.98963874578476 0.989997506141663 0.992055654525757 0.992365837097168 0.992294251918793 0.992309153079987 0.991850316524506 0.990975975990295 0.989690482616425 0.988443434238434 0.98760461807251 0.986826121807098 0.986107409000397 0.986067712306976 0.98725152015686 0.989145636558533 0.989075541496277 0.989101588726044 0.990476191043854 0.990941107273102 0.990727663040161 0.990393817424774 0.99023300409317 0.991393148899078 0.992198646068573 0.991194248199463 0.99016660451889 0.988253653049469 0.985066890716553 0.982414245605469 0.984687864780426 0.990528166294098 0.994460940361023 0.993951797485352 0.99275004863739 0.992073118686676 0.99255895614624 0.993296086788177 0.993900835514069 0.99408745765686 0.99433034658432
0.998692691326141 0.999165534973145 0.99937516450882 0.999395072460175 0.999454736709595 0.999390065670013 0.99924635887146 0.999224126338959 0.998789191246033 0.998172998428345 0.998219192028046 0.998651742935181 0.99889999628067 0.999029278755188 0.998997092247009 0.998833239078522 0.998387575149536 0.998518168926239 0.99878054857254 0.999251008033752 0.99909895658493 0.999135673046112 0.999286532402039 0.999333083629608 0.999308824539185 0.999161303043365 0.998933076858521 0.999100804328918 0.999156832695007 0.99919205904007 0.999351561069489 0.999458789825439 0.999423444271088 0.999317049980164 0.999310791492462 0.999424815177917 0.999356746673584 0.999546885490417 0.999701857566833 0.999672532081604 0.999728083610535 0.999703586101532 0.99974399805069 0.999671161174774 0.999325275421143 0.998971283435822 0.998984456062317 0.999046981334686 0.999016404151917 0.999015390872955 0.998851001262665 0.998588442802429 0.998663783073425 0.998903214931488 0.999031782150269 0.999073505401611 0.999063372612 0.999022603034973 0.999003469944 0.999041140079498 0.99905663728714 0.999024212360382 0.998825490474701 0.998608291149139 0.998850762844086 0.998988211154938 0.998554944992065 0.9979287981987 0.998154878616333 0.998687326908112 0.998550534248352 0.998371660709381 0.997857689857483 0.997472763061523 0.996072471141815 0.994687676429749 0.995216012001038 0.99695235490799 0.997067213058472 0.997497379779816 0.998149037361145 0.997685551643372 0.996408522129059 0.995222091674805 0.994619011878967 0.995136201381683 0.995890140533447 0.996692776679993 0.996946632862091 0.996866106987 0.99663645029068 0.995901823043823 0.995078325271606 0.994073569774628 0.9917231798172 0.989458799362183 0.985751986503601 0.980321764945984 0.972493708133698 0.960305988788605 0.949893057346344 0.90861850976944 0.930230259895325 0.976028501987457 0.99272221326828 0.998426377773285 0.999363541603088 0.995004534721375 0.986995458602905 0.985345661640167 0.991595983505249 0.994215488433838 0.995983421802521 0.99708366394043 0.995677292346954 0.99164229631424 0.991423189640045 0.99225527048111 0.993524372577667 0.99191278219223 0.990419149398804 0.98706042766571 0.994799792766571 0.992055177688599 0.986076772212982 0.987363398075104 0.990848481655121 0.993264555931091 0.993453204631805 0.99258679151535 0.991660714149475 0.991372168064117 0.991199374198914 0.990666031837463 0.990400075912476 0.989863395690918 0.988785564899445 0.987533330917358 0.986833572387695 0.987163603305817 0.988492906093597 0.989944458007812 0.990647196769714 0.99119621515274 0.991402924060822 0.9911949634552 0.990981578826904 0.990172803401947 0.991093933582306 0.992111802101135 0.991545379161835 0.990700006484985 0.990115404129028 0.988965272903442 0.987283229827881 0.985711991786957 0.987246990203857 0.991419732570648 0.993633031845093 0.992962121963501 0.991587400436401 0.992640197277069 0.993595004081726 0.993885576725006 0.993992328643799 0.993950068950653
0.999069213867188 0.99897962808609 0.999215185642242 0.999222993850708 0.998998761177063 0.998866319656372 0.998749315738678 0.998707175254822 0.998868227005005 0.998755216598511 0.998465955257416 0.998573482036591 0.998849213123322 0.99904727935791 0.999097406864166 0.998732030391693 0.998082160949707 0.998197853565216 0.999202787876129 0.999081909656525 0.999170243740082 0.99930077791214 0.999297440052032 0.999320209026337 0.9992755651474 0.999149024486542 0.998984336853027 0.999015033245087 0.999180853366852 0.99920117855072 0.999226212501526 0.999408662319183 0.999520599842072 0.999356865882874 0.999278783798218 0.999361991882324 0.999200999736786 0.999342143535614 0.999390423297882 0.999579250812531 0.9996697306633 0.999728858470917 0.999693155288696 0.999733984470367 0.999613881111145 0.999372541904449 0.999133706092834 0.999143481254578 0.999188899993896 0.999228358268738 0.999239444732666 0.999033391475677 0.99880439043045 0.998868763446808 0.999003112316132 0.999106228351593 0.999123930931091 0.999168992042542 0.999289214611053 0.99940150976181 0.999510407447815 0.999533891677856 0.999323308467865 0.998732089996338 0.998578727245331 0.998562157154083 0.998058140277863 0.997595965862274 0.997975885868073 0.998511135578156 0.998329997062683 0.997807741165161 0.997402310371399 0.997269451618195 0.997135639190674 0.996098875999451 0.996690511703491 0.99762088060379 0.997478187084198 0.997209012508392 0.997242152690887 0.996709823608398 0.995398342609406 0.994706273078918 0.995293736457825 0.996368050575256 0.996822237968445 0.997017502784729 0.997014343738556 0.996751189231873 0.996379911899567 0.995981276035309 0.995121240615845 0.994248449802399 0.992690443992615 0.989994585514069 0.986643016338348 0.982768416404724 0.976184368133545 0.964695692062378 0.960540115833282 0.918480634689331 0.919048547744751 0.967263698577881 0.989216804504395 0.993822515010834 0.99526309967041 0.997767448425293 0.989587366580963 0.98347681760788 0.99078357219696 0.993674516677856 0.994840443134308 0.993681013584137 0.991504430770874 0.992265403270721 0.992196023464203 0.992167949676514 0.99329137802124 0.991493105888367 0.989416837692261 0.984971463680267 0.993910789489746 0.992144167423248 0.98527193069458 0.986818611621857 0.99087119102478 0.993676006793976 0.994300067424774 0.994057238101959 0.993176460266113 0.992502152919769 0.991070806980133 0.989218831062317 0.989632546901703 0.991064667701721 0.991037845611572 0.990184426307678 0.989535987377167 0.989470243453979 0.989727139472961 0.99053293466568 0.991593599319458 0.99190628528595 0.99194347858429 0.991890370845795 0.991525709629059 0.990694880485535 0.990460097789764 0.991349697113037 0.991592228412628 0.991140842437744 0.990606725215912 0.990237951278687 0.989334940910339 0.988262891769409 0.987341940402985 0.989205837249756 0.992270410060883 0.993354141712189 0.992312967777252 0.992725968360901 0.993787050247192 0.993856132030487 0.993691563606262 0.993724822998047
0.999179303646088 0.998525679111481 0.998172163963318 0.998564481735229 0.998427629470825 0.998587906360626 0.998655915260315 0.998746752738953 0.998839914798737 0.999097049236298 0.998854458332062 0.998658061027527 0.998717963695526 0.999035894870758 0.999073803424835 0.998419761657715 0.998288571834564 0.998253762722015 0.998987674713135 0.999267816543579 0.999224781990051 0.999267041683197 0.999277353286743 0.999274432659149 0.999211668968201 0.999139368534088 0.999037086963654 0.999078810214996 0.999234437942505 0.999134600162506 0.999176263809204 0.999286770820618 0.999450743198395 0.999425828456879 0.999253928661346 0.999256491661072 0.998999357223511 0.999160885810852 0.99921178817749 0.999478161334991 0.999563634395599 0.999606192111969 0.999638497829437 0.999683856964111 0.999660789966583 0.999502241611481 0.999218881130219 0.999107182025909 0.999289453029633 0.999433219432831 0.999536573886871 0.999511361122131 0.999149441719055 0.998913466930389 0.998902678489685 0.998954951763153 0.999104380607605 0.999244213104248 0.999402403831482 0.999469816684723 0.999491035938263 0.999379992485046 0.999081552028656 0.998386263847351 0.998066604137421 0.998023509979248 0.997722864151001 0.997477293014526 0.997736155986786 0.998175919055939 0.998122990131378 0.99702399969101 0.996324300765991 0.997270464897156 0.996568381786346 0.996255218982697 0.996601998806 0.997745156288147 0.997051060199738 0.996671676635742 0.995918035507202 0.9952791929245 0.994788944721222 0.995415568351746 0.996338665485382 0.996923863887787 0.997034192085266 0.99706619977951 0.997114717960358 0.99665242433548 0.996251285076141 0.995868802070618 0.995404303073883 0.994507312774658 0.993022978305817 0.990769684314728 0.988275945186615 0.984989285469055 0.979310274124146 0.97021073102951 0.962143301963806 0.932949662208557 0.91107040643692 0.947715818881989 0.983659267425537 0.989402413368225 0.98814195394516 0.989181876182556 0.990738749504089 0.987311244010925 0.98874968290329 0.991337478160858 0.992577791213989 0.990983545780182 0.988228678703308 0.988543450832367 0.989912807941437 0.989527940750122 0.988062858581543 0.986669480800629 0.983749270439148 0.982599496841431 0.991393625736237 0.993176281452179 0.98613041639328 0.987210512161255 0.991375684738159 0.993724584579468 0.994993209838867 0.994726777076721 0.993612885475159 0.992859601974487 0.991386353969574 0.989621460437775 0.989115834236145 0.99049037694931 0.991601884365082 0.991583108901978 0.991450846195221 0.991628706455231 0.991675853729248 0.992009162902832 0.992199242115021 0.992308557033539 0.992216825485229 0.992182910442352 0.991916716098785 0.99192476272583 0.991586804389954 0.991513609886169 0.99167412519455 0.991382777690887 0.99121505022049 0.990768730640411 0.990370392799377 0.989894449710846 0.988929033279419 0.988426923751831 0.989425241947174 0.991904735565186 0.993155002593994 0.993362784385681 0.993741810321808 0.993684589862823 0.993483603000641 0.993361711502075
0.999105095863342 0.997877359390259 0.997099995613098 0.997650325298309 0.998271286487579 0.998128354549408 0.998472690582275 0.998959600925446 0.998982608318329 0.999027073383331 0.999102592468262 0.999006330966949 0.998849868774414 0.999010741710663 0.998950064182281 0.998191058635712 0.998409688472748 0.998329937458038 0.999153017997742 0.999259471893311 0.999243021011353 0.999251902103424 0.999269306659698 0.999236404895782 0.999220311641693 0.999168753623962 0.999072194099426 0.999085605144501 0.999228477478027 0.999139606952667 0.999132513999939 0.999163508415222 0.999206602573395 0.999305248260498 0.999062299728394 0.999141812324524 0.998692214488983 0.998787999153137 0.999054074287415 0.99926233291626 0.999446332454681 0.999537765979767 0.999611377716064 0.999574840068817 0.999617218971252 0.99945729970932 0.999254107475281 0.999137282371521 0.999212503433228 0.999481201171875 0.999594748020172 0.999644815921783 0.999525666236877 0.99913477897644 0.99894791841507 0.999058485031128 0.999160408973694 0.999279379844666 0.999386250972748 0.999399662017822 0.999366164207458 0.999222338199615 0.998717546463013 0.99808806180954 0.997742831707001 0.997811317443848 0.997920155525208 0.997948944568634 0.997804164886475 0.997963607311249 0.997879266738892 0.997087419033051 0.99708366394043 0.995068907737732 0.994183242321014 0.993088245391846 0.994388341903687 0.996164321899414 0.995915234088898 0.995543658733368 0.994826018810272 0.994936108589172 0.995306074619293 0.996326863765717 0.996750235557556 0.99701714515686 0.997190535068512 0.997113943099976 0.997010469436646 0.996749103069305 0.996339380741119 0.996004283428192 0.995624959468842 0.9947749376297 0.993554472923279 0.992093801498413 0.98939710855484 0.986817717552185 0.982284367084503 0.976524174213409 0.965451955795288 0.95628422498703 0.914278268814087 0.926739156246185 0.964662373065948 0.976395547389984 0.97454696893692 0.971224665641785 0.974248468875885 0.980522334575653 0.98409515619278 0.98617959022522 0.986982822418213 0.985342979431152 0.982972383499146 0.981512010097504 0.980790138244629 0.977547824382782 0.972793400287628 0.970288991928101 0.97113311290741 0.979346632957458 0.990729033946991 0.994249165058136 0.987482726573944 0.986813366413116 0.991976797580719 0.994214117527008 0.995425164699554 0.994738936424255 0.992944359779358 0.992326557636261 0.99138331413269 0.990423262119293 0.989396035671234 0.989754855632782 0.991294801235199 0.99211573600769 0.992287158966064 0.992371261119843 0.992366433143616 0.992452919483185 0.992728650569916 0.992720067501068 0.992624282836914 0.99248594045639 0.992339432239532 0.992242217063904 0.992340087890625 0.992347955703735 0.992191016674042 0.99190878868103 0.991590917110443 0.991298317909241 0.990888595581055 0.990519285202026 0.989872217178345 0.988860785961151 0.988789856433868 0.99083685874939 0.993597090244293 0.994180202484131 0.993776738643646 0.993349671363831 0.993053615093231 0.99274355173111
0.998812139034271 0.997216820716858 0.995385468006134 0.995838820934296 0.996366620063782 0.997626781463623 0.998013734817505 0.998425722122192 0.998500168323517 0.998771131038666 0.999049663543701 0.999063372612 0.999012410640717 0.999036014080048 0.998978734016418 0.998655438423157 0.99864935874939 0.998851239681244 0.999249756336212 0.999271154403687 0.999239504337311 0.99923312664032 0.999229609966278 0.999260604381561 0.999253809452057 0.999195277690887 0.999111950397491 0.999088764190674 0.99909508228302 0.999060153961182 0.999168932437897 0.999078035354614 0.998955607414246 0.998994648456573 0.998640596866608 0.998385310173035 0.998295605182648 0.998314440250397 0.998695194721222 0.998826384544373 0.999199151992798 0.999434769153595 0.999441146850586 0.999497473239899 0.999433219432831 0.999459862709045 0.999419271945953 0.999244391918182 0.999290943145752 0.999441564083099 0.999502241611481 0.999499320983887 0.999504446983337 0.999457776546478 0.999253392219543 0.999259293079376 0.999294400215149 0.999363541603088 0.999423742294312 0.999409735202789 0.999289989471436 0.998986780643463 0.998495876789093 0.998012185096741 0.997883260250092 0.998055458068848 0.998245000839233 0.998261094093323 0.997951686382294 0.997641265392303 0.99749481678009 0.997121632099152 0.995328426361084 0.993967235088348 0.991630494594574 0.991039574146271 0.992421329021454 0.993112325668335 0.992834866046906 0.993967652320862 0.994799137115479 0.995332956314087 0.996220529079437 0.996781170368195 0.996910393238068 0.997097373008728 0.997195184230804 0.997212111949921 0.997106552124023 0.996919989585876 0.996719539165497 0.996475338935852 0.995865702629089 0.995079517364502 0.994280755519867 0.992836534976959 0.991305887699127 0.98863023519516 0.98511666059494 0.980532348155975 0.97340989112854 0.969304382801056 0.942168653011322 0.928441822528839 0.941852867603302 0.955574989318848 0.962576985359192 0.961237192153931 0.963220417499542 0.970193386077881 0.976429522037506 0.979004919528961 0.978634655475616 0.977628111839294 0.975779414176941 0.973288118839264 0.969354629516602 0.960232377052307 0.957180142402649 0.956981003284454 0.959955394268036 0.976215541362762 0.985712170600891 0.984012186527252 0.982652425765991 0.986087799072266 0.992817878723145 0.99504292011261 0.99565052986145 0.993978440761566 0.992129385471344 0.991590678691864 0.991395056247711 0.990820348262787 0.989812016487122 0.989529728889465 0.991132020950317 0.992426633834839 0.992777526378632 0.992782711982727 0.992801129817963 0.992752850055695 0.992887496948242 0.99305135011673 0.992877542972565 0.992702186107635 0.99270087480545 0.992720425128937 0.992766857147217 0.992746293544769 0.992604196071625 0.992262005805969 0.991946399211884 0.991672515869141 0.991360008716583 0.991161167621613 0.990884602069855 0.990671157836914 0.990532219409943 0.991158187389374 0.99235588312149 0.993675768375397 0.993591010570526 0.992924451828003 0.992309629917145 0.992028951644897
0.997655808925629 0.995455145835876 0.992432296276093 0.991700351238251 0.993558526039124 0.996375977993011 0.997623145580292 0.99788361787796 0.99826318025589 0.998512864112854 0.998973667621613 0.999142706394196 0.999122977256775 0.999065160751343 0.998996138572693 0.998864710330963 0.999093770980835 0.999083876609802 0.999191045761108 0.99919456243515 0.999165654182434 0.999145686626434 0.999205112457275 0.999295711517334 0.999231815338135 0.999200820922852 0.999137938022614 0.999144375324249 0.999090254306793 0.999004483222961 0.998995423316956 0.998938024044037 0.998727738857269 0.998613655567169 0.997689783573151 0.996649980545044 0.99552971124649 0.997020483016968 0.997840583324432 0.998513698577881 0.998624503612518 0.998886585235596 0.999361157417297 0.999207079410553 0.99921327829361 0.999391496181488 0.999570429325104 0.999404311180115 0.999471843242645 0.999400019645691 0.999341309070587 0.999249875545502 0.999414443969727 0.99964302778244 0.999639213085175 0.999510169029236 0.999445796012878 0.999509334564209 0.999538362026215 0.999411284923553 0.999133944511414 0.998644769191742 0.998183190822601 0.998031497001648 0.99800843000412 0.998097479343414 0.998130619525909 0.998075664043427 0.997855186462402 0.997548222541809 0.996892094612122 0.996413052082062 0.994835734367371 0.992197930812836 0.991393685340881 0.993370294570923 0.993282556533813 0.99005538225174 0.987550616264343 0.990839898586273 0.994158804416656 0.995341181755066 0.99628472328186 0.996690988540649 0.997008502483368 0.99711674451828 0.997287034988403 0.99738872051239 0.99736499786377 0.997164189815521 0.997033596038818 0.996605753898621 0.996084570884705 0.995535492897034 0.994737148284912 0.993918538093567 0.992845773696899 0.990469574928284 0.988321542739868 0.98435252904892 0.980020761489868 0.976513206958771 0.968590199947357 0.952488780021667 0.945832490921021 0.957246541976929 0.96863579750061 0.972444355487823 0.97128838300705 0.972430408000946 0.974025785923004 0.974505126476288 0.97268271446228 0.96995085477829 0.967603206634521 0.96523642539978 0.965722024440765 0.961794018745422 0.95967972278595 0.951621890068054 0.954610049724579 0.967549860477448 0.96267569065094 0.961067140102386 0.971601247787476 0.983277201652527 0.990617692470551 0.994796574115753 0.995179831981659 0.992746293544769 0.991588950157166 0.991034626960754 0.990957081317902 0.990802943706512 0.990241944789886 0.990216672420502 0.99149352312088 0.992799282073975 0.99289733171463 0.992984890937805 0.993074595928192 0.993068397045135 0.993148446083069 0.993202745914459 0.993120729923248 0.992984533309937 0.992918431758881 0.993043780326843 0.993143558502197 0.993203163146973 0.992828071117401 0.992562651634216 0.992232620716095 0.992179334163666 0.992028534412384 0.991803824901581 0.991777002811432 0.991628170013428 0.991317987442017 0.991036415100098 0.990725100040436 0.991395473480225 0.992489874362946 0.99234664440155 0.991604924201965 0.991187870502472
0.996054589748383 0.996678829193115 0.996065616607666 0.991599977016449 0.990186214447021 0.994110465049744 0.996512293815613 0.997559428215027 0.998001515865326 0.998410820960999 0.998705863952637 0.999068856239319 0.999076306819916 0.998984396457672 0.99885368347168 0.998762667179108 0.998915076255798 0.99899560213089 0.999001145362854 0.99906450510025 0.99904865026474 0.999049663543701 0.999115586280823 0.999171555042267 0.999137461185455 0.999156534671783 0.999176561832428 0.999163866043091 0.99908983707428 0.99896377325058 0.998835325241089 0.998780906200409 0.998489022254944 0.997731387615204 0.997088015079498 0.994247019290924 0.992970108985901 0.993954420089722 0.99677175283432 0.997992217540741 0.99809330701828 0.998550832271576 0.999304473400116 0.99928092956543 0.999079942703247 0.999271273612976 0.999676585197449 0.999518275260925 0.999530851840973 0.999617278575897 0.999583303928375 0.999578654766083 0.999626994132996 0.99962717294693 0.999513447284698 0.999576508998871 0.999566972255707 0.999503433704376 0.999439179897308 0.999299943447113 0.999057412147522 0.99848335981369 0.99801379442215 0.998205780982971 0.998238623142242 0.998301982879639 0.998059868812561 0.997811615467072 0.997618675231934 0.997417092323303 0.996640622615814 0.995498061180115 0.994037747383118 0.988846719264984 0.989932715892792 0.996070623397827 0.995512008666992 0.991579294204712 0.985274791717529 0.98546826839447 0.992269039154053 0.994481205940247 0.995866000652313 0.996459126472473 0.997015535831451 0.997175812721252 0.997292757034302 0.997391819953918 0.997359931468964 0.9973184466362 0.997046947479248 0.996662437915802 0.996283173561096 0.995657444000244 0.995178461074829 0.994365692138672 0.993664443492889 0.992166996002197 0.989583253860474 0.987773180007935 0.984533905982971 0.980312287807465 0.980533301830292 0.973370492458344 0.967574238777161 0.975996732711792 0.981252908706665 0.981156945228577 0.982453286647797 0.980952978134155 0.977041840553284 0.974576234817505 0.972329795360565 0.968943536281586 0.970520615577698 0.975326240062714 0.977233290672302 0.976074159145355 0.973964929580688 0.957391679286957 0.951551139354706 0.941205441951752 0.942593514919281 0.956131517887115 0.971397221088409 0.98050731420517 0.985019981861115 0.987673461437225 0.991068124771118 0.991788446903229 0.991160869598389 0.990624189376831 0.990424811840057 0.990682899951935 0.990843296051025 0.991241693496704 0.992122948169708 0.993055880069733 0.99309104681015 0.99311089515686 0.993149518966675 0.993152141571045 0.993276059627533 0.993264079093933 0.993291079998016 0.99318391084671 0.993085086345673 0.993198990821838 0.993307828903198 0.993221282958984 0.9930619597435 0.992773056030273 0.992681205272675 0.992478668689728 0.992363631725311 0.992199897766113 0.99224579334259 0.992194890975952 0.991854131221771 0.991347432136536 0.990547478199005 0.990118205547333 0.990232169628143 0.990595042705536 0.990685105323792 0.990299046039581
0.996710777282715 0.996831953525543 0.99947315454483 0.996116518974304 0.991628110408783 0.991069972515106 0.994951367378235 0.996957659721375 0.997750401496887 0.998176991939545 0.998583018779755 0.998969852924347 0.999119579792023 0.999083578586578 0.998802602291107 0.998667895793915 0.998655796051025 0.998902142047882 0.998908638954163 0.998929023742676 0.999020278453827 0.999015271663666 0.999017775058746 0.999030232429504 0.999060571193695 0.999183654785156 0.999252080917358 0.999203562736511 0.999128460884094 0.998943507671356 0.998671650886536 0.998467326164246 0.998281896114349 0.997683942317963 0.995686531066895 0.990530669689178 0.994240164756775 0.993022501468658 0.995061755180359 0.997195661067963 0.997671544551849 0.9983229637146 0.999190032482147 0.999478399753571 0.999367952346802 0.999520778656006 0.999806582927704 0.999623358249664 0.999380469322205 0.999692022800446 0.999439358711243 0.999585688114166 0.999339044094086 0.99944406747818 0.999383211135864 0.999423325061798 0.999378561973572 0.999379277229309 0.999305188655853 0.99923974275589 0.999080002307892 0.998471200466156 0.997896611690521 0.998077690601349 0.998205304145813 0.998258650302887 0.998050689697266 0.997758507728577 0.99739408493042 0.997009575366974 0.996365427970886 0.995284557342529 0.992136120796204 0.985818326473236 0.988982796669006 0.997602760791779 0.997160375118256 0.995875537395477 0.988892257213593 0.984022319316864 0.989033341407776 0.993771493434906 0.995538353919983 0.996402978897095 0.996889352798462 0.997181236743927 0.99731856584549 0.997312605381012 0.997424721717834 0.99729061126709 0.99707418680191 0.996777951717377 0.996234714984894 0.99594920873642 0.995397925376892 0.99490624666214 0.994098842144012 0.993334531784058 0.991564691066742 0.989688873291016 0.988396286964417 0.986167848110199 0.983836650848389 0.98251861333847 0.980106353759766 0.980919063091278 0.985817551612854 0.986804664134979 0.985281646251678 0.981936693191528 0.978875935077667 0.977390468120575 0.9770827293396 0.97824889421463 0.982253551483154 0.983444571495056 0.983126878738403 0.980985462665558 0.979497790336609 0.97812956571579 0.961900353431702 0.951429665088654 0.950868427753448 0.9679034948349 0.979152858257294 0.978762030601501 0.978292644023895 0.980605602264404 0.98492306470871 0.988833010196686 0.990133106708527 0.990143179893494 0.990459561347961 0.990642130374908 0.991346836090088 0.991983890533447 0.992558181285858 0.993125736713409 0.993191123008728 0.993211090564728 0.993169069290161 0.993326961994171 0.993279755115509 0.993281185626984 0.993308544158936 0.993263304233551 0.993257820606232 0.993294894695282 0.993344783782959 0.993158757686615 0.993193030357361 0.992983818054199 0.992776274681091 0.992583632469177 0.992358505725861 0.992193102836609 0.992240965366364 0.992360889911652 0.992046654224396 0.991741001605988 0.991269528865814 0.990727603435516 0.990248918533325 0.989911794662476 0.990213334560394 0.990287184715271
0.998070299625397 0.996820330619812 0.997964918613434 0.998953521251678 0.995416641235352 0.991447508335114 0.992621183395386 0.996266782283783 0.997150063514709 0.997749626636505 0.998528182506561 0.998804271221161 0.999001562595367 0.999252080917358 0.999015331268311 0.998675644397736 0.998523771762848 0.998717725276947 0.998890161514282 0.998879015445709 0.999024927616119 0.999002635478973 0.998971819877625 0.998997867107391 0.999153614044189 0.999313414096832 0.99928605556488 0.999212801456451 0.999132752418518 0.998949766159058 0.998604357242584 0.998353898525238 0.998175919055939 0.997182309627533 0.995532214641571 0.988041698932648 0.992635607719421 0.994218766689301 0.993072688579559 0.996981918811798 0.998067498207092 0.998789727687836 0.999386966228485 0.999692738056183 0.999671757221222 0.999788165092468 0.999882698059082 0.999557852745056 0.999330103397369 0.999524176120758 0.999467730522156 0.999320447444916 0.998915612697601 0.998762845993042 0.99924647808075 0.999140024185181 0.998971879482269 0.999299168586731 0.999365210533142 0.999144554138184 0.998975872993469 0.998372316360474 0.997774064540863 0.997909605503082 0.998161613941193 0.998180150985718 0.9980149269104 0.997849941253662 0.997350215911865 0.996910989284515 0.996487557888031 0.994713425636292 0.991139590740204 0.984098553657532 0.989026725292206 0.997788965702057 0.994772017002106 0.995687246322632 0.992915034294128 0.985978364944458 0.987170934677124 0.993372797966003 0.995390057563782 0.996070981025696 0.996658265590668 0.997020959854126 0.997151851654053 0.997230052947998 0.997299492359161 0.997178554534912 0.996984243392944 0.996770739555359 0.996504604816437 0.996202230453491 0.995808243751526 0.995409727096558 0.994667768478394 0.993828356266022 0.993208110332489 0.991849362850189 0.990544378757477 0.989304959774017 0.987481594085693 0.986928462982178 0.984409391880035 0.981900930404663 0.982961714267731 0.984774112701416 0.982768714427948 0.981891930103302 0.982744157314301 0.983511984348297 0.985300958156586 0.985947906970978 0.98582249879837 0.985942125320435 0.986248672008514 0.985864222049713 0.984759330749512 0.982455790042877 0.979890286922455 0.976658880710602 0.971987307071686 0.973688185214996 0.976228296756744 0.97413581609726 0.976043879985809 0.978575229644775 0.981018543243408 0.983592092990875 0.986742079257965 0.989316344261169 0.990670740604401 0.99124950170517 0.991553008556366 0.992214262485504 0.992703795433044 0.993139326572418 0.993242919445038 0.993235349655151 0.993267178535461 0.993303835391998 0.993220686912537 0.99323844909668 0.993355274200439 0.99327290058136 0.993294894695282 0.993263900279999 0.99329936504364 0.993240296840668 0.993188679218292 0.993037343025208 0.99287086725235 0.992747366428375 0.992427885532379 0.992212057113647 0.992126226425171 0.992124438285828 0.992093682289124 0.991804480552673 0.991169214248657 0.990782380104065 0.990606904029846 0.990017175674438 0.989784240722656 0.989624559879303
0.998880088329315 0.998017132282257 0.998153269290924 0.999204874038696 0.998369514942169 0.994230687618256 0.991555094718933 0.994405448436737 0.996912956237793 0.997678697109222 0.998250722885132 0.998333275318146 0.998462975025177 0.999081790447235 0.999295055866241 0.998854994773865 0.998478651046753 0.998444974422455 0.998767256736755 0.998962819576263 0.998948872089386 0.998983561992645 0.998986721038818 0.999028861522675 0.999290108680725 0.999336838722229 0.999246895313263 0.999177217483521 0.999083876609802 0.99894106388092 0.998669147491455 0.998407363891602 0.998157501220703 0.997473120689392 0.995794475078583 0.988940715789795 0.989912927150726 0.999026298522949 0.99349170923233 0.996766805648804 0.998422086238861 0.999348104000092 0.999191224575043 0.999665021896362 0.999765574932098 0.999697804450989 0.999514281749725 0.999467372894287 0.99928218126297 0.999346494674683 0.999258875846863 0.999027073383331 0.998265027999878 0.998373627662659 0.997991979122162 0.998152792453766 0.998485386371613 0.999224364757538 0.999238073825836 0.998972296714783 0.998656630516052 0.998190104961395 0.997877776622772 0.998044729232788 0.998156607151031 0.997980833053589 0.997887492179871 0.997703492641449 0.997314810752869 0.996902108192444 0.996410310268402 0.99481201171875 0.990417063236237 0.985121726989746 0.990525186061859 0.998059153556824 0.992734432220459 0.995389044284821 0.993996620178223 0.987888276576996 0.98724102973938 0.993279933929443 0.995295524597168 0.995940208435059 0.996382594108582 0.996641635894775 0.996913492679596 0.996924757957458 0.997108042240143 0.997077763080597 0.996830582618713 0.996777832508087 0.996605932712555 0.996561050415039 0.996234953403473 0.995981335639954 0.995436608791351 0.99463677406311 0.993905961513519 0.99333930015564 0.992597937583923 0.991423428058624 0.990117609500885 0.989166975021362 0.988995611667633 0.986678004264832 0.984291255474091 0.983709394931793 0.983986675739288 0.985730767250061 0.987367451190948 0.987886369228363 0.988566279411316 0.988484144210815 0.988713622093201 0.988713562488556 0.988642454147339 0.98849630355835 0.988202810287476 0.986992359161377 0.985607445240021 0.983416020870209 0.98329496383667 0.982521891593933 0.978328764438629 0.97859650850296 0.979353845119476 0.980140924453735 0.980692803859711 0.980968356132507 0.983426213264465 0.98765105009079 0.990563094615936 0.991656601428986 0.991935193538666 0.992200374603271 0.992790460586548 0.99314671754837 0.993224143981934 0.993212044239044 0.993282377719879 0.993157923221588 0.993143320083618 0.993186831474304 0.993276834487915 0.993412256240845 0.993317902088165 0.993331670761108 0.993234217166901 0.993194580078125 0.993079960346222 0.993069648742676 0.992961347103119 0.992817997932434 0.992460131645203 0.992219030857086 0.992129504680634 0.992056429386139 0.992035508155823 0.991452395915985 0.990606725215912 0.990103900432587 0.989395916461945 0.988324224948883 0.987461924552917 0.986072540283203
0.999252021312714 0.998892307281494 0.998603522777557 0.999129056930542 0.99949711561203 0.997267603874207 0.992688417434692 0.992497801780701 0.996120810508728 0.997420787811279 0.997754991054535 0.997863709926605 0.997996211051941 0.998439431190491 0.999128103256226 0.999251663684845 0.998760938644409 0.998394668102264 0.99850594997406 0.998849511146545 0.998890042304993 0.998908579349518 0.999013125896454 0.999120593070984 0.999328792095184 0.999320507049561 0.99925023317337 0.999043822288513 0.998797953128815 0.998881578445435 0.998697102069855 0.998474895954132 0.99813973903656 0.997657001018524 0.996789634227753 0.993101358413696 0.989827275276184 0.997409224510193 0.9974684715271 0.997634291648865 0.999160468578339 0.999569535255432 0.999529540538788 0.999475955963135 0.999436438083649 0.999298214912415 0.999194920063019 0.999358296394348 0.999342441558838 0.999206840991974 0.998766958713531 0.998103678226471 0.995680928230286 0.996173083782196 0.996431887149811 0.997496724128723 0.998529136180878 0.998739242553711 0.999082684516907 0.998759746551514 0.998502790927887 0.998112678527832 0.997930526733398 0.998193800449371 0.998153984546661 0.997979342937469 0.997888922691345 0.997674226760864 0.997253119945526 0.99657928943634 0.996090054512024 0.994914829730988 0.993528485298157 0.99044394493103 0.991474807262421 0.99598503112793 0.993442833423615 0.994194388389587 0.992853760719299 0.988454818725586 0.988245129585266 0.993286311626434 0.995340764522552 0.996090948581696 0.99633252620697 0.996589481830597 0.996777474880219 0.996797561645508 0.996997237205505 0.996939778327942 0.996888041496277 0.996822953224182 0.996851980686188 0.996816217899323 0.996650040149689 0.996217429637909 0.995826303958893 0.995267152786255 0.994693517684937 0.994305670261383 0.993748664855957 0.993035912513733 0.992146134376526 0.991277277469635 0.990762293338776 0.990388751029968 0.990251839160919 0.9895960688591 0.989206790924072 0.989197194576263 0.989604532718658 0.989321768283844 0.989723682403564 0.990313172340393 0.990646123886108 0.990720748901367 0.990180671215057 0.989933669567108 0.98994642496109 0.989421963691711 0.989011406898499 0.987559616565704 0.987248480319977 0.986633539199829 0.986733853816986 0.98652720451355 0.984706461429596 0.984016299247742 0.984266459941864 0.983805656433105 0.983952224254608 0.986234545707703 0.989488124847412 0.991346657276154 0.991921901702881 0.992404460906982 0.992842376232147 0.993204712867737 0.993213891983032 0.993182957172394 0.992994666099548 0.992964029312134 0.992997288703918 0.992995321750641 0.993191957473755 0.993293821811676 0.993344724178314 0.993317127227783 0.993128776550293 0.993107199668884 0.992959499359131 0.992970049381256 0.992918789386749 0.992680847644806 0.992535829544067 0.992253303527832 0.991919755935669 0.991850614547729 0.991885662078857 0.991568267345428 0.99066436290741 0.989901006221771 0.988968133926392 0.987376928329468 0.986040711402893 0.984508633613586
0.999091327190399 0.998645424842834 0.998911917209625 0.999158799648285 0.99958860874176 0.99923312664032 0.995308339595795 0.992395460605621 0.994354903697968 0.996999502182007 0.997727274894714 0.997961044311523 0.998228132724762 0.998091280460358 0.998465657234192 0.999189555644989 0.9992436170578 0.998807013034821 0.998398184776306 0.998851001262665 0.998869240283966 0.998862683773041 0.999115884304047 0.999202609062195 0.999324142932892 0.999366462230682 0.999169886112213 0.998846828937531 0.998827636241913 0.998995900154114 0.998912930488586 0.998690843582153 0.998323917388916 0.9977787733078 0.997550070285797 0.995740950107574 0.994077801704407 0.99628096818924 0.998825430870056 0.999068200588226 0.999289989471436 0.998925507068634 0.999058783054352 0.999089658260345 0.99924498796463 0.999189794063568 0.999227941036224 0.99931788444519 0.999118506908417 0.998662710189819 0.998048067092896 0.996205449104309 0.994294881820679 0.99180394411087 0.993673801422119 0.996696352958679 0.997893393039703 0.999007105827332 0.998887300491333 0.998823761940002 0.998462617397308 0.998086154460907 0.997779130935669 0.997869670391083 0.9980548620224 0.998030483722687 0.997815251350403 0.99735563993454 0.996424913406372 0.9966059923172 0.99691253900528 0.996640682220459 0.996298253536224 0.996416866779327 0.994499623775482 0.996192336082458 0.994029879570007 0.99244624376297 0.991090297698975 0.988341987133026 0.989519953727722 0.993690431118011 0.995326399803162 0.99585223197937 0.996353626251221 0.996534407138824 0.99658203125 0.996699869632721 0.996896326541901 0.996939599514008 0.99688720703125 0.996999204158783 0.996979773044586 0.996889233589172 0.996741116046906 0.996453642845154 0.995925724506378 0.995655417442322 0.995203495025635 0.994690775871277 0.99443793296814 0.994019865989685 0.993350744247437 0.992910504341125 0.992361903190613 0.991904854774475 0.991147577762604 0.990885496139526 0.990777373313904 0.991120219230652 0.991171419620514 0.991188228130341 0.991175591945648 0.991491436958313 0.991890251636505 0.991764724254608 0.991408348083496 0.990948259830475 0.990841090679169 0.990710616111755 0.990583598613739 0.990137457847595 0.989490866661072 0.988623082637787 0.988560676574707 0.989223182201385 0.988920152187347 0.987947285175323 0.98760724067688 0.98691987991333 0.986200213432312 0.9862140417099 0.987880229949951 0.989784896373749 0.991231799125671 0.992279410362244 0.993038415908813 0.993255913257599 0.993113934993744 0.992968320846558 0.992739617824554 0.99278050661087 0.992803573608398 0.992885231971741 0.992980360984802 0.993182063102722 0.99325966835022 0.99312424659729 0.99295574426651 0.992895781993866 0.992875337600708 0.99276465177536 0.99273693561554 0.992668092250824 0.992516756057739 0.992210805416107 0.991705238819122 0.991266012191772 0.991192221641541 0.991101980209351 0.989949584007263 0.989124238491058 0.987722635269165 0.986221611499786 0.984441041946411 0.981651186943054
0.999606966972351 0.999463319778442 0.999033570289612 0.999387443065643 0.999497950077057 0.999660551548004 0.997905850410461 0.994519174098969 0.993476510047913 0.995609939098358 0.997484028339386 0.998194456100464 0.998515546321869 0.998315632343292 0.998149991035461 0.998748183250427 0.999307155609131 0.999105155467987 0.998383641242981 0.99878978729248 0.99877142906189 0.998966217041016 0.999225437641144 0.99918121099472 0.999212205410004 0.999239265918732 0.999037206172943 0.998979806900024 0.999065101146698 0.999129474163055 0.998992145061493 0.998766362667084 0.998509347438812 0.99804276227951 0.997743308544159 0.996728122234344 0.996438980102539 0.998140335083008 0.999168455600739 0.999107420444489 0.99863213300705 0.998415529727936 0.999015510082245 0.999126970767975 0.999093353748322 0.999107301235199 0.999258995056152 0.99914824962616 0.998663127422333 0.997990846633911 0.997174680233002 0.994188725948334 0.995903849601746 0.992901027202606 0.990108251571655 0.994482934474945 0.997297525405884 0.998392581939697 0.998907089233398 0.998530030250549 0.99792605638504 0.99667489528656 0.996318876743317 0.99747896194458 0.998048782348633 0.998054921627045 0.997445940971375 0.996552705764771 0.996471881866455 0.997419714927673 0.997673034667969 0.997614979743958 0.998336434364319 0.998544931411743 0.997351169586182 0.997372567653656 0.994525372982025 0.992129981517792 0.990122973918915 0.988457381725311 0.991019368171692 0.994275748729706 0.99513441324234 0.995631217956543 0.996148467063904 0.996331036090851 0.996572256088257 0.99665766954422 0.996906101703644 0.996948063373566 0.996947228908539 0.996979534626007 0.996917843818665 0.996801674365997 0.996540248394012 0.996253609657288 0.996073663234711 0.99573028087616 0.995526313781738 0.99514240026474 0.995007276535034 0.99460768699646 0.994140982627869 0.99393105506897 0.993500351905823 0.993655860424042 0.993061721324921 0.992424249649048 0.992157995700836 0.992486596107483 0.992282927036285 0.992405533790588 0.992071151733398 0.992218017578125 0.99232143163681 0.992619931697845 0.99242103099823 0.991810619831085 0.991477608680725 0.991355419158936 0.991375744342804 0.991165995597839 0.991085290908813 0.990536093711853 0.990093886852264 0.990207135677338 0.990461051464081 0.990471541881561 0.990100741386414 0.989724338054657 0.989359736442566 0.988814234733582 0.988623082637787 0.989343523979187 0.990442276000977 0.991827845573425 0.992713928222656 0.993199169635773 0.992987394332886 0.992907643318176 0.99259489774704 0.992436051368713 0.992531955242157 0.992627382278442 0.99276065826416 0.993088483810425 0.993249475955963 0.993213832378387 0.993059694766998 0.992822706699371 0.992762804031372 0.992624044418335 0.992486953735352 0.992465317249298 0.992456674575806 0.991961240768433 0.991631031036377 0.991085231304169 0.989922285079956 0.989415943622589 0.988665759563446 0.987820088863373 0.985827028751373 0.984053909778595 0.982532978057861 0.978747725486755
0.999672770500183 0.999367356300354 0.999194741249084 0.999086916446686 0.999001324176788 0.999182403087616 0.999035537242889 0.997224092483521 0.994542956352234 0.994625389575958 0.997037410736084 0.998212337493896 0.998649001121521 0.998557090759277 0.998430132865906 0.998517572879791 0.998941540718079 0.998955309391022 0.998364388942719 0.998120486736298 0.998730897903442 0.998978853225708 0.999169945716858 0.999181509017944 0.999055504798889 0.999106109142303 0.999200701713562 0.999227404594421 0.999189555644989 0.999238669872284 0.999047815799713 0.998944818973541 0.998817145824432 0.99851930141449 0.997819125652313 0.997270882129669 0.9967200756073 0.998234748840332 0.998528480529785 0.998250186443329 0.998232781887054 0.998386442661285 0.998970210552216 0.999075949192047 0.998922944068909 0.998897671699524 0.998922884464264 0.998850464820862 0.998456358909607 0.997730851173401 0.99689394235611 0.992610991001129 0.993728637695312 0.999483346939087 0.995195269584656 0.992549359798431 0.995568513870239 0.99809718132019 0.998656988143921 0.998565971851349 0.997826814651489 0.997557699680328 0.996693730354309 0.997702896595001 0.998379409313202 0.998014748096466 0.997444748878479 0.997319519519806 0.998270273208618 0.998678803443909 0.99853652715683 0.998840391635895 0.99878454208374 0.998715758323669 0.998447060585022 0.997875988483429 0.995192885398865 0.992399513721466 0.989684641361237 0.989234209060669 0.992817461490631 0.994216442108154 0.995181977748871 0.995692610740662 0.995952129364014 0.996140122413635 0.996439039707184 0.996658980846405 0.996855080127716 0.996937811374664 0.996942520141602 0.996849596500397 0.996709108352661 0.99669075012207 0.996371209621429 0.99612832069397 0.995977103710175 0.995794832706451 0.995683073997498 0.995481908321381 0.995312392711639 0.995003342628479 0.994785845279694 0.99466335773468 0.99444180727005 0.994412779808044 0.994253933429718 0.993744194507599 0.993091523647308 0.993115961551666 0.993132054805756 0.992979168891907 0.993004262447357 0.992560505867004 0.992490649223328 0.992813885211945 0.993084192276001 0.992284655570984 0.991966843605042 0.991726994514465 0.991940498352051 0.991783738136292 0.991090059280396 0.991224765777588 0.99075049161911 0.990970611572266 0.991618394851685 0.991224586963654 0.991162717342377 0.991378486156464 0.991226971149445 0.991114854812622 0.991042375564575 0.990703523159027 0.990899205207825 0.991558372974396 0.992160618305206 0.99236524105072 0.992815136909485 0.992519021034241 0.992318511009216 0.992211043834686 0.992411494255066 0.992509365081787 0.992706000804901 0.993085503578186 0.99331933259964 0.993438124656677 0.993165910243988 0.99295449256897 0.992714941501617 0.992441594600677 0.992182970046997 0.991886377334595 0.991943955421448 0.991775274276733 0.991434454917908 0.991084218025208 0.989583134651184 0.987790584564209 0.986120462417603 0.984966695308685 0.982777118682861 0.97931843996048 0.976266324520111 0.97389554977417
0.999211013317108 0.998814642429352 0.998553574085236 0.998367667198181 0.99840235710144 0.998533546924591 0.999081313610077 0.998646318912506 0.996767520904541 0.995601236820221 0.996918201446533 0.998268306255341 0.998583674430847 0.998858153820038 0.998767793178558 0.998419225215912 0.998271226882935 0.998418211936951 0.998656094074249 0.998906254768372 0.9988614320755 0.999096930027008 0.999145269393921 0.99908721446991 0.999036550521851 0.999170064926147 0.999196410179138 0.999247908592224 0.999213457107544 0.999272763729095 0.999219119548798 0.999144792556763 0.998985171318054 0.99872225522995 0.998315870761871 0.997684597969055 0.996991872787476 0.997825443744659 0.99795126914978 0.99807208776474 0.998363316059113 0.998824238777161 0.999114632606506 0.999030828475952 0.998862206935883 0.998847723007202 0.998624086380005 0.998526155948639 0.998277485370636 0.997944891452789 0.996982336044312 0.994250774383545 0.992647111415863 0.995371162891388 0.998448729515076 0.99681693315506 0.995968520641327 0.997546136379242 0.998587667942047 0.998590886592865 0.998334348201752 0.999466955661774 0.99796986579895 0.99744439125061 0.998332381248474 0.998534798622131 0.998312771320343 0.998815417289734 0.999197959899902 0.999246895313263 0.9992396235466 0.999091565608978 0.998685359954834 0.998725652694702 0.998909413814545 0.997876822948456 0.994993209838867 0.991831183433533 0.989488303661346 0.99053555727005 0.993464231491089 0.994401931762695 0.995362639427185 0.995840489864349 0.995993971824646 0.996075212955475 0.996206402778625 0.996455252170563 0.996757745742798 0.996841549873352 0.9967080950737 0.996697962284088 0.996573150157928 0.996496856212616 0.996384918689728 0.996147811412811 0.995911836624146 0.995794355869293 0.995671927928925 0.995598316192627 0.995500028133392 0.995240747928619 0.995103538036346 0.995013952255249 0.99496054649353 0.995051503181458 0.99486631155014 0.994518637657166 0.99388861656189 0.99351704120636 0.993597209453583 0.993451952934265 0.99335378408432 0.993013799190521 0.992734730243683 0.992835700511932 0.992856919765472 0.99269425868988 0.992204368114471 0.992016851902008 0.992066323757172 0.991748452186584 0.991068243980408 0.991004824638367 0.990992784500122 0.991173803806305 0.991914093494415 0.9914430975914 0.991103172302246 0.991514027118683 0.991176843643188 0.991226613521576 0.99142587184906 0.991418242454529 0.991445004940033 0.991774260997772 0.991757035255432 0.991874992847443 0.992149233818054 0.992272555828094 0.992188811302185 0.992192387580872 0.992273986339569 0.992484629154205 0.992889106273651 0.993156850337982 0.993406116962433 0.993466258049011 0.993314623832703 0.993146240711212 0.992687880992889 0.992250859737396 0.991855978965759 0.991582453250885 0.991442561149597 0.991226196289062 0.990928590297699 0.990727365016937 0.990159451961517 0.987344980239868 0.984172642230988 0.980886280536652 0.975270807743073 0.971299707889557 0.966963887214661 0.956607520580292
0.99900209903717 0.99876070022583 0.998528897762299 0.998041987419128 0.998094618320465 0.998284637928009 0.998884081840515 0.999020636081696 0.998098075389862 0.997162878513336 0.997508823871613 0.998254477977753 0.998651266098022 0.998895943164825 0.998674869537354 0.998448848724365 0.998153626918793 0.998167276382446 0.998255491256714 0.998835980892181 0.99910444021225 0.999154150485992 0.999172270298004 0.999141752719879 0.999266088008881 0.99926233291626 0.999249160289764 0.999273359775543 0.999252378940582 0.999222993850708 0.999293267726898 0.999220430850983 0.999098062515259 0.998925805091858 0.998816192150116 0.998270988464355 0.997665643692017 0.998004615306854 0.998644113540649 0.998740434646606 0.998805582523346 0.99912565946579 0.999312162399292 0.999036014080048 0.998749256134033 0.998877108097076 0.998785316944122 0.998638808727264 0.998412370681763 0.998060703277588 0.997705698013306 0.996258318424225 0.99447101354599 0.994231283664703 0.995181143283844 0.996372938156128 0.996823787689209 0.997808218002319 0.99878454208374 0.999013543128967 0.998738944530487 0.999451458454132 0.99901419878006 0.998038232326508 0.998231470584869 0.999041795730591 0.999306261539459 0.999417245388031 0.999399781227112 0.99930614233017 0.999118387699127 0.998455584049225 0.998442053794861 0.998323559761047 0.998756945133209 0.997681617736816 0.993378102779388 0.9901083111763 0.989513874053955 0.991731822490692 0.99374657869339 0.994295477867126 0.995357990264893 0.99585098028183 0.995818734169006 0.995965003967285 0.996027648448944 0.996226131916046 0.996589422225952 0.996556401252747 0.996442079544067 0.996536433696747 0.996447563171387 0.996333181858063 0.996270358562469 0.996173799037933 0.995960354804993 0.995771884918213 0.99574887752533 0.995755076408386 0.995609998703003 0.995396435260773 0.995118618011475 0.995110630989075 0.995058715343475 0.995244562625885 0.99519956111908 0.99492359161377 0.994187116622925 0.993813395500183 0.993767380714417 0.993743240833282 0.993617832660675 0.993268013000488 0.993018686771393 0.992849409580231 0.992469727993011 0.992232859134674 0.992414355278015 0.992196083068848 0.992224454879761 0.991403162479401 0.990577697753906 0.990068674087524 0.990335702896118 0.990735948085785 0.991188526153564 0.99116176366806 0.990553975105286 0.990717351436615 0.990896284580231 0.990790367126465 0.990730941295624 0.990892827510834 0.991212606430054 0.991289734840393 0.99145632982254 0.991716146469116 0.991839706897736 0.992017209529877 0.991942584514618 0.992201089859009 0.992156624794006 0.99234527349472 0.99271696805954 0.99292004108429 0.993346810340881 0.993451058864594 0.993373990058899 0.993240296840668 0.992923080921173 0.992345690727234 0.991847813129425 0.991567432880402 0.991473138332367 0.99118173122406 0.990877985954285 0.990267515182495 0.989229023456573 0.986498117446899 0.981366515159607 0.970467209815979 0.948268055915833 0.931835234165192 0.933655381202698 0.938717663288116
0.99891871213913 0.99853640794754 0.99866396188736 0.998618364334106 0.998331904411316 0.998207569122314 0.998470962047577 0.998689889907837 0.998230516910553 0.997987270355225 0.997902274131775 0.998316407203674 0.998540878295898 0.997930824756622 0.998591303825378 0.998839318752289 0.998640418052673 0.997685134410858 0.998360693454742 0.999086320400238 0.999215304851532 0.999257147312164 0.999326229095459 0.999306499958038 0.999344646930695 0.999352991580963 0.999320030212402 0.999241352081299 0.999194800853729 0.999242305755615 0.999288260936737 0.999277591705322 0.999236583709717 0.999124646186829 0.999039053916931 0.998771369457245 0.998264312744141 0.998375773429871 0.998762130737305 0.998897194862366 0.999046444892883 0.999161839485168 0.99930202960968 0.999084949493408 0.998804152011871 0.998940885066986 0.998985886573792 0.999000728130341 0.998637855052948 0.998233377933502 0.997855305671692 0.997359991073608 0.996270775794983 0.995622456073761 0.996171772480011 0.996799111366272 0.997309565544128 0.998552441596985 0.999243259429932 0.999345183372498 0.999392092227936 0.999236822128296 0.999396979808807 0.998600363731384 0.998308837413788 0.998984932899475 0.999131739139557 0.999072968959808 0.999062359333038 0.999095261096954 0.998408854007721 0.99769526720047 0.998326539993286 0.998030006885529 0.997573673725128 0.997060656547546 0.990522980690002 0.98791491985321 0.98992908000946 0.992372393608093 0.993836879730225 0.994395136833191 0.995051801204681 0.995424091815948 0.995549082756042 0.995616018772125 0.995786309242249 0.995930850505829 0.996225714683533 0.996185839176178 0.996265113353729 0.996238708496094 0.996364951133728 0.996287643909454 0.99616014957428 0.996161997318268 0.996053576469421 0.995885133743286 0.995796740055084 0.995693802833557 0.995602607727051 0.995537400245667 0.995104134082794 0.995036959648132 0.994961678981781 0.99505078792572 0.995144128799438 0.995097637176514 0.994458854198456 0.994245231151581 0.994090378284454 0.993929922580719 0.993693470954895 0.993478357791901 0.993010699748993 0.992672264575958 0.991946756839752 0.991537392139435 0.991560816764832 0.991948664188385 0.99190890789032 0.990982949733734 0.989976465702057 0.989622831344604 0.989697098731995 0.990046262741089 0.990254759788513 0.990290403366089 0.989659249782562 0.989779412746429 0.98974597454071 0.990216314792633 0.9903644323349 0.990358889102936 0.990542054176331 0.99080216884613 0.990818202495575 0.991187274456024 0.991537630558014 0.991596162319183 0.991721153259277 0.992075085639954 0.992069065570831 0.991982161998749 0.99219536781311 0.992469489574432 0.992868065834045 0.993226051330566 0.993228852748871 0.992989242076874 0.992804110050201 0.992536842823029 0.992086112499237 0.991696715354919 0.991586029529572 0.991064548492432 0.990521252155304 0.989412188529968 0.988032758235931 0.985349476337433 0.979609072208405 0.960631132125854 0.933777511119843 0.922709465026855 0.934329390525818 0.950087249279022
0.998942017555237 0.998502850532532 0.998461127281189 0.998559772968292 0.998419880867004 0.998128950595856 0.998180627822876 0.998134136199951 0.998086094856262 0.998364388942719 0.998506844043732 0.998478353023529 0.998528599739075 0.998478651046753 0.998609483242035 0.99882310628891 0.998591840267181 0.998322308063507 0.998834609985352 0.99936842918396 0.99939751625061 0.999387621879578 0.999405443668365 0.999411404132843 0.999389231204987 0.999374568462372 0.999303698539734 0.999234676361084 0.999130249023438 0.999157607555389 0.999273002147675 0.999371409416199 0.999257326126099 0.999247491359711 0.999199390411377 0.999163031578064 0.998905599117279 0.998745024204254 0.998905897140503 0.999079525470734 0.999160706996918 0.999178946018219 0.999145448207855 0.999114811420441 0.998934864997864 0.998935699462891 0.998987853527069 0.998857200145721 0.998769998550415 0.998487293720245 0.998081147670746 0.997971951961517 0.997421085834503 0.996911883354187 0.997523486614227 0.99832957983017 0.998531758785248 0.998955011367798 0.999232709407806 0.999458074569702 0.999356091022491 0.999137580394745 0.999140858650208 0.998932242393494 0.998729288578033 0.99883246421814 0.998964011669159 0.998829483985901 0.998404502868652 0.997997999191284 0.997455477714539 0.997466385364532 0.997904300689697 0.997270226478577 0.996367633342743 0.994810819625854 0.989234566688538 0.98751312494278 0.99096554517746 0.992951333522797 0.99401319026947 0.994481205940247 0.994716465473175 0.994624197483063 0.995082080364227 0.995223701000214 0.995395720005035 0.995618999004364 0.995877146720886 0.995906949043274 0.995933771133423 0.996027648448944 0.996087968349457 0.996180593967438 0.996248364448547 0.996144890785217 0.996144652366638 0.99596893787384 0.99582439661026 0.995624244213104 0.995551764965057 0.995478630065918 0.995102047920227 0.995119154453278 0.995057582855225 0.994942247867584 0.994723677635193 0.994764685630798 0.994636356830597 0.994605839252472 0.994339227676392 0.994155645370483 0.993684828281403 0.993295669555664 0.99289333820343 0.992332816123962 0.99160623550415 0.990805625915527 0.990669190883636 0.990814566612244 0.991002023220062 0.990772247314453 0.990054786205292 0.989463090896606 0.988414406776428 0.988804280757904 0.988626718521118 0.987939119338989 0.988361120223999 0.988523662090302 0.988669514656067 0.989221096038818 0.989604890346527 0.989431738853455 0.989821672439575 0.989890575408936 0.990213990211487 0.990450978279114 0.990730404853821 0.990892469882965 0.991546809673309 0.99191427230835 0.991813480854034 0.991731703281403 0.992093920707703 0.992276966571808 0.992419719696045 0.992777943611145 0.992705285549164 0.992602109909058 0.992355406284332 0.992070436477661 0.991903185844421 0.99135810136795 0.991211473941803 0.9906045794487 0.989277601242065 0.987897336483002 0.98545378446579 0.984206974506378 0.979325830936432 0.963882565498352 0.955602765083313 0.95963180065155 0.961769819259644 0.961004018783569
0.999105155467987 0.998287379741669 0.997856557369232 0.998035371303558 0.998489201068878 0.998157978057861 0.998375594615936 0.998247265815735 0.998178720474243 0.998554944992065 0.998767018318176 0.998715937137604 0.998736441135406 0.99873960018158 0.998728513717651 0.998867154121399 0.998317182064056 0.998766601085663 0.999305248260498 0.999397754669189 0.999437272548676 0.999432504177094 0.999425113201141 0.999440133571625 0.999428868293762 0.999342024326324 0.999284744262695 0.999275267124176 0.999206960201263 0.9991694688797 0.99927169084549 0.999318599700928 0.999250113964081 0.999228537082672 0.999306559562683 0.999359130859375 0.99922901391983 0.999129951000214 0.99907910823822 0.999046385288239 0.999025642871857 0.999051749706268 0.999012231826782 0.998999953269958 0.999019801616669 0.99896651506424 0.998947560787201 0.998935878276825 0.998884916305542 0.998829305171967 0.99846613407135 0.998368799686432 0.99807345867157 0.997525155544281 0.99724155664444 0.997721970081329 0.998437106609344 0.998889684677124 0.999093592166901 0.998945951461792 0.998888194561005 0.998866081237793 0.998979926109314 0.998595178127289 0.998604655265808 0.998457670211792 0.998437464237213 0.998350977897644 0.998509168624878 0.997736275196075 0.997630298137665 0.997381329536438 0.997496902942657 0.996839225292206 0.996131360530853 0.994644343852997 0.991107642650604 0.989541172981262 0.991823554039001 0.993315517902374 0.993837356567383 0.994012951850891 0.994043469429016 0.994260668754578 0.994771659374237 0.995254993438721 0.995326042175293 0.995388686656952 0.995582640171051 0.99569171667099 0.995901882648468 0.995983839035034 0.996130108833313 0.996228992938995 0.996235132217407 0.996157467365265 0.996091425418854 0.995951473712921 0.995761632919312 0.995537459850311 0.995524525642395 0.995489180088043 0.995307683944702 0.995060086250305 0.994854867458344 0.994786143302917 0.994458973407745 0.994321405887604 0.994197309017181 0.994330048561096 0.994378328323364 0.994110643863678 0.993509471416473 0.992881298065186 0.992608845233917 0.992067277431488 0.991005122661591 0.989939332008362 0.989649772644043 0.989189445972443 0.988728582859039 0.98882782459259 0.989823997020721 0.988072872161865 0.984407246112823 0.986016750335693 0.98603230714798 0.985685646533966 0.98613166809082 0.986671268939972 0.986548781394958 0.987075448036194 0.987400829792023 0.988237977027893 0.988231718540192 0.988586902618408 0.989451229572296 0.989886164665222 0.990129351615906 0.990587592124939 0.99113267660141 0.991592526435852 0.991642594337463 0.991925835609436 0.992279946804047 0.992406606674194 0.992233276367188 0.992527067661285 0.992500185966492 0.992365956306458 0.991982877254486 0.991770088672638 0.991600573062897 0.991212964057922 0.990903198719025 0.990405559539795 0.989181458950043 0.986329078674316 0.983425796031952 0.980360805988312 0.976982712745667 0.97050678730011 0.9613196849823 0.974560499191284 0.987350940704346 0.981125473976135
0.998976707458496 0.998211860656738 0.997206747531891 0.996780812740326 0.997659146785736 0.998083353042603 0.998139977455139 0.998295783996582 0.998465657234192 0.99858695268631 0.998749017715454 0.998868048191071 0.998801410198212 0.998693287372589 0.998666703701019 0.99870103597641 0.998426377773285 0.999105274677277 0.999344348907471 0.999371469020844 0.99944943189621 0.999440014362335 0.999444544315338 0.999418079853058 0.999362528324127 0.999325335025787 0.999313235282898 0.999265432357788 0.999265015125275 0.999245703220367 0.999241173267365 0.999265193939209 0.999307155609131 0.999251067638397 0.999365568161011 0.999416947364807 0.999322175979614 0.999257564544678 0.999216496944427 0.999128937721252 0.999069392681122 0.999024391174316 0.998988568782806 0.998937785625458 0.998997509479523 0.999038636684418 0.998994052410126 0.998997867107391 0.999046385288239 0.998858511447906 0.998769521713257 0.998627126216888 0.998395621776581 0.998308956623077 0.998076021671295 0.99811315536499 0.998547494411469 0.998883128166199 0.998894393444061 0.99881500005722 0.998578727245331 0.998823821544647 0.99867171049118 0.998096585273743 0.997856557369232 0.998056650161743 0.99811577796936 0.998079597949982 0.998152375221252 0.997625410556793 0.997513234615326 0.99675065279007 0.996846258640289 0.996597707271576 0.996365249156952 0.995384216308594 0.992904365062714 0.99122554063797 0.992335617542267 0.99332731962204 0.993548929691315 0.993404507637024 0.992574274539948 0.991953313350677 0.992737114429474 0.993355512619019 0.994365394115448 0.995101451873779 0.995491087436676 0.995917499065399 0.996025204658508 0.995880722999573 0.996021568775177 0.996284365653992 0.996048331260681 0.996047735214233 0.996019184589386 0.995897114276886 0.995650887489319 0.995484948158264 0.995442986488342 0.995485901832581 0.995271325111389 0.994991421699524 0.994844555854797 0.994672417640686 0.99412989616394 0.993930876255035 0.993989169597626 0.993930578231812 0.993802487850189 0.993457973003387 0.992828786373138 0.9922154545784 0.991907179355621 0.991566240787506 0.990224719047546 0.989302635192871 0.988614201545715 0.987221717834473 0.986655175685883 0.985598921775818 0.988661289215088 0.984572529792786 0.979556977748871 0.9820796251297 0.982352256774902 0.982019603252411 0.983547568321228 0.984108328819275 0.983955800533295 0.984407663345337 0.985059022903442 0.986070930957794 0.986214637756348 0.987172245979309 0.98789381980896 0.989015817642212 0.989906311035156 0.990399897098541 0.990646243095398 0.990817070007324 0.991503417491913 0.992103576660156 0.992577433586121 0.99245274066925 0.992379248142242 0.992292642593384 0.992397904396057 0.992180466651917 0.991933465003967 0.991748571395874 0.991340756416321 0.991030871868134 0.990545511245728 0.98971688747406 0.988397061824799 0.986323952674866 0.983446836471558 0.979651272296906 0.97457879781723 0.975071907043457 0.970741093158722 0.976871013641357 0.990260183811188 0.993426918983459
0.998293995857239 0.997340023517609 0.995306968688965 0.994632661342621 0.996108293533325 0.997506737709045 0.997938632965088 0.998269319534302 0.998425602912903 0.998602688312531 0.998681366443634 0.998790562152863 0.998850107192993 0.998452723026276 0.998654723167419 0.998738467693329 0.998461186885834 0.998951375484467 0.999279737472534 0.999388754367828 0.999440610408783 0.999470591545105 0.999457836151123 0.999396085739136 0.999366581439972 0.999345183372498 0.999291241168976 0.999276101589203 0.999287068843842 0.999282002449036 0.999263048171997 0.999310433864594 0.999319434165955 0.99929803609848 0.999371111392975 0.999397933483124 0.999320209026337 0.999279975891113 0.999284505844116 0.999237537384033 0.999178171157837 0.999138176441193 0.999113500118256 0.99907511472702 0.999026596546173 0.999047756195068 0.999002456665039 0.999034523963928 0.999030828475952 0.999031007289886 0.998951077461243 0.998920679092407 0.998605847358704 0.998620688915253 0.998503625392914 0.998603224754333 0.998745620250702 0.998970568180084 0.999050676822662 0.99884957075119 0.998888731002808 0.998501718044281 0.997937917709351 0.995870649814606 0.996317863464355 0.99721759557724 0.998143136501312 0.997816801071167 0.997301697731018 0.997176587581635 0.995995700359344 0.995284259319305 0.994894325733185 0.995555758476257 0.996147453784943 0.995866358280182 0.993362247943878 0.991754293441772 0.992413222789764 0.99297696352005 0.993007838726044 0.992361605167389 0.991466343402863 0.99121755361557 0.991700708866119 0.991698026657104 0.992148160934448 0.993224024772644 0.994439542293549 0.995199501514435 0.995247066020966 0.995513081550598 0.995517075061798 0.996025085449219 0.996031522750854 0.995939195156097 0.995853960514069 0.995762705802917 0.995574772357941 0.995566010475159 0.995489239692688 0.995338559150696 0.995006799697876 0.994728207588196 0.994693636894226 0.994484722614288 0.993931889533997 0.99371063709259 0.99356472492218 0.99357807636261 0.993500471115112 0.993112921714783 0.992155015468597 0.990972816944122 0.99059134721756 0.990099608898163 0.988491714000702 0.987853348255157 0.986769020557404 0.984921157360077 0.985470116138458 0.984361231327057 0.986634612083435 0.977745890617371 0.974895000457764 0.977275550365448 0.977217018604279 0.977271914482117 0.977292001247406 0.978807330131531 0.980081677436829 0.98063987493515 0.981957197189331 0.983182370662689 0.984663069248199 0.985826313495636 0.985915660858154 0.987723410129547 0.989078402519226 0.989895820617676 0.989928126335144 0.990467131137848 0.991416811943054 0.992164075374603 0.992343842983246 0.992383182048798 0.992179691791534 0.992015898227692 0.992224335670471 0.992039382457733 0.991844177246094 0.99148041009903 0.991051912307739 0.990710973739624 0.990063607692719 0.989139080047607 0.987059235572815 0.986553609371185 0.985111713409424 0.979927897453308 0.976484477519989 0.970545887947083 0.974122524261475 0.980559706687927 0.989867389202118 0.996496856212616
0.996904253959656 0.996670544147491 0.996513366699219 0.991552650928497 0.993295788764954 0.996066868305206 0.997611403465271 0.9979327917099 0.998209714889526 0.998427987098694 0.998697578907013 0.998741269111633 0.998623728752136 0.998201727867126 0.998446702957153 0.998602509498596 0.998354613780975 0.998841464519501 0.999222278594971 0.999369382858276 0.999444186687469 0.999468207359314 0.999414682388306 0.999394118785858 0.999379217624664 0.999328374862671 0.999336659908295 0.999342441558838 0.999263882637024 0.999246299266815 0.999252498149872 0.999322772026062 0.999314546585083 0.999323964118958 0.999334752559662 0.999335408210754 0.999271512031555 0.999252080917358 0.999267101287842 0.999214589595795 0.999148547649384 0.999142289161682 0.999113440513611 0.999089360237122 0.99909782409668 0.99909234046936 0.999086797237396 0.999099314212799 0.99906998872757 0.999067068099976 0.999061822891235 0.998984038829803 0.998859703540802 0.998764395713806 0.998752236366272 0.998702108860016 0.998878836631775 0.999123215675354 0.999112367630005 0.998969256877899 0.998470067977905 0.997723519802094 0.997014880180359 0.99555766582489 0.993176877498627 0.995854020118713 0.997055232524872 0.996986210346222 0.996660351753235 0.995935201644897 0.993905484676361 0.992172598838806 0.99170583486557 0.992388248443604 0.994767904281616 0.995290398597717 0.992600739002228 0.991468250751495 0.992134273052216 0.99271285533905 0.991176187992096 0.99059271812439 0.991679191589355 0.993270635604858 0.993796586990356 0.993734121322632 0.993405759334564 0.993417263031006 0.99440735578537 0.993921220302582 0.99340808391571 0.994620323181152 0.995098829269409 0.995635628700256 0.995780527591705 0.995643198490143 0.995556950569153 0.995605647563934 0.995526373386383 0.995499968528748 0.995427072048187 0.995297133922577 0.994944036006927 0.994639992713928 0.99437153339386 0.994148075580597 0.993831992149353 0.9934983253479 0.993254661560059 0.99323308467865 0.992953360080719 0.992375910282135 0.991489410400391 0.990307748317719 0.9890416264534 0.988057136535645 0.985680937767029 0.985110998153687 0.983767449855804 0.98396635055542 0.983770430088043 0.984098136425018 0.98300039768219 0.971655309200287 0.97126442193985 0.972117781639099 0.969458818435669 0.969987034797668 0.969832599163055 0.972180366516113 0.974537074565887 0.974976539611816 0.977348625659943 0.981210589408875 0.982045531272888 0.982552766799927 0.984053790569305 0.985409617424011 0.986969709396362 0.988206624984741 0.989622533321381 0.990572273731232 0.991612255573273 0.991795182228088 0.991789996623993 0.991931021213531 0.991861283779144 0.991683304309845 0.991786658763885 0.991710603237152 0.991502821445465 0.991104423999786 0.990592956542969 0.990064084529877 0.989777505397797 0.988477051258087 0.987258613109589 0.986725449562073 0.982914924621582 0.977469146251678 0.972143054008484 0.974247336387634 0.980325520038605 0.986568629741669 0.994193851947784 0.998707711696625
0.996115505695343 0.995739698410034 0.998271763324738 0.992336869239807 0.988905787467957 0.99439412355423 0.996728360652924 0.997818350791931 0.998118221759796 0.998429417610168 0.998544037342072 0.998629987239838 0.99851268529892 0.998320162296295 0.998692631721497 0.998517394065857 0.998654246330261 0.998803734779358 0.99913102388382 0.999295949935913 0.999436736106873 0.999429404735565 0.999392330646515 0.999412596225739 0.999374806880951 0.999358355998993 0.999367117881775 0.999345302581787 0.999229550361633 0.99926495552063 0.999116361141205 0.999048590660095 0.998981416225433 0.999012529850006 0.999258100986481 0.999367237091064 0.999329090118408 0.999284982681274 0.999274671077728 0.999263882637024 0.999240577220917 0.999202311038971 0.999170064926147 0.999210476875305 0.999226868152618 0.999220490455627 0.999210000038147 0.999232232570648 0.99912416934967 0.999064326286316 0.999057233333588 0.999020159244537 0.998949706554413 0.998935222625732 0.998887658119202 0.998822391033173 0.99897563457489 0.999139130115509 0.999032974243164 0.998735725879669 0.998459577560425 0.9973184466362 0.995137333869934 0.998612344264984 0.994799256324768 0.99268913269043 0.995649814605713 0.99630206823349 0.995409369468689 0.99326479434967 0.987480580806732 0.982755184173584 0.983951210975647 0.985495746135712 0.990893125534058 0.994085490703583 0.992371380329132 0.990543782711029 0.99170970916748 0.991464793682098 0.988330125808716 0.987508535385132 0.990992307662964 0.993772864341736 0.994181275367737 0.994571030139923 0.994862973690033 0.994843661785126 0.993834257125854 0.990194201469421 0.990251123905182 0.993392646312714 0.994671225547791 0.994957029819489 0.995021522045135 0.995180785655975 0.995287239551544 0.995391309261322 0.995465278625488 0.995456397533417 0.995229125022888 0.995120227336884 0.994952440261841 0.994700491428375 0.99427056312561 0.993705332279205 0.99335515499115 0.993216037750244 0.992864966392517 0.992456555366516 0.992169320583344 0.9918013215065 0.991139829158783 0.98933744430542 0.987649500370026 0.985928893089294 0.984519183635712 0.984589993953705 0.983008146286011 0.983598232269287 0.983063340187073 0.983734428882599 0.981409549713135 0.969096481800079 0.967427849769592 0.9656862616539 0.962819218635559 0.959909617900848 0.96049827337265 0.960571467876434 0.965307891368866 0.968187153339386 0.973878264427185 0.977062702178955 0.979101955890656 0.979501068592072 0.979888439178467 0.982808351516724 0.985394835472107 0.986925065517426 0.988413572311401 0.990256190299988 0.991081357002258 0.991336166858673 0.991421222686768 0.991543173789978 0.991876304149628 0.991522252559662 0.991278469562531 0.991202235221863 0.99077308177948 0.990426480770111 0.989938914775848 0.989458501338959 0.989068925380707 0.987893640995026 0.986913621425629 0.985843420028687 0.980574786663055 0.970569849014282 0.966251611709595 0.979916274547577 0.989624261856079 0.994249880313873 0.998221397399902 0.999400973320007
0.995353043079376 0.994588315486908 0.997351348400116 0.997998714447021 0.991232216358185 0.992963194847107 0.99589616060257 0.997454524040222 0.997993767261505 0.998268246650696 0.998463749885559 0.998611450195312 0.998579740524292 0.998483836650848 0.998685538768768 0.998557984828949 0.998672544956207 0.998769462108612 0.999063730239868 0.999142348766327 0.999318778514862 0.999372720718384 0.999390959739685 0.999364972114563 0.9993497133255 0.999351561069489 0.999307096004486 0.999326169490814 0.999325335025787 0.999164462089539 0.998720288276672 0.998775720596313 0.998315095901489 0.998477518558502 0.999284267425537 0.999431967735291 0.999380111694336 0.999348998069763 0.999351978302002 0.999351441860199 0.999348282814026 0.999286353588104 0.99922913312912 0.999254524707794 0.99930727481842 0.999273419380188 0.999270677566528 0.999195098876953 0.999184966087341 0.999113380908966 0.999097287654877 0.999045372009277 0.99895703792572 0.999011516571045 0.999028563499451 0.998926103115082 0.999013423919678 0.999171137809753 0.999080538749695 0.998924791812897 0.998289227485657 0.997709214687347 0.99612557888031 0.998433113098145 0.997620463371277 0.995449781417847 0.994381487369537 0.994423866271973 0.993993639945984 0.989935696125031 0.984400391578674 0.984983861446381 0.989579260349274 0.986207604408264 0.98798143863678 0.991317212581635 0.992118179798126 0.990405857563019 0.989933609962463 0.987714231014252 0.983297824859619 0.986534059047699 0.991943418979645 0.99426007270813 0.994766533374786 0.994648814201355 0.994348347187042 0.994499623775482 0.991191506385803 0.986517786979675 0.989863514900208 0.992519974708557 0.993858754634857 0.994264841079712 0.994324326515198 0.994752645492554 0.995041310787201 0.995270371437073 0.995222866535187 0.995176374912262 0.995114147663116 0.995053827762604 0.994919538497925 0.994604527950287 0.994096338748932 0.993594944477081 0.993107914924622 0.992846786975861 0.992339670658112 0.991990923881531 0.991314291954041 0.990551650524139 0.989957571029663 0.987571358680725 0.985880672931671 0.985408067703247 0.983991205692291 0.981930315494537 0.980512261390686 0.979296267032623 0.978974759578705 0.981720745563507 0.97616845369339 0.96190881729126 0.958392739295959 0.9580939412117 0.94903689622879 0.949102163314819 0.948684930801392 0.950237452983856 0.95147305727005 0.958998322486877 0.965721845626831 0.971675753593445 0.974518001079559 0.977644681930542 0.977768659591675 0.979210615158081 0.983410477638245 0.985279440879822 0.987515568733215 0.98907482624054 0.990344166755676 0.990681707859039 0.990891993045807 0.991169154644012 0.991529524326324 0.991268873214722 0.990871787071228 0.990847170352936 0.990092039108276 0.98987203836441 0.989157855510712 0.988771796226501 0.988548696041107 0.986592352390289 0.98543906211853 0.98390120267868 0.977887034416199 0.96377956867218 0.969223439693451 0.98698091506958 0.995599925518036 0.998088419437408 0.999334156513214 0.998480319976807
0.994224011898041 0.995787262916565 0.998937487602234 0.997815072536469 0.996359467506409 0.994056284427643 0.99460357427597 0.996949255466461 0.997861981391907 0.998200416564941 0.998439848423004 0.998613834381104 0.998635232448578 0.998575568199158 0.998751938343048 0.998702168464661 0.998492419719696 0.998894274234772 0.999082267284393 0.999047935009003 0.999235153198242 0.999366939067841 0.999406337738037 0.999377906322479 0.999393939971924 0.999395906925201 0.999357104301453 0.999352693557739 0.999333798885345 0.999202132225037 0.9991614818573 0.999116361141205 0.999179601669312 0.999254047870636 0.999383509159088 0.999452173709869 0.999407529830933 0.999389231204987 0.999409079551697 0.999403357505798 0.999376595020294 0.999340236186981 0.999296367168427 0.999270677566528 0.999293506145477 0.999322712421417 0.999289631843567 0.999240040779114 0.999215841293335 0.999211668968201 0.999130725860596 0.999060571193695 0.998968124389648 0.999010443687439 0.998948514461517 0.999028563499451 0.999147772789001 0.999108374118805 0.999001860618591 0.998662292957306 0.998294293880463 0.997685313224792 0.996936798095703 0.999067187309265 0.998663723468781 0.997992038726807 0.99699467420578 0.995491743087769 0.994234323501587 0.99144059419632 0.990141928195953 0.996007442474365 0.995218694210052 0.991157472133636 0.990858733654022 0.990240037441254 0.990494608879089 0.990231096744537 0.988271415233612 0.983437418937683 0.982533931732178 0.989124119281769 0.992353200912476 0.993680357933044 0.994393289089203 0.994803965091705 0.99340695142746 0.992374360561371 0.988170444965363 0.985145568847656 0.989483833312988 0.992158889770508 0.99320775270462 0.993426978588104 0.993993937969208 0.994479894638062 0.99491685628891 0.995079398155212 0.99482250213623 0.99486118555069 0.994877874851227 0.994900703430176 0.994726955890656 0.994383633136749 0.994082033634186 0.993458688259125 0.993079364299774 0.992738366127014 0.992370188236237 0.992066919803619 0.990855991840363 0.989400863647461 0.987647831439972 0.985431969165802 0.982782900333405 0.982068836688995 0.97666347026825 0.974204778671265 0.974748849868774 0.975879192352295 0.975407063961029 0.974373400211334 0.965762376785278 0.94704270362854 0.93917977809906 0.927526235580444 0.896105647087097 0.880444526672363 0.897244393825531 0.922392606735229 0.948271155357361 0.95243626832962 0.958118379116058 0.966514587402344 0.971412181854248 0.973213613033295 0.975131452083588 0.977011203765869 0.980330884456635 0.983909010887146 0.986643433570862 0.988193094730377 0.988796293735504 0.989833354949951 0.990085542201996 0.990411758422852 0.990997195243835 0.991248607635498 0.990457475185394 0.990111529827118 0.989648997783661 0.98918229341507 0.988624930381775 0.987717986106873 0.987285792827606 0.985021710395813 0.983903348445892 0.981870412826538 0.976467669010162 0.970877468585968 0.977226734161377 0.990018486976624 0.997416377067566 0.99908047914505 0.996918380260468 0.993370950222015
0.993728041648865 0.995799422264099 0.999196648597717 0.999081432819366 0.998868763446808 0.995757520198822 0.993868470191956 0.995915472507477 0.997492432594299 0.998027563095093 0.998289823532104 0.998463094234467 0.998620390892029 0.99862015247345 0.998795330524445 0.998716294765472 0.998569548130035 0.998623013496399 0.998966455459595 0.998991966247559 0.999129116535187 0.999272286891937 0.99939489364624 0.999422132968903 0.999414563179016 0.999411523342133 0.999406039714813 0.999390661716461 0.999372363090515 0.999333441257477 0.999337911605835 0.999379873275757 0.999419808387756 0.999438107013702 0.99943482875824 0.99945056438446 0.999417662620544 0.999400973320007 0.99941486120224 0.999400317668915 0.999399721622467 0.999369621276855 0.999351143836975 0.999307155609131 0.999305903911591 0.999351382255554 0.999331414699554 0.999290943145752 0.999279856681824 0.999276995658875 0.999255537986755 0.999205350875854 0.998993813991547 0.998992025852203 0.998888552188873 0.99894380569458 0.998985707759857 0.998919606208801 0.998768150806427 0.997625112533569 0.9965780377388 0.998037695884705 0.997063755989075 0.998711764812469 0.999096751213074 0.998345255851746 0.998264372348785 0.99803638458252 0.997200191020966 0.996548593044281 0.996288537979126 0.994822978973389 0.993424475193024 0.993068277835846 0.993147909641266 0.990233361721039 0.990254044532776 0.988852798938751 0.986381769180298 0.978677153587341 0.98471873998642 0.991452991962433 0.988855540752411 0.990043818950653 0.991632997989655 0.993278741836548 0.993403315544128 0.990258395671844 0.984721958637238 0.983025908470154 0.988633155822754 0.990682244300842 0.991752147674561 0.992759704589844 0.993490040302277 0.994269788265228 0.994546115398407 0.99462503194809 0.994352877140045 0.994348704814911 0.994520485401154 0.994473993778229 0.994211852550507 0.993951141834259 0.993519246578217 0.992963552474976 0.992372095584869 0.992095947265625 0.991499423980713 0.991141974925995 0.990585446357727 0.988574504852295 0.984733819961548 0.980527281761169 0.978618681430817 0.970292448997498 0.962241351604462 0.964975237846375 0.972307741641998 0.971910059452057 0.971324443817139 0.967431247234344 0.958520889282227 0.938895463943481 0.913466572761536 0.89204341173172 0.86937689781189 0.850535333156586 0.85328871011734 0.881976187229156 0.917649567127228 0.945587694644928 0.952534139156342 0.960450291633606 0.965888381004333 0.968951642513275 0.970194101333618 0.973638415336609 0.978155076503754 0.981256723403931 0.984322309494019 0.986408174037933 0.987099647521973 0.988201022148132 0.989336371421814 0.989210486412048 0.990329027175903 0.991413176059723 0.990620136260986 0.989749431610107 0.988849341869354 0.988268792629242 0.987363696098328 0.985681533813477 0.984738290309906 0.98277473449707 0.982308387756348 0.977772772312164 0.974161207675934 0.974437475204468 0.981110036373138 0.991989016532898 0.998697400093079 0.998019874095917 0.993062019348145 0.986884474754333
0.99016660451889 0.99472850561142 0.997898101806641 0.999200642108917 0.999533832073212 0.997531950473785 0.9948690533638 0.99526458978653 0.997159957885742 0.997927367687225 0.998163282871246 0.998333752155304 0.998580932617188 0.99855899810791 0.998710691928864 0.99860405921936 0.998612403869629 0.998656749725342 0.998844742774963 0.99896627664566 0.99906861782074 0.99917060136795 0.99935919046402 0.999408960342407 0.999406814575195 0.999424338340759 0.99943220615387 0.999419450759888 0.999391496181488 0.999379456043243 0.999378204345703 0.999423444271088 0.999439775943756 0.999455332756042 0.999457240104675 0.999467492103577 0.999427437782288 0.999400913715363 0.99941074848175 0.999417066574097 0.999415040016174 0.999412596225739 0.999380946159363 0.999364614486694 0.999340951442719 0.99933648109436 0.999327540397644 0.99933272600174 0.999310493469238 0.999300122261047 0.99928230047226 0.999235808849335 0.999116957187653 0.999027788639069 0.99885481595993 0.998570203781128 0.998261988162994 0.99794065952301 0.997731566429138 0.997551560401917 0.997209310531616 0.99574214220047 0.997395575046539 0.999140441417694 0.999147593975067 0.998758375644684 0.998894035816193 0.998877227306366 0.998290300369263 0.99762088060379 0.995671272277832 0.99259227514267 0.991954326629639 0.994436204433441 0.994540274143219 0.991872251033783 0.989376962184906 0.987858474254608 0.985416948795319 0.97878634929657 0.986835718154907 0.994174361228943 0.989050984382629 0.985177636146545 0.985264956951141 0.987665832042694 0.98993718624115 0.987884819507599 0.981742322444916 0.97985178232193 0.986344397068024 0.989315211772919 0.990588843822479 0.992134034633636 0.993119776248932 0.993572771549225 0.993742644786835 0.993871092796326 0.993608236312866 0.993724226951599 0.9938924908638 0.993870615959167 0.993518769741058 0.993236839771271 0.992896258831024 0.992352783679962 0.991665065288544 0.990789234638214 0.990141630172729 0.989252626895905 0.988207578659058 0.985440015792847 0.981723010540009 0.979928016662598 0.969268500804901 0.952439725399017 0.948151230812073 0.962010324001312 0.970422387123108 0.967149972915649 0.969735264778137 0.965984165668488 0.960065901279449 0.941674828529358 0.922293543815613 0.919393479824066 0.925591349601746 0.918454647064209 0.889445781707764 0.867611765861511 0.899827539920807 0.933276295661926 0.946217179298401 0.953773319721222 0.960624039173126 0.966408789157867 0.966681480407715 0.970093071460724 0.975133836269379 0.977837085723877 0.981795430183411 0.983881831169128 0.985668182373047 0.987040221691132 0.98828125 0.988596141338348 0.988993048667908 0.990432798862457 0.989979445934296 0.989519894123077 0.988817512989044 0.986973166465759 0.984652936458588 0.983319580554962 0.981337249279022 0.978730797767639 0.975116729736328 0.970239162445068 0.971391141414642 0.97870409488678 0.988331615924835 0.996530890464783 0.998376309871674 0.996031045913696 0.989932835102081 0.983960509300232
0.983176589012146 0.992606818675995 0.997063994407654 0.998287439346313 0.999028861522675 0.998347580432892 0.996401786804199 0.995998382568359 0.996718347072601 0.997523009777069 0.998023688793182 0.998355627059937 0.998526692390442 0.998467862606049 0.998582541942596 0.998548805713654 0.998437166213989 0.998627543449402 0.998773992061615 0.998947083950043 0.999045014381409 0.999103426933289 0.999296426773071 0.999424457550049 0.999425888061523 0.999427795410156 0.999431610107422 0.999445855617523 0.999401330947876 0.999417364597321 0.999398529529572 0.999419629573822 0.999470829963684 0.999458491802216 0.999480903148651 0.999469220638275 0.999423146247864 0.999384820461273 0.999429404735565 0.999429881572723 0.999409377574921 0.999415516853333 0.999407887458801 0.999374985694885 0.999339282512665 0.999325215816498 0.999303579330444 0.999320209026337 0.999318659305573 0.999305129051208 0.999268054962158 0.999182343482971 0.999065160751343 0.998993992805481 0.998843371868134 0.99859619140625 0.998142957687378 0.997106969356537 0.995906352996826 0.996459424495697 0.998479306697845 0.998118698596954 0.998316407203674 0.99932724237442 0.998609185218811 0.998644113540649 0.998920679092407 0.998752951622009 0.99834269285202 0.996989846229553 0.995157122612 0.994304299354553 0.994324505329132 0.995071828365326 0.994841814041138 0.992213010787964 0.989268004894257 0.989533185958862 0.986653804779053 0.982612192630768 0.990016222000122 0.997102439403534 0.994023621082306 0.988315463066101 0.98363584280014 0.983011305332184 0.984162867069244 0.982907891273499 0.97862434387207 0.977382004261017 0.984332919120789 0.988445460796356 0.989714801311493 0.991449773311615 0.992441654205322 0.992799639701843 0.993048250675201 0.993415236473083 0.993077337741852 0.993263840675354 0.993441104888916 0.99336314201355 0.992866992950439 0.992402255535126 0.992366433143616 0.991930603981018 0.991242468357086 0.99016547203064 0.989150762557983 0.987635374069214 0.985157012939453 0.98205041885376 0.981678009033203 0.975548923015594 0.961375534534454 0.934407591819763 0.942397952079773 0.973821759223938 0.977205514907837 0.972002744674683 0.970596432685852 0.962077856063843 0.952834129333496 0.95244425535202 0.953614175319672 0.958003401756287 0.968095421791077 0.970586001873016 0.921421587467194 0.871868312358856 0.851251363754272 0.890067517757416 0.93194055557251 0.950198173522949 0.955121755599976 0.963022768497467 0.965337514877319 0.96876847743988 0.973251521587372 0.976180911064148 0.980587124824524 0.982429981231689 0.984537363052368 0.98716813325882 0.988498866558075 0.988241970539093 0.988109946250916 0.989621698856354 0.988889157772064 0.988582372665405 0.987645745277405 0.985942006111145 0.98455148935318 0.981216251850128 0.972280919551849 0.96141254901886 0.963304460048676 0.968703627586365 0.976357758045197 0.986744165420532 0.995447397232056 0.999042689800262 0.99639093875885 0.992353737354279 0.98747318983078 0.985725045204163
0.981253206729889 0.986503124237061 0.994423985481262 0.996834874153137 0.99828040599823 0.998643517494202 0.997719645500183 0.997359454631805 0.996761858463287 0.996837735176086 0.997739613056183 0.998281955718994 0.998533666133881 0.998452842235565 0.998487174510956 0.998517274856567 0.99829113483429 0.998548269271851 0.998664677143097 0.998847126960754 0.999026358127594 0.999092638492584 0.99926096200943 0.999425649642944 0.999455392360687 0.999441385269165 0.999417960643768 0.99939626455307 0.99940437078476 0.999437868595123 0.999442994594574 0.999438345432281 0.999463558197021 0.999462723731995 0.999477684497833 0.999466478824615 0.999416828155518 0.999389111995697 0.999396681785583 0.999404191970825 0.999382317066193 0.999394178390503 0.999414622783661 0.999400317668915 0.999364614486694 0.999272882938385 0.999304473400116 0.999298393726349 0.999296367168427 0.999306082725525 0.999277234077454 0.999170422554016 0.999035775661469 0.998889327049255 0.998744666576385 0.998601019382477 0.998117208480835 0.997242033481598 0.99584686756134 0.994067966938019 0.995387434959412 0.998202741146088 0.998193860054016 0.998136937618256 0.997942328453064 0.998215615749359 0.998633444309235 0.998689711093903 0.998002648353577 0.996612012386322 0.996099472045898 0.996062994003296 0.996329128742218 0.996970176696777 0.99494868516922 0.991234838962555 0.991746544837952 0.991867303848267 0.988126993179321 0.986243963241577 0.993262469768524 0.998456656932831 0.998035311698914 0.995910406112671 0.991056799888611 0.985288739204407 0.982460737228394 0.978331089019775 0.973014354705811 0.975025057792664 0.981654286384583 0.986678659915924 0.988794803619385 0.990087032318115 0.991292119026184 0.991935431957245 0.992252171039581 0.992754340171814 0.992581903934479 0.992696344852448 0.992734849452972 0.992756545543671 0.99227112531662 0.991688907146454 0.99164867401123 0.991200387477875 0.990302383899689 0.98937726020813 0.987897336483002 0.985432922840118 0.981696248054504 0.979471266269684 0.979496002197266 0.970993101596832 0.954880118370056 0.925653278827667 0.94720458984375 0.978143155574799 0.974267423152924 0.976720690727234 0.969053506851196 0.961865484714508 0.963867604732513 0.970032691955566 0.97357565164566 0.971230149269104 0.971619427204132 0.977158010005951 0.962405622005463 0.914613544940948 0.86521965265274 0.845869660377502 0.881380975246429 0.936177730560303 0.950013339519501 0.957151651382446 0.959663152694702 0.967258512973785 0.972765266895294 0.974495708942413 0.978350937366486 0.980943977832794 0.983286023139954 0.986360490322113 0.987490057945251 0.987343490123749 0.987914502620697 0.988346636295319 0.988248467445374 0.98742139339447 0.986281096935272 0.984714329242706 0.981893360614777 0.971971154212952 0.954450190067291 0.951462090015411 0.966578662395477 0.977783262729645 0.986042022705078 0.994626522064209 0.999090611934662 0.997667908668518 0.993280172348022 0.989683151245117 0.988254725933075 0.989185690879822
0.988512933254242 0.986599028110504 0.991493225097656 0.995695173740387 0.997612476348877 0.998669922351837 0.998584687709808 0.998446583747864 0.997395217418671 0.996533274650574 0.997108399868011 0.998026430606842 0.998398721218109 0.998391032218933 0.998396933078766 0.998542666435242 0.998277544975281 0.998485386371613 0.998553991317749 0.998760282993317 0.999046802520752 0.999102294445038 0.999233663082123 0.999383866786957 0.999459505081177 0.999474048614502 0.999458193778992 0.999413132667542 0.99944394826889 0.999437570571899 0.999457716941833 0.999447822570801 0.999454498291016 0.99947315454483 0.999474823474884 0.999446749687195 0.999378740787506 0.999372899532318 0.99937504529953 0.999372184276581 0.999358892440796 0.99941098690033 0.999439656734467 0.999448478221893 0.999408841133118 0.999311685562134 0.999272584915161 0.999309122562408 0.999303221702576 0.999344229698181 0.999332547187805 0.999215424060822 0.999037802219391 0.99895042181015 0.99880838394165 0.998649060726166 0.99848884344101 0.99759966135025 0.996315956115723 0.994417190551758 0.993935465812683 0.996123731136322 0.997019410133362 0.99735164642334 0.99744701385498 0.997597873210907 0.997817814350128 0.997894883155823 0.997066736221313 0.99638956785202 0.996975362300873 0.997142434120178 0.997273147106171 0.997642278671265 0.994818985462189 0.992169439792633 0.993457615375519 0.99188894033432 0.987395644187927 0.988713383674622 0.994633913040161 0.998680949211121 0.99905800819397 0.999016165733337 0.996650397777557 0.990054905414581 0.982459485530853 0.969555556774139 0.964133977890015 0.97127240896225 0.979418873786926 0.985474586486816 0.98743736743927 0.989308059215546 0.990611135959625 0.991465449333191 0.992032587528229 0.992209851741791 0.991918385028839 0.992132663726807 0.992130517959595 0.992143094539642 0.991833567619324 0.991119027137756 0.990844011306763 0.990238904953003 0.989262759685516 0.988045036792755 0.98633873462677 0.983624279499054 0.97892290353775 0.977095365524292 0.974737882614136 0.966568648815155 0.949332296848297 0.937060356140137 0.960334360599518 0.984280824661255 0.968218088150024 0.972129046916962 0.972214043140411 0.974545657634735 0.981088221073151 0.983000040054321 0.982578754425049 0.983071208000183 0.986141502857208 0.992319047451019 0.991632640361786 0.97632247209549 0.933815240859985 0.865525782108307 0.843562602996826 0.89164412021637 0.940350413322449 0.952212929725647 0.951652050018311 0.959519684314728 0.967888057231903 0.970507085323334 0.974572241306305 0.979712069034576 0.982921063899994 0.985617339611053 0.986135721206665 0.986429154872894 0.986538708209991 0.987019300460815 0.987280070781708 0.986513316631317 0.984327256679535 0.980398178100586 0.975146472454071 0.961638867855072 0.950464844703674 0.962056457996368 0.984103560447693 0.990130126476288 0.994444370269775 0.998703598976135 0.998810172080994 0.995683312416077 0.99162757396698 0.990858376026154 0.991242527961731 0.992238223552704
0.99468070268631 0.98860776424408 0.989972770214081 0.993982434272766 0.996707797050476 0.998185575008392 0.998664557933807 0.998839855194092 0.998216986656189 0.996990025043488 0.996708273887634 0.997614324092865 0.998212277889252 0.998320698738098 0.998338878154755 0.998502731323242 0.998240113258362 0.998566865921021 0.998621702194214 0.998670876026154 0.999020218849182 0.999130845069885 0.999268889427185 0.999361753463745 0.999444305896759 0.999502539634705 0.999473333358765 0.999440252780914 0.999422311782837 0.999421417713165 0.999435186386108 0.999495267868042 0.999465525150299 0.999440789222717 0.999453246593475 0.999405860900879 0.999365568161011 0.999366819858551 0.999367117881775 0.99936431646347 0.999338507652283 0.999380648136139 0.999445021152496 0.999424695968628 0.999423146247864 0.999370336532593 0.999342441558838 0.999344825744629 0.999316811561584 0.999310433864594 0.999320387840271 0.999171614646912 0.99892270565033 0.998861134052277 0.998742282390594 0.998599946498871 0.998396039009094 0.99810779094696 0.997177004814148 0.996007323265076 0.995787143707275 0.996972799301147 0.997740030288696 0.997973203659058 0.997734725475311 0.997607827186584 0.997485041618347 0.997287392616272 0.997083842754364 0.997178196907043 0.997702240943909 0.997776985168457 0.997528612613678 0.997305810451508 0.994761049747467 0.993032813072205 0.993712902069092 0.989303708076477 0.987717866897583 0.992344379425049 0.996402263641357 0.999426543712616 0.999601542949677 0.999470174312592 0.998148560523987 0.99323844909668 0.984166324138641 0.958624243736267 0.950423240661621 0.965801358222961 0.976905047893524 0.983907401561737 0.986212611198425 0.988387227058411 0.989960134029388 0.990804374217987 0.991592884063721 0.991672396659851 0.991295695304871 0.991409838199615 0.991437137126923 0.99115651845932 0.990678727626801 0.990451872348785 0.989905774593353 0.989165484905243 0.987860560417175 0.986643552780151 0.984444856643677 0.982095420360565 0.97628515958786 0.974784791469574 0.968437373638153 0.960979461669922 0.958900153636932 0.944925665855408 0.961699545383453 0.995163679122925 0.980298757553101 0.973881423473358 0.979902327060699 0.983152866363525 0.98532909154892 0.985912322998047 0.983519613742828 0.989615142345428 0.99711000919342 0.998598515987396 0.997180104255676 0.994695782661438 0.980325043201447 0.93509304523468 0.856714189052582 0.863661825656891 0.928568780422211 0.947239518165588 0.945946574211121 0.951359272003174 0.959773123264313 0.962632834911346 0.969653010368347 0.977985024452209 0.983429729938507 0.984742939472198 0.986061573028564 0.986024439334869 0.986085176467896 0.986905872821808 0.986344933509827 0.984957814216614 0.979637026786804 0.976985991001129 0.968607664108276 0.96030205488205 0.965124487876892 0.984417259693146 0.995372414588928 0.998598754405975 0.999674916267395 0.999440491199493 0.99765533208847 0.993927776813507 0.990386962890625 0.990793704986572 0.992111325263977 0.993236243724823
