NCOLS 172
NROWS 32
XLLCORNER 353712
YLLCORNER 6699840
CELLSIZE 16 
NODATA_value -3.4e+38 
-0.229560121893883 -0.161177441477776 -0.0511673018336296 0.00391631247475743 0.0563396066427231 0.12612546980381 0.474485218524933 0.810790002346039 0.331072807312012 0.429711014032364 0.554077863693237 0.734390914440155 0.89518404006958 1.057337641716 1.18325734138489 1.26375007629395 1.33783197402954 1.59257829189301 1.60157632827759 1.45873808860779 1.6919105052948 1.64692139625549 1.73964440822601 1.88179886341095 1.97415840625763 2.11447477340698 2.48089623451233 2.31633305549622 2.09400248527527 1.92207562923431 1.7801079750061 1.67733478546143 1.6188839673996 1.58325386047363 1.6404824256897 1.86852240562439 1.62203729152679 1.15740895271301 0.298838138580322 0.227226227521896 0.183609545230865 0.106986321508884 0.0774821788072586 0.0258690882474184 -0.0523924641311169 -0.0471500679850578 -0.0821311995387077 -0.154542058706284 -0.144702985882759 -0.176367491483688 -0.24266916513443 -0.26615047454834 -0.235437825322151 -0.121241740882397 -0.0120201222598553 0.00106312171556056 0.206299886107445 0.443801164627075 0.587429821491241 0.839894592761993 1.33057844638824 1.40831136703491 1.46035528182983 1.69550728797913 1.83624124526978 2.03577089309692 2.11061859130859 2.29678225517273 2.4762909412384 2.67236757278442 2.83935117721558 3.1335597038269 3.43472719192505 4.02404260635376 4.57046937942505 4.42887449264526 4.30905389785767 3.49104237556458 3.38739800453186 3.32491016387939 3.25639081001282 3.16159749031067 2.94213390350342 2.95271897315979 3.0137460231781 3.11902832984924 3.14865279197693 2.98208832740784 2.92360067367554 2.84124350547791 2.87781548500061 2.94804811477661 2.98871541023254 3.71078109741211 6.15906810760498 8.75228118896484 10.4722499847412 13.7040147781372 15.3977422714233 18.9879817962646 23.1884613037109 30.349458694458 34.121036529541 21.5039482116699 14.855827331543 8.20118618011475 7.35259675979614 1.04624974727631 0.765431821346283 0.693772315979004 1.21573650836945 1.46535277366638 1.65461623668671 2.85330867767334 3.92125988006592 2.36004066467285 3.12786459922791 3.97520518302917 6.3454761505127 6.80732107162476 9.02440929412842 11.9111576080322 11.0633869171143 2.20322179794312 2.30159878730774 2.80381274223328 3.27512788772583 3.6848771572113 3.9595308303833 4.09189510345459 4.0971827507019 4.14291143417358 4.30005407333374 4.33004951477051 4.39928579330444 4.43028736114502 4.46179056167603 4.47017335891724 4.37041759490967 4.78675508499146 5.05192899703979 4.3073468208313 4.36811351776123 4.41637754440308 4.53809690475464 4.61698293685913 4.84354496002197 5.67401218414307 6.5816855430603 6.23952436447144 6.66245937347412 6.73923635482788 6.83696269989014 6.35589551925659 7.00316619873047 6.79888153076172 8.4113655090332 7.5588173866272 3.18409943580627 0.175066933035851 0.288784086704254 0.429475605487823 0.59014755487442 0.715927183628082 0.924481809139252 1.13670551776886 1.7865971326828 2.5229012966156 3.07907009124756 4.18813705444336 5.6436185836792 4.36179971694946
-0.170611590147018 -0.12411667406559 -0.0553996786475182 0.0525151044130325 0.0960139334201813 0.200166404247284 0.297123372554779 0.933995366096497 0.640020966529846 0.536264419555664 0.6034796833992 0.753588020801544 0.877044141292572 1.03925585746765 1.1533442735672 1.22851002216339 1.38210928440094 2.89480876922607 2.67290616035461 1.55926406383514 1.6607518196106 1.68365323543549 1.76558709144592 1.84403002262115 1.91280877590179 1.99786710739136 2.08055925369263 2.38956522941589 2.21008229255676 2.08575367927551 2.0281457901001 1.53356564044952 1.39752161502838 1.3373703956604 1.34180188179016 1.40183353424072 1.44866752624512 1.24103188514709 0.765776336193085 0.581084430217743 0.236092403531075 0.0423159003257751 -0.0120066311210394 -0.118797741830349 -0.175937458872795 -0.24338661134243 -0.278623074293137 -0.334692507982254 -0.319751054048538 -0.327983289957047 -0.325857192277908 -0.264733493328094 -0.215563416481018 -0.189222872257233 -0.156205639243126 -0.100275337696075 0.130451411008835 0.387498199939728 0.783510029315948 1.26257288455963 1.38504028320312 1.62447547912598 1.64731752872467 1.74050295352936 1.91005253791809 2.1032121181488 2.28507828712463 2.37535810470581 2.54529666900635 2.74175238609314 2.81932520866394 3.07691502571106 3.26061487197876 3.79965877532959 3.43912696838379 3.45773386955261 3.44114255905151 3.32950091362 3.19483661651611 3.12573289871216 3.11771512031555 2.93039107322693 2.78358149528503 2.83430290222168 2.9567928314209 3.03288722038269 2.87177634239197 2.81021690368652 2.73169231414795 2.76193165779114 2.79324841499329 3.00870203971863 5.03862428665161 5.48427391052246 7.51081418991089 8.84851551055908 11.4122133255005 13.3207674026489 15.323655128479 17.1813526153564 20.4885158538818 27.2070350646973 35.8570976257324 26.8597278594971 16.1953048706055 9.67864894866943 11.4950275421143 4.97400760650635 3.45395255088806 0.505798995494843 0.848846256732941 1.22821426391602 1.55031907558441 1.92184662818909 2.48773598670959 3.65115094184875 4.26939630508423 4.89494466781616 5.47184705734253 8.09675025939941 10.6642503738403 13.4671669006348 12.9360704421997 2.21123075485229 2.24691820144653 2.7379355430603 3.16423416137695 3.5565402507782 3.64797902107239 3.72611355781555 3.667400598526 3.81468534469604 3.90427112579346 3.90627312660217 3.84480476379395 3.88324236869812 3.77623343467712 3.75873327255249 3.82197332382202 3.86428999900818 3.94876837730408 4.00985765457153 4.01782321929932 4.0191330909729 4.18175888061523 4.74012470245361 5.04684782028198 5.7029595375061 5.91391324996948 5.84557485580444 5.79943609237671 6.05670976638794 5.73507738113403 6.125403881073 5.91522264480591 5.9718861579895 6.03516864776611 6.98373651504517 5.07665586471558 2.29322671890259 0.198479041457176 0.309385448694229 0.452736496925354 0.699716329574585 1.25654304027557 1.47965240478516 1.95834565162659 2.34955668449402 2.87740159034729 3.20992350578308 3.86206126213074 5.64876556396484
0.095385953783989 -0.111290745437145 -0.0371894538402557 0.101997070014477 0.154391691088676 0.208777606487274 0.325677514076233 0.445749998092651 0.48991459608078 0.55903822183609 0.659011900424957 0.74865186214447 0.837960541248322 0.969168603420258 1.11300134658813 1.24010336399078 1.45121026039124 2.29777860641479 1.90754699707031 1.58198297023773 1.66918992996216 1.70750784873962 1.74981081485748 1.77790951728821 1.86899328231812 1.90570604801178 2.05803608894348 2.23486614227295 2.09624719619751 2.40755558013916 2.27376985549927 1.88549363613129 1.42878270149231 1.14474034309387 1.03805601596832 1.00611281394958 1.07396519184113 1.09964919090271 0.808236241340637 0.487806499004364 0.0409535691142082 -0.0369868464767933 -0.142620027065277 -0.20732219517231 -0.32784229516983 -0.388950884342194 -0.439688146114349 -0.467457354068756 -0.424895733594894 -0.363862574100494 -0.315302520990372 -0.251053512096405 -0.282015681266785 -0.308845609426498 -0.337254106998444 -0.139682784676552 0.189239978790283 0.701867520809174 1.18253028392792 1.30694544315338 1.54186820983887 1.65338718891144 1.79819715023041 1.84393358230591 2.00366020202637 2.17654752731323 2.34399843215942 2.53815579414368 2.63283371925354 2.74421072006226 2.97843289375305 3.13367915153503 3.23269748687744 3.32675099372864 3.31844997406006 3.1689977645874 3.03788828849792 2.94701170921326 2.92746901512146 2.93903994560242 2.84071207046509 2.76930093765259 2.80316305160522 2.82884407043457 2.75446367263794 2.69583797454834 2.70530104637146 2.62982082366943 2.65529823303223 2.68469023704529 2.82260799407959 4.51620531082153 6.1446795463562 7.24411487579346 7.76069784164429 9.81880569458008 11.1010990142822 12.8134069442749 14.4803943634033 16.2569694519043 18.9065742492676 23.5787124633789 31.9721717834473 34.3063163757324 20.3518981933594 11.9273834228516 11.067759513855 11.0611352920532 10.8373584747314 2.61597943305969 1.03725206851959 1.41290593147278 1.84900104999542 2.22141194343567 2.77714443206787 5.31564092636108 7.94756555557251 6.10958862304688 6.73780965805054 10.0390605926514 15.2272043228149 15.4148654937744 13.3698472976685 4.15518283843994 2.24699354171753 2.60159540176392 3.09602212905884 3.34219932556152 3.35983490943909 3.3581874370575 3.21938633918762 3.27778816223145 3.42269206047058 3.43147277832031 3.42366194725037 3.22529792785645 3.33879542350769 3.44755959510803 3.50680494308472 3.63225483894348 3.65706896781921 3.70840501785278 3.76267409324646 3.86812853813171 4.38452959060669 4.76301336288452 5.0859899520874 5.17710208892822 5.28563070297241 5.07552051544189 4.84090042114258 4.95914745330811 5.44240999221802 5.16868114471436 5.37924003601074 5.14739084243774 4.69106721878052 5.7966423034668 6.16928195953369 4.91459321975708 1.73227179050446 0.250563204288483 0.357173293828964 0.746906936168671 1.29653763771057 1.71912324428558 1.93929171562195 2.17124152183533 2.4676194190979 2.90112042427063 5.06491374969482 5.65805768966675
0.303088128566742 -0.121954239904881 -0.0487614534795284 0.0602160356938839 0.15374568104744 0.282697796821594 0.383723974227905 0.450021475553513 0.553747951984406 0.618365705013275 0.704401254653931 0.763870477676392 0.865104377269745 0.973405003547668 1.10124313831329 1.21343719959259 1.32963371276855 1.51358652114868 1.48835909366608 1.57702660560608 1.65082371234894 1.7042750120163 1.70672535896301 1.7559005022049 1.76521050930023 1.79146385192871 1.91834878921509 2.07617497444153 2.15386509895325 2.31498289108276 2.28331542015076 2.04111742973328 1.67806434631348 1.06728410720825 0.682246267795563 0.596406996250153 0.41645872592926 0.579923808574677 0.463408410549164 0.324035793542862 -0.12870429456234 -0.168568447232246 -0.24664281308651 -0.370137095451355 -0.379461616277695 -0.484936535358429 -0.559730648994446 -0.551667511463165 -0.452299058437347 -0.360271006822586 -0.3415687084198 -0.320062905550003 -0.358938008546829 -0.408845126628876 -0.435427755117416 -0.230630338191986 0.351895987987518 1.08372640609741 1.20931601524353 1.43948233127594 1.53956985473633 1.69841861724854 1.84944677352905 2.0047619342804 2.08180809020996 2.22856950759888 2.4189248085022 2.51547002792358 2.77934956550598 2.96447420120239 3.0727105140686 3.14247870445251 3.16815280914307 3.19585847854614 2.97370982170105 2.7693784236908 2.55387091636658 2.44254231452942 2.37450790405273 2.48365712165833 2.61440014839172 2.71860408782959 2.75804305076599 2.62135934829712 2.55616402626038 2.48538613319397 2.5075159072876 2.55863976478577 2.58546876907349 3.87416005134583 4.22229146957397 5.50539207458496 6.47939777374268 8.02602577209473 8.7632942199707 9.55769729614258 11.0181865692139 12.0866584777832 13.2332344055176 15.1087627410889 17.4926509857178 21.3661308288574 27.2280693054199 34.6083221435547 27.7603054046631 19.1217918395996 14.0804328918457 15.4576749801636 17.5383396148682 12.1758365631104 6.00278329849243 1.85788404941559 2.21153974533081 3.06450605392456 4.32075786590576 4.83183288574219 8.66719245910645 9.77785873413086 10.6284847259521 13.5724468231201 19.7068214416504 17.4393615722656 12.7264060974121 6.69769668579102 2.39295530319214 2.51347756385803 2.88214755058289 3.01154637336731 3.06881666183472 2.99687266349792 2.92758774757385 2.80354452133179 2.78132724761963 2.84718775749207 2.84348821640015 2.78721737861633 2.9062876701355 3.17356514930725 3.27299499511719 3.28851461410522 3.31045699119568 3.41159725189209 3.84362316131592 4.03307914733887 4.33445978164673 4.30463743209839 4.59441614151001 4.66386365890503 4.44740200042725 4.29759168624878 4.37805652618408 4.19420480728149 4.50061225891113 4.74977445602417 4.54935359954834 4.41891479492188 4.18053817749023 3.83444213867188 4.32882022857666 4.22482013702393 2.95249652862549 0.3732028901577 0.363250553607941 0.60818874835968 1.13011562824249 1.53730249404907 1.81453692913055 2.38466238975525 2.65500688552856 4.44829797744751 4.99552965164185 5.93668746948242
0.590879917144775 -0.170557081699371 -0.224491283297539 -0.194428771734238 -0.00978279206901789 0.228793740272522 0.40800729393959 0.493920296430588 0.590158045291901 0.691041052341461 0.757464051246643 0.802096724510193 0.875787436962128 0.956376433372498 1.05482125282288 1.17464518547058 1.32002282142639 1.46109306812286 1.49568700790405 1.5551153421402 1.62366116046906 1.68297290802002 1.69221448898315 1.67464661598206 1.67908596992493 1.71685016155243 1.80360722541809 1.94507503509521 2.10662484169006 2.36490249633789 2.35132670402527 2.30247354507446 2.1944842338562 1.34988117218018 0.638778388500214 0.241168737411499 0.0646459609270096 -0.00183927093166858 0.00515608629211783 0.0166412070393562 -0.0952897593379021 -0.259659707546234 -0.406973749399185 -0.522477567195892 0.0358726717531681 0.155531376600266 -0.583662271499634 -0.565239787101746 -0.473317593336105 -0.466538697481155 -0.427282094955444 -0.427956938743591 -0.0844766721129417 -0.510888397693634 -0.514858841896057 -0.335661292076111 0.441782414913177 1.10740113258362 1.33674848079681 1.43544268608093 1.58594369888306 1.7345929145813 1.89098727703094 2.04319787025452 2.23418116569519 2.32641696929932 2.43730616569519 2.65253329277039 2.83140516281128 2.93731880187988 3.02246189117432 3.04584145545959 3.04984951019287 4.14613389968872 3.01683664321899 2.38947439193726 2.08627152442932 2.01160740852356 2.12978911399841 2.32942938804626 2.48282670974731 2.47799205780029 2.4617908000946 2.47103142738342 2.40303111076355 2.41938042640686 2.44691801071167 2.53486585617065 3.55712604522705 4.72997665405273 5.58859539031982 5.91008710861206 7.19899654388428 7.85330009460449 9.02898025512695 9.66240215301514 10.3985843658447 11.2310390472412 12.6185245513916 14.094895362854 15.8786849975586 18.5813846588135 22.2135925292969 25.3139476776123 28.1238689422607 24.8638916015625 17.8014469146729 14.1025676727295 14.6099328994751 15.5654678344727 11.7871856689453 7.27515840530396 4.75932025909424 4.69184732437134 5.89086771011353 6.41362142562866 10.6239404678345 10.9161682128906 12.9371061325073 17.6231021881104 22.2002544403076 18.4125709533691 14.3733940124512 11.0427131652832 8.89587688446045 2.75819373130798 2.89434862136841 2.80977773666382 2.55803394317627 2.5492115020752 2.53922343254089 2.51954364776611 2.28227424621582 2.288907289505 2.42811036109924 2.52923011779785 2.66332912445068 2.93765425682068 3.06002473831177 3.08440136909485 3.1749279499054 3.55641579627991 3.78950119018555 3.97863292694092 3.94911074638367 3.94724011421204 3.69511604309082 3.93572878837585 3.8079514503479 3.82579135894775 3.67893218994141 3.72174715995789 3.47750401496887 3.91196870803833 3.93978309631348 3.68811202049255 3.47426342964172 3.07292747497559 2.94739079475403 3.36982893943787 3.74581289291382 3.06165504455566 0.768760561943054 0.764935731887817 0.899589896202087 1.22786724567413 2.139004945755 3.62217116355896 4.03147268295288 4.33850622177124 5.10004234313965 5.19959402084351
2.70275783538818 -0.231134414672852 -0.443463027477264 -0.448596477508545 -0.236258134245872 0.0927733853459358 0.368108630180359 0.532424211502075 0.619480669498444 0.726543664932251 0.767766535282135 0.812195241451263 0.85059130191803 0.924987316131592 1.00568521022797 1.13519656658173 1.27753973007202 1.41995084285736 1.51656806468964 1.53895449638367 1.60624766349792 1.62531638145447 1.64367258548737 1.61308658123016 1.60232663154602 1.72261130809784 1.78928112983704 1.81846499443054 2.04479646682739 2.44874858856201 2.56751370429993 2.56008172035217 2.43872952461243 2.41535520553589 2.04223990440369 0.0468751676380634 -0.108391746878624 -0.333079934120178 -0.303476095199585 -0.290096342563629 -0.077060230076313 0.378624707460403 -0.529461562633514 -0.624050438404083 -0.592008948326111 0.372253179550171 -0.448793023824692 -0.570580780506134 -0.572813808917999 -0.551629424095154 -0.534676313400269 -0.528521716594696 -0.580455839633942 -0.590323567390442 -0.558398842811584 -0.423733562231064 0.432270228862762 1.06365633010864 1.34494161605835 1.49033546447754 1.62576627731323 1.77520251274109 1.91356694698334 2.11758184432983 2.22644734382629 2.46152234077454 2.63505935668945 2.73667669296265 2.83340072631836 2.9043333530426 2.91015243530273 2.87517356872559 4.13442325592041 6.25373649597168 6.59688758850098 2.06093907356262 1.69603061676025 1.79915654659271 1.89590358734131 2.05011343955994 2.19055795669556 2.2694251537323 2.28259062767029 2.29491472244263 2.34054255485535 2.36581087112427 2.47668743133545 3.29385375976562 4.3492546081543 5.13954067230225 6.20012283325195 6.75421047210693 7.11713457107544 8.08773231506348 8.50854778289795 9.20722579956055 9.85506343841553 10.8670320510864 11.7707052230835 12.9483442306519 14.6222515106201 16.4374866485596 17.6881942749023 18.9159832000732 19.0171051025391 19.6106491088867 13.0698928833008 10.6567068099976 9.98405075073242 9.67703247070312 9.82017993927002 8.24964904785156 6.05958366394043 5.34510850906372 7.08170795440674 8.564772605896 10.4205751419067 12.3031539916992 14.2241325378418 17.8360977172852 23.715446472168 19.6942539215088 19.7910766601562 16.7142772674561 15.7227602005005 9.68613719940186 5.03816509246826 6.50213432312012 3.07771110534668 2.08323001861572 2.04559993743896 2.04740691184998 1.99575936794281 2.07826709747314 2.22252655029297 2.36603975296021 2.47814178466797 2.67662119865417 2.85635042190552 2.96861362457275 3.3045768737793 3.500896692276 3.4861261844635 3.56645369529724 3.61719131469727 3.32924604415894 3.22339582443237 3.16332626342773 3.39486336708069 3.27303528785706 3.25650811195374 3.02442049980164 3.05392837524414 2.89001941680908 3.12463998794556 3.02666091918945 2.61441421508789 2.51184177398682 2.74007701873779 2.72990107536316 3.04673528671265 3.47615528106689 2.73943591117859 0.912586152553558 1.54605972766876 1.77579569816589 3.08670401573181 3.62434029579163 4.15487051010132 4.46082162857056 4.57444047927856 4.32439565658569
6.51725673675537 7.02727079391479 2.73463654518127 -0.431353121995926 -0.321440488100052 -0.0701413378119469 0.259774386882782 0.520140826702118 0.645773112773895 0.713624238967896 0.780667662620544 0.812207341194153 0.83990752696991 0.8844034075737 0.946556270122528 1.07229948043823 1.20910239219666 1.35356557369232 1.50813102722168 1.54576325416565 1.56116986274719 1.59232711791992 1.57374715805054 1.59198784828186 1.5861474275589 1.6076352596283 1.70955204963684 1.82442426681519 1.93242454528809 2.44508981704712 2.7997419834137 2.72803544998169 2.89206051826477 3.77505707740784 3.77658987045288 5.21160840988159 2.23494648933411 -0.702172100543976 -0.588079750537872 -0.500868916511536 -0.417098015546799 0.73538613319397 -0.289188712835312 -0.648263871669769 -0.610201299190521 0.0464902929961681 -0.202690869569778 -0.615768313407898 -0.658083260059357 -0.590957283973694 -0.597185134887695 -0.0921863466501236 -0.648921370506287 -0.632293701171875 -0.571335315704346 -0.49004665017128 0.280345559120178 1.00644266605377 1.34075367450714 1.53294289112091 1.67373955249786 1.78363740444183 1.95474624633789 2.08361721038818 2.34713387489319 2.52685737609863 2.62508320808411 2.71311664581299 2.74585890769958 2.7932505607605 2.75438332557678 2.68714952468872 4.54237127304077 8.01411247253418 6.93962478637695 1.49927854537964 1.43793225288391 1.64812159538269 1.73948931694031 1.72491526603699 1.92415225505829 2.11529684066772 2.21986126899719 2.24496340751648 2.2805027961731 2.93733048439026 3.20079946517944 4.01952505111694 4.7513575553894 5.70548915863037 6.19679260253906 6.95252418518066 7.31312131881714 7.61481189727783 8.26508331298828 8.89641761779785 9.51659774780273 10.1577978134155 10.8470602035522 11.4906301498413 12.8053188323975 13.9561100006104 14.0639181137085 14.2243680953979 14.3819160461426 13.4765977859497 10.1600475311279 8.40396118164062 7.20299863815308 6.28043270111084 6.91922473907471 7.44195604324341 6.73523378372192 6.82884883880615 7.95654296875 9.44162178039551 10.6407823562622 11.7504453659058 13.2706489562988 15.8277292251587 19.8447742462158 22.9521808624268 22.6570129394531 19.3232936859131 13.5418844223022 9.977370262146 9.44715309143066 9.87342166900635 8.28705215454102 3.40366291999817 1.64528393745422 1.71883809566498 1.80189538002014 1.90842366218567 2.08093118667603 2.21276998519897 2.34788465499878 2.55242276191711 2.93593192100525 3.08200788497925 3.24600458145142 3.23920011520386 3.18719530105591 2.89534974098206 3.05548501014709 2.94995379447937 2.86543774604797 2.7776403427124 2.70760893821716 2.90012621879578 2.70009064674377 2.63399887084961 2.44491958618164 2.3937840461731 2.06532788276672 2.23144316673279 2.17382001876831 2.24149107933044 2.23653435707092 2.25263071060181 2.22547698020935 2.35932278633118 2.85267281532288 2.70922231674194 2.60637474060059 2.92720103263855 3.12617707252502 3.64276671409607 3.76588869094849 3.5567147731781 3.74042844772339 3.9094226360321
5.13605976104736 7.15655946731567 6.9798731803894 0.918100237846375 -0.27460315823555 -0.142136827111244 0.116371601819992 0.442967295646667 0.632294833660126 0.737401127815247 0.78751003742218 0.804497122764587 0.858253717422485 0.891757726669312 0.908175110816956 1.00998270511627 1.13933300971985 1.29286932945251 1.43920540809631 1.54314339160919 1.53430485725403 1.53893184661865 1.57798647880554 1.60740351676941 1.52727687358856 1.54342591762543 1.66069912910461 1.93953537940979 2.05524754524231 2.35588002204895 2.80452013015747 3.58744120597839 3.69248986244202 3.45790481567383 5.63550853729248 9.8815803527832 9.25878715515137 -0.90160745382309 -0.888104498386383 -0.670227408409119 -0.629202544689178 -0.51356053352356 -0.0428370498120785 -0.634782612323761 -0.603808224201202 -0.626336574554443 -0.427983850240707 -0.421526253223419 -0.657355010509491 -0.633351445198059 -0.666741728782654 -0.501105070114136 -0.050643939524889 -0.277240395545959 -0.407421678304672 -0.572513163089752 -0.0396883338689804 0.782224535942078 1.26423442363739 1.49689590930939 1.67271673679352 1.83596587181091 1.93173468112946 2.18995451927185 2.4048171043396 2.51698637008667 2.60553789138794 2.62299346923828 2.59648299217224 2.54884505271912 2.4943413734436 3.1975405216217 5.54788875579834 9.34292697906494 6.72997856140137 1.0803484916687 1.20024371147156 1.43131399154663 1.48895943164825 1.60564780235291 1.72744643688202 1.99692356586456 2.16581177711487 2.20600748062134 2.75537252426147 3.58813142776489 4.24710321426392 4.4941520690918 5.27727365493774 5.74847364425659 6.38977241516113 6.5538535118103 7.08253192901611 7.46224355697632 7.96907138824463 8.30121994018555 8.9124059677124 9.44598197937012 10.0952100753784 10.4433088302612 10.4973373413086 10.9012804031372 10.9363470077515 10.7365875244141 11.0637302398682 13.6628732681274 11.0114078521729 6.83552837371826 5.29751062393188 5.27258253097534 5.10499334335327 5.44270467758179 6.68678617477417 7.64958810806274 8.37802314758301 9.20724105834961 9.89236545562744 10.8876552581787 12.2206439971924 12.9388875961304 12.4181356430054 12.0716791152954 11.5486297607422 15.1705150604248 13.1089220046997 7.34041213989258 11.0160894393921 11.4568519592285 10.1202373504639 6.91313219070435 3.19669485092163 1.65076792240143 1.7117999792099 1.80758345127106 1.94127464294434 2.10628795623779 2.2919499874115 2.67929315567017 2.89076447486877 3.03229141235352 3.01795601844788 2.9655818939209 2.69289326667786 2.60663437843323 2.50691890716553 2.63182187080383 2.54364943504333 2.46011447906494 2.28278970718384 2.31205010414124 2.32198405265808 2.13989496231079 2.08452367782593 1.76542210578918 1.72853255271912 1.7345917224884 1.91461491584778 1.99250841140747 1.79644477367401 1.78699290752411 1.58110725879669 1.53636169433594 1.55677020549774 2.43956446647644 2.6965913772583 2.94123554229736 3.06279516220093 3.17725872993469 3.05156660079956 3.17112493515015 3.21425533294678 3.07579350471497
4.42032527923584 4.89251375198364 6.41079616546631 3.69495892524719 -0.15147502720356 -0.142043933272362 0.0210447926074266 0.321787804365158 0.605965435504913 0.735775470733643 0.771972835063934 0.825406551361084 0.893622100353241 1.08046293258667 0.917410492897034 0.964661598205566 1.06684422492981 1.21439290046692 1.36666595935822 1.5196236371994 1.50847840309143 1.62544763088226 1.85272872447968 1.89904713630676 1.62882936000824 1.54107582569122 1.74342834949493 2.13214826583862 2.27075600624084 2.39936757087708 2.86337685585022 3.47353076934814 3.70742511749268 4.68961811065674 7.34133243560791 11.4591941833496 13.0610666275024 0.211606338620186 -1.07435488700867 -0.820205390453339 -0.66359931230545 -0.67100316286087 -0.506669998168945 0.423979610204697 -0.647043943405151 -0.669673204421997 -0.68931257724762 -0.667421936988831 -0.666060984134674 -0.680220663547516 -0.611951470375061 -0.707475304603577 -0.699462354183197 0.110837385058403 -0.369082689285278 -0.539072215557098 -0.302336812019348 0.335971802473068 1.0166996717453 1.38185679912567 1.5890291929245 1.79780197143555 2.04470586776733 2.24868392944336 2.37473702430725 2.47025489807129 2.48850321769714 2.46911835670471 2.42738819122314 2.35338497161865 3.22393918037415 3.91645812988281 6.34773349761963 11.2873163223267 8.19610500335693 0.845933556556702 0.861998319625854 1.10565674304962 1.2481906414032 1.41255247592926 1.64246487617493 1.91383063793182 2.11267232894897 2.58559465408325 3.36368846893311 3.97780418395996 4.72328567504883 5.14471435546875 5.33648109436035 5.92522430419922 6.06860399246216 6.52828216552734 6.86074161529541 7.23049259185791 7.52143859863281 7.85873651504517 8.46441841125488 8.67953491210938 9.18300724029541 9.20324039459229 9.33003425598145 9.31773567199707 8.7961368560791 8.38660621643066 7.9785041809082 8.25329113006592 12.0962343215942 10.9092473983765 6.48182249069214 5.13691234588623 5.85187339782715 6.27911901473999 7.05822372436523 7.59466218948364 8.10907745361328 8.55864810943604 9.19407272338867 9.46373081207275 10.2535438537598 9.830246925354 9.4980583190918 8.70790672302246 8.94593715667725 9.51844310760498 14.7319784164429 10.2341022491455 10.8989925384521 10.6138067245483 10.0142812728882 8.79849433898926 6.9707179069519 3.77478170394897 1.70433080196381 1.75790095329285 1.84528827667236 2.07031631469727 2.44315648078918 2.67400145530701 2.71025443077087 2.72754287719727 2.7680504322052 2.50209474563599 2.43727588653564 2.33065867424011 2.24881529808044 2.13792586326599 2.26189088821411 2.08867692947388 1.96149122714996 1.79958593845367 1.85135185718536 1.8043098449707 1.5211421251297 1.46821975708008 1.44968914985657 1.52980291843414 1.39900898933411 1.49714720249176 1.49082601070404 1.27937412261963 1.47842705249786 1.56346344947815 2.31617331504822 2.55446600914001 2.78631973266602 2.80152106285095 2.60649800300598 2.58002161979675 2.7393684387207 2.76694059371948 2.68547344207764 2.66235780715942
3.30437684059143 3.40972304344177 4.69763278961182 3.6379132270813 1.26909816265106 -0.0685593336820602 -0.0106942960992455 0.192888528108597 0.512619495391846 0.735084712505341 0.801541209220886 0.881841421127319 1.80042123794556 2.1275646686554 1.04221546649933 0.957391440868378 1.00857603549957 1.12120234966278 1.25828278064728 1.42797195911407 1.88078856468201 1.99065136909485 1.96747672557831 2.10874199867249 1.67658662796021 1.62230861186981 1.88181781768799 2.13508820533752 2.50689077377319 2.9319019317627 3.10392165184021 3.74289917945862 4.29739332199097 6.32963705062866 8.48590087890625 10.4422063827515 13.3498411178589 10.0110874176025 -0.989704549312592 -0.918374001979828 -0.703410625457764 -0.625357389450073 -0.349051713943481 0.468612730503082 0.0588856600224972 0.0519576072692871 -0.688755452632904 -0.443847745656967 -0.686322331428528 -0.645509779453278 -0.734060704708099 -0.737134873867035 -0.752302885055542 -0.74566388130188 -0.600373983383179 -0.55854195356369 -0.408394485712051 -0.0822625681757927 0.534536719322205 1.10567319393158 1.47228646278381 1.76728665828705 1.95187950134277 2.14141082763672 2.29033279418945 2.35061812400818 2.32859206199646 2.29112696647644 2.22750806808472 2.60082292556763 3.5133740901947 4.33227443695068 7.11725950241089 11.2788734436035 12.2675199508667 6.30510234832764 0.827065527439117 0.989366352558136 1.18190145492554 1.34976041316986 1.59102022647858 2.00861573219299 2.50470638275146 3.16025352478027 3.74158358573914 4.42304134368896 4.82732343673706 5.30939483642578 5.5189266204834 5.65741539001465 6.03752040863037 6.30314970016479 6.57709693908691 6.8181586265564 7.27019309997559 7.67884683609009 7.6892786026001 7.79918622970581 7.84647941589355 7.99504375457764 8.16488552093506 7.67909288406372 7.16101551055908 6.80702543258667 6.17582511901855 5.9422926902771 5.66338634490967 6.8622932434082 5.05198621749878 5.63281202316284 6.11689233779907 6.44746589660645 6.84360504150391 7.05963039398193 7.5338020324707 7.93724060058594 8.17774963378906 7.60560846328735 7.1327166557312 6.53175354003906 6.61480665206909 7.03251552581787 7.0288462638855 7.49825954437256 7.56360054016113 7.84231424331665 7.94909811019897 9.66639709472656 8.23378276824951 7.01713752746582 7.21989297866821 6.11341190338135 3.38671255111694 1.79933714866638 2.02573895454407 2.19854402542114 2.40657377243042 2.52627444267273 2.48521852493286 2.24736666679382 2.34212970733643 2.27781200408936 2.17743372917175 2.10402202606201 2.00292444229126 1.85314071178436 1.78708839416504 1.78508317470551 1.63292002677917 1.51542508602142 1.27713882923126 1.28858125209808 1.25356149673462 1.21231281757355 1.27163517475128 1.12537264823914 1.08674657344818 0.871346890926361 0.898084938526154 1.36885392665863 2.12063384056091 2.32819080352783 2.35280776023865 2.56567764282227 2.60429215431213 2.42448759078979 2.37133383750916 2.35050702095032 2.2223117351532 2.19825530052185 2.17078900337219 2.08737540245056
2.50961136817932 2.58067035675049 3.3637547492981 4.33788633346558 1.97309744358063 0.505837142467499 -0.0178553219884634 0.112757369875908 0.387790352106094 0.690040528774261 0.845900237560272 1.00524926185608 1.44955885410309 1.88274967670441 2.42063021659851 1.00643289089203 0.993960559368134 1.05826914310455 1.17830002307892 1.3163093328476 1.55100739002228 2.18308305740356 1.98087632656097 2.01959133148193 1.74243128299713 1.7656444311142 1.9181045293808 2.30618071556091 2.74546003341675 2.80742835998535 3.53485798835754 5.20203971862793 5.51411294937134 7.17046022415161 8.14374732971191 8.29698467254639 10.3165845870972 10.7747573852539 3.68358898162842 -0.793205440044403 -0.691387057304382 -0.658953905105591 -0.0405808351933956 1.05228674411774 1.55551624298096 1.14134228229523 0.0777093917131424 0.0970570147037506 -0.134760543704033 0.00832671299576759 0.757961571216583 0.448203831911087 -0.840598583221436 -0.985304892063141 -0.838244199752808 -0.558169662952423 -0.172751784324646 -0.171085894107819 0.114017657935619 0.680067539215088 1.21216487884521 1.58316195011139 1.66719734668732 1.82725441455841 1.97617018222809 1.99694120883942 2.04950475692749 2.05000591278076 2.02243614196777 2.92106032371521 3.40986084938049 4.48415756225586 7.11030578613281 7.02470064163208 8.70073890686035 7.73921680450439 0.879966497421265 0.975995182991028 1.18524205684662 1.407017827034 1.65101099014282 2.60931849479675 3.37082552909851 3.61090993881226 4.15876340866089 4.53780078887939 4.97914457321167 5.10760116577148 5.42375898361206 5.63547277450562 5.84370946884155 6.07998657226562 6.30641460418701 6.68854188919067 6.60602426528931 6.97213172912598 7.00502157211304 7.09737014770508 6.84591054916382 6.44292640686035 6.16261386871338 6.26437091827393 5.9391074180603 5.37532567977905 4.74886608123779 4.17594528198242 4.47347354888916 4.65831232070923 5.24769592285156 5.64407062530518 5.90136003494263 6.22261571884155 6.34767627716064 6.56585931777954 6.97958564758301 7.18546628952026 6.68956756591797 6.15014505386353 5.6407208442688 5.26821899414062 5.4521689414978 5.62578248977661 5.68344736099243 5.79316234588623 6.2059211730957 6.10273408889771 6.07136583328247 5.83694934844971 6.2273736000061 4.64201831817627 5.05720043182373 5.96491956710815 4.91763257980347 2.63341665267944 2.11445283889771 2.23395824432373 2.29937958717346 2.27822351455688 2.09716439247131 2.05512857437134 1.96299910545349 2.04555344581604 1.96361303329468 1.86098122596741 1.72185134887695 1.60820889472961 1.44633269309998 1.40569412708282 1.36240136623383 1.15284776687622 1.06099462509155 1.00385129451752 1.04924881458282 1.07891821861267 0.90398108959198 0.853633999824524 0.782173037528992 0.835338294506073 1.18000745773315 1.88071572780609 2.10616254806519 2.28420162200928 2.29978919029236 2.32087397575378 2.17401885986328 2.07498788833618 2.0888090133667 2.01058030128479 1.99279689788818 1.94384026527405 1.85134959220886 1.72692537307739
1.75752830505371 1.55846405029297 1.37297677993774 3.01090264320374 1.94532060623169 1.7453191280365 0.0153355840593576 0.101656846702099 0.274078190326691 0.561190724372864 0.8330939412117 0.950504958629608 1.30354118347168 1.48742270469666 2.44253659248352 2.20784449577332 1.04131937026978 1.04908311367035 1.13659143447876 1.27505207061768 1.58028328418732 2.10588669776917 1.72850501537323 1.7788827419281 1.873215675354 1.93936967849731 2.06274318695068 2.45310735702515 2.61732864379883 3.19978141784668 4.52905702590942 5.65606307983398 6.04823732376099 6.78709554672241 7.26900911331177 7.91240787506104 7.28545141220093 5.92593240737915 4.35749769210815 0.772633254528046 -0.683139026165009 -0.678610444068909 0.119131937623024 0.59902960062027 1.03904819488525 0.881751418113708 0.359351933002472 0.297244399785995 -0.0352311842143536 0.580272018909454 2.70392203330994 5.18149566650391 2.58086276054382 -1.11944186687469 -1.0540452003479 -0.560098528862 -0.229389280080795 -0.101915292441845 -0.0855428650975227 0.359851688146591 0.799702346324921 1.13287115097046 1.26148903369904 1.37526917457581 1.47881889343262 1.58373808860779 1.62760531902313 1.64399743080139 2.03055119514465 2.85997748374939 3.35811185836792 4.82310056686401 5.36771678924561 4.55963706970215 3.75452160835266 5.47565984725952 1.1666008234024 1.04467666149139 1.22325384616852 1.5919041633606 2.31767511367798 3.08649182319641 3.78657341003418 4.13884115219116 4.28049993515015 4.68153429031372 4.80334758758545 5.08293294906616 5.25120687484741 5.45813798904419 5.67150688171387 5.87310361862183 6.18781089782715 6.06571912765503 6.09540033340454 6.1814284324646 6.0703239440918 6.20316791534424 5.82929468154907 5.31489038467407 4.97101593017578 4.48659324645996 4.45598936080933 4.13416528701782 3.76470899581909 4.16454410552979 4.67334938049316 4.87514686584473 5.21334409713745 5.427903175354 5.46191740036011 5.76387071609497 5.95925760269165 6.04768085479736 5.82507419586182 5.59516000747681 5.41097593307495 4.95679140090942 4.61683654785156 4.79226779937744 4.85830211639404 4.90675449371338 4.64890336990356 4.58584308624268 4.63756561279297 4.84321594238281 4.58216333389282 4.07360029220581 4.00320386886597 3.56734991073608 3.57644152641296 4.12518358230591 5.12177276611328 3.99623394012451 2.21289849281311 2.09371566772461 2.1362407207489 1.9259227514267 1.87847578525543 1.83608078956604 1.79282355308533 1.68123912811279 1.74270284175873 1.60769474506378 1.50164461135864 1.35584223270416 1.22186660766602 0.998536884784698 0.954217612743378 0.937392592430115 0.870708048343658 0.900043547153473 0.76511013507843 0.747480452060699 0.649642467498779 0.696057021617889 1.04803740978241 1.06723809242249 1.58709573745728 1.80663084983826 1.98151707649231 2.03875851631165 1.81139135360718 1.69142997264862 1.77073359489441 1.6207948923111 1.58362603187561 1.67446517944336 1.65100407600403 1.5692321062088 1.38227450847626 1.24509286880493
1.38703870773315 1.25353860855103 0.970111846923828 1.67418348789215 2.55265617370605 2.49456191062927 0.0957850143313408 0.120699517428875 0.234049275517464 0.445307075977325 0.723804235458374 0.920252978801727 0.986132383346558 1.46157455444336 1.8783597946167 2.43012762069702 1.88763201236725 1.09541630744934 1.14152038097382 1.31476831436157 1.98361611366272 1.68335270881653 1.70837378501892 1.83591616153717 1.98800122737885 2.3594765663147 2.47368907928467 2.81173229217529 2.93125629425049 4.11795091629028 4.90727996826172 5.30353975296021 5.83305168151855 6.24188899993896 6.89473628997803 6.43853569030762 6.53110122680664 5.52314901351929 2.76527285575867 2.13146185874939 1.07284438610077 -0.253699272871017 0.268307000398636 0.326287508010864 0.569940567016602 1.12565195560455 1.30845940113068 1.01425099372864 0.433320790529251 1.82590222358704 4.50079822540283 8.65576648712158 8.9497709274292 0.875648140907288 -0.975925803184509 -0.890218079090118 -0.471153199672699 -0.249184772372246 -0.180543154478073 0.0303151085972786 0.480988085269928 0.689812123775482 0.726857781410217 0.918413937091827 1.00820696353912 1.08220839500427 1.29969882965088 1.38627290725708 2.03403568267822 2.73327088356018 3.3324761390686 3.73123002052307 3.48873353004456 2.82379531860352 2.34016585350037 2.89043283462524 0.838556826114655 1.05016255378723 1.68911337852478 2.42343878746033 2.91313982009888 3.54474353790283 3.93035340309143 4.27550888061523 4.42249011993408 4.53117847442627 4.77788591384888 4.91487693786621 5.11952638626099 5.30795097351074 5.55819368362427 5.78015184402466 5.62578058242798 5.64375734329224 5.71730327606201 5.40218019485474 5.08026361465454 4.67078876495361 4.75539970397949 4.49424695968628 4.05762195587158 3.57908749580383 3.61549854278564 3.53562045097351 3.92166209220886 4.367995262146 4.63835287094116 4.82087230682373 4.99626064300537 5.01268672943115 5.18941354751587 5.31237745285034 5.48088979721069 5.10589265823364 4.54374599456787 4.17008256912231 3.87832093238831 4.0246114730835 3.99336314201355 4.27193260192871 4.32046699523926 4.01487398147583 3.9562509059906 3.61731100082397 3.44833755493164 3.0817186832428 3.21203541755676 3.13629841804504 2.76763987541199 2.61057257652283 2.34020400047302 2.21794867515564 2.1870813369751 2.41443991661072 2.32820439338684 1.82254946231842 1.86395597457886 1.80822253227234 1.69655752182007 1.62177395820618 1.57094144821167 1.46057403087616 1.40412247180939 1.3948335647583 1.26850783824921 1.15373480319977 0.93863308429718 0.808248281478882 0.688608884811401 0.701144814491272 0.700262606143951 0.594893932342529 0.638202369213104 0.656212270259857 0.693075120449066 0.922038853168488 1.43607342243195 1.5602605342865 1.50982654094696 1.60411632061005 1.65676200389862 1.57683956623077 1.43844962120056 1.33067464828491 1.21672415733337 1.19247388839722 1.20117735862732 1.0932080745697 0.904843986034393 0.898863136768341 0.734335601329803 0.3077013194561
1.12779605388641 1.75976574420929 1.62969696521759 2.13597345352173 2.93773746490479 3.1480450630188 2.03854608535767 0.197417721152306 0.264820694923401 0.382831424474716 0.60818487405777 0.827845513820648 0.937460243701935 1.18338215351105 1.48573052883148 1.8635288476944 2.22147274017334 1.61439311504364 1.2113721370697 1.4841433763504 1.63507807254791 1.68537604808807 1.75193083286285 1.86387372016907 2.24097418785095 2.40433096885681 2.79183983802795 3.76171064376831 3.83949184417725 4.51689529418945 4.66915416717529 5.11175632476807 5.44709014892578 5.84716320037842 5.5012378692627 5.81646108627319 6.67593860626221 6.81771898269653 3.77087712287903 3.864426612854 3.19666576385498 0.459147185087204 0.174401506781578 0.214644521474838 0.52172464132309 0.952162206172943 1.82153475284576 1.85927355289459 1.56110143661499 3.10505294799805 6.23160409927368 9.20308494567871 11.2248277664185 7.97792959213257 3.28106927871704 -0.806859791278839 -0.787302255630493 -0.498013108968735 -0.486283838748932 -0.232551947236061 1.19202017784119 0.591633260250092 0.295261949300766 0.445825129747391 0.584723889827728 0.910870552062988 1.41013371944427 1.51536393165588 2.08151865005493 2.58768343925476 2.22063088417053 2.40715956687927 1.7965075969696 1.64500999450684 1.40818929672241 0.654114663600922 0.877626538276672 1.47808229923248 2.11383247375488 2.82653975486755 3.44152569770813 3.71616363525391 4.05894756317139 4.15454006195068 4.37319278717041 4.51417827606201 4.62462663650513 4.81328201293945 4.99477863311768 5.21139240264893 5.04802417755127 5.24395799636841 5.26094722747803 5.31772661209106 4.99280452728271 4.68825531005859 4.28147792816162 3.91685724258423 3.54034209251404 3.37356996536255 3.30846238136292 3.21839451789856 3.57553243637085 3.70182347297668 4.11710739135742 4.34398126602173 4.46598768234253 4.64135313034058 4.61827945709229 4.77487754821777 4.75782299041748 4.42346286773682 4.24647808074951 4.10512924194336 3.77383255958557 3.51999974250793 3.65605854988098 3.58790731430054 3.6297709941864 3.31559896469116 3.52888417243958 3.47687315940857 3.13176465034485 2.96359610557556 2.59203147888184 2.34377813339233 2.06998610496521 2.01660537719727 2.04355478286743 1.9843442440033 2.02608418464661 2.01528716087341 1.94358956813812 1.97346007823944 1.75323271751404 1.69841206073761 1.58803617954254 1.63509726524353 1.58059871196747 1.45148897171021 1.32840883731842 1.27291023731232 1.14230465888977 1.09191119670868 1.05234754085541 0.869121372699738 0.747386038303375 0.594109654426575 0.547826051712036 0.465782254934311 0.490987658500671 0.483974605798721 0.553214967250824 0.853286445140839 0.876489639282227 1.28714942932129 1.39573991298676 1.4305956363678 1.36150634288788 1.31211709976196 1.16260421276093 1.07377064228058 1.06304848194122 1.0036872625351 0.915516018867493 0.912813663482666 0.791768133640289 0.550768673419952 0.288576662540436 -0.0543653778731823 -0.454430282115936 -0.856496810913086
0.984518051147461 1.3455798625946 1.82330977916718 2.32114624977112 3.40316247940063 3.47466349601746 2.76335525512695 0.68099045753479 0.315540879964828 0.406739979982376 0.561718761920929 0.742655992507935 0.899614155292511 1.03620624542236 1.08534598350525 1.66780412197113 2.75208950042725 3.07935786247253 1.46092081069946 1.57559776306152 1.57142376899719 1.70038282871246 2.00251221656799 2.18976259231567 2.56324744224548 2.59695076942444 3.5707380771637 4.10612630844116 4.20156192779541 4.32804107666016 4.67914342880249 4.81674480438232 4.43598890304565 4.67614364624023 4.84194278717041 5.64727783203125 5.91912174224854 6.31323289871216 3.22711277008057 2.45293045043945 2.47314882278442 1.62336921691895 0.523985624313354 0.24741867184639 0.473632782697678 0.895997881889343 1.39382529258728 2.41817927360535 2.65655469894409 4.8062162399292 6.35309314727783 7.01911067962646 7.93678331375122 8.48581027984619 7.30471563339233 2.36277508735657 -0.65116822719574 -0.723929166793823 -0.529490768909454 -0.137071385979652 1.81166255474091 1.94773268699646 -0.048846822232008 0.265663504600525 0.398347526788712 1.22414124011993 1.56636786460876 1.6642210483551 2.00552535057068 1.5944858789444 0.984940350055695 1.11312615871429 1.00465035438538 1.21539556980133 1.54896235466003 0.914981305599213 1.22233462333679 1.83776319026947 2.50499558448792 3.07468819618225 3.5985996723175 3.84871482849121 3.96227359771729 4.14094495773315 4.22967576980591 4.40556526184082 4.56850671768188 4.71388101577759 4.90337562561035 4.74810838699341 4.74141836166382 4.79172897338867 4.54248476028442 4.63730478286743 4.35615921020508 3.9729335308075 3.61384034156799 3.25948548316956 3.05554151535034 3.15147161483765 3.05316781997681 3.37536883354187 3.74263191223145 3.88196587562561 4.0921049118042 4.18168306350708 4.1376576423645 4.28992986679077 4.43835306167603 4.3914966583252 4.09299468994141 3.57577610015869 3.27527260780334 3.04556584358215 3.16861438751221 3.07976531982422 3.24720454216003 3.2844352722168 2.99454593658447 2.91628575325012 2.62578535079956 2.73597764968872 2.59810066223145 2.27862071990967 2.01304578781128 1.78119277954102 1.73451828956604 1.86067652702332 1.90453803539276 1.94309961795807 1.92524445056915 1.8322502374649 1.62761723995209 1.66556656360626 1.61430597305298 1.50738739967346 1.46551144123077 1.36759865283966 1.39193069934845 1.26192307472229 1.13526129722595 1.02561545372009 0.84917277097702 0.770530998706818 0.699496150016785 0.637903094291687 0.509845376014709 0.449597597122192 0.387929469347 0.406388700008392 0.346998602151871 0.41460245847702 0.71697336435318 1.17384147644043 1.27917742729187 1.23328232765198 1.26575827598572 1.22835206985474 1.01500427722931 0.777670860290527 0.704245567321777 0.624929308891296 0.469249188899994 0.581140100955963 0.441602885723114 -0.0267617721110582 -0.775050640106201 -0.988726675510406 -1.0019565820694 -1.08012115955353 -1.32033324241638 -1.41020512580872
0.983461260795593 1.35852026939392 1.64234173297882 1.87034273147583 2.10129356384277 2.82827544212341 2.620934009552 1.1458899974823 0.360539674758911 0.456774294376373 0.573143541812897 0.744249641895294 0.89256352186203 0.99719774723053 1.23056709766388 1.56729650497437 1.36404228210449 1.4934424161911 2.0376455783844 1.4771466255188 1.51811325550079 1.86743330955505 2.04051280021667 2.39153838157654 3.21635699272156 3.32209444046021 3.81381416320801 3.9137179851532 4.2410249710083 4.33013772964478 4.40823745727539 3.97760391235352 4.05194759368896 4.14809989929199 4.6091194152832 4.75960636138916 4.6395959854126 5.16688346862793 3.42988157272339 2.54924368858337 2.38016104698181 2.16055345535278 1.6208404302597 0.351130694150925 0.366702377796173 1.10514295101166 2.01413774490356 3.49096083641052 3.886155128479 4.79495191574097 5.43833208084106 5.90408945083618 6.71673393249512 7.28686761856079 7.48241090774536 5.17205715179443 2.53784871101379 -0.550495505332947 -0.506421566009521 0.29211437702179 0.91342955827713 1.15513026714325 0.254408895969391 0.540126323699951 0.655974209308624 1.4419938325882 1.84639775753021 1.84500133991241 1.43708181381226 0.751681208610535 0.288688778877258 0.201662227511406 0.435673981904984 1.89777779579163 2.95021343231201 1.57052397727966 1.62553751468658 2.10907483100891 2.72927474975586 3.25675249099731 3.5724093914032 3.82686591148376 3.94032979011536 4.01292514801025 4.17478084564209 4.3342981338501 4.48681735992432 4.62761068344116 4.48241758346558 4.46356916427612 4.51208019256592 4.16793489456177 3.90085959434509 3.56065797805786 3.54196810722351 3.35467386245728 3.02992534637451 2.91199445724487 2.82875990867615 3.12560033798218 3.22039556503296 3.54631924629211 3.71384167671204 3.84764432907104 3.93353605270386 3.89011645317078 4.00979900360107 3.96757650375366 4.07726716995239 3.79873490333557 3.29749798774719 3.02238035202026 2.81548142433167 2.92652058601379 2.83330869674683 2.8500452041626 2.60531187057495 2.67559051513672 2.63557600975037 2.37152528762817 2.16585111618042 1.89644825458527 1.78895223140717 1.75760173797607 1.65802276134491 1.66436386108398 1.78461086750031 1.81528055667877 1.85468101501465 1.84419798851013 1.74591052532196 1.55429530143738 1.50263679027557 1.39984774589539 1.43762946128845 1.39309811592102 1.29294002056122 1.20207810401917 1.09024858474731 1.04936361312866 0.910517036914825 0.780524015426636 0.652076363563538 0.539717018604279 0.411927580833435 0.378340601921082 0.350754916667938 0.367067277431488 0.318933427333832 0.385013908147812 0.41594398021698 0.603660821914673 1.03257787227631 1.15134012699127 1.16373658180237 1.10829877853394 1.07958459854126 0.906316578388214 0.704972624778748 0.528635680675507 0.279774576425552 0.0538788251578808 -0.238270625472069 -0.776731133460999 -1.43624746799469 -1.51973271369934 -1.72594285011292 -1.81200051307678 -1.82222306728363 -1.83424127101898 -1.92400479316711 -1.87856471538544
0.686174094676971 1.085333943367 1.37056279182434 1.55052506923676 1.56728506088257 2.02750015258789 2.89039421081543 2.09392833709717 0.451558411121368 0.541582226753235 0.623537421226501 0.734076857566833 0.857989013195038 0.975076198577881 1.07306551933289 1.24201583862305 1.41389656066895 1.68993628025055 1.51821577548981 1.53979051113129 1.70865666866302 1.91276907920837 2.25631213188171 3.0160825252533 3.42394804954529 3.55054330825806 3.64677572250366 3.96671223640442 4.0497260093689 4.15987777709961 3.69013357162476 3.72086620330811 3.82476735115051 3.98498392105103 3.91451120376587 3.57784199714661 3.55709934234619 4.1672511100769 3.51152157783508 2.35007524490356 1.93409967422485 1.83501839637756 2.30462574958801 1.34760689735413 0.863904297351837 1.64213144779205 2.91696071624756 3.44466996192932 3.91021752357483 4.35662317276001 4.46106815338135 5.26980924606323 5.50290966033936 5.1293044090271 4.89194440841675 2.07233929634094 -0.215160921216011 -0.271927863359451 0.0014316076412797 0.0206370875239372 -0.128265276551247 0.540688812732697 0.95002555847168 0.884194433689117 1.0243456363678 1.44272685050964 1.26990759372711 1.30490291118622 1.4247043132782 1.27874302864075 0.223207041621208 0.285912126302719 0.953855335712433 1.4461704492569 3.0321216583252 3.9628005027771 2.1192102432251 2.37083888053894 2.92362451553345 3.26004505157471 3.55665493011475 3.6978178024292 3.86048984527588 4.0067720413208 4.12308788299561 4.24756336212158 4.11701107025146 4.19765567779541 4.21086072921753 4.26032304763794 3.94306087493896 3.68399024009705 3.3425760269165 2.99637603759766 2.71781396865845 2.52637577056885 2.78702020645142 2.7035698890686 2.97701048851013 3.27958631515503 3.37465500831604 3.52870750427246 3.57758831977844 3.69621396064758 3.67048215866089 3.76942873001099 3.68945121765137 3.42944407463074 3.16859579086304 3.06585001945496 2.80759143829346 2.61181664466858 2.71502494812012 2.62143874168396 2.6197190284729 2.39232087135315 2.28394842147827 2.05195879936218 2.06123280525208 1.95762884616852 1.71296715736389 1.6263872385025 1.60653269290924 1.55200588703156 1.5620539188385 1.70729231834412 1.73348677158356 1.7251296043396 1.65102291107178 1.67315149307251 1.48087656497955 1.42574417591095 1.32518982887268 1.28954339027405 1.18803751468658 1.21965289115906 1.14035272598267 1.03841423988342 0.903831422328949 0.775992631912231 0.692142069339752 0.492635756731033 0.368536382913589 0.308168560266495 0.262089639902115 0.214760050177574 0.238884404301643 0.217442408204079 0.290326774120331 0.554228603839874 0.591148376464844 0.927600860595703 1.02932548522949 1.05256175994873 1.01625275611877 0.823181569576263 0.63987398147583 0.9875248670578 1.88880729675293 2.58834028244019 2.08028697967529 4.61611366271973 4.83374214172363 -1.86814606189728 -2.36612248420715 -2.32613635063171 -2.10541868209839 -2.17217254638672 -2.23410558700562 -2.17558908462524 -2.09807300567627 -2.12897801399231
0.606715261936188 0.512806951999664 0.874759554862976 0.962004601955414 1.06394743919373 1.23579835891724 1.71896362304688 1.6287933588028 0.541960060596466 0.61712771654129 0.678310334682465 0.741605579853058 0.842508971691132 0.949782371520996 1.06669735908508 1.22582256793976 1.43340182304382 1.75867474079132 1.64883208274841 1.77137219905853 2.08541750907898 2.12543511390686 2.82160019874573 3.19572162628174 3.27966094017029 3.57211875915527 3.71912240982056 3.76859068870544 3.45275068283081 3.50147676467896 3.51897382736206 3.49613451957703 3.42466974258423 3.48249864578247 3.10375189781189 2.93799901008606 2.80142021179199 2.61595153808594 2.82501840591431 2.50168657302856 2.31536889076233 1.82338750362396 1.79310667514801 1.89385545253754 1.51908051967621 2.44681739807129 2.85634255409241 3.31261587142944 3.23826217651367 3.80385375022888 4.24034023284912 4.22648286819458 4.12673902511597 4.53654527664185 5.63548755645752 4.38334941864014 1.56877827644348 0.640532851219177 0.283955067396164 0.136282160878181 0.142594933509827 0.530930519104004 0.944002270698547 1.20968222618103 1.25824725627899 0.991995096206665 0.684434711933136 0.915391206741333 1.03784203529358 0.972090899944305 0.71688449382782 0.863718569278717 1.1426420211792 1.69005358219147 1.88884890079498 3.0696108341217 2.35938119888306 2.55967974662781 2.90969920158386 3.23612022399902 3.38892006874084 3.62427043914795 3.80416536331177 3.92916512489319 4.04257011413574 3.90654492378235 3.86463975906372 3.91650772094727 3.634108543396 3.71750354766846 3.4910581111908 3.17919707298279 2.83337903022766 2.563556432724 2.60319781303406 2.6662712097168 2.58668303489685 2.84734296798706 3.1239800453186 3.25643157958984 3.34950637817383 3.39103889465332 3.3550136089325 3.42709803581238 3.541672706604 3.46876192092896 3.2266411781311 2.76331686973572 2.53055000305176 2.35555577278137 2.44983839988708 2.3740131855011 2.41578841209412 2.44216156005859 2.22255516052246 2.1013195514679 1.88577699661255 1.71854889392853 1.66510033607483 1.58504223823547 1.53122413158417 1.50916337966919 1.51221573352814 1.45041763782501 1.4646133184433 1.66002726554871 1.6529016494751 1.56725347042084 1.38798689842224 1.40461480617523 1.36384677886963 1.26276969909668 1.2251797914505 1.13228976726532 1.04680347442627 0.969560921192169 0.992160201072693 1.20266377925873 1.00979804992676 0.816164255142212 0.450549572706223 0.303902864456177 0.229913830757141 0.18290638923645 0.140623390674591 0.117922492325306 0.114549085497856 0.185360699892044 0.426268488168716 0.840568661689758 0.961810350418091 0.928551018238068 0.938240051269531 0.90705817937851 0.754011869430542 0.57171243429184 0.432233721017838 0.246762648224831 2.00616788864136 3.20354771614075 5.28503131866455 12.1121854782104 13.6433801651001 10.5431118011475 -2.58521795272827 -2.65610432624817 -2.50490713119507 -2.43505692481995 -1.11765372753143 3.0574152469635 0.297949492931366 -1.86373853683472
0.379875808954239 0.217985704541206 0.22634856402874 0.272832483053207 0.495659917593002 0.434582620859146 0.475843727588654 0.532393574714661 0.588636815547943 0.652017831802368 0.723183572292328 0.772998511791229 0.852169156074524 0.989744484424591 1.10470271110535 1.28932201862335 2.01463079452515 1.61570799350739 1.69827568531036 1.99613213539124 2.5862033367157 2.62794589996338 2.98206257820129 3.03226184844971 3.32727193832397 3.37281179428101 3.5034863948822 3.26545572280884 3.2692859172821 3.18572235107422 3.29139852523804 3.18883323669434 2.97273206710815 2.76975536346436 2.69930291175842 2.42970561981201 2.24047923088074 2.11822891235352 2.10091137886047 2.14155149459839 2.22053718566895 2.16394877433777 1.78364968299866 2.26133561134338 2.35819935798645 2.54912877082825 2.85169625282288 2.79179883003235 3.23144912719727 3.04958176612854 3.38560962677002 3.35551381111145 3.18262767791748 3.5892162322998 3.88953185081482 3.98693871498108 2.98564529418945 1.69998061656952 1.39901340007782 0.718636989593506 0.480300277471542 0.840827822685242 1.1155720949173 0.853681266307831 0.89849328994751 0.561122894287109 0.596133768558502 0.571113526821136 0.272441536188126 0.685318410396576 1.0447016954422 1.39835834503174 1.53966343402863 1.77719449996948 2.04728960990906 2.26433897018433 2.39045572280884 2.58690214157104 2.86509203910828 3.07724475860596 3.32136988639832 3.51678276062012 3.62769174575806 3.51842975616455 3.53088808059692 3.51640272140503 3.61343741416931 3.34343862533569 3.15867209434509 2.90133428573608 2.82953977584839 2.67682695388794 2.41187357902527 2.49614262580872 2.42311906814575 2.66194796562195 2.72952747344971 2.98819994926453 3.09664130210876 3.12825560569763 3.21894669532776 3.18789052963257 3.24969220161438 3.1488778591156 3.25644755363464 3.03609156608582 2.59452867507935 2.38347387313843 2.21764612197876 2.30356359481812 2.2335307598114 2.2031524181366 2.01091456413269 1.98603045940399 1.95293629169464 1.75197780132294 1.61154270172119 1.57515299320221 1.53354036808014 1.47704589366913 1.43465888500214 2.89816641807556 3.90140604972839 1.33466577529907 1.32710778713226 1.57021570205688 1.50483739376068 1.3347156047821 1.27733588218689 1.18071854114532 1.20940911769867 1.1703714132309 1.07978212833405 1.00357902050018 0.913169682025909 0.846162974834442 1.35927784442902 1.32185554504395 0.768241345882416 0.649639010429382 0.61239629983902 0.606184065341949 0.284596502780914 0.0893392637372017 0.0571967475116253 0.124688848853111 0.164871990680695 0.326448887586594 0.708335518836975 0.832151830196381 0.873950958251953 0.854480743408203 0.811061143875122 0.668056905269623 1.2195417881012 1.80441212654114 1.79934656620026 1.34685266017914 0.955070376396179 2.00820755958557 6.71805667877197 8.69590473175049 13.6548719406128 12.4573163986206 6.07551574707031 -2.5239565372467 -2.67279601097107 -2.54912090301514 -1.25574016571045 1.88772714138031 1.14252030849457 -0.966735482215881
0.829766750335693 0.196134969592094 0.146178588271141 0.156835272908211 0.283449351787567 0.417887330055237 0.479555070400238 0.539669990539551 0.599460899829865 0.679258704185486 0.755767583847046 0.812113463878632 0.903506100177765 1.03781843185425 1.20162904262543 1.40798342227936 2.17361545562744 1.69155168533325 1.92645466327667 2.4522180557251 2.71630382537842 2.78836941719055 2.82484793663025 3.08523106575012 3.11844325065613 2.91840195655823 2.96725940704346 3.07964634895325 3.04726910591125 3.06530451774597 3.0219554901123 2.81833863258362 2.55449795722961 2.35537314414978 2.25910687446594 2.01854872703552 1.88369131088257 1.85341584682465 1.91679501533508 1.82073211669922 1.72185027599335 1.63943898677826 2.18560075759888 2.29627895355225 2.53493785858154 2.67068576812744 2.52343392372131 2.82469034194946 2.62103199958801 2.62393188476562 2.24826693534851 2.41627597808838 2.74866890907288 2.71203207969666 2.63512992858887 2.80872511863708 2.63668417930603 1.7957603931427 1.13543307781219 0.702311992645264 0.759157717227936 1.00315320491791 0.739707410335541 0.304807633161545 0.340164005756378 0.281649231910706 0.226990580558777 0.642627775669098 0.756020128726959 0.988296568393707 1.30637300014496 1.6259241104126 1.85057163238525 1.90278923511505 2.10044717788696 2.20456218719482 2.3327362537384 2.47573494911194 2.7693886756897 3.06650447845459 3.22748351097107 3.33810925483704 3.2029435634613 3.07640814781189 3.04231452941895 2.72492837905884 2.86294484138489 2.73110198974609 2.52880215644836 2.26149821281433 2.08832240104675 2.15015435218811 2.40230941772461 2.32832670211792 2.55239725112915 2.79613280296326 2.86487913131714 2.96734070777893 2.98684620857239 2.94965553283691 2.99107027053833 3.08703708648682 2.98503398895264 2.77803611755371 2.52284169197083 2.43949842453003 2.23316597938538 2.1014769077301 2.17608952522278 2.10712456703186 2.07180619239807 1.89103448390961 1.76428520679474 1.58284568786621 1.5334974527359 1.492072224617 1.47682154178619 1.44710087776184 1.43223667144775 1.38640797138214 1.80030488967896 4.27603006362915 3.78984236717224 1.21716618537903 1.19442439079285 1.43038666248322 1.28166484832764 1.22769677639008 1.13228964805603 1.09762167930603 1.00580048561096 1.03034663200378 0.957697749137878 0.874067842960358 0.8056480884552 0.964243710041046 2.19512486457825 1.59344279766083 0.929791629314423 0.552087366580963 0.722284197807312 1.07565677165985 1.04243457317352 0.158323213458061 0.073596328496933 0.261701345443726 0.306146621704102 0.605471789836884 0.730165004730225 0.758849024772644 0.753653228282928 0.634910047054291 0.497501492500305 0.470934331417084 1.10553169250488 2.40498208999634 3.96132707595825 4.10015153884888 3.07645153999329 4.63706636428833 5.76169204711914 7.89654731750488 9.57704544067383 10.6925268173218 6.96473121643066 2.31983780860901 -1.17374956607819 -1.67891275882721 -0.332250744104385 1.26475846767426 2.04192280769348 1.28084182739258
2.57407999038696 1.31317067146301 0.0450556203722954 -0.0457235276699066 0.139084845781326 0.341171950101852 0.461398512125015 0.523553073406219 0.604027032852173 0.696424722671509 0.778491795063019 0.860193848609924 0.966085910797119 1.10435569286346 1.39722168445587 1.69295847415924 1.90613341331482 1.90061140060425 2.33289194107056 2.57876634597778 2.59240174293518 2.81475472450256 2.89043259620667 2.91046524047852 2.71441173553467 2.74123072624207 2.71045422554016 2.78132581710815 2.83801317214966 2.74617409706116 2.53777933120728 2.38326382637024 2.235426902771 2.07645964622498 1.91534280776978 1.78325593471527 1.78558123111725 1.70217037200928 1.66468918323517 1.6214212179184 2.05769300460815 2.09781336784363 2.20129752159119 2.38214683532715 2.28076004981995 2.48933720588684 2.59253144264221 2.37208676338196 2.3377902507782 2.0186014175415 2.06987953186035 2.23296403884888 2.07456874847412 2.07727813720703 2.23348164558411 2.45028519630432 2.18700551986694 1.79703414440155 0.996193528175354 0.919158697128296 0.908599197864532 0.662416458129883 0.295119971036911 -0.198511049151421 -0.456381380558014 -0.0697833299636841 0.562379479408264 0.908993721008301 1.22065913677216 1.34127116203308 1.49280035495758 1.68182778358459 1.7762097120285 1.84497618675232 1.97384071350098 2.07671856880188 2.14311814308167 2.39775323867798 2.70430064201355 2.90631461143494 3.04846405982971 2.96905422210693 2.84709000587463 2.7329375743866 2.35255312919617 2.16960740089417 1.97146105766296 1.89309251308441 1.85636961460114 1.77520990371704 2.03302788734436 2.2256064414978 2.24396800994873 2.45285820960999 2.67183637619019 2.77119922637939 2.84091687202454 2.8528356552124 2.82620310783386 2.85730624198914 2.75151562690735 2.83190822601318 2.62690925598145 2.23374199867249 2.05420160293579 1.91563427448273 1.98745393753052 1.92287945747375 1.91962838172913 1.95283877849579 1.7821432352066 1.65944254398346 1.48799693584442 1.35581839084625 1.35599970817566 1.37462854385376 1.36515009403229 1.34487855434418 1.34175562858582 1.43051564693451 2.63542866706848 4.9942512512207 2.42631888389587 1.05079567432404 1.05598700046539 1.1994640827179 1.16937470436096 1.07947731018066 1.04766070842743 0.964048266410828 0.896244645118713 0.820104241371155 0.832935214042664 0.769609272480011 0.688851952552795 1.48629319667816 2.51045083999634 2.0736186504364 1.30862414836884 0.987030148506165 0.779547274112701 0.796771645545959 0.528728187084198 0.57287460565567 0.231987133622169 0.545481503009796 0.643607079982758 0.653160810470581 0.684814751148224 0.673450946807861 0.556605219841003 0.439060151576996 0.530469119548798 0.738666176795959 1.31581687927246 2.68048429489136 4.66627502441406 5.04986047744751 5.96779108047485 7.54253721237183 6.46244621276855 5.27144527435303 4.6830849647522 6.30134296417236 6.10590028762817 2.65215682983398 1.17854928970337 1.71979558467865 2.36187148094177 3.0770058631897 3.01824402809143 3.96119523048401
5.44439315795898 4.34732151031494 3.11651492118835 -0.118461735546589 -0.086192362010479 0.231741413474083 0.423205524682999 0.527013838291168 0.608645081520081 0.698299586772919 0.826256573200226 0.968837857246399 1.10519170761108 1.30069100856781 1.53385949134827 1.86275804042816 2.2970654964447 2.30118155479431 2.49819254875183 2.48794269561768 2.67941522598267 2.65612649917603 2.72628831863403 2.55792903900146 2.5547833442688 2.50387859344482 2.54645895957947 2.61533117294312 2.54515552520752 2.44063591957092 2.27911353111267 2.12943696975708 1.9781768321991 1.87538647651672 1.77038145065308 1.74738812446594 1.62574934959412 1.57676637172699 1.49901509284973 1.99657070636749 2.07712244987488 2.23154544830322 2.28941130638123 2.17013216018677 2.31438517570496 2.09106850624084 2.13756084442139 2.09898567199707 1.78192019462585 1.7890111207962 1.60557281970978 1.68104898929596 1.68759286403656 1.71284282207489 1.82513773441315 2.03330755233765 2.12769079208374 1.3300678730011 0.900078773498535 0.617227554321289 0.600899398326874 2.64418911933899 4.08200883865356 2.02729749679565 -0.371049523353577 0.26144403219223 0.754135847091675 1.12561309337616 1.41675996780396 1.61552608013153 1.57171761989594 1.5668443441391 1.4620156288147 1.46757900714874 1.68835294246674 1.86949586868286 2.03644871711731 2.31875681877136 2.54607272148132 2.57824945449829 2.59226679801941 2.5720694065094 2.4968900680542 2.08579230308533 1.84231948852539 1.65205383300781 1.41270554065704 1.48895645141602 1.50619554519653 1.7860654592514 1.86812019348145 2.27372312545776 2.35795736312866 2.57407522201538 2.65290689468384 2.6650857925415 2.73399829864502 2.70500183105469 2.73756647109985 2.63175559043884 2.44548392295837 2.18597626686096 2.11308860778809 1.93911504745483 1.82638454437256 1.88798749446869 1.83427667617798 1.78372395038605 1.62271857261658 1.57597124576569 1.56730735301971 1.40725064277649 1.23641073703766 1.2443882226944 1.23454928398132 1.2459282875061 1.26749563217163 1.30134415626526 1.38229691982269 1.7920149564743 3.16947293281555 3.33394265174866 1.01097655296326 0.792357265949249 0.877367556095123 0.928919553756714 0.995305180549622 0.987063765525818 0.902828514575958 0.846821427345276 0.769555687904358 0.712293565273285 0.669382512569427 0.651766896247864 0.781917929649353 1.79486083984375 2.92077875137329 2.67326092720032 1.96443796157837 1.50882661342621 1.22333383560181 0.638332486152649 0.231648206710815 0.244291543960571 0.500968277454376 0.593155801296234 0.612475395202637 0.605312943458557 0.603412210941315 0.490272253751755 0.367534548044205 0.435589253902435 0.830303907394409 1.05633425712585 2.14967751502991 3.59206581115723 4.70735740661621 5.22043085098267 7.37650346755981 10.0978355407715 10.9704103469849 5.5008544921875 2.28260159492493 2.43514895439148 2.80264902114868 1.08455455303192 1.99137997627258 2.64888691902161 4.74309873580933 7.68628835678101 8.26902294158936 9.13532161712646
7.07367944717407 6.76143407821655 7.45308685302734 0.818738043308258 -0.177341982722282 0.074900284409523 0.336404800415039 0.497589468955994 0.596185028553009 0.715017676353455 0.870307922363281 1.11431360244751 1.30770909786224 1.58888876438141 1.71265268325806 2.24956727027893 2.42193746566772 2.46344971656799 2.42712593078613 2.59289813041687 2.547691822052 2.36900639533997 2.35605049133301 2.39284110069275 2.34381318092346 2.34142637252808 2.27272486686707 2.21454215049744 2.14402866363525 2.09489321708679 2.30086946487427 3.04175543785095 2.79667854309082 3.20880818367004 2.79869270324707 1.54587709903717 1.44473695755005 1.43388187885284 1.89793252944946 1.96595048904419 2.11373853683472 1.99319314956665 2.0956289768219 2.15551447868347 1.92388546466827 1.82374107837677 1.57114207744598 1.50333774089813 1.56615197658539 1.36880040168762 1.36990785598755 1.37778294086456 1.4102395772934 1.4954971075058 1.5958925485611 2.00869393348694 1.87823164463043 1.32259440422058 0.619139969348907 0.341714948415756 1.4836972951889 2.64673137664795 6.22547769546509 5.43036460876465 0.178032338619232 0.458642482757568 0.823390364646912 1.21405804157257 1.49985897541046 2.42064237594604 3.43896913528442 1.2938688993454 0.954886376857758 1.03265774250031 1.2745908498764 1.7042487859726 1.97727394104004 2.14591979980469 2.22018885612488 2.32520079612732 2.30176734924316 1.88932490348816 1.73236799240112 1.50317251682281 1.31087553501129 1.17000925540924 1.18546688556671 1.46283614635468 1.56202256679535 1.59097623825073 1.99974060058594 2.41486477851868 2.47993993759155 2.5644223690033 2.56389737129211 2.53750467300415 2.55950975418091 2.62182450294495 2.51597571372986 2.33878970146179 1.97437644004822 1.79253244400024 1.66831302642822 1.7360827922821 1.67853927612305 1.66402125358582 1.69316565990448 1.55102670192719 1.43254375457764 1.28758108615875 1.22527372837067 1.16342997550964 1.03086304664612 1.06606125831604 1.06505656242371 1.09281039237976 1.18854212760925 1.31789660453796 1.2445068359375 1.14900004863739 1.0051132440567 0.758421063423157 0.573585748672485 0.506985783576965 0.556223571300507 0.676110327243805 0.631316781044006 0.764483213424683 0.700058996677399 0.69942432641983 0.673164248466492 0.602481067180634 0.596586167812347 0.766748785972595 0.873708546161652 1.60417020320892 2.9812388420105 3.28489184379578 2.58980345726013 1.91228926181793 1.61580300331116 1.03997349739075 0.498642235994339 0.563960373401642 0.534845173358917 0.545149147510529 0.545015573501587 0.415538012981415 0.315210461616516 0.287112951278687 0.232214257121086 0.608945488929749 1.41040229797363 1.91562914848328 2.48462700843811 3.7267644405365 4.99503946304321 6.10037088394165 7.94796228408813 12.6700878143311 13.5059127807617 5.45969152450562 1.6516284942627 0.695268213748932 0.275587797164917 1.14553725719452 2.44104862213135 3.82703804969788 5.49301052093506 9.37473678588867 11.0675926208496 10.2316331863403
6.23661708831787 5.86115264892578 4.63505601882935 4.77360391616821 -0.0259195640683174 0.0566419064998627 0.219470351934433 0.44167685508728 0.5986487865448 0.75855678319931 0.994465053081512 1.20918774604797 1.48528409004211 1.96680271625519 2.09773683547974 2.39236426353455 2.35365319252014 2.54720759391785 2.48779511451721 2.50347900390625 2.30678248405457 2.25454258918762 2.15459012985229 2.17972755432129 2.18212985992432 2.11995267868042 2.02923107147217 1.92154586315155 1.8948130607605 1.83142757415771 1.76120853424072 1.70130658149719 1.68516302108765 1.54947948455811 1.63125884532928 1.4249974489212 1.8068265914917 1.8077689409256 1.8447939157486 1.9725204706192 1.88192129135132 1.9514080286026 1.76655638217926 1.74062526226044 1.68854939937592 1.44398510456085 1.35965144634247 1.39600574970245 1.25478887557983 1.18140065670013 1.19268333911896 1.22365272045135 1.22054255008698 1.29456281661987 1.50234401226044 1.82780480384827 1.41836702823639 0.919036328792572 0.686068773269653 0.868378400802612 1.53076469898224 3.93217992782593 4.62812519073486 2.93083000183105 0.383111298084259 0.730343341827393 1.02007234096527 1.25425660610199 1.439817070961 5.12017583847046 9.48606777191162 6.80345296859741 0.874432563781738 0.887072741985321 1.28252136707306 1.49084329605103 1.78566062450409 1.92341148853302 1.99999892711639 2.10654234886169 1.72058486938477 1.21426928043365 0.900367140769958 0.788829505443573 0.966648757457733 0.992253482341766 1.19592106342316 1.24081087112427 1.51236891746521 1.69263553619385 2.11046004295349 2.39174938201904 2.46474742889404 2.46181225776672 2.43947577476501 2.45753383636475 2.3534152507782 2.40813636779785 2.23978710174561 1.89016354084015 1.72170984745026 1.59395289421082 1.65648102760315 1.59955656528473 1.54869031906128 1.41197669506073 1.36556005477905 1.35292255878448 1.21775662899017 1.06040620803833 0.929656207561493 0.797901391983032 0.852882087230682 0.870438039302826 0.892755389213562 0.96293169260025 1.4079817533493 1.09365749359131 0.903408050537109 0.699546217918396 0.532538056373596 0.374454081058502 0.126713514328003 0.0853644013404846 0.215191096067429 0.196130007505417 0.0660477876663208 0.0495093464851379 0.219804555177689 0.22477063536644 0.388803213834763 0.363505780696869 0.496060103178024 0.853943586349487 0.992204904556274 1.54572808742523 2.56641030311584 3.60959672927856 3.11985158920288 2.37872815132141 1.54472255706787 1.21233630180359 0.781959891319275 0.527466654777527 0.503231823444366 0.475555717945099 0.34297901391983 0.190831705927849 0.110257998108864 0.0714518651366234 0.254892766475677 0.796644747257233 1.83865141868591 3.38297557830811 4.30825424194336 4.36521053314209 5.54407548904419 6.05993509292603 8.71643543243408 14.9122762680054 13.0669202804565 8.21018409729004 3.06590700149536 0.252951383590698 0.616584539413452 1.91474735736847 3.1693754196167 4.66973829269409 6.52696132659912 8.85616970062256 9.13980388641357 8.14038848876953
6.13114643096924 5.16859817504883 0.253764539957047 0.0960910841822624 0.0425570830702782 0.0553511641919613 0.138446092605591 0.390221059322357 0.674181997776031 0.877088308334351 1.08438181877136 1.37117671966553 1.84388279914856 2.10036492347717 2.22140598297119 2.31646680831909 2.47366428375244 2.99160814285278 2.44447636604309 2.28098654747009 2.20975255966187 2.09418153762817 2.03391051292419 2.03499174118042 1.98420286178589 1.908367395401 1.78203308582306 1.6674622297287 1.63951861858368 1.59034705162048 1.58296978473663 1.57643961906433 1.46037364006042 1.43011975288391 1.42049777507782 1.76362752914429 1.77252125740051 1.87414968013763 1.88209581375122 1.78349983692169 1.84438025951385 1.6599737405777 1.55976545810699 1.34785115718842 1.232306599617 1.23527133464813 1.08602678775787 1.0397287607193 1.05270671844482 1.07012403011322 1.05772888660431 1.03637766838074 1.04608225822449 1.15066516399384 1.95037293434143 2.17485380172729 1.45200705528259 1.36504149436951 1.33775401115417 1.0807296037674 2.57925367355347 2.77066802978516 4.76323890686035 5.36801958084106 0.401294320821762 0.898956954479218 1.13586068153381 1.27240145206451 1.94357705116272 5.78549146652222 7.64452457427979 7.89403629302979 3.77725338935852 1.03389894962311 1.23232161998749 1.31461930274963 1.50205993652344 1.65121030807495 1.83260762691498 5.15531826019287 3.26810383796692 0.633131802082062 0.296125143766403 0.690695285797119 0.762294828891754 1.01185858249664 1.00615215301514 1.2070084810257 1.482790350914 1.74464702606201 2.08628058433533 2.29301166534424 2.37075662612915 2.34161138534546 2.35919952392578 2.25820136070251 2.09694314002991 1.86089313030243 1.80035555362701 1.64755582809448 1.55825567245483 1.5883960723877 1.52907776832581 1.47516310214996 1.3453323841095 1.23117661476135 1.1081748008728 1.04074501991272 0.990307629108429 0.867418646812439 0.700013279914856 0.617058217525482 0.670481204986572 0.705428957939148 0.743830561637878 4.07676315307617 3.82584404945374 0.659865260124207 0.453630477190018 0.171687200665474 0.140896216034889 -0.0720898509025574 -0.303069621324539 -0.578392386436462 -0.602219045162201 -0.570095419883728 -0.900730967521667 -1.41378891468048 -1.56027722358704 -1.3031450510025 -0.713663578033447 -0.168621271848679 0.06282127648592 0.466593623161316 1.09577834606171 1.40758895874023 2.43840622901917 3.21646451950073 3.32358002662659 2.67228555679321 1.7476704120636 1.38471376895905 1.06622767448425 0.564145565032959 0.624881863594055 0.992087006568909 0.752641439437866 0.0259017609059811 -0.0850734040141106 0.106208853423595 0.923781514167786 1.65816640853882 2.77814340591431 3.75842380523682 4.83723020553589 5.17675590515137 6.5872688293457 6.84347820281982 10.9886150360107 11.6983156204224 11.496187210083 8.44570159912109 3.16213393211365 0.457057356834412 1.34724414348602 2.54226279258728 4.07160758972168 5.75519037246704 7.05497407913208 7.2706503868103 6.3199725151062 5.1102991104126
9.63253402709961 10.013035774231 6.06231546401978 2.140789270401 0.838912189006805 0.0846675783395767 0.139693647623062 0.421485364437103 0.775507092475891 1.1270524263382 1.24602627754211 1.71049857139587 1.97468101978302 2.04040122032166 2.27884459495544 2.41593170166016 2.39629602432251 2.2641921043396 2.20676398277283 2.18925261497498 2.06911492347717 2.00969219207764 1.89951705932617 1.78196167945862 1.68665885925293 1.6754287481308 1.56923961639404 1.5286431312561 1.48808538913727 1.47580242156982 1.39527583122253 1.38045823574066 1.39357042312622 1.3751300573349 1.71231257915497 1.72705268859863 1.80965256690979 1.71776676177979 1.74992108345032 1.73872590065002 1.55809152126312 1.45343041419983 1.24966740608215 1.13692855834961 1.12171065807343 0.980927884578705 0.902864992618561 0.903947412967682 0.916810631752014 0.894557416439056 0.881473958492279 0.86495041847229 0.966835558414459 1.10958874225616 1.96165549755096 2.43489384651184 2.4771888256073 2.58876705169678 2.46146440505981 1.86469674110413 1.08817505836487 1.48190271854401 2.73412466049194 3.0641303062439 0.172534570097923 0.811953604221344 1.16537094116211 1.25170266628265 3.9168553352356 5.99875593185425 5.34045648574829 6.73381471633911 7.31990098953247 1.19283592700958 1.14901733398438 1.21517586708069 1.35769438743591 1.28627300262451 1.59470582008362 8.14962291717529 5.61372375488281 0.1433245241642 -0.0537588782608509 0.351652890443802 0.657113671302795 0.732675850391388 0.965868771076202 1.2000584602356 1.3553192615509 1.62938940525055 1.9225081205368 2.18150210380554 2.22632241249084 2.26822400093079 2.16627526283264 2.01935124397278 1.69992995262146 1.54315412044525 1.43599128723145 1.49568736553192 1.44980812072754 1.40608239173889 1.41103315353394 1.28502774238586 1.17356467247009 1.05208873748779 0.906409025192261 0.789629518985748 0.666280210018158 0.652957201004028 0.576213777065277 0.456832826137543 0.50341933965683 0.72352796792984 4.15489721298218 7.16439628601074 5.03318452835083 -0.00248308968730271 -0.198520496487617 -0.305509746074677 -0.290776282548904 0.0643838495016098 -0.787692904472351 -1.1173300743103 -1.39261448383331 -1.51992857456207 -1.89052093029022 -2.38553023338318 -2.61841440200806 -2.27528381347656 -1.4267121553421 -0.759446144104004 -0.326349139213562 -0.0610741451382637 0.54800271987915 1.25435793399811 2.06157493591309 3.02710175514221 2.94855713844299 2.53862619400024 1.72607004642487 1.22586178779602 1.01720607280731 0.864855527877808 0.775161743164062 1.70089864730835 1.56829249858856 -0.0973280146718025 0.0161370113492012 0.680176138877869 2.14829349517822 3.08932685852051 3.11073470115662 4.03520917892456 4.39367341995239 5.47160053253174 7.00845861434937 7.95774841308594 9.36518859863281 9.33742427825928 9.1091480255127 5.66369485855103 2.63095855712891 1.14523470401764 1.77432823181152 2.77537822723389 3.95521759986877 4.84294080734253 5.3444242477417 5.19307136535645 4.46603584289551 3.14061737060547
15.6802387237549 8.2129487991333 5.1031346321106 3.48939752578735 2.08555507659912 0.376853942871094 0.262547343969345 0.514833390712738 0.890739500522614 1.40333640575409 1.56507611274719 1.8365296125412 1.91234290599823 2.14235162734985 2.18667793273926 2.32401704788208 2.22557425498962 2.18056750297546 2.07384443283081 2.09827876091003 2.00159168243408 2.00600934028625 1.75984883308411 1.58070385456085 1.49266982078552 1.4542201757431 1.4311671257019 1.39846432209015 1.39791655540466 1.31530117988586 1.27737843990326 1.33258628845215 1.66027498245239 1.65039086341858 1.67244553565979 1.74657297134399 1.66654789447784 1.69209742546082 1.51750671863556 1.41933572292328 1.36122179031372 1.17314100265503 1.05121505260468 0.926559507846832 0.843545854091644 0.832199275493622 0.837946832180023 0.823907196521759 0.761292338371277 0.733398020267487 0.744354069232941 0.855063855648041 0.916165828704834 1.10015845298767 1.64726233482361 1.98426914215088 2.40154266357422 4.18538475036621 5.53464651107788 4.2367525100708 1.27693283557892 -0.28614354133606 -0.78020191192627 0.991622865200043 0.303020536899567 0.618772923946381 2.49945068359375 2.93486046791077 4.38886260986328 4.67469215393066 4.94131851196289 4.8977746963501 5.71096467971802 3.79165053367615 1.12786102294922 1.1887834072113 1.03629314899445 1.02797174453735 4.08983707427979 8.50387001037598 5.101393699646 -0.228472754359245 -0.224825546145439 -0.0610718317329884 0.201968714594841 0.520383417606354 0.765908360481262 0.978828549385071 1.14720070362091 1.44240617752075 1.74529576301575 2.04415035247803 2.04049849510193 2.08499336242676 1.93696570396423 1.63652217388153 1.48209381103516 1.38015520572662 1.43733704090118 1.39281237125397 1.34417200088501 1.21725225448608 1.13784420490265 1.12275815010071 1.00386774539948 0.860983371734619 0.747292757034302 0.606523036956787 0.527037799358368 0.420047461986542 0.411015093326569 0.390547126531601 0.641885280609131 3.24243092536926 6.92390584945679 10.6666288375854 8.43790626525879 -0.765335619449615 -0.879283905029297 -0.771868348121643 -0.0753252431750298 2.59029126167297 0.656480312347412 -1.58643162250519 -2.09616231918335 -0.898172855377197 2.78169584274292 -2.7720775604248 -2.9498438835144 -2.97872757911682 -2.33605003356934 -1.31913638114929 -0.617728590965271 -0.302178233861923 -0.143876522779465 0.653205454349518 1.27069449424744 2.40306115150452 2.49924373626709 2.21322989463806 1.59714210033417 1.02435147762299 1.05386698246002 0.675544261932373 0.431699872016907 0.959638714790344 1.69537472724915 0.135499745607376 0.42789015173912 1.82591569423676 2.64952206611633 3.38083434104919 3.68426060676575 3.56167650222778 4.14971733093262 6.05466413497925 6.52389144897461 5.73186588287354 5.79464197158813 6.56103992462158 5.42250680923462 2.77951598167419 1.60998237133026 1.77678859233856 2.29688167572021 2.8233654499054 3.68674635887146 3.73495578765869 3.20277643203735 3.05309820175171 2.69863033294678 2.86154317855835
15.6070690155029 14.956690788269 7.75175476074219 5.88844013214111 4.3168625831604 2.25808358192444 0.443299144506454 0.719580113887787 1.16337108612061 1.44860768318176 1.64342379570007 1.76643025875092 2.01331806182861 2.05563402175903 2.0120894908905 2.09096431732178 2.15455222129822 2.10541081428528 2.15711379051208 2.09951114654541 1.99921214580536 2.07519888877869 1.75758838653564 1.43507742881775 1.35695648193359 1.30619096755981 1.30005013942719 1.30921018123627 1.25132524967194 1.30463778972626 1.28506278991699 1.58040452003479 1.60394668579102 1.69390249252319 1.69642913341522 1.60539984703064 1.63515675067902 1.47656333446503 1.35623276233673 1.15120649337769 1.02253878116608 0.994125127792358 0.883998990058899 0.805074572563171 0.789167582988739 0.758888602256775 0.709847748279572 0.690050721168518 0.682964324951172 0.700967073440552 0.806995511054993 0.747634291648865 0.903103768825531 1.18376660346985 1.38909208774567 1.7815967798233 2.91436433792114 4.2080192565918 6.79216861724854 6.58047771453857 5.20960235595703 -0.631309330463409 -1.03215956687927 -0.860233306884766 0.247214645147324 2.14723682403564 3.00196957588196 3.33947014808655 3.45078277587891 3.78999042510986 3.15359663963318 3.04895067214966 3.50221586227417 2.86172032356262 0.928699791431427 0.924135982990265 0.902114391326904 2.07207775115967 5.11209917068481 8.6584529876709 5.42809581756592 -0.345579981803894 -0.356412827968597 -0.215391680598259 -0.020987605676055 0.322672069072723 0.464085549116135 0.6624516248703 0.889203786849976 1.24389278888702 1.61908221244812 1.81518304347992 1.82939839363098 1.60978305339813 1.55506443977356 1.42338609695435 1.35503208637238 1.38134920597076 1.34108245372772 1.29027259349823 1.17668628692627 1.06858420372009 0.947425425052643 0.87041711807251 0.826461017131805 0.714851498603821 0.570614218711853 0.500576078891754 0.398280829191208 0.32946965098381 0.535920977592468 1.34322762489319 3.21556305885315 7.91137027740479 9.07142448425293 15.4428462982178 9.88777637481689 -1.42322146892548 -1.37806499004364 -1.14377593994141 1.70100855827332 4.54279232025146 5.05224275588989 1.39285850524902 -2.56735301017761 -2.55206418037415 -0.653951525688171 -3.15796875953674 -3.45059442520142 -3.49989032745361 -3.16678476333618 -2.61930918693542 -1.57574236392975 -0.683125555515289 -0.393864512443542 -0.0810240358114243 0.72905570268631 1.02886629104614 0.495683163404465 1.20194315910339 0.339027047157288 0.0964531898498535 0.0997066348791122 -0.0292839612811804 -0.142627745866776 0.278909087181091 1.1569014787674 0.83447939157486 1.50525605678558 2.20792770385742 2.90546154975891 3.15192699432373 3.59794116020203 3.63524127006531 4.55077075958252 4.62355279922485 3.50041627883911 3.22464156150818 2.90939426422119 2.75658798217773 1.32472789287567 1.1861823797226 1.49978232383728 1.9168416261673 2.55821681022644 2.90842795372009 3.05118703842163 2.56806111335754 1.97721564769745 1.97574508190155 2.30000758171082 2.92968368530273
10.3428421020508 15.4438371658325 10.4054384231567 7.24600648880005 5.39801597595215 3.12815833091736 0.684206664562225 1.04692363739014 1.25135397911072 1.3301385641098 1.65361940860748 1.84440112113953 1.92681610584259 1.8969714641571 1.93871212005615 1.97402501106262 2.1209921836853 2.28238844871521 2.22322154045105 2.32784581184387 1.95485174655914 2.11164593696594 1.89841854572296 1.46716618537903 1.27408671379089 1.22995793819427 1.16322696208954 1.13694179058075 1.25096273422241 1.52929401397705 1.53472137451172 1.54224419593811 1.61664569377899 1.55141651630402 1.58112847805023 1.57581520080566 1.42881095409393 1.48379635810852 1.34016692638397 1.10228288173676 0.968192338943481 0.852077722549438 0.766131699085236 0.739790141582489 0.721079528331757 0.640210747718811 0.580234467983246 0.669439315795898 0.767656743526459 0.762088596820831 0.587994158267975 0.706531584262848 0.94026517868042 1.26323437690735 1.903932929039 2.07868075370789 3.06697511672974 4.67550134658813 5.99798059463501 8.41089248657227 9.23374652862549 5.91569709777832 1.82636916637421 0.737624168395996 1.92781841754913 2.7060878276825 2.82457518577576 2.80175733566284 2.99852275848389 2.15404319763184 2.44668102264404 2.14870452880859 2.21132636070251 2.34537887573242 0.74708491563797 0.58965802192688 1.53140199184418 3.52538871765137 6.30600214004517 7.92039585113525 4.40817785263062 0.579868853092194 -0.498915374279022 -0.356700778007507 -0.147240534424782 0.163995191454887 0.231584191322327 0.474214136600494 0.732745051383972 1.03442251682281 1.43095767498016 1.61076617240906 1.48916065692902 1.34489798545837 1.24954569339752 1.30388689041138 1.26829099655151 1.22593176364899 1.24079859256744 1.13246250152588 1.03182554244995 0.922890901565552 0.778180301189423 0.67439079284668 0.555047214031219 0.538853347301483 0.472116976976395 0.374158412218094 0.309784084558487 0.484094172716141 1.29989457130432 3.24276947975159 7.31340646743774 12.1588516235352 13.2463808059692 21.2864627838135 10.8045930862427 -1.80796015262604 -1.93400013446808 -1.6602475643158 5.0181622505188 9.67507457733154 7.16500377655029 3.83711361885071 0.94182950258255 -2.59429049491882 0.190847799181938 -1.2097532749176 -3.70642232894897 -3.72853326797485 -3.52556824684143 -3.28906321525574 -2.79731917381287 -1.62415528297424 -0.728718876838684 -0.51912522315979 -0.11829849332571 0.0679485350847244 -0.521133184432983 -0.542390465736389 -0.394909203052521 -0.407972872257233 -0.509676039218903 -0.489493072032928 -0.367087751626968 0.117058679461479 1.24316108226776 1.89148485660553 1.86284601688385 2.44114422798157 2.69698095321655 3.09501647949219 3.55569839477539 3.67529821395874 6.93985939025879 3.33866739273071 0.968449473381042 0.888236701488495 0.760271430015564 0.737173140048981 0.870187819004059 1.19726538658142 1.40496695041656 1.61860311031342 1.72062873840332 1.84971332550049 2.01386904716492 1.64088547229767 1.53177678585052 1.85026669502258 2.3770763874054 4.04928350448608
7.91665649414062 9.38082981109619 13.0725507736206 8.21964740753174 6.49260807037354 4.22228384017944 1.30847859382629 1.20881867408752 1.22301054000854 1.44050180912018 1.52713620662689 1.71895456314087 1.76363348960876 1.82489323616028 1.83369302749634 1.91020083427429 2.28470611572266 2.26943302154541 2.3654453754425 2.48678040504456 1.95917809009552 1.91747009754181 1.85968577861786 1.6154305934906 1.25262546539307 1.13179099559784 1.08676767349243 1.19451642036438 1.46604919433594 1.48361325263977 1.57424414157867 1.57188045978546 1.47073519229889 1.49690794944763 1.38824653625488 1.32311058044434 1.29093313217163 1.47564613819122 1.34913015365601 1.12701535224915 0.933187425136566 1.03709089756012 0.912372946739197 0.67041802406311 0.68286806344986 0.5348219871521 0.619922637939453 0.708094835281372 0.543840527534485 0.536414206027985 0.756698727607727 0.958806455135345 0.958591341972351 1.61546504497528 2.1921648979187 2.6348180770874 3.40679836273193 4.38981342315674 6.4039945602417 5.92469501495361 6.50475645065308 4.85605049133301 1.84984624385834 1.77927374839783 2.35495567321777 2.57750868797302 2.71590805053711 2.38367104530334 2.0163688659668 1.79551959037781 1.59125983715057 1.51364171504974 1.73534750938416 2.2898416519165 0.579073667526245 1.67185878753662 2.91933727264404 4.80558919906616 7.76797103881836 6.5298056602478 3.76318955421448 -0.137039229273796 -0.698271930217743 -0.545812666416168 -0.308621913194656 0.0157835371792316 0.0981149449944496 0.206783980131149 0.318388760089874 0.789657533168793 0.991696953773499 1.2527768611908 1.29386925697327 1.23526442050934 1.25963842868805 1.22432935237885 1.17482829093933 1.06784439086914 1.00454878807068 0.992379009723663 0.891171634197235 0.760040283203125 0.653178036212921 0.520747542381287 0.448098242282867 0.352254122495651 0.333113700151443 0.297301262617111 0.445790767669678 1.0792031288147 3.08206009864807 6.015305519104 11.0176525115967 15.3219518661499 19.1123104095459 22.3584232330322 19.8152847290039 3.70303916931152 -2.25702667236328 -2.18677139282227 4.39282512664795 11.644775390625 11.530689239502 10.6539907455444 7.08270454406738 3.40160489082336 -1.34365940093994 -1.81686234474182 -3.87803173065186 -3.92217254638672 -3.79320478439331 -3.70159959793091 -3.32392573356628 -2.72289133071899 -1.38449466228485 -0.934055328369141 -0.721868634223938 -0.154474496841431 -0.913441777229309 -1.03835618495941 -1.02268445491791 -0.992077827453613 -1.00090479850769 -0.74307245016098 -0.242369398474693 0.778351664543152 1.42384576797485 1.9615683555603 2.24022793769836 2.27814221382141 2.69626569747925 2.97751617431641 3.08538150787354 5.40769720077515 9.830397605896 3.01729345321655 0.0947280824184418 0.112236142158508 0.368420541286469 0.567808926105499 0.621834337711334 0.710026502609253 0.948750376701355 1.11015653610229 0.991110920906067 0.849259734153748 1.19593667984009 1.1804438829422 1.55739641189575 2.02511072158813 3.10521125793457 3.76873755455017
6.49652910232544 7.38537931442261 9.92346858978271 10.7490921020508 6.98127174377441 5.4420337677002 2.56322169303894 1.54295861721039 1.39376163482666 1.3904504776001 1.38563585281372 1.48729574680328 1.65377986431122 1.70763850212097 1.77495157718658 1.81788325309753 2.40301847457886 2.37721943855286 2.58515167236328 2.55371642112732 2.37817335128784 1.97219347953796 1.85061717033386 1.67241215705872 1.51769077777863 1.1933296918869 1.1743791103363 1.4262101650238 1.42411184310913 1.51164293289185 1.46946585178375 1.49378514289856 1.45350658893585 1.30738604068756 1.23772168159485 1.1025515794754 1.06182444095612 1.30687177181244 1.34155905246735 0.958918035030365 0.97972583770752 1.35767817497253 1.17775547504425 0.84396094083786 0.863524079322815 0.62944483757019 0.680503010749817 0.509324312210083 0.412638157606125 0.613614320755005 0.812212705612183 1.28709065914154 1.2779358625412 1.64987337589264 2.37431859970093 3.16572523117065 3.47263622283936 4.7816309928894 4.7242169380188 4.42925119400024 4.42781782150269 4.96900320053101 2.34737515449524 2.15068793296814 2.17904448509216 2.25018215179443 1.76701486110687 1.53550601005554 1.18532514572144 1.2159024477005 1.12056279182434 1.22414577007294 1.50224554538727 2.23954701423645 1.55414974689484 2.99416160583496 3.79836368560791 8.00323390960693 9.26782131195068 6.47959423065186 5.1840615272522 4.1929235458374 1.03210747241974 -0.777083039283752 -0.484672516584396 -0.225627765059471 -0.116479322314262 -0.172534942626953 -0.00542908720672131 0.511351048946381 0.795831739902496 1.03278267383575 1.19037306308746 1.15740275382996 1.11714553833008 1.13371026515961 1.03252851963043 0.936180114746094 0.836025476455688 0.768333196640015 0.732547461986542 0.635003209114075 0.504065155982971 0.43328931927681 0.343054622411728 0.280371606349945 0.39014744758606 0.750706493854523 1.45808076858521 2.66549205780029 5.04030799865723 9.21923828125 13.0876197814941 18.5093650817871 19.7894172668457 23.6372241973877 20.5874938964844 14.4134588241577 -0.492928951978683 -0.149130761623383 3.62098717689514 6.32383012771606 11.4398574829102 14.4328956604004 17.3317642211914 19.0610485076904 2.07046437263489 0.203688979148865 0.170351728796959 -3.94402813911438 -3.87424159049988 -3.76415586471558 -3.62858748435974 -3.1185040473938 -1.98698472976685 -1.43617010116577 -1.13245892524719 1.84042549133301 -0.686410844326019 -1.47593104839325 -1.67164278030396 -1.36989831924438 -0.701075971126556 -0.191312521696091 0.416594922542572 1.02297520637512 1.53030741214752 1.73358356952667 2.11369514465332 2.42083287239075 3.22690844535828 2.87518119812012 3.58899283409119 5.27776861190796 5.63893890380859 2.97831439971924 0.0123430592939258 0.161103412508965 0.528499484062195 0.499223291873932 0.0270767603069544 -0.220027178525925 -0.322791337966919 0.114100433886051 0.340399861335754 0.473123550415039 0.886569440364838 1.27513337135315 2.06297969818115 2.65712952613831 3.04052114486694 4.01296949386597
5.53979063034058 6.13332033157349 7.10344886779785 10.3168678283691 8.58639717102051 5.83689069747925 3.95070695877075 2.87832164764404 1.59496414661407 1.31589269638062 1.32311046123505 1.35856854915619 1.5110741853714 1.63785696029663 1.68185901641846 1.71845328807831 2.55429577827454 2.74471783638 2.52029800415039 2.69515061378479 2.70015501976013 1.87639474868774 1.73311972618103 1.63727748394012 1.5079779624939 1.41394293308258 1.4020562171936 1.39420437812805 1.47345983982086 1.41822946071625 1.44938373565674 1.72484934329987 1.30627751350403 1.19350457191467 1.03588020801544 0.947716653347015 0.957104623317719 1.23746979236603 1.29053211212158 0.863731741905212 0.99298894405365 1.45297169685364 1.41042995452881 1.19541537761688 1.05507016181946 0.701070547103882 0.487972229719162 0.274928390979767 0.414879977703094 0.604074418544769 1.05241990089417 1.06878924369812 1.04543578624725 1.61218917369843 2.51354455947876 3.36262011528015 3.6662962436676 3.7639799118042 3.55917811393738 3.43159294128418 3.50341534614563 4.06238126754761 3.10603642463684 1.97904694080353 2.06104183197021 1.44770967960358 1.3482654094696 0.949454486370087 0.773303985595703 0.933807790279388 0.937878787517548 1.04326438903809 0.916474521160126 1.51480150222778 2.60714387893677 3.78707933425903 4.97969722747803 10.0724067687988 11.471492767334 6.27107906341553 5.4125771522522 5.46316862106323 5.32066869735718 4.19050264358521 1.53790080547333 -0.376709401607513 -0.305193156003952 -0.226078659296036 -0.147225484251976 0.386411815881729 0.767770230770111 1.09649455547333 1.11312258243561 1.07324600219727 0.978423237800598 0.915481388568878 0.905216872692108 0.809435784816742 0.684635937213898 0.596386671066284 0.494714677333832 0.483927100896835 0.418283313512802 0.328986257314682 0.26861310005188 0.368778198957443 0.745916426181793 1.8791618347168 2.73552131652832 4.32869958877563 7.7258186340332 12.2540435791016 14.2191114425659 17.4611949920654 20.447452545166 22.3746776580811 21.3837852478027 15.2407646179199 7.11227941513062 2.68852257728577 4.16078519821167 6.96737766265869 8.92291927337646 12.6184034347534 17.5695095062256 20.8736114501953 5.66110467910767 0.220757588744164 2.85542845726013 1.93196737766266 -2.55883550643921 -3.81627798080444 -3.60508275032043 -3.15410590171814 -2.36348414421082 -1.88283061981201 -1.5752866268158 2.67432141304016 5.83086919784546 -1.76447868347168 -2.27654623985291 -1.79175889492035 -0.500992834568024 0.348349183797836 0.551026046276093 1.02807056903839 1.3328812122345 1.59749364852905 1.7016875743866 2.08913016319275 2.2726001739502 4.82557725906372 6.5540337562561 2.26861572265625 2.84283471107483 -0.0150726856663823 0.208747908473015 0.502359807491302 0.492176800966263 -0.0993741452693939 -0.582062065601349 -0.899945974349976 -1.09295010566711 -0.712339162826538 0.0178085193037987 0.594876050949097 0.952699184417725 1.65275633335114 2.18108725547791 2.7654972076416 3.17421936988831 3.22209668159485
