NCOLS 172
NROWS 31
XLLCORNER 353936
YLLCORNER 6699216
CELLSIZE 16 
NODATA_value -3.4e+38 
1.3275238275528 1.52753174304962 1.8355507850647 2.59714388847351 4.07313442230225 4.18514776229858 3.22594618797302 2.71282744407654 1.86080873012543 1.52632904052734 1.40327441692352 1.01081788539886 1.08342599868774 0.98344624042511 1.09980165958405 0.930372416973114 0.758728623390198 0.709298610687256 0.584204614162445 0.382049143314362 0.312242239713669 0.262457966804504 0.237988159060478 0.191871851682663 0.122650675475597 0.102537579834461 0.0490352734923363 0.0530975311994553 0.467140823602676 0.608181536197662 0.523181617259979 0.889330208301544 1.29561853408813 2.63161277770996 4.17803812026978 3.39084196090698 -0.240043729543686 -0.582373321056366 0.473897039890289 0.181781977415085 0.1052475720644 0.0816890075802803 -1.28684878349304 -0.718676269054413 -0.125493973493576 0.0544990003108978 0.0816690474748611 0.106843642890453 -0.042448416352272 -0.150307834148407 -0.0685264766216278 0.462431222200394 1.11788749694824 1.08581054210663 1.42025351524353 2.30069255828857 0.722241461277008 1.86728358268738 1.50855183601379 4.31905317306519 7.33745718002319 4.42650556564331 2.54740142822266 3.35351371765137 4.50743579864502 5.48551464080811 6.46464347839355 7.71871280670166 8.82146835327148 9.79537487030029 9.75012874603271 7.74915361404419 5.43949413299561 2.89781188964844 1.56618976593018 1.77241861820221 2.03529644012451 2.0152280330658 1.82436561584473 1.55866456031799 1.42063808441162 1.23714315891266 0.935422658920288 0.32336413860321 -0.0865631252527237 -0.691889822483063 -0.769744217395782 -0.59511411190033 -0.499679744243622 -0.394499838352203 0.00738252280279994 0.514638245105743 1.0065975189209 1.44560074806213 1.77544987201691 1.81180334091187 1.87073397636414 2.14723682403564 2.01990604400635 2.32513618469238 0.436455637216568 1.09069812297821 0.0417740643024445 -2.27210474014282 -1.75246155261993 1.76527857780457 4.79483413696289 4.92332077026367 4.68263578414917 5.31899261474609 6.3901219367981 8.81394195556641 8.85272693634033 5.41935443878174 4.57959079742432 4.9885573387146 3.94180989265442 4.79837846755981 3.05881857872009 5.06425142288208 3.73752403259277 3.29368185997009 3.14157629013062 -0.192583292722702 -2.49962401390076 -2.65593504905701 -2.46833848953247 -1.5282883644104 1.22544956207275 1.08283853530884 1.66866230964661 2.47944903373718 4.10324192047119 3.32083010673523 0.441877156496048 -0.147586405277252 -0.496218532323837 0.836163580417633 0.757168531417847 -0.0415451638400555 -0.0683364868164062 -0.245452791452408 -0.22080934047699 -0.215473040938377 0.211471408605576 0.7423495054245 1.55574762821198 3.82422780990601 5.97391366958618 6.83438205718994 6.59070062637329 5.82757377624512 5.68165969848633 4.74624919891357 3.74824595451355 4.75675964355469 7.2445707321167 7.84707450866699 6.08866882324219 6.54996871948242 8.65513801574707 7.95091819763184 7.81163311004639 5.03991889953613 3.35825204849243 5.4553108215332 2.99999785423279 1.97213673591614 2.81090450286865 3.03920006752014 3.82889485359192 6.24258947372437
0.947597742080688 1.35880088806152 1.71733522415161 2.28101205825806 3.57343292236328 4.81635713577271 4.29754781723022 3.39347195625305 2.42165470123291 2.22621655464172 1.71918523311615 1.32387053966522 1.05236971378326 1.0978547334671 1.0082551240921 0.913220643997192 0.744187712669373 0.625433385372162 0.489724487066269 0.323245346546173 0.250338703393936 0.204932659864426 0.182139068841934 0.113982923328876 0.069652684032917 0.0405361764132977 0.0101920776069164 -0.0108348997309804 0.185260936617851 0.51058566570282 0.597357392311096 0.897346675395966 1.42019522190094 1.98498904705048 4.62531518936157 4.80756139755249 1.14326286315918 -0.962354600429535 1.22315061092377 1.25257050991058 2.04677939414978 0.772283673286438 -1.15226149559021 -0.667009711265564 -0.34801858663559 -0.144329950213432 0.0402443148195744 0.0566410794854164 -0.0949724614620209 -0.171768799424171 0.121717341244221 0.500263333320618 1.0411536693573 1.00653445720673 1.21532833576202 2.30327248573303 0.589446902275085 1.14288675785065 2.58104872703552 6.10562133789062 5.44917821884155 5.86557054519653 7.02822160720825 4.8004674911499 4.42989635467529 5.22528553009033 6.41123104095459 7.29867124557495 8.02487087249756 8.03054904937744 7.68339252471924 6.2059121131897 2.92198872566223 1.13367009162903 1.60190117359161 1.75382256507874 1.81095325946808 1.73567819595337 1.4636013507843 1.23260593414307 0.942733108997345 0.77154529094696 0.537126481533051 -0.0071998811326921 1.77785134315491 -0.442368894815445 -0.765999555587769 -0.696204960346222 -0.752449512481689 -0.646394968032837 -0.398507237434387 0.0778926908969879 0.821267068386078 1.10019648075104 1.50053477287292 1.85432267189026 1.70742177963257 1.47484731674194 2.01292014122009 5.78587102890015 1.04810810089111 2.95962190628052 3.58263993263245 -2.09497833251953 -1.16642165184021 2.87064743041992 5.9819917678833 6.69490337371826 5.86673212051392 6.74195051193237 7.55313968658447 8.83770751953125 9.20495319366455 6.2016773223877 5.35796451568604 3.51531553268433 4.45398855209351 5.06956434249878 2.55299115180969 -2.61743974685669 3.90537142753601 3.35355830192566 3.20220613479614 2.09738206863403 1.81810736656189 -2.14471530914307 -0.415596067905426 1.72942495346069 2.31818437576294 2.22172975540161 2.24142551422119 2.07719993591309 2.6543025970459 3.08935713768005 2.91277670860291 1.66631472110748 0.834726631641388 0.702278077602386 0.408030688762665 -0.31821408867836 -0.402768522500992 -0.4852434694767 -0.975190281867981 -0.774617671966553 -0.307325690984726 0.213030129671097 0.858202993869781 2.57956457138062 4.00255393981934 5.53496408462524 5.33534002304077 4.63550138473511 3.7333607673645 3.47337102890015 3.71400713920593 4.8248987197876 5.82513284683228 6.32640504837036 5.12144660949707 6.10714530944824 7.98071241378784 8.16952323913574 6.79959487915039 8.2060432434082 7.58408641815186 4.18849945068359 2.92299556732178 2.87440705299377 3.25490403175354 3.58895635604858 6.76124143600464 10.4761943817139
0.904374063014984 1.20215368270874 1.57708978652954 2.22031450271606 2.82334566116333 4.25108480453491 4.54217910766602 3.79267811775208 3.04700422286987 2.37454462051392 2.26374220848083 1.60237956047058 1.01817989349365 1.05925703048706 0.902272760868073 0.817677974700928 0.689405560493469 0.570196032524109 0.366820126771927 0.279320597648621 0.177448585629463 0.140138953924179 0.0890388041734695 0.0407537706196308 0.00820206757634878 -0.0172557160258293 -0.0493987612426281 -0.0328602530062199 0.134913459420204 0.437529623508453 0.786974549293518 1.06062746047974 1.08538389205933 1.72841048240662 3.31014227867126 4.90049505233765 1.49835669994354 -0.380299359560013 1.75020933151245 2.32516837120056 3.18592286109924 4.11039066314697 1.99723958969116 0.263834685087204 -0.373272180557251 -0.154448553919792 -0.0054582660086453 -0.0508356913924217 0.419382691383362 0.298408269882202 0.0968316867947578 0.390148133039474 0.950388431549072 0.943650245666504 0.940512239933014 2.02718782424927 1.58138048648834 1.11042332649231 3.75482583045959 4.91433763504028 6.58798217773438 6.55202674865723 4.15462398529053 3.47662997245789 4.34222841262817 6.29290819168091 5.71124505996704 5.51260900497437 6.05684328079224 5.87075614929199 5.32462120056152 4.01261854171753 1.34302699565887 0.710869789123535 1.33217525482178 1.59223067760468 1.5208066701889 1.2494945526123 1.02161085605621 0.813489496707916 0.547816693782806 0.372700124979019 0.219138562679291 -0.126170426607132 2.17412781715393 3.60885453224182 2.81804704666138 2.71850442886353 4.84248828887939 3.00304937362671 -0.486356735229492 -0.188756614923477 0.368175595998764 0.658399879932404 0.61477655172348 1.32174003124237 1.4923175573349 4.40100574493408 7.08227109909058 5.72650718688965 1.84439849853516 1.38582491874695 3.47254467010498 1.96907830238342 0.136695742607117 1.9552937746048 4.26756048202515 4.81994676589966 5.54881429672241 5.85763597488403 6.60222721099854 7.76948976516724 9.23351287841797 7.41113328933716 6.73649311065674 4.0658392906189 2.72638773918152 2.6515965461731 0.857206761837006 -2.6804575920105 -1.67443549633026 0.987902641296387 -0.336314648389816 5.8108925819397 8.80841827392578 4.73119878768921 3.43022418022156 0.348308026790619 0.788795828819275 2.10586404800415 2.3148021697998 1.7681337594986 1.46722447872162 0.423660099506378 0.381324827671051 2.23187780380249 2.82843112945557 1.55209493637085 2.76955890655518 2.81196928024292 1.44668173789978 0.589834272861481 0.130019262433052 3.34405589103699 2.12362575531006 2.90492868423462 3.79878449440002 1.7755663394928 3.27014183998108 3.41925311088562 3.47015428543091 3.63626623153687 3.368328332901 3.31221580505371 3.14957571029663 4.47406530380249 4.96429109573364 4.27599477767944 5.3734564781189 6.19438791275024 7.20524740219116 7.46722984313965 6.93225002288818 9.33267593383789 9.84456157684326 5.34201240539551 2.89195728302002 2.58674645423889 2.87198734283447 3.60695290565491 6.05975532531738 9.26456832885742
0.939283907413483 1.21815884113312 1.5754588842392 2.11320996284485 2.69132423400879 3.15675282478333 4.64390516281128 4.00986671447754 2.89887928962708 2.55193018913269 2.50335359573364 1.85244190692902 1.1102706193924 1.02349960803986 0.856280982494354 0.668811500072479 0.605830311775208 0.497440248727798 0.290263116359711 0.210050076246262 0.122847944498062 0.0710518285632133 0.0199794135987759 -0.0244594141840935 -0.044798843562603 -0.0624743215739727 -0.0986305475234985 0.0240337438881397 0.193856164813042 0.381340384483337 0.616342961788177 1.00072193145752 1.35239434242249 2.11988759040833 2.50646996498108 3.45658493041992 2.31808733940125 0.282999753952026 1.7493976354599 2.90839123725891 3.93959069252014 4.28476619720459 6.88609790802002 2.50900864601135 -0.379195660352707 -0.181824430823326 -0.101587258279324 0.491693258285522 0.685622870922089 0.36844265460968 0.142696022987366 0.678105175495148 0.85052102804184 0.862095415592194 1.04649019241333 2.47030448913574 2.86675953865051 1.50752627849579 4.47321462631226 4.68993806838989 5.13675689697266 2.94574117660522 2.94966149330139 5.40348672866821 5.32685852050781 4.38114595413208 3.95156049728394 4.13279819488525 4.51725244522095 4.37578344345093 3.02907919883728 1.14111793041229 -0.612955033779144 0.142861232161522 0.872401595115662 1.16663789749146 1.18591845035553 0.955393314361572 0.718156099319458 0.610542178153992 0.380477249622345 0.206974253058434 -0.107592292129993 1.27195477485657 3.78648614883423 5.56745624542236 7.75595855712891 6.43341970443726 5.0386061668396 2.55819892883301 -0.502593040466309 -0.352670192718506 -0.171375960111618 -0.0170499254018068 0.275745093822479 0.606701910495758 1.28621888160706 7.80053520202637 14.7050886154175 10.1926784515381 4.47254657745361 1.22355365753174 3.8976833820343 2.73147320747375 0.77799266576767 2.18850111961365 3.56614971160889 3.8090763092041 4.81547832489014 5.97944164276123 6.95890522003174 7.53037977218628 8.57200813293457 8.22752571105957 7.76159143447876 3.45074987411499 1.99799346923828 1.45870041847229 -0.092016227543354 -0.469086915254593 -3.89442777633667 -3.33307027816772 -1.71369338035583 5.78602838516235 9.55848789215088 1.51203167438507 0.189414113759995 0.0526190921664238 1.36315774917603 1.21429181098938 1.11266040802002 1.29379522800446 1.14528870582581 0.289068013429642 2.14171433448792 7.67681550979614 11.3792581558228 12.8365421295166 10.7600002288818 7.86657476425171 6.90769338607788 5.94455671310425 10.1621198654175 10.9091196060181 5.79578351974487 1.86594879627228 3.01838850975037 1.72550570964813 2.68546414375305 2.82947182655334 3.00861406326294 3.12752676010132 3.02131152153015 2.80348801612854 2.55727052688599 3.74837732315063 4.28344631195068 3.73785185813904 4.94556283950806 6.33474540710449 6.28526878356934 7.04403924942017 6.66387510299683 7.01907444000244 7.73592090606689 6.09100770950317 3.57031989097595 3.82845973968506 3.56441426277161 3.63022613525391 5.57192420959473 8.22507572174072
0.998433113098145 1.2052983045578 1.54646325111389 1.90022432804108 2.53347635269165 3.17072010040283 4.43119382858276 4.2458963394165 3.32948589324951 2.77122497558594 2.6307168006897 2.43463158607483 1.45449185371399 0.93793112039566 0.80058628320694 0.606530964374542 0.497444033622742 0.41027769446373 0.231155082583427 0.107636786997318 0.0627434328198433 0.00353835104033351 -0.0724652260541916 -0.097054161131382 -0.112980514764786 -0.123197950422764 -0.141774281859398 0.0596888847649097 0.359807163476944 0.335674554109573 0.525925576686859 0.999513626098633 1.62647306919098 2.31487035751343 2.45572805404663 2.70923113822937 2.82922053337097 0.992627680301666 1.42900252342224 2.64610576629639 3.70558142662048 4.72755098342896 4.44982004165649 3.57615756988525 -0.105813167989254 -0.203740760684013 -0.155584812164307 -0.0908883213996887 0.493078291416168 0.613672971725464 0.270465046167374 0.78736686706543 0.789941608905792 0.638349175453186 0.997086584568024 2.29706954956055 4.63421249389648 7.96065282821655 6.45962762832642 7.24169397354126 3.77212691307068 2.86503624916077 4.91150331497192 3.67814540863037 3.71767282485962 2.72022008895874 2.10589456558228 2.59873676300049 3.07111382484436 2.69617748260498 1.60455250740051 -0.483153104782104 -1.02191245555878 -0.427322775125504 0.374869853258133 0.744952023029327 0.891739308834076 0.873854756355286 2.92288637161255 5.65723943710327 6.46123218536377 6.73142719268799 4.9060115814209 5.86554336547852 6.50935077667236 7.68674325942993 10.7321262359619 8.61248874664307 3.67951989173889 -0.580963492393494 -0.567296743392944 -0.609551608562469 -0.474836677312851 -0.288355141878128 0.0431570075452328 0.198811054229736 0.978225648403168 7.3974781036377 18.8046283721924 14.7377471923828 6.8882269859314 3.2618989944458 1.9127060174942 1.95264279842377 0.679597437381744 1.45434260368347 2.9483470916748 3.96276903152466 5.13969564437866 6.475989818573 7.26833248138428 7.64425945281982 7.57685089111328 8.26531791687012 6.5630898475647 5.11504745483398 3.50108027458191 1.66254770755768 2.76094579696655 3.92397165298462 -0.905935406684875 -3.54154849052429 -1.48113512992859 3.76765537261963 8.96898460388184 3.06481194496155 1.2827410697937 0.901920258998871 0.660005629062653 0.468240648508072 0.716317892074585 1.09346568584442 2.99100661277771 6.88098192214966 12.0299158096313 12.0617170333862 10.7649583816528 12.1076936721802 12.2267427444458 12.5516700744629 11.5647487640381 13.1237497329712 14.7368650436401 14.5099515914917 13.7190418243408 7.44957876205444 3.59698963165283 2.36100649833679 2.31593322753906 2.64219498634338 2.85472416877747 2.90781593322754 2.6964476108551 2.24879574775696 2.08799624443054 2.70575189590454 3.67790246009827 3.6254506111145 4.63050556182861 5.93516397476196 6.12564277648926 5.85426378250122 6.47001886367798 6.56635284423828 4.54557418823242 3.43939828872681 1.87434494495392 2.56865191459656 2.84599328041077 4.47344493865967 6.84683895111084 7.476487159729
0.957396686077118 1.21988499164581 1.50066530704498 1.90501391887665 2.24489617347717 2.9550666809082 3.89281272888184 4.42961502075195 3.65186047554016 3.2624044418335 2.90185904502869 2.64853572845459 2.07465577125549 0.867756724357605 0.703522384166718 0.55696976184845 0.451917856931686 0.289144098758698 0.168395906686783 0.0261462535709143 -0.00606612069532275 -0.0730532854795456 -0.149845987558365 -0.179423198103905 -0.179264977574348 -0.200216457247734 -0.163334086537361 0.00981739163398743 0.302266746759415 0.357953250408173 0.486509829759598 0.758973121643066 1.5500031709671 1.86430788040161 2.25073862075806 1.74546086788177 1.75851607322693 0.653267860412598 1.64804005622864 2.55402851104736 3.38857769966125 4.36493968963623 3.43978500366211 3.88674306869507 3.62537217140198 0.659985661506653 -0.158306166529655 -0.0554338023066521 0.243470400571823 0.478399157524109 0.289563626050949 0.690112173557281 0.720029711723328 0.409438073635101 0.84908002614975 1.78126299381256 4.13221120834351 4.28214645385742 4.14583206176758 3.31655240058899 2.23987483978271 2.2836582660675 2.43134045600891 3.09884738922119 3.1425986289978 2.48956680297852 1.72742450237274 1.72226309776306 1.44083690643311 0.854012131690979 -0.158773273229599 -1.2010395526886 -1.18539488315582 -0.876124382019043 0.0134469326585531 0.479205697774887 0.696213483810425 3.86258316040039 7.38397789001465 9.05250930786133 8.7912712097168 9.16505432128906 8.43771076202393 8.61884498596191 7.22990369796753 7.441819190979 6.70785093307495 5.39308881759644 3.02566289901733 0.554102301597595 -0.677230477333069 -0.73881608247757 -0.681647539138794 -0.506943047046661 -0.157695591449738 -0.0848291143774986 0.635277271270752 4.77449798583984 19.0051822662354 20.4672203063965 9.2216329574585 3.52603149414062 0.872054040431976 1.42504620552063 2.02785563468933 1.57856941223145 1.98244178295135 3.37503576278687 4.67367219924927 5.83893728256226 6.88604640960693 7.12592220306396 7.31098651885986 7.91740036010742 7.89609813690186 6.58563613891602 6.47995233535767 6.3713903427124 6.79934692382812 5.53219032287598 1.10138261318207 -3.71455669403076 -0.813906371593475 3.93518495559692 9.0340747833252 6.45899343490601 3.03854942321777 3.36736226081848 0.730572104454041 1.15553867816925 1.49732828140259 2.9535961151123 6.31174850463867 10.2559032440186 11.1631031036377 8.46385478973389 9.43386363983154 9.39222526550293 8.94888401031494 7.23963069915771 7.47392654418945 10.4346332550049 11.9790496826172 12.8843994140625 14.1724443435669 11.899863243103 7.33576393127441 3.26075911521912 2.28850293159485 2.56139826774597 2.70410299301147 2.64229583740234 2.38179302215576 1.95966744422913 1.75006973743439 1.67674624919891 2.68467926979065 4.17183303833008 4.92628622055054 5.50724172592163 5.49891710281372 4.76653528213501 4.84875535964966 4.46772146224976 2.60789585113525 1.47696971893311 1.99222612380981 2.34298205375671 2.69224452972412 3.96963000297546 6.20319747924805 7.00174617767334
0.960256159305573 1.21389126777649 1.45949733257294 1.85186862945557 2.22629499435425 2.61665534973145 3.33269381523132 4.03527116775513 3.55566310882568 3.58554267883301 2.93934464454651 2.56166076660156 2.37001943588257 1.82028603553772 0.967718780040741 0.528456747531891 0.405858069658279 0.189879521727562 0.0744894817471504 -0.0586951151490211 -0.0886987447738647 -0.164504915475845 -0.228331655263901 -0.281112730503082 -0.279127836227417 -0.266797006130219 -0.128017514944077 0.0570780970156193 0.24627785384655 0.304783135652542 0.55163711309433 0.877131164073944 1.54275667667389 1.83569085597992 1.71009957790375 1.27830946445465 0.48098012804985 0.405645340681076 1.46273362636566 2.49600601196289 2.97206735610962 3.60156607627869 2.70472693443298 2.5086886882782 2.21717405319214 1.70762884616852 0.349742323160172 0.0257674772292376 -0.0177616812288761 0.186333209276199 0.809583067893982 0.68813169002533 0.64353084564209 0.508592486381531 0.951269865036011 2.09467172622681 3.56862282752991 3.17073631286621 2.80232810974121 1.56354010105133 1.51712036132812 2.09707188606262 2.2190215587616 2.43957805633545 3.87878966331482 3.09551763534546 2.04911160469055 1.53789949417114 1.03277170658112 0.465764492750168 -1.37661755084991 -1.3794093132019 -1.35814356803894 -1.25955176353455 -0.40332818031311 0.254733502864838 1.83800268173218 3.38368272781372 5.82397413253784 7.71892976760864 9.06889247894287 8.88766288757324 8.41094970703125 6.32332706451416 5.67655515670776 6.35288143157959 5.37825870513916 3.39379096031189 1.57743704319 1.08119988441467 0.677492797374725 -0.550851464271545 -0.867335975170135 -0.707359194755554 -0.333194375038147 -0.121812738478184 0.320716351270676 6.57622098922729 14.7198734283447 24.5380592346191 14.3012094497681 7.49143838882446 1.98187100887299 1.49484026432037 3.29417204856873 2.23095035552979 2.19997763633728 3.33562159538269 4.5907416343689 5.91579055786133 6.54400110244751 6.72413730621338 7.45290517807007 7.78903341293335 8.92934131622314 9.02568435668945 6.90171575546265 5.91509485244751 4.78557300567627 4.12745952606201 5.88427829742432 2.34439635276794 -1.26745748519897 3.35985732078552 7.0890212059021 6.77219247817993 5.43004989624023 5.0290904045105 5.8097095489502 4.21792888641357 5.19304227828979 6.86665534973145 9.31485080718994 10.273494720459 8.21749782562256 8.09091377258301 8.44895935058594 7.86722040176392 6.95886468887329 6.40576696395874 8.383864402771 10.4242486953735 12.4238758087158 12.2078742980957 11.3171195983887 12.3693027496338 8.81674766540527 4.87731647491455 2.82712292671204 2.62451696395874 3.24986600875854 4.28093767166138 2.08992600440979 1.67637360095978 1.58486247062683 1.55398905277252 2.36846995353699 3.90402936935425 5.03007411956787 4.94285869598389 5.14382648468018 4.54782009124756 3.67244362831116 1.96345496177673 1.28403878211975 1.30818545818329 1.86145234107971 2.08509612083435 2.01054549217224 3.55102181434631 5.59430122375488 6.4144287109375
0.967530846595764 1.17865252494812 1.44823288917542 1.71123921871185 2.18343162536621 2.54457664489746 3.079909324646 3.34733700752258 3.13856291770935 3.5009868144989 3.30575847625732 2.4366500377655 2.11913156509399 2.21578574180603 1.8032830953598 0.903199374675751 0.27541771531105 0.0995125994086266 -0.0397646650671959 -0.158047124743462 -0.204528495669365 -0.297337025403976 -0.349360346794128 -0.357684880495071 -0.359339147806168 -0.341509461402893 -0.125101670622826 0.18183559179306 0.190932616591454 0.245251327753067 0.497470259666443 0.662411510944366 1.39125537872314 1.65882706642151 1.09723126888275 0.91167277097702 0.176666557788849 0.424838751554489 1.51421391963959 2.15848064422607 2.44489073753357 1.78229951858521 2.00591540336609 1.75128519535065 0.570716202259064 -0.0627649426460266 -0.178911581635475 -0.102975063025951 0.0368451066315174 0.369937926530838 1.14789414405823 1.58697104454041 2.16654109954834 2.10205793380737 2.39299869537354 2.42757654190063 3.0678973197937 2.50853705406189 1.71868824958801 0.871670365333557 1.27105736732483 1.79070436954498 2.05251216888428 2.2284677028656 2.86487674713135 5.03526973724365 1.5396214723587 1.39216732978821 0.836388528347015 -0.137869447469711 -1.54862892627716 -1.48658359050751 -1.45818412303925 -1.441281914711 -0.959717094898224 -0.13238725066185 1.01955115795135 2.720219373703 4.84348106384277 6.25720691680908 7.07270193099976 7.32531833648682 6.35915327072144 5.38190412521362 5.09765005111694 4.36941814422607 3.49726247787476 1.71245014667511 0.574443817138672 0.715143799781799 1.84174990653992 1.30143129825592 -1.07462298870087 -0.825406551361084 -0.508542954921722 -0.193357720971107 0.0234063360840082 7.1263370513916 11.3215675354004 23.4713459014893 19.5633068084717 13.014181137085 6.74072313308716 1.54250109195709 3.67748689651489 4.30416584014893 2.27235913276672 3.30780935287476 4.42297697067261 5.41440200805664 6.39774179458618 7.61951875686646 7.11325883865356 6.93031787872314 8.30271911621094 8.15256881713867 8.86134910583496 5.79675674438477 4.47747802734375 3.02206659317017 3.84768891334534 0.155454725027084 -0.879611551761627 2.8731575012207 6.04583406448364 8.22069263458252 9.19399642944336 5.59086561203003 4.3390736579895 4.94945621490479 6.7756404876709 8.89316654205322 10.2382307052612 10.2511148452759 7.33209228515625 7.98738670349121 8.03175735473633 7.27558135986328 8.52112483978271 11.47398853302 10.4541883468628 10.1370086669922 10.4961128234863 10.6092844009399 8.8451566696167 6.07691431045532 4.39041090011597 2.04314255714417 2.31407999992371 2.61621427536011 4.49546146392822 6.54970455169678 8.21846103668213 6.24925756454468 3.62180757522583 5.16418266296387 2.66651010513306 3.7096152305603 4.71647119522095 4.81536197662354 4.32085704803467 3.73670530319214 2.24046754837036 0.939624667167664 0.598556339740753 0.792109489440918 1.39215624332428 1.8009797334671 1.7594827413559 3.81433963775635 4.93771553039551 5.66456890106201
0.972617328166962 1.17322182655334 1.41680192947388 1.68405950069427 1.98637712001801 2.47505569458008 2.82785773277283 2.72328329086304 2.5770583152771 3.12042427062988 3.59177994728088 2.72947382926941 1.86519038677216 1.86711275577545 1.86042416095734 1.24309980869293 0.151228129863739 0.000333881180267781 -0.133177101612091 -0.247387513518333 -0.294409811496735 -0.359867036342621 -0.443974912166595 -0.456455677747726 -0.442609280347824 -0.401354193687439 -0.221681132912636 0.0881147831678391 0.182707458734512 0.151600554585457 0.24933135509491 0.661446332931519 1.11501693725586 1.47664153575897 0.725148916244507 0.408373892307281 0.180001676082611 1.73009359836578 1.64109492301941 1.91908597946167 2.13614201545715 1.46570491790771 1.05020701885223 1.27680087089539 0.343209505081177 -0.161456435918808 -0.181144282221794 -0.161820068955421 0.0229089297354221 0.272423952817917 0.676822304725647 1.36962080001831 1.36340522766113 1.11408126354218 1.28788709640503 2.08062958717346 2.11220955848694 1.68657398223877 0.789466619491577 0.594282567501068 0.922008574008942 1.33976984024048 1.61753702163696 1.94291174411774 1.86860871315002 1.59982943534851 1.44351935386658 0.907146513462067 0.0639170408248901 -1.32072842121124 -1.62827301025391 -1.54132461547852 -1.49366414546967 0.109815649688244 0.487773001194 -0.490716695785522 1.94431495666504 3.85066890716553 5.07982683181763 5.78304767608643 5.70475149154663 5.91691637039185 4.96400022506714 3.98123526573181 3.87388920783997 2.79329419136047 1.65060019493103 0.0331033952534199 -1.2535754442215 -1.40555274486542 -1.15232157707214 0.10921847820282 0.311732441186905 1.41247010231018 1.97595500946045 -0.383356153964996 0.278924226760864 6.52627801895142 11.1439247131348 17.8446102142334 19.3661499023438 15.849217414856 5.38172054290771 1.13991689682007 2.57502508163452 4.2122483253479 4.20882558822632 3.0536253452301 4.17437314987183 5.07998275756836 6.35080718994141 6.72718381881714 6.7699236869812 6.95769023895264 7.53662443161011 8.00709819793701 8.62827205657959 10.4287424087524 7.6557502746582 2.71164894104004 -1.51807773113251 -3.19336342811584 -0.327484041452408 2.23701429367065 5.39386415481567 8.12748432159424 8.63372039794922 6.28972291946411 5.28662109375 5.76603555679321 7.67719078063965 8.36982536315918 7.74893093109131 7.11245346069336 7.8635721206665 8.02261543273926 10.0668249130249 13.4281234741211 14.3305149078369 12.9269962310791 10.8119115829468 9.05911159515381 8.09668159484863 7.11822175979614 6.79235601425171 5.00365495681763 2.06527805328369 1.90472757816315 2.16680431365967 2.56355118751526 3.77785754203796 7.3611216545105 8.49444580078125 10.63694190979 8.65067768096924 3.9932804107666 3.99453115463257 3.99830150604248 4.44446659088135 4.47398281097412 3.74626326560974 2.73881268501282 0.976096034049988 0.249749332666397 -0.0634296238422394 0.361009865999222 0.838466823101044 1.29922866821289 1.41916310787201 3.01155209541321 4.20301961898804 4.76108694076538
0.952781200408936 1.14835751056671 1.34840273857117 1.65015292167664 1.93587577342987 2.20966649055481 2.33904266357422 2.25090003013611 2.43486642837524 2.45450496673584 3.17866921424866 2.83380317687988 1.93707036972046 1.47835063934326 1.27082788944244 2.00829744338989 1.04190933704376 0.098967432975769 -0.177484899759293 -0.268247097730637 -0.36882483959198 -0.472721487283707 -0.555525124073029 -0.564503014087677 -0.521928608417511 -0.385563105344772 -0.20019756257534 0.00316299125552177 0.0915016606450081 0.0720095485448837 0.311458736658096 0.675535798072815 1.10188519954681 2.06904268264771 1.75118589401245 0.0487201176583767 0.95956552028656 3.49004292488098 1.55009639263153 1.78245031833649 1.82636725902557 1.30237245559692 0.843454957008362 0.313723623752594 0.0706126689910889 -0.181288838386536 -0.214247032999992 -0.209906339645386 -0.00951109919697046 0.453665524721146 0.562609136104584 0.570369362831116 0.286224007606506 0.301372796297073 0.84094625711441 1.08799147605896 1.32574677467346 0.812703669071198 -0.416845679283142 -0.0728238299489021 0.165424078702927 0.660789132118225 1.20234847068787 1.55772948265076 1.53285646438599 1.51810729503632 1.9117339849472 0.878353536128998 0.0451738275587559 0.180207118391991 -1.67091953754425 -1.58666670322418 -0.948298811912537 0.591303884983063 1.56286549568176 3.30250453948975 2.12329816818237 3.43915176391602 4.40328168869019 4.93945980072021 4.83956146240234 4.33765840530396 3.44134902954102 3.0790388584137 2.49128270149231 1.11881721019745 -0.894477188587189 -1.94359958171844 -2.07705068588257 -2.02491164207458 -2.11712551116943 -1.24473011493683 0.111478842794895 0.0517181791365147 -0.378933370113373 -0.822788417339325 1.03791487216949 6.20704174041748 11.1558218002319 13.1816911697388 13.3724031448364 11.0572071075439 4.81450080871582 1.29935884475708 1.75743556022644 3.26782989501953 2.84779047966003 3.32992339134216 4.5299654006958 5.51412010192871 6.12354803085327 6.49617195129395 6.24492359161377 6.56293773651123 7.01829051971436 7.31732082366943 8.06401252746582 7.40266275405884 5.80877637863159 3.75556039810181 -2.78135776519775 -3.34502959251404 -1.06287372112274 1.07621932029724 4.33671855926514 7.27326393127441 7.89766883850098 8.24377632141113 7.8075065612793 9.77113246917725 8.97957706451416 9.52400016784668 9.96598815917969 9.1330451965332 9.20161056518555 8.49456214904785 10.5232667922974 11.425971031189 11.0617265701294 9.70064353942871 8.9720573425293 8.46446800231934 6.98371458053589 4.10169172286987 2.10521054267883 2.71658968925476 1.87340688705444 2.32257580757141 2.15319466590881 2.52866506576538 3.35918974876404 6.04224538803101 7.48811149597168 7.73612213134766 8.17207622528076 5.99920129776001 3.26017570495605 4.06069374084473 3.99509191513062 4.12948131561279 3.5025634765625 2.50083589553833 0.968487560749054 -0.044509120285511 -0.32524436712265 0.0727862790226936 0.300920337438583 0.314795106649399 0.435904234647751 2.0259165763855 3.36446595191956 4.00295257568359
0.954465866088867 1.12116324901581 1.32350933551788 1.56336092948914 1.85300076007843 1.99933230876923 2.03130149841309 1.94208252429962 2.06419849395752 2.26308059692383 2.53792524337769 2.58323740959167 1.88698267936707 1.4603955745697 1.35662186145782 2.79370212554932 2.8011314868927 1.6069700717926 1.01294934749603 -0.331920444965363 -0.440869808197021 -0.573777914047241 -0.641341686248779 -0.652699708938599 -0.625403761863708 -0.40759465098381 -0.113729313015938 -0.0802772790193558 -0.0152363143861294 -0.018888134509325 0.13677641749382 0.539684951305389 0.99090451002121 2.55458235740662 2.87733221054077 1.89071571826935 1.74580228328705 1.13941597938538 1.38737094402313 1.56481790542603 1.05853128433228 0.908798098564148 0.686351716518402 0.0310182552784681 -0.207991078495979 -0.26507505774498 -0.299331903457642 -0.301647126674652 0.0244687348604202 0.414907217025757 0.35393899679184 0.154566168785095 -0.278789043426514 -0.550002217292786 -0.0313665717840195 0.308737635612488 -0.165726155042648 -0.900411069393158 -0.705492317676544 -0.395253360271454 -0.329254537820816 0.129510819911957 0.44335350394249 1.00723576545715 1.36683619022369 1.4323011636734 1.30466556549072 1.26554000377655 2.32455849647522 3.91108202934265 3.69402170181274 1.24524796009064 0.243153274059296 0.304188191890717 1.75823533535004 1.45855176448822 1.8461297750473 3.04803824424744 3.76950311660767 4.18982124328613 3.80288052558899 3.08240914344788 2.46952819824219 2.02482175827026 0.713307499885559 -1.54509675502777 -2.71299862861633 -3.06217885017395 -3.16843748092651 -2.69165420532227 -2.47203803062439 -2.13716125488281 -0.36343640089035 -1.11300957202911 -1.49331295490265 -1.3242084980011 1.7363692522049 6.30227518081665 9.9743709564209 12.0632696151733 8.21934509277344 5.72580575942993 4.87981414794922 1.82446432113647 1.57486689090729 2.20142459869385 2.85151839256287 4.50560855865479 6.47547483444214 5.60982608795166 5.81796646118164 6.06415939331055 5.77761745452881 6.02252531051636 5.96867275238037 6.20241117477417 6.51689052581787 6.19572591781616 5.09582376480103 1.92938160896301 0.636301577091217 -2.79741096496582 -1.6042937040329 0.283672600984573 3.16137170791626 6.39249610900879 7.52633810043335 10.524320602417 10.7632436752319 9.70619106292725 9.70096206665039 7.14042997360229 6.78312349319458 8.97365951538086 9.10619735717773 8.83078002929688 9.7496919631958 10.1752347946167 10.7612600326538 10.0938653945923 8.36815929412842 7.35731601715088 6.18601322174072 3.61504340171814 1.4732438325882 1.50141084194183 1.90326654911041 5.21601963043213 4.98964166641235 2.49901652336121 3.75056219100952 5.12212371826172 5.98588848114014 5.99793338775635 4.37298202514648 2.57638359069824 3.07806444168091 3.76148581504822 3.76008725166321 3.32709097862244 3.15146780014038 5.37981939315796 7.15004014968872 10.6573657989502 4.76207685470581 0.026053212583065 0.0843255072832108 0.0651928558945656 0.153663739562035 1.43147253990173 2.35599589347839 3.06984424591064
0.944959580898285 1.09356355667114 1.29558396339417 1.4708970785141 1.71583461761475 1.87760245800018 1.75045132637024 1.71630561351776 1.82459998130798 1.94973528385162 2.02903151512146 2.28005218505859 1.6071959733963 1.850470662117 1.72577714920044 2.32915115356445 2.98278641700745 2.84082984924316 1.21239733695984 -0.386509925127029 -0.492966115474701 -0.623166680335999 -0.697692573070526 -0.728656053543091 -0.682125091552734 -0.49454465508461 -0.183541119098663 -0.0984715297818184 -0.109703280031681 -0.0980008691549301 0.0975233092904091 0.570609390735626 0.865915715694427 1.33746206760406 3.58633971214294 2.61127066612244 2.30919694900513 1.09617447853088 1.18218302726746 1.37064146995544 0.882534027099609 0.352170944213867 0.412143558263779 -0.107806399464607 -0.267199367284775 -0.349652141332626 -0.38954085111618 -0.238999202847481 -0.12740769982338 0.10056160390377 0.0230366233736277 -0.488541275262833 -0.718296051025391 -0.872347593307495 -0.785713195800781 -0.53113979101181 -0.798728823661804 -1.55594146251678 -1.0537337064743 -0.833289384841919 -0.707953870296478 -0.501230001449585 -0.160081163048744 0.198534324765205 0.649093627929688 1.20174860954285 1.19677746295929 1.57368886470795 2.95496702194214 2.34166884422302 3.07401990890503 3.18041729927063 0.962064683437347 0.255407363176346 1.26484954357147 1.62737691402435 2.66646647453308 3.28204154968262 3.5955228805542 3.13720870018005 2.48775053024292 1.89896607398987 0.991356313228607 0.0806906372308731 -1.17903506755829 -2.99257922172546 -3.47990298271179 -3.61941647529602 -3.60001468658447 -3.4419572353363 -2.93671154975891 -2.6610095500946 -1.09925389289856 -1.31048476696014 -0.248972490429878 3.05072736740112 2.30604577064514 5.87701416015625 8.14572620391846 8.03471660614014 6.08527755737305 5.13907146453857 4.55849075317383 1.48457503318787 4.21265697479248 3.61500453948975 4.28974008560181 6.5627179145813 7.67083168029785 6.09044027328491 5.75709581375122 5.82728099822998 5.81269550323486 5.80420541763306 5.43389654159546 5.382981300354 5.0637354850769 4.43505954742432 2.99497079849243 4.57846212387085 3.60096287727356 2.22268462181091 0.00322384922765195 -0.161291986703873 2.06473779678345 5.00736665725708 6.72319793701172 8.82835483551025 12.2355098724365 12.0297069549561 11.0543785095215 9.53986358642578 6.60537147521973 7.84099769592285 7.67978525161743 7.77686595916748 8.79275798797607 9.24968719482422 9.37307739257812 8.42008876800537 7.80605411529541 6.10390520095825 5.61068344116211 8.27406597137451 5.81809234619141 2.23389649391174 1.87178933620453 4.77800321578979 6.04397344589233 3.65508627891541 3.91472411155701 4.70184183120728 4.69563865661621 4.5950403213501 3.03195929527283 2.85867857933044 3.27477812767029 3.49625253677368 3.45109844207764 3.0100212097168 2.5194685459137 5.57900047302246 11.1210269927979 11.3350849151611 11.8620576858521 7.88874483108521 3.0468316078186 0.788645803928375 0.105247743427753 1.04397141933441 1.833367228508 2.49880027770996
0.926683187484741 1.08194661140442 1.27065575122833 1.48323249816895 1.57202112674713 1.56544923782349 1.51630651950836 1.53993952274323 1.48761713504791 1.60029673576355 1.62805104255676 1.46926021575928 1.41185867786407 1.63119769096375 1.8960325717926 2.19320940971375 2.96299743652344 2.78090333938599 1.82415533065796 0.0493860095739365 -0.565129518508911 -0.675078451633453 -0.742816746234894 -0.792292356491089 -0.695628046989441 -0.497410207986832 -0.271472543478012 -0.173672571778297 -0.183138400316238 -0.225413173437119 0.0332824252545834 0.524657785892487 0.672053039073944 0.922988474369049 1.71495866775513 0.866979539394379 0.670323193073273 0.995055735111237 1.14969849586487 1.09878170490265 0.698647022247314 0.141491055488586 -0.246894687414169 -0.293293207883835 -0.384414970874786 -0.479124009609222 -0.520713448524475 -0.426734656095505 -0.117220818996429 -0.15131339430809 -0.202473327517509 -0.704350650310516 -1.10651767253876 -1.28797852993011 -1.35057175159454 -1.36569166183472 -1.78713536262512 -1.94609463214874 -1.65424585342407 -1.30886542797089 -1.21640050411224 -0.998535513877869 -0.7415971159935 -0.452421993017197 -0.145786464214325 0.392064273357391 0.564500570297241 0.709644854068756 1.98411583900452 1.48684918880463 0.46600878238678 0.516633152961731 0.57893443107605 0.550247371196747 0.978218734264374 1.42302083969116 2.27212691307068 2.7210853099823 2.64723229408264 2.25212287902832 1.72011053562164 1.33478689193726 0.114444188773632 -1.22847664356232 -2.89440751075745 -3.48442125320435 -3.70002150535583 -3.74589467048645 -3.70657396316528 -3.64029145240784 -3.39016008377075 -2.92883038520813 -2.47827243804932 -0.594013929367065 1.23104774951935 2.93811893463135 3.02980303764343 5.65453243255615 7.61119174957275 6.20218420028687 4.43278646469116 4.04736757278442 2.70286154747009 1.57468020915985 3.86455106735229 4.45466756820679 5.0788893699646 6.77472448348999 5.40125846862793 5.61685657501221 5.55446815490723 5.40512943267822 5.44154787063599 5.40948009490967 5.03800058364868 4.72257804870605 4.10755014419556 3.50376462936401 3.45640254020691 5.60923147201538 6.54508304595947 5.84691524505615 4.61686086654663 -0.541329264640808 1.39259040355682 4.42824459075928 6.03872299194336 7.79106044769287 9.65997123718262 12.3866357803345 11.6303157806396 11.4780559539795 11.1610260009766 6.94052362442017 7.42607975006104 7.50249624252319 8.47463607788086 8.86256694793701 8.20744514465332 7.93505573272705 7.03595018386841 5.38238477706909 6.4377818107605 8.52857971191406 10.3285312652588 6.21937036514282 3.55393624305725 3.60191535949707 5.0190863609314 4.14227199554443 3.60758972167969 4.080885887146 3.57413506507874 2.76729869842529 2.03212881088257 2.69584941864014 3.24405741691589 3.137855052948 3.14089107513428 2.68387222290039 2.19111204147339 3.87078452110291 8.67914295196533 10.8212070465088 11.7930297851562 10.8350267410278 8.40771484375 4.36572122573853 3.13414001464844 1.00731456279755 1.71066462993622 2.24134540557861
0.905021905899048 1.06640243530273 1.19730269908905 1.39865660667419 1.40358626842499 1.33746814727783 1.26792705059052 1.26943349838257 1.24434280395508 1.21357858181 1.15522575378418 1.09836947917938 0.966283798217773 1.07201099395752 1.84092593193054 1.9787529706955 2.34568524360657 3.06514549255371 2.58043909072876 0.911542356014252 -0.633775055408478 -0.728190898895264 -0.775616645812988 -0.846311092376709 -0.700418293476105 -0.42954084277153 -0.380236595869064 -0.286054372787476 -0.241115301847458 -0.277442365884781 -0.134654194116592 0.338463306427002 0.419358491897583 0.822341620922089 1.07263946533203 0.582590222358704 0.742933928966522 0.826202094554901 0.927290678024292 0.390096753835678 0.114334121346474 -0.31008368730545 -0.414707720279694 -0.510477304458618 -0.631145834922791 -0.730918228626251 -0.628400146961212 -0.475861549377441 -0.22860212624073 -0.312407642602921 -0.541099429130554 -1.04194891452789 -1.52821207046509 -1.99998211860657 -2.21192288398743 -2.48694038391113 -2.50034976005554 -2.2055389881134 -1.93419241905212 -1.7649130821228 -1.77433526515961 -1.80330693721771 -1.2236053943634 -0.860947728157043 -0.552235901355743 -0.365278989076614 -0.0401146896183491 -0.151969566941261 0.967381298542023 1.09584927558899 -0.0267501976341009 -0.141503423452377 0.231350913643837 0.686978101730347 0.561007022857666 1.17403364181519 1.696852684021 1.51521587371826 1.11884546279907 0.615996778011322 0.313765287399292 0.254230976104736 -0.581827759742737 -1.94287359714508 -0.848456263542175 -1.91560280323029 -3.81168532371521 -3.64433813095093 -2.96939992904663 -1.54868233203888 -3.50128030776978 -3.13044452667236 -2.7769992351532 -2.29366278648376 0.556041896343231 0.67343008518219 3.35673308372498 5.08463048934937 7.4630069732666 10.7180070877075 3.75435996055603 2.54838538169861 1.20649647712708 1.72442972660065 2.1199734210968 2.809406042099 3.3978009223938 4.4741005897522 5.29984569549561 5.48915386199951 5.25631475448608 4.96047353744507 5.02660369873047 4.89910364151001 4.83881950378418 4.43297004699707 3.8160662651062 3.25858640670776 4.60821723937988 6.09572887420654 6.44248676300049 7.04069471359253 3.55369138717651 3.05358791351318 1.28560745716095 3.62886571884155 5.24320888519287 7.13381481170654 8.3220157623291 8.77974319458008 11.3134155273438 11.5398607254028 10.6033964157104 7.4550313949585 7.26869297027588 7.57182931900024 8.17857265472412 8.5665340423584 7.82942819595337 7.38203096389771 6.18732595443726 5.1313796043396 5.74415969848633 8.79847812652588 10.9265308380127 10.8699960708618 6.35053062438965 4.78150320053101 4.52624368667603 2.94261503219604 3.17926406860352 3.4342143535614 2.99461221694946 2.26998782157898 1.88970756530762 2.49700617790222 2.97844362258911 2.90787196159363 2.46979713439941 2.26181268692017 1.70475697517395 3.80528807640076 6.8491325378418 9.26098728179932 11.1078863143921 11.6759834289551 11.5912570953369 9.9143533706665 4.73849821090698 2.75582122802734 2.10370874404907 2.40479421615601
0.872193038463593 1.03249883651733 1.1638822555542 1.26679635047913 1.16644597053528 1.09023368358612 1.10860121250153 1.04807198047638 1.05608284473419 0.932460904121399 0.809543192386627 0.874880135059357 0.812365174293518 0.921684980392456 1.51081931591034 2.01696157455444 2.45479154586792 3.4200074672699 3.29645466804504 1.5982164144516 0.00576699711382389 -0.535948514938354 -0.685445725917816 -0.831807136535645 -0.751077771186829 -0.497643619775772 -0.440580993890762 -0.422645628452301 -0.340064316987991 -0.353442937135696 -0.0627894625067711 0.0688014253973961 0.202150881290436 0.622714936733246 0.410902261734009 0.395473897457123 0.578969597816467 0.518881440162659 0.550758123397827 0.0167421977967024 -0.472098797559738 -0.551907956600189 -0.570668160915375 -0.753112554550171 -0.884648263454437 -0.94876229763031 -0.81860214471817 -0.723608553409576 -0.481347560882568 -0.587120413780212 -1.118976354599 -1.51861667633057 -1.97075176239014 -2.45906138420105 -2.74935054779053 -2.92620325088501 -2.86248874664307 -2.5314347743988 -2.2091429233551 -2.09659361839294 -2.2050199508667 -2.46768712997437 -2.15784764289856 -1.52049016952515 -1.1861834526062 -0.867296457290649 -0.745453774929047 -0.781415402889252 -0.649891972541809 -0.538016378879547 -0.669135391712189 -0.356057316064835 0.026228278875351 0.342382550239563 0.97669243812561 1.39113211631775 0.75861918926239 -0.0638511851429939 -0.794990539550781 -1.04108679294586 -0.891077637672424 -0.871044933795929 -1.56179964542389 -0.306759774684906 3.92605590820312 0.332832604646683 -0.843030393123627 -3.29234766960144 -1.4215897321701 -0.0902130603790283 -1.09125030040741 -3.1130838394165 -2.42327117919922 -2.23973417282104 -0.563008010387421 1.10787463188171 3.38015484809875 5.12255239486694 8.23908710479736 11.7691783905029 3.14821362495422 2.30777406692505 1.2590696811676 1.52135992050171 2.10370540618896 2.77654552459717 3.79035234451294 4.30461692810059 5.14389801025391 5.38128519058228 5.14115762710571 4.77792644500732 4.57958745956421 4.59615039825439 4.82794380187988 7.10736894607544 5.28196144104004 3.93802213668823 4.7940092086792 5.8533353805542 6.83729362487793 8.10972213745117 7.59375047683716 4.312424659729 1.69511342048645 3.15314316749573 4.849609375 6.40047359466553 6.98277902603149 7.78261089324951 8.97241973876953 9.51018142700195 8.97773742675781 7.83129119873047 7.2502498626709 7.64121055603027 7.82673120498657 7.61830949783325 7.67346572875977 8.00938606262207 7.8183798789978 8.03256320953369 7.75611972808838 7.76904058456421 8.15616035461426 7.92468881607056 7.47238302230835 5.10388040542603 2.79013681411743 2.77691316604614 2.92880177497864 2.51470017433167 2.3660295009613 1.66146504878998 1.95488822460175 2.32422018051147 2.84555697441101 2.75275182723999 2.29664134979248 1.79837274551392 1.26039409637451 4.45575046539307 6.06613492965698 7.37639951705933 9.07615566253662 11.4528856277466 12.0458307266235 11.1107892990112 7.12552738189697 4.73714160919189 2.81402707099915 2.10251140594482
0.864112973213196 1.00506591796875 1.15235877037048 1.07857894897461 0.98475855588913 0.927739977836609 0.963942646980286 0.929655134677887 0.720036923885345 0.70382958650589 0.674657106399536 0.585462212562561 0.669551610946655 0.975049257278442 1.60079252719879 2.06624221801758 2.29925298690796 3.35229897499084 3.49494314193726 3.36704444885254 1.39801156520844 -0.0356527417898178 0.0424216315150261 -0.814813435077667 -0.709460914134979 -0.560500502586365 -0.515789091587067 -0.498924344778061 -0.497524976730347 -0.526043295860291 -0.152289003133774 -0.152623042464256 -0.0660631135106087 -0.143866091966629 -0.0944008603692055 -0.02440988086164 0.121790274977684 0.110686458647251 -0.135144531726837 -0.548588991165161 -0.710775196552277 -0.7960404753685 -0.927562117576599 -1.03099572658539 -1.18179321289062 -1.33018743991852 -1.16946065425873 -0.855051696300507 -0.875355303287506 -1.01223433017731 -1.55275893211365 -2.01713490486145 -2.52283692359924 -2.87343287467957 -3.13376569747925 -3.20288705825806 -3.12325549125671 -2.67426490783691 -2.49443459510803 -2.36888980865479 -2.39163255691528 -2.63794827461243 -2.66851663589478 -1.94888114929199 -1.62747323513031 -1.66315913200378 -1.70516955852509 -1.89654803276062 -1.92634928226471 -1.5468522310257 -1.36449372768402 -0.825525641441345 -0.068125955760479 0.00541994208469987 -0.0930482149124146 0.411137670278549 -0.182799965143204 -1.50089192390442 -1.64391815662384 -1.65391266345978 -1.30789363384247 -1.26511299610138 -2.02835869789124 0.393175959587097 2.96037745475769 0.296618938446045 -0.624081671237946 0.684871435165405 0.728222846984863 1.67515921592712 5.09515285491943 2.87391662597656 0.25785157084465 0.0128134349361062 -0.135538026690483 1.81414234638214 3.46687388420105 5.16578578948975 6.14570093154907 11.3046817779541 6.86244249343872 4.37512731552124 2.36160659790039 3.21391725540161 3.52571272850037 3.83090758323669 3.84916305541992 4.4378867149353 4.90748500823975 5.20953702926636 4.96719026565552 4.7690634727478 4.5214524269104 4.24087333679199 4.50445556640625 6.31324434280396 6.40641164779663 5.43432760238647 5.36118745803833 5.86230087280273 8.49164962768555 9.30761432647705 9.44346523284912 7.90158462524414 3.11033248901367 2.90621137619019 4.476487159729 6.16647577285767 7.58070373535156 8.10886573791504 8.0308723449707 8.02968978881836 6.71950101852417 7.01472616195679 7.08924579620361 7.28701257705688 7.45541191101074 7.22688245773315 7.44633960723877 9.34343242645264 9.99113368988037 9.00140571594238 8.80679607391357 7.38162612915039 6.69529819488525 5.33904647827148 4.61213779449463 3.02459812164307 2.38414549827576 2.38634610176086 2.54567837715149 2.12442064285278 1.56377625465393 1.60781383514404 2.15913581848145 2.51505661010742 2.63114476203918 2.56842136383057 2.13766551017761 1.6300733089447 0.94342303276062 3.51775360107422 4.85736036300659 6.5276050567627 7.30392503738403 9.29629707336426 9.22508239746094 8.27505588531494 7.36336326599121 3.85016393661499 1.55655920505524 2.00305342674255
0.857325434684753 0.939678251743317 1.01222288608551 0.902875006198883 0.845250010490417 0.8328537940979 0.86709463596344 0.776843547821045 0.608402371406555 0.591072142124176 0.545457363128662 0.500696241855621 0.473933011293411 1.16173660755157 1.51525723934174 1.83470106124878 2.08869051933289 2.75532341003418 4.36375141143799 4.43988370895386 2.71907520294189 0.568458199501038 0.449792087078094 -0.789301991462708 -0.580937266349792 -0.571060359477997 -0.547247767448425 -0.53534209728241 -0.575828790664673 -0.69842928647995 -0.367469251155853 -0.375447183847427 -0.427285075187683 -0.446000635623932 -0.395471096038818 -0.27560967206955 -0.357000857591629 -0.360433429479599 -0.819547116756439 -0.842696964740753 -1.00334405899048 -1.09222424030304 -1.25899648666382 -1.44554841518402 -1.68790757656097 -1.77468717098236 -1.536248087883 -1.28547966480255 -1.35887396335602 -1.62295341491699 -2.01727080345154 -2.37824892997742 -2.85747146606445 -3.18620014190674 -3.34655070304871 -3.34470152854919 -3.19744348526001 -2.70988345146179 -2.57160687446594 -2.50260066986084 -2.50711154937744 -2.60984492301941 1.8102171421051 -2.13029646873474 -1.92317283153534 -1.85755109786987 -2.05470705032349 -2.45974516868591 -2.27592134475708 -2.28674983978271 -2.14873051643372 -1.83520722389221 -0.822101175785065 -0.470954596996307 -0.967351675033569 -0.72385162115097 -0.122524060308933 -1.65619456768036 -1.79960334300995 -1.50187230110168 0.230886459350586 1.40240752696991 0.0720752030611038 -0.0525383055210114 4.0192346572876 6.11734437942505 2.5180344581604 5.11480331420898 5.85840606689453 6.6921648979187 6.52350950241089 6.30988597869873 3.26035046577454 2.01006460189819 0.945403635501862 2.17921614646912 3.64482927322388 5.35260486602783 6.70954084396362 14.2102518081665 9.93209552764893 7.83324956893921 7.81490755081177 5.27345561981201 3.10564708709717 3.13182330131531 3.65543723106384 4.05479097366333 4.52191066741943 5.02101707458496 5.2589054107666 4.97858476638794 4.40752840042114 4.0622410774231 4.14878940582275 4.67028665542603 5.23750829696655 4.16221523284912 5.57001304626465 7.99671840667725 7.26172208786011 8.26191902160645 9.28555679321289 10.1599760055542 8.15141010284424 3.81488728523254 4.19554233551025 5.51741552352905 6.83517169952393 6.45755338668823 6.46577787399292 6.18366050720215 6.46128702163696 6.6315336227417 6.72500133514404 6.83121061325073 7.00433921813965 6.98204660415649 6.84944915771484 8.47207736968994 9.96658897399902 11.2947368621826 8.91623306274414 6.23834896087646 5.90703678131104 5.0281229019165 3.46407508850098 2.41491413116455 2.28688907623291 2.00902700424194 2.11124801635742 1.57106614112854 1.34440004825592 1.43664598464966 1.98518061637878 2.43852210044861 2.35914778709412 2.34814047813416 1.97482717037201 1.4926061630249 1.83810257911682 3.02086567878723 4.2399115562439 5.69813203811646 6.88874053955078 7.6487979888916 7.94614124298096 5.95685338973999 4.88271379470825 2.04447293281555 1.39113986492157 1.62825584411621
0.829155683517456 0.858027219772339 0.86809366941452 0.763962209224701 0.675126135349274 0.718352794647217 0.727430582046509 0.784396946430206 0.701131641864777 0.519353926181793 0.444836229085922 0.397480636835098 0.351647883653641 0.935184001922607 1.4788064956665 1.69033062458038 2.08660554885864 2.59296774864197 4.02760553359985 4.7350869178772 3.62599539756775 2.09014010429382 1.33800542354584 0.386091083288193 0.686237275600433 -0.544603824615479 -0.585046947002411 -0.591541647911072 -0.627583146095276 -0.767873823642731 -0.625899851322174 -0.642946183681488 -0.804986715316772 -0.738985776901245 -0.715193510055542 -0.614822328090668 -0.70359879732132 -0.81479948759079 -1.02059042453766 -1.18558835983276 -1.36603021621704 -1.47656106948853 -1.62781536579132 -1.8689227104187 -2.01836752891541 -2.04389190673828 -1.94180619716644 -1.68584632873535 -1.73706722259521 -2.18355774879456 -2.50421285629272 -2.72625756263733 -3.04449081420898 -3.37899374961853 -3.4368839263916 -3.45570063591003 -3.06154608726501 -2.70546913146973 -2.586749792099 -2.55901217460632 -1.94497871398926 0.449116706848145 0.788946270942688 -2.30774569511414 -2.16925287246704 -2.30307984352112 -2.73701906204224 -2.96410727500916 -2.69792056083679 -2.81769943237305 -2.81351971626282 -2.52198314666748 -1.40194511413574 -0.380772233009338 -0.571501553058624 -0.643336474895477 5.4243597984314 8.20173358917236 4.68680334091187 5.2660870552063 7.56706619262695 6.68986558914185 2.02142190933228 0.88902360200882 6.06882429122925 5.07536172866821 3.88065123558044 4.6619439125061 6.54724025726318 6.55438613891602 5.26356744766235 3.25204467773438 3.58253931999207 1.38942515850067 0.446703791618347 2.19597983360291 3.70203733444214 4.81989765167236 7.56429815292358 14.0314874649048 12.5922107696533 10.0549354553223 7.64128541946411 5.19515562057495 2.57691550254822 3.06836700439453 3.55044913291931 3.88554239273071 4.30628442764282 4.75914525985718 4.75540351867676 4.46245145797729 4.21656513214111 3.95501470565796 4.01968669891357 4.46643686294556 6.73584651947021 8.83856964111328 5.55596160888672 6.20366287231445 8.01691818237305 11.049036026001 11.8756637573242 9.86063385009766 7.36677598953247 4.21809196472168 3.92716884613037 5.06043291091919 5.76347732543945 5.93066072463989 5.76030206680298 5.91402006149292 6.20251035690308 6.29871559143066 6.3985857963562 6.3669228553772 6.37711811065674 6.63309812545776 6.47307920455933 6.91182851791382 7.95165920257568 6.72824001312256 5.98928165435791 5.52812337875366 4.4062180519104 3.9088032245636 2.57194137573242 2.29336547851562 2.18034482002258 1.87765419483185 1.60671699047089 1.41399991512299 1.19106876850128 1.48036086559296 1.73825335502625 2.2194664478302 2.18114328384399 1.85429775714874 1.68190777301788 1.23536002635956 2.67152070999146 3.58738803863525 3.93021774291992 5.24388599395752 6.17829322814941 5.95654344558716 5.97160625457764 5.08884716033936 3.089026927948 2.79592943191528 2.97666120529175 1.45075798034668
0.655708611011505 0.711442172527313 0.726743638515472 0.686938524246216 0.622951626777649 0.537738919258118 0.566626667976379 0.531532824039459 0.378662526607513 0.39526641368866 0.301097601652145 0.252147734165192 0.399832129478455 0.6692134141922 1.34585225582123 1.65508580207825 2.0889687538147 2.52977752685547 3.416020154953 4.55527353286743 4.28195333480835 2.4403760433197 2.42835068702698 0.786217153072357 0.2741379737854 -0.689217031002045 -0.637781858444214 -0.644085109233856 -0.723693490028381 -0.795702457427979 -0.874284327030182 -0.921665966510773 -1.07310247421265 -1.04911959171295 -1.05647230148315 -1.01908528804779 -1.26794099807739 -1.33555603027344 -1.4192875623703 -1.63193249702454 -1.85233223438263 -1.95006585121155 -2.02802276611328 -2.13664603233337 -2.28335642814636 -2.21540260314941 -1.91904544830322 -1.97673845291138 -2.00362181663513 -2.40821981430054 -2.77941679954529 -3.10281777381897 -3.28152918815613 -3.45412588119507 -3.51016616821289 -3.17415285110474 -2.91548991203308 -2.70017528533936 -2.6957676410675 -2.75528049468994 -2.67868971824646 -0.87682318687439 -2.4229691028595 -2.51142883300781 -2.59543800354004 -2.94863939285278 -3.45538687705994 -3.35902118682861 -3.05414342880249 -2.92358016967773 -2.90222692489624 -2.69717621803284 -2.26851320266724 2.55011320114136 4.38182830810547 2.55236387252808 8.66773700714111 11.0175762176514 14.8694553375244 11.6123085021973 9.02293968200684 11.6638669967651 5.28381395339966 1.16572248935699 3.84504318237305 3.80568194389343 3.08388066291809 2.70648312568665 4.70729207992554 2.28371524810791 -0.453544557094574 -2.65178823471069 -1.89034295082092 -0.458961933851242 0.94631028175354 2.20437526702881 3.72438097000122 4.68768310546875 7.89325094223022 13.3440084457397 11.3658094406128 8.19282531738281 5.81859588623047 4.51367282867432 2.55647826194763 3.20891499519348 3.49791097640991 3.78796625137329 4.20871067047119 4.33728933334351 4.68129920959473 4.39505672454834 3.99941349029541 5.07409143447876 6.36877298355103 7.73262119293213 8.71724891662598 6.40447092056274 5.52133941650391 6.23334169387817 8.104660987854 8.8837366104126 7.14264154434204 3.80781769752502 3.7695426940918 3.09442400932312 3.80412912368774 4.58464860916138 5.29987859725952 5.44111776351929 5.47688722610474 5.68254470825195 5.91912698745728 5.98581314086914 6.08472871780396 6.04888153076172 6.03636598587036 6.29378938674927 6.14494705200195 6.30819749832153 5.74536943435669 4.94685316085815 4.40822649002075 3.89083123207092 3.12478494644165 2.24759125709534 2.1719069480896 2.07790875434875 1.87311899662018 1.61210489273071 1.45066142082214 1.27333533763885 1.08824694156647 1.53269672393799 1.80624353885651 1.96272587776184 1.98567759990692 1.69146227836609 1.3167200088501 0.875342965126038 2.58673763275146 3.49731874465942 4.38188457489014 4.7429461479187 5.55918312072754 5.18728399276733 3.90413045883179 3.71413326263428 2.43201470375061 3.17639970779419 3.07404708862305 1.91707849502563
0.465492337942123 0.578647613525391 0.625681161880493 0.576904773712158 0.466968327760696 0.414924710988998 0.386762797832489 0.359443575143814 0.255780309438705 0.675464868545532 0.222718372941017 0.174349963665009 0.452563941478729 0.82025408744812 1.12608134746552 1.62127232551575 2.26538896560669 2.7742440700531 3.16336870193481 4.028724193573 3.93301796913147 2.50282907485962 1.86394548416138 1.10818290710449 0.536815941333771 0.255447387695312 0.549212336540222 -0.731383264064789 -0.814358234405518 -0.911103487014771 -1.01938033103943 -1.15101075172424 -1.26872372627258 -1.31066501140594 -1.47013664245605 -1.61846244335175 -1.62088477611542 -1.67220509052277 -1.82945144176483 -2.13933539390564 -2.36314034461975 -2.33439803123474 -2.34468626976013 -2.42321014404297 -2.50593852996826 -2.32337498664856 -2.08127951622009 -2.1247398853302 -2.32952928543091 -2.63544940948486 -2.93056607246399 -3.26594972610474 -3.53454351425171 -3.4465172290802 -3.09133291244507 -3.24405479431152 -2.86689186096191 -2.84052658081055 -2.90575265884399 -3.00951957702637 -3.03283262252808 -2.67977809906006 -2.53377413749695 -2.63967037200928 -2.9011447429657 -3.2553915977478 -3.6089882850647 -3.45299482345581 -3.27188968658447 -3.1208233833313 -3.01884460449219 -2.828284740448 -2.53599667549133 -0.708742439746857 5.79662227630615 7.54985666275024 8.23851776123047 11.0997447967529 10.0236949920654 7.7361888885498 7.07002210617065 14.8131656646729 11.1256494522095 2.02548217773438 2.50875949859619 2.16787791252136 2.67138624191284 2.0284366607666 2.97452187538147 1.23198246955872 -1.63270497322083 -3.19295048713684 -2.07873058319092 -0.486317306756973 1.10437142848969 2.56298923492432 3.90412306785583 4.80519580841064 8.78250694274902 11.0065574645996 10.0760078430176 6.80327320098877 5.19173526763916 4.17743873596191 3.83153319358826 3.38928008079529 3.70618915557861 3.73878026008606 4.07902812957764 4.14287519454956 5.24303340911865 8.21433925628662 8.10120677947998 10.0065584182739 10.6118955612183 7.4770565032959 7.84966897964478 7.47079849243164 8.2467737197876 7.50393962860107 7.46542072296143 8.99069118499756 9.14172744750977 10.8186063766479 10.1897001266479 7.72376823425293 5.73625707626343 5.33624362945557 4.85663890838623 5.18828058242798 5.11946249008179 5.46355962753296 5.57515048980713 5.66473484039307 5.63869857788086 5.67002391815186 5.87136125564575 5.75265645980835 5.48395586013794 5.52184724807739 4.89711952209473 3.85452103614807 2.65725469589233 2.2639627456665 1.91740655899048 2.00896430015564 2.03703379631042 1.93864762783051 1.65610563755035 1.46959567070007 1.29825735092163 1.13138937950134 0.953695178031921 1.36952030658722 1.67973148822784 1.63214993476868 1.64755070209503 1.43802464008331 1.10410952568054 1.15573346614838 2.239581823349 3.23394989967346 4.04811763763428 4.51982021331787 4.45638942718506 4.55306959152222 3.44180130958557 2.22627878189087 1.74561083316803 1.71767401695251 1.63313388824463 7.45166063308716
0.21011608839035 0.329165875911713 0.409161478281021 0.401020169258118 0.318047821521759 0.262519270181656 0.219883680343628 0.192164778709412 0.141905412077904 0.359540671110153 0.360805183649063 0.0948649495840073 0.171725526452065 0.670924127101898 1.1395046710968 1.60299503803253 1.94778537750244 2.34081554412842 2.87095284461975 3.25461006164551 3.84927701950073 2.75944352149963 2.06886577606201 1.27871692180634 1.25076305866241 0.566564559936523 -0.933596134185791 -0.951647400856018 -1.01490008831024 -1.07028257846832 -1.23006153106689 -1.38778734207153 -1.59522616863251 -1.7269344329834 -1.81884384155273 -1.89828670024872 -1.89946091175079 -1.89182353019714 -2.18994760513306 -2.4736762046814 -2.62397909164429 -2.5836136341095 -2.57608723640442 -2.65291476249695 -2.58705759048462 -2.44886016845703 -2.19608736038208 -2.23047876358032 -2.59711813926697 -2.9211630821228 -3.09206604957581 -3.36729097366333 -3.60035276412964 -3.66956543922424 -3.22947835922241 -3.11689615249634 -2.95359301567078 -2.96623802185059 -2.96726703643799 -3.03587293624878 -3.07791590690613 -2.88310408592224 -2.72593784332275 -2.7226254940033 -3.00364875793457 -2.19682312011719 -0.737619698047638 -2.83818793296814 -3.39381909370422 -3.28098106384277 -3.12953567504883 -2.93675827980042 -2.50644540786743 -1.06684482097626 3.44637107849121 4.8996410369873 6.90247344970703 8.75381374359131 8.02333545684814 5.29863691329956 5.49385118484497 14.3323879241943 14.0669708251953 3.2250280380249 2.10560774803162 1.77642273902893 1.31876981258392 1.22629606723785 1.45763421058655 0.718826055526733 -0.928988218307495 -1.82847630977631 -1.35654985904694 -0.505371928215027 1.29699540138245 2.7424054145813 3.59679675102234 4.90113067626953 8.01755046844482 9.87545585632324 10.078423500061 5.80587768554688 4.08823347091675 4.09479093551636 6.10764741897583 5.95982694625854 4.14844131469727 5.88268327713013 4.90742158889771 4.1237587928772 5.61618947982788 9.88876056671143 9.25223827362061 10.3505296707153 9.02499103546143 7.00641012191772 7.36949777603149 8.15764427185059 7.73833513259888 6.56172037124634 9.93296241760254 9.78893566131592 12.6511459350586 12.0454387664795 12.9344711303711 13.8783044815063 10.9368286132812 7.7033519744873 4.70280504226685 4.6660327911377 4.93957138061523 5.23159599304199 5.33124017715454 5.42777681350708 5.374755859375 5.33689737319946 5.55525922775269 5.46727895736694 5.04574108123779 4.55680990219116 4.20368146896362 3.29402327537537 1.79753148555756 1.61442458629608 1.70156288146973 1.79947113990784 1.88713943958282 1.82258427143097 1.54302227497101 1.28975903987885 1.17307770252228 0.976409673690796 1.052161693573 1.27531886100769 1.5475400686264 1.4564356803894 1.15495193004608 1.01686787605286 0.74666839838028 1.46465945243835 2.32325553894043 2.79084658622742 3.6516170501709 4.07587194442749 3.73489379882812 3.19287085533142 2.79950141906738 1.85257411003113 1.53746247291565 3.36130452156067 2.46720480918884 4.6981201171875
0.0431052222847939 0.14032144844532 0.198197931051254 0.177061185240746 0.0835927575826645 0.0460204519331455 0.0528713464736938 0.0403952226042747 0.0275280103087425 0.0275726467370987 0.0201230254024267 0.105638973414898 0.198949486017227 0.543484628200531 1.02257990837097 1.47760343551636 1.84239900112152 2.14984035491943 2.36994552612305 2.65051674842834 3.79436898231506 3.71808338165283 2.23697066307068 1.42078471183777 0.77153354883194 -0.00712765520438552 -1.02558708190918 -1.05029273033142 -1.11861777305603 -1.25523006916046 -1.422030210495 -1.67181837558746 -1.88343727588654 -2.00623512268066 -2.11295318603516 -2.19113731384277 -2.25893783569336 -2.24008369445801 -2.61858582496643 -2.81847786903381 -2.86449790000916 -2.84643745422363 -2.8614354133606 -2.8959059715271 -2.6701295375824 -2.28135395050049 -2.31193900108337 -2.34363174438477 -2.70208072662354 -2.99302315711975 -3.28486776351929 -3.47538113594055 -3.68623495101929 -3.65720248222351 -3.11010599136353 -2.6469874382019 -1.74113476276398 -0.876763939857483 -0.0412543341517448 -0.328446537256241 1.88240551948547 -1.0328586101532 -2.43325257301331 -1.51111590862274 1.70990812778473 2.3178026676178 1.88035869598389 -1.5314826965332 -3.12343502044678 -2.69454312324524 -1.93548548221588 -1.00210511684418 -0.444281250238419 -1.19919896125793 1.64233160018921 5.29556751251221 6.48261117935181 7.08408308029175 6.69850254058838 5.54648160934448 5.53577184677124 9.53839588165283 15.6779651641846 6.56959390640259 2.50350046157837 1.61444866657257 1.00964224338531 1.08450448513031 1.0967515707016 3.86574792861938 3.45170259475708 3.52742743492126 3.60792922973633 -0.366860032081604 1.43314933776855 2.82953953742981 3.67258429527283 4.93583011627197 6.86708831787109 8.59203052520752 11.0412950515747 6.15613651275635 3.2732310295105 4.51160907745361 6.89188766479492 11.080376625061 13.2379693984985 12.9109563827515 6.99919557571411 9.39632320404053 8.5394811630249 10.3186178207397 14.5290260314941 13.6772899627686 7.98490238189697 8.68973922729492 10.5834131240845 11.6340637207031 10.9875717163086 15.3908090591431 14.2511358261108 9.51983451843262 9.99784088134766 13.2790985107422 13.9851131439209 15.7038269042969 15.0201053619385 11.7588186264038 11.4763498306274 7.43937110900879 4.87506103515625 5.05733346939087 5.09384965896606 5.13415002822876 5.09999227523804 5.10502338409424 5.28896713256836 5.10511779785156 4.57986354827881 3.73703122138977 3.45843172073364 2.56962251663208 1.45830929279327 1.43284249305725 1.50771379470825 1.56734430789948 1.59090137481689 1.49371945858002 1.27293860912323 1.12798309326172 0.995136082172394 0.718160271644592 1.17135059833527 1.42404925823212 1.42514097690582 1.30791091918945 1.01210069656372 0.733217000961304 0.531317234039307 1.13680469989777 1.92619240283966 2.66293716430664 3.17210817337036 3.63567709922791 3.35429000854492 2.41815853118896 1.76106703281403 1.19464933872223 1.26854181289673 1.31087875366211 5.97893381118774 5.77766466140747
-0.11139077693224 0.00467794062569737 0.0540786609053612 0.0284842196851969 -0.104469709098339 -0.149477392435074 -0.117572449147701 -0.0667634904384613 -0.0779200494289398 -0.0694406032562256 -0.0810688883066177 0.13214810192585 0.389836728572845 0.613147020339966 0.961302936077118 1.45269763469696 1.89645373821259 2.17865657806396 2.18184161186218 2.22576522827148 2.01390409469604 3.04621839523315 2.149573802948 1.61989891529083 0.725833058357239 -0.495986014604568 -1.1702880859375 -1.20685291290283 -1.30557930469513 -1.51344871520996 -1.72008550167084 -2.05521011352539 -2.23384547233582 -2.33036422729492 -2.42890405654907 -2.61568808555603 -2.65735745429993 -2.60335659980774 -2.75136160850525 -2.92538690567017 -3.00309562683105 -3.02108812332153 -3.03008246421814 -3.0122926235199 -2.74696111679077 -2.42950320243835 -2.40530705451965 -2.579261302948 -2.85018968582153 -3.07540464401245 -3.38096451759338 -3.63732433319092 -3.74408793449402 -3.57559490203857 -3.2742235660553 -1.09315311908722 0.573564887046814 1.50514531135559 1.91438233852386 2.7894561290741 2.45746922492981 2.76792359352112 0.269380688667297 -0.350291818380356 -0.514408707618713 -0.612644612789154 -2.63892936706543 -2.41388964653015 -2.668372631073 -2.96141624450684 -3.23649287223816 -3.03610110282898 -2.46894288063049 0.27514523267746 1.27794933319092 4.33633995056152 5.54396438598633 5.53676414489746 5.26597166061401 5.31002902984619 7.46267652511597 8.83977794647217 16.9612789154053 12.1569490432739 6.34642887115479 3.40509676933289 2.83265542984009 3.89639735221863 2.77386546134949 3.45156645774841 4.89611196517944 7.29294776916504 5.89779472351074 0.142987251281738 1.33306777477264 2.89709877967834 3.76457047462463 5.45543050765991 7.01676464080811 7.71263360977173 11.1108627319336 8.57761096954346 7.01367521286011 8.04183101654053 8.61726951599121 10.9713754653931 13.7721452713013 12.3282661437988 10.8734474182129 12.388747215271 12.2493133544922 11.3541011810303 14.0189113616943 12.8436059951782 13.2098255157471 12.5151700973511 20.0480442047119 20.7236480712891 23.0472030639648 21.7722511291504 16.6344394683838 20.9089298248291 21.4599208831787 20.4486141204834 18.2991943359375 15.1784582138062 13.4617462158203 9.92553997039795 5.99682331085205 4.75843620300293 4.71923303604126 4.81654262542725 4.85687446594238 4.92184972763062 4.88934850692749 4.85710906982422 4.92450284957886 4.61141490936279 4.00752782821655 3.14925932884216 2.60744500160217 1.49295198917389 1.34651660919189 1.26925897598267 1.29871416091919 1.37110662460327 1.3623411655426 1.21091985702515 1.11603307723999 0.989839613437653 0.723247468471527 0.621663987636566 1.05383718013763 1.34078049659729 1.23667347431183 1.13771021366119 0.834332168102264 0.522581100463867 0.289873152971268 0.889663279056549 1.68565261363983 2.30186367034912 2.81408095359802 2.67963933944702 2.85612607002258 2.04630470275879 1.12279009819031 1.14476311206818 1.23536443710327 10.0534229278564 5.54290866851807 1.91749894618988
-0.224856927990913 -0.112884238362312 -0.0721168518066406 -0.0700816586613655 -0.218937173485756 -0.383206099271774 -0.336360961198807 -0.218971729278564 -0.169365555047989 -0.162114128470421 -0.159493178129196 0.0370110981166363 0.353520721197128 0.646052420139313 0.919029712677002 1.4229416847229 1.5678733587265 2.02534222602844 2.17254662513733 2.34983849525452 2.29522013664246 1.9116188287735 1.63920021057129 0.515924155712128 -0.160590991377831 -0.956401824951172 -1.2927029132843 -1.41453051567078 -1.61444461345673 -1.82194256782532 -2.07133364677429 -2.33238387107849 -2.47961711883545 -2.6108729839325 -2.69300079345703 -2.74006056785583 -2.6066882610321 -2.73326563835144 -2.79870676994324 -2.14790725708008 -1.41899585723877 -1.48209357261658 -2.57845759391785 -2.84434723854065 -2.75913643836975 -2.48470616340637 -2.4687020778656 -2.76769804954529 -3.00814747810364 -3.18050670623779 -3.06309270858765 -1.70952606201172 -2.80785369873047 -3.3487663269043 -2.89890623092651 -1.46675705909729 0.116757087409496 1.97460985183716 3.62871503829956 4.81232261657715 5.63296985626221 4.17363405227661 1.69882571697235 -0.4779392182827 -1.42147243022919 -2.39810538291931 -3.85003542900085 -3.80798411369324 -3.71667170524597 -3.64496564865112 -3.51414108276367 -3.38192892074585 -2.81799721717834 -1.51482474803925 1.98872935771942 3.61165690422058 4.75551176071167 4.79233980178833 4.62655973434448 6.93103408813477 8.6045446395874 10.3056745529175 16.0268268585205 15.5424966812134 13.0714731216431 6.39416408538818 3.56201934814453 3.59429550170898 2.78141570091248 3.05625295639038 3.59497594833374 4.84818458557129 3.91127252578735 2.91495680809021 1.7930668592453 2.88291573524475 3.83069658279419 5.09035396575928 6.87706136703491 7.70429992675781 9.91837882995605 9.94985294342041 4.78389072418213 6.02089929580688 7.02654647827148 10.9118213653564 12.0995445251465 13.7670936584473 11.7503604888916 12.202784538269 13.6002464294434 12.5664806365967 11.0684089660645 11.6293039321899 15.220947265625 23.2839279174805 23.1975421905518 23.3667469024658 25.0512561798096 18.5338439941406 18.7372074127197 19.7381763458252 22.2944412231445 19.1417541503906 15.9938993453979 11.3052988052368 7.86713933944702 5.98980665206909 4.82719469070435 4.46428298950195 4.57794141769409 4.60904169082642 4.65330839157104 4.60656833648682 4.57301235198975 4.70694589614868 4.3860330581665 3.80715227127075 3.39544749259949 2.63995552062988 1.81165707111359 1.29020726680756 1.23211777210236 1.14717137813568 1.11197912693024 1.11950266361237 1.14653205871582 1.0236736536026 0.882021069526672 0.702065050601959 0.5313600897789 0.719012200832367 0.926867544651031 1.19920909404755 1.11028039455414 0.834011971950531 0.582832336425781 0.29860657453537 0.335966765880585 1.09017956256866 1.42171883583069 2.09232831001282 2.55752420425415 2.35992503166199 1.84369325637817 1.49290430545807 0.940394520759583 1.02004432678223 5.38478851318359 1.46231591701508 1.46828377246857 1.40890038013458
-0.283923506736755 -0.214418306946754 -0.192676067352295 -0.167185232043266 -0.242953658103943 -0.412191361188889 -0.50001460313797 -0.408001691102982 -0.291850626468658 -0.246157452464104 -0.163243591785431 0.0572844780981541 0.267546713352203 0.552127599716187 0.867693543434143 1.30976390838623 1.65107297897339 1.66115355491638 2.00963568687439 3.06380534172058 2.39702367782593 1.50152885913849 0.688225984573364 -0.220234811306 -0.922869443893433 -1.37177813053131 -1.55510699748993 -1.95142948627472 -2.15126872062683 -2.2616982460022 -2.35098767280579 -2.50923871994019 -2.65701937675476 -2.74248147010803 -2.74909520149231 -1.84310472011566 -1.10176491737366 -0.866056680679321 -0.11583985388279 0.855048894882202 2.01055574417114 2.1486439704895 2.04823851585388 1.5428671836853 0.825821936130524 1.05888664722443 -0.239437714219093 -0.664793431758881 -1.42306411266327 -0.37606480717659 -0.113736160099506 1.45771217346191 3.73537492752075 4.64052963256836 5.11846256256104 4.5408501625061 2.68123984336853 2.16451358795166 3.16511821746826 3.5723557472229 2.52984142303467 0.22522409260273 -1.57654225826263 -3.00969076156616 -4.16603803634644 -4.19598627090454 -4.25542020797729 -4.18075323104858 -4.0475492477417 -3.95448541641235 -3.79444932937622 -3.62947201728821 -2.98469686508179 -1.81772816181183 1.12123847007751 3.50257277488708 4.02107191085815 4.08089923858643 4.00128269195557 5.36186838150024 8.01172256469727 11.4210062026978 13.7367353439331 15.9720258712769 13.3686790466309 10.2299489974976 7.09437465667725 6.24053764343262 2.98741006851196 2.3532235622406 4.26892900466919 8.07908725738525 7.66970443725586 7.26746320724487 6.09562683105469 2.94269275665283 3.68611836433411 5.06131839752197 6.24531269073486 7.21651840209961 8.11715030670166 7.71225881576538 4.1556396484375 4.74098491668701 5.76206398010254 9.88367557525635 11.2794237136841 13.0494937896729 16.0719051361084 10.7954092025757 9.8387279510498 10.9275979995728 10.3811845779419 12.7359895706177 19.9370346069336 20.242395401001 18.8267383575439 19.8529758453369 18.6353969573975 18.5080890655518 16.3546848297119 16.1658210754395 14.5298156738281 12.640682220459 10.8301792144775 8.76175975799561 6.10658311843872 4.68635177612305 4.34137678146362 4.31005573272705 4.40945291519165 4.41231632232666 4.42564153671265 4.35430526733398 4.28431224822998 4.32453536987305 4.00242185592651 3.39723014831543 2.48928475379944 2.05607795715332 1.3315988779068 1.19616806507111 1.16918432712555 1.08243501186371 0.974267184734344 0.892528474330902 0.791769921779633 0.72996860742569 0.550979852676392 0.349198132753372 0.435859531164169 0.838161051273346 1.0685328245163 1.07574772834778 0.979466497898102 0.724983513355255 0.439538210630417 0.275753051042557 0.226843133568764 0.830618619918823 1.28540682792664 1.80341303348541 2.26625728607178 2.08251881599426 1.44939231872559 0.815258324146271 0.890220522880554 0.948542416095734 1.06587827205658 0.910228610038757 0.810069918632507 1.04908263683319
-0.340753316879272 -0.341637283563614 -0.399213939905167 -0.338602304458618 2.11814332008362 -0.405364960432053 -0.547616183757782 -0.518389284610748 -0.407468646764755 -0.311762273311615 -0.145442098379135 0.203439086675644 0.412205010652542 0.496427953243256 0.897296130657196 1.35036242008209 1.71062242984772 1.71236217021942 1.86308801174164 2.45263290405273 2.68988990783691 1.13853871822357 0.0556743144989014 -0.663048446178436 -1.37408661842346 -1.58029961585999 -1.93249797821045 -2.20691323280334 -2.36123466491699 -2.47003650665283 -2.57980275154114 -2.65026307106018 -2.35971260070801 0.220559373497963 1.75202560424805 2.546147108078 3.10553812980652 2.68486547470093 1.52711451053619 2.4673957824707 4.05540084838867 4.53227090835571 3.78202867507935 3.49735116958618 3.25588440895081 2.54922819137573 2.29718160629272 2.27909684181213 0.94682389497757 3.25144553184509 5.27201986312866 5.65772676467896 6.87239122390747 6.37775850296021 5.17239332199097 3.49877762794495 1.16382074356079 1.72223925590515 2.42550277709961 2.3958432674408 1.23283016681671 -1.56283903121948 -3.08820748329163 -3.81685256958008 -4.53254795074463 -4.48594903945923 -4.45027208328247 -4.36168670654297 -4.24394273757935 -4.16583490371704 -4.09097242355347 -3.98380374908447 -3.41645359992981 -2.15707206726074 -0.236415058374405 2.75959873199463 3.4453125 3.52252054214478 3.59371471405029 5.79420900344849 7.72909641265869 11.7281866073608 12.0854473114014 14.1240243911743 13.3280792236328 8.73023700714111 7.93602514266968 6.84898853302002 5.28155517578125 5.25031995773315 7.21180772781372 7.7726149559021 6.95846939086914 4.94622945785522 2.4339120388031 3.11179232597351 4.15870761871338 5.22958755493164 6.00875949859619 6.60277032852173 7.23708486557007 6.54644823074341 3.97729182243347 4.37812471389771 6.37354946136475 8.6145486831665 11.1030292510986 12.6409482955933 13.5374851226807 13.2704544067383 12.063232421875 14.939998626709 19.7087383270264 19.6266841888428 15.7139959335327 15.520619392395 15.4253673553467 16.1101989746094 15.0239877700806 13.217978477478 13.1325283050537 12.81214427948 11.4205713272095 9.41954040527344 7.44593095779419 5.33501291275024 4.5890965461731 4.39752531051636 4.18278455734253 4.13244342803955 4.19775915145874 4.16144132614136 4.14577531814575 4.03070688247681 3.87476873397827 3.87713289260864 3.60000610351562 2.99977517127991 2.16122698783875 1.45434081554413 1.25513386726379 1.21399521827698 1.10727965831757 0.943097949028015 0.78624415397644 0.63485199213028 0.463158458471298 0.315973371267319 0.181160345673561 0.23648427426815 0.319550126791 0.632836580276489 0.937593460083008 0.85501492023468 0.73961478471756 0.502634227275848 0.277161866426468 0.123230755329132 0.198155954480171 0.688487470149994 1.01885867118835 1.48800957202911 1.54520916938782 1.60722494125366 0.94815456867218 0.700542211532593 0.824865341186523 0.858051300048828 0.892150461673737 0.753960788249969 3.38666558265686 0.783132314682007
-0.368513226509094 -0.426445335149765 -0.561060428619385 -0.533991634845734 0.208490684628487 1.11805069446564 2.18606090545654 -0.550815999507904 -0.442328304052353 -0.341120928525925 -0.161613032221794 0.341287344694138 0.626244068145752 0.582903027534485 0.898574948310852 1.21920537948608 1.6581768989563 1.97759974002838 2.40691518783569 3.06622982025146 2.59902763366699 1.30108332633972 0.0377664938569069 -0.541751682758331 -1.53968071937561 -1.88095664978027 -1.95703625679016 -1.01205158233643 -2.09414863586426 -1.45249736309052 2.18443751335144 5.4689826965332 6.57048368453979 6.3325572013855 5.77690744400024 5.70274305343628 6.62882471084595 7.047287940979 7.02263736724854 5.22067975997925 3.552565574646 4.61897230148315 4.68593502044678 4.74951457977295 4.84048080444336 4.02538824081421 4.73844385147095 5.16160821914673 6.34032964706421 5.051185131073 5.48579406738281 5.85724353790283 4.41800498962402 3.71761322021484 3.36275386810303 2.69007205963135 0.797766208648682 1.25325429439545 1.9246928691864 1.76000952720642 -0.818995952606201 -2.86717319488525 -3.45918846130371 -4.18889856338501 -4.69354200363159 -4.63933944702148 -4.58984994888306 -4.52908277511597 -4.42504692077637 -4.32154321670532 -4.24345731735229 -4.17371368408203 -3.6730329990387 -2.51708102226257 -1.13400864601135 1.45018362998962 2.95993041992188 3.16832280158997 3.65402889251709 5.86898326873779 8.05510520935059 10.9279937744141 12.1958456039429 11.2142734527588 11.3074312210083 6.96146774291992 4.59123611450195 5.6930046081543 6.21232318878174 7.25496196746826 7.65051698684692 4.79653358459473 4.40165519714355 2.75293850898743 2.6671347618103 3.27298069000244 3.9436891078949 5.22525405883789 5.85811948776245 5.71703147888184 7.17394685745239 6.89630699157715 5.65675258636475 7.88743114471436 10.1770753860474 10.7333927154541 12.0130844116211 13.0018348693848 14.2916536331177 14.265661239624 14.6644630432129 13.6937446594238 11.5909986495972 12.0504417419434 12.3408327102661 12.0191373825073 12.5241746902466 12.3644428253174 11.0003967285156 10.2274951934814 10.4204835891724 9.94710159301758 9.06149387359619 8.08816814422607 6.46464157104492 4.59038114547729 4.3774471282959 4.23080158233643 3.94553995132446 3.99225544929504 3.92291784286499 3.83247852325439 3.73230409622192 3.5816502571106 3.5864737033844 3.33730411529541 2.81002688407898 2.47042751312256 1.86165964603424 1.18673777580261 2.11176800727844 2.62365102767944 3.1520721912384 2.85728979110718 2.46314167976379 0.342680156230927 0.0475286319851875 -0.0723253563046455 0.0204306170344353 0.122670575976372 0.178137391805649 0.322328478097916 0.716372549533844 0.655566513538361 0.446379631757736 0.330467820167542 0.378004491329193 0.426824271678925 0.593046367168427 0.650931000709534 0.84750634431839 1.06445133686066 0.973127663135529 0.55523818731308 0.36016982793808 0.535184442996979 0.671174585819244 0.729812264442444 0.662233412265778 0.671572387218475 0.84377133846283 0.526549875736237
-0.396783053874969 -0.488873362541199 -0.647097826004028 -0.689066171646118 -0.612996160984039 1.57451295852661 1.30936908721924 1.57154643535614 -0.130920842289925 -0.348601102828979 -0.179321512579918 0.229875549674034 1.07043528556824 0.69741278886795 0.931639432907104 1.34616160392761 1.47773516178131 1.92911922931671 2.25211906433105 2.95037913322449 3.05637955665588 2.46718859672546 0.805225014686584 -0.134522289037704 -1.03108143806458 -0.58132266998291 1.95945262908936 3.58728909492493 5.73379611968994 8.79908561706543 9.28486442565918 8.57223510742188 7.79645776748657 7.61686134338379 6.3421106338501 5.82673406600952 6.29616451263428 6.34183788299561 4.4644341468811 2.82154703140259 2.88559722900391 4.08680438995361 5.62211990356445 6.31301689147949 6.27147531509399 6.81836462020874 5.96631336212158 6.23429155349731 5.59156894683838 4.57828760147095 4.41581630706787 3.76594114303589 3.33189678192139 2.80206871032715 2.48346209526062 1.77052736282349 0.713126122951508 0.967027306556702 1.41327846050262 0.414856821298599 -1.77591478824615 -3.14069962501526 -3.83660912513733 -4.73022699356079 -4.82897853851318 -4.78104734420776 -4.71132230758667 -4.68571043014526 -4.59371566772461 -4.44761943817139 -4.35440874099731 -4.26956367492676 -3.95370483398438 -2.77630376815796 -1.43518614768982 0.248697221279144 2.08837127685547 2.7650773525238 3.85230588912964 5.28476190567017 7.98567485809326 9.28834533691406 11.1839084625244 10.5566148757935 9.92481708526611 6.86591243743896 6.0933575630188 5.75546073913574 4.10745525360107 3.88655281066895 3.82449817657471 3.82592964172363 3.25157380104065 2.35054445266724 2.68888258934021 3.33942198753357 4.26968193054199 4.96021175384521 5.48540878295898 5.19879007339478 6.30031585693359 7.39943027496338 4.44491863250732 7.19752836227417 6.68979549407959 8.85187244415283 10.2438707351685 11.2967119216919 10.5672388076782 9.84478092193604 10.3688945770264 10.0607624053955 9.91151428222656 10.0907344818115 10.4499492645264 10.5163536071777 10.8760862350464 10.8239936828613 9.56960105895996 8.94200229644775 8.78351974487305 8.29727745056152 7.28137397766113 6.17597389221191 4.96694755554199 4.2533164024353 4.08619546890259 3.83461236953735 3.7887122631073 3.80894994735718 3.58645439147949 3.41670393943787 3.2759268283844 3.16917777061462 3.18865418434143 2.98908877372742 2.42784070968628 1.72807109355927 1.38897025585175 0.918175220489502 0.816791236400604 2.34957647323608 3.89660096168518 4.12596940994263 3.79500150680542 4.24512767791748 5.15000915527344 1.75175261497498 -0.0346378944814205 0.0522517375648022 0.332588762044907 0.543871283531189 0.654704332351685 2.32369422912598 3.60496306419373 2.75023341178894 3.4415488243103 2.27893304824829 0.989213645458221 0.731524765491486 0.772894859313965 0.767931580543518 0.610730588436127 0.025806562975049 0.147387072443962 0.345313876867294 0.541068255901337 0.636415958404541 0.528187930583954 0.379215478897095 0.390807747840881 0.356036275625229
-0.495273947715759 1.40564334392548 0.719522595405579 -0.641819715499878 -0.624887406826019 0.56766676902771 1.25414597988129 0.317846417427063 0.231432870030403 -0.198744043707848 -0.065252885222435 0.19914947450161 0.764222264289856 0.892443895339966 1.00191676616669 1.35120820999146 1.53103625774384 1.69828617572784 1.82299673557281 2.50156092643738 3.32404279708862 2.51573729515076 1.58636176586151 1.69072985649109 2.23409152030945 3.15561699867249 5.12160587310791 8.05247688293457 10.0833253860474 9.19651222229004 8.0988883972168 7.0725998878479 6.78170585632324 5.98179960250854 5.09420299530029 4.78487586975098 4.85716724395752 4.83200836181641 3.42828774452209 2.68892049789429 5.01409769058228 3.93400382995605 4.37276887893677 5.05160856246948 5.6347279548645 5.50494623184204 5.4658899307251 5.39447259902954 4.25633955001831 3.97293925285339 3.60490894317627 2.80664968490601 2.15652418136597 1.70828998088837 1.10870540142059 0.47378858923912 0.455307394266129 0.729364395141602 0.420977175235748 -0.536663949489594 0.988331019878387 -1.58185660839081 -1.78794598579407 -4.89804363250732 -4.94787216186523 -4.91367101669312 -4.81645965576172 -4.14884901046753 -4.71780443191528 -4.57569074630737 -3.56101226806641 -4.26172924041748 -4.0556468963623 -3.23009395599365 -2.10158085823059 -0.624256372451782 1.18107306957245 2.24092316627502 4.03609037399292 5.56731033325195 7.64047527313232 8.48218536376953 9.376784324646 9.82304000854492 9.68573665618896 6.49351072311401 5.16594409942627 4.25120115280151 3.69789409637451 2.63672685623169 2.4933876991272 2.19013643264771 1.55092716217041 2.21547269821167 2.85529017448425 3.575110912323 4.46803617477417 5.02204751968384 5.24007701873779 5.3252649307251 5.71047163009644 5.78895711898804 3.87909507751465 4.91854429244995 8.34794902801514 7.92610216140747 9.57649993896484 9.38669204711914 8.9901647567749 8.96712493896484 9.00416564941406 8.66855335235596 8.66182899475098 8.93573188781738 9.10516929626465 9.28098487854004 9.32002925872803 8.61616706848145 8.04513263702393 8.12352466583252 7.98322057723999 7.28645801544189 6.36738967895508 5.05911111831665 4.20913648605347 4.01015281677246 3.86384463310242 3.68340468406677 3.63891625404358 3.63256573677063 3.25102710723877 3.07835817337036 3.00360584259033 2.87363958358765 2.81161618232727 2.57359337806702 2.0711407661438 1.32486510276794 0.899368822574615 0.602344512939453 0.545106887817383 1.45309376716614 2.7180757522583 1.73099219799042 1.95774412155151 3.94930696487427 3.7768874168396 3.9733510017395 1.22919082641602 1.22747039794922 2.6284875869751 5.70663833618164 5.83334255218506 6.48772048950195 6.96229219436646 4.43131256103516 1.99142730236053 1.40561676025391 0.662007093429565 0.712450861930847 0.716221451759338 0.331534504890442 0.181215792894363 -0.248712226748466 -0.00451950030401349 0.131621330976486 0.284459859132767 0.456879168748856 0.454796344041824 0.298369854688644 0.0981324464082718 1.21646416187286
-0.372448682785034 2.24120998382568 2.6142749786377 2.1143901348114 1.04124331474304 0.309267580509186 0.527526617050171 1.55684518814087 1.8037623167038 0.424297243356705 0.189974188804626 0.357891261577606 0.539424300193787 0.801940441131592 0.955043911933899 1.28569519519806 1.54423213005066 1.50682592391968 1.59790253639221 2.43205833435059 3.95245027542114 3.45357799530029 3.29397654533386 4.89030647277832 7.28473615646362 7.91588878631592 8.84707927703857 9.52263832092285 8.96393871307373 8.41621112823486 7.18618726730347 6.15511083602905 5.61295461654663 5.01186180114746 4.2443151473999 3.9492928981781 3.20259857177734 2.79617881774902 2.41078567504883 2.59149813652039 2.91798686981201 3.21734619140625 3.54253315925598 3.86160349845886 4.18923044204712 4.39826488494873 4.13348913192749 4.09368562698364 3.49472522735596 2.93814611434937 2.279132604599 1.66686522960663 1.12528610229492 0.566560983657837 0.0378186330199242 -0.0910956710577011 0.0507371425628662 0.19522787630558 -0.693412303924561 -1.90185546875 2.63544130325317 2.35283303260803 -0.70155918598175 -4.19657039642334 -5.05446338653564 -4.18765687942505 -4.93569374084473 -4.87848663330078 -4.51413440704346 -4.69486570358276 -4.61006498336792 -4.39848661422729 -4.04664659500122 -3.52659440040588 -2.43148589134216 -1.27428460121155 0.424689650535583 2.22468948364258 3.8211841583252 5.57159471511841 6.62729597091675 7.79370403289795 7.93696212768555 8.25285625457764 7.90698289871216 6.27656030654907 5.22062540054321 3.57782816886902 2.9582781791687 3.12733030319214 1.81905484199524 1.61202645301819 1.66952586174011 2.43649935722351 3.03578019142151 3.47331428527832 4.47800970077515 4.97283458709717 4.88344240188599 5.56138753890991 5.61525917053223 5.20848703384399 4.92881917953491 4.66741132736206 8.46772956848145 7.60488033294678 8.54158687591553 8.23766231536865 7.95872688293457 8.16662311553955 8.06506824493408 7.71424722671509 7.75904607772827 8.10514450073242 8.09817218780518 8.27202987670898 8.22676944732666 7.53998470306396 7.29574775695801 7.12286186218262 6.8109335899353 6.22452402114868 5.57389116287231 4.47157192230225 3.90960788726807 3.85627269744873 3.7204794883728 3.48131942749023 3.52538323402405 3.42802476882935 3.13388776779175 2.80877685546875 2.70037174224854 2.649493932724 2.34077167510986 1.87016689777374 1.50878703594208 1.03673803806305 0.621594250202179 0.435516864061356 0.53981751203537 1.68548500537872 2.02374935150146 0.567043304443359 -0.191710144281387 1.62828683853149 1.90214109420776 3.79220199584961 5.79202461242676 4.17871618270874 5.12366628646851 6.05640172958374 6.36588573455811 4.57687616348267 3.90654063224792 3.3019871711731 2.25773811340332 1.36452305316925 0.777692198753357 0.686431229114532 0.684750378131866 0.208292365074158 -0.140151366591454 -0.254918694496155 -0.204781413078308 -0.127197757363319 -0.133195325732231 -0.178766667842865 0.161967381834984 0.208776071667671 0.088954821228981 2.55371642112732
3.08279180526733 2.18249750137329 3.54833602905273 3.31365513801575 2.96961784362793 2.25076842308044 2.52142930030823 2.53079581260681 1.58714842796326 0.647884130477905 0.331500887870789 0.460235625505447 0.479439854621887 0.648489892482758 0.985922813415527 1.14355432987213 1.46419084072113 1.45726263523102 1.58156538009644 3.02974581718445 5.48970508575439 5.88787794113159 6.5387544631958 9.80195045471191 11.0626201629639 11.0850858688354 10.1755132675171 8.91978645324707 7.95325803756714 7.13362550735474 6.03556632995605 5.33788824081421 4.58182191848755 4.06073522567749 3.75334572792053 3.19247341156006 2.67360901832581 2.15435671806335 1.90637636184692 2.25695514678955 2.58407759666443 2.75005531311035 3.02470374107361 3.2275972366333 3.42372441291809 3.34678268432617 3.78695774078369 3.15458869934082 2.89636921882629 2.23649787902832 1.82769250869751 0.959214746952057 -0.180298671126366 -0.946938991546631 -0.614259362220764 -0.418668240308762 -0.295856982469559 -0.309767067432404 -1.24442970752716 -2.38510131835938 3.07938146591187 4.31482410430908 2.82652688026428 0.159361556172371 -2.81491279602051 -4.64899778366089 -3.85875821113586 -4.98179244995117 -4.82328224182129 -4.8185133934021 -4.79070520401001 -4.41846084594727 -4.07980585098267 -3.80933523178101 -3.01781868934631 -1.69540655612946 -0.275961667299271 1.83685839176178 3.49968576431274 5.31315326690674 5.78705978393555 6.53228950500488 7.00222110748291 6.80225038528442 6.36130428314209 5.31667709350586 3.63347816467285 3.00613713264465 2.55158138275146 3.83272981643677 3.08848547935486 2.74322819709778 3.89895343780518 2.49005389213562 3.07756185531616 3.84006714820862 4.44456052780151 4.99019193649292 6.12144994735718 8.58959865570068 8.89343357086182 9.14529609680176 8.6079216003418 4.55386590957642 6.40286445617676 7.461350440979 7.7506422996521 7.23882913589478 7.41526365280151 7.47312831878662 7.27901554107666 7.0248498916626 7.17398691177368 7.25703048706055 7.42916631698608 7.41966724395752 7.29760646820068 6.74839401245117 6.14131546020508 5.2097487449646 4.58828401565552 4.73091983795166 3.99600338935852 3.77673625946045 3.70959734916687 3.5729775428772 3.36177611351013 3.30039167404175 3.34745335578918 3.52784514427185 3.46846652030945 2.74777841567993 2.49833273887634 2.39421939849854 2.03667974472046 1.4837703704834 0.951287686824799 0.689791440963745 0.351518452167511 0.334606319665909 0.304181396961212 1.52261674404144 2.54312586784363 1.12540555000305 1.96602201461792 1.2743171453476 1.52362680435181 3.46746373176575 4.92521238327026 5.30417394638062 4.74248695373535 4.75743722915649 4.24740362167358 4.06618690490723 3.21175718307495 2.54591345787048 2.00430703163147 1.36291205883026 0.665960431098938 0.645885467529297 0.56434291601181 0.0935131907463074 -0.456796705722809 -0.362593054771423 -0.348564594984055 -0.291046261787415 -0.284703761339188 -0.404825836420059 -0.379621982574463 -0.246343195438385 -0.0552003309130669 1.49414420127869
