NCOLS 173
NROWS 32
XLLCORNER 353952
YLLCORNER 6700352
CELLSIZE 16 
NODATA_value -3.4e+38 
3.40061831474304 0.0493412725627422 -0.152476787567139 -0.0898591354489326 0.175270289182663 0.255963414907455 0.113450668752193 -0.0881742835044861 -0.140507146716118 -0.27621054649353 -0.437155574560165 -0.235361754894257 0.0711448565125465 0.24852754175663 0.328570753335953 0.423034131526947 0.506391882896423 0.527970433235168 0.7061607837677 0.966967046260834 1.00271236896515 0.779432594776154 0.622897982597351 0.540148615837097 0.508949816226959 0.434827476739883 0.328042447566986 0.245350211858749 0.254714280366898 0.301808148622513 2.55948042869568 0.547458648681641 0.538726627826691 0.47045710682869 0.465383619070053 0.53156703710556 0.55910986661911 0.563311815261841 0.596000850200653 0.697682321071625 0.738598942756653 0.830293297767639 1.15481007099152 1.25497007369995 1.4885321855545 1.82439184188843 1.93356013298035 2.14173436164856 2.13010501861572 2.63745713233948 2.23137307167053 1.08670389652252 0.907531797885895 0.68738067150116 0.613884449005127 0.668418109416962 0.728832483291626 0.732570290565491 0.628730177879333 0.510567426681519 0.477233827114105 0.396172553300858 0.230216592550278 0.0195638630539179 0.0134376082569361 0.0151221035048366 0.00879732705652714 0.013837156817317 0.0150235965847969 0.0180621985346079 0.0193724259734154 0.0252119321376085 0.2701655626297 1.36626088619232 2.23755216598511 4.90927886962891 7.85150575637817 8.04240894317627 7.1718225479126 6.3491678237915 5.72204637527466 5.30660676956177 4.09493494033813 3.30974555015564 2.6951596736908 2.04065704345703 2.19476866722107 2.82834935188293 1.23304224014282 1.03648626804352 1.53077340126038 1.94569563865662 2.78956389427185 3.16717267036438 4.13114738464355 5.65670776367188 8.18982315063477 7.17895603179932 5.87768220901489 7.37795448303223 6.93259811401367 6.1839165687561 7.52257633209229 6.40425539016724 5.30264568328857 6.45907258987427 7.76888799667358 8.41459560394287 8.80753326416016 9.13465309143066 9.4817590713501 10.077748298645 9.77617454528809 5.48039865493774 3.07053852081299 3.66945552825928 4.34132671356201 4.55367612838745 4.69122362136841 5.07484245300293 5.38365602493286 5.87159442901611 6.2106876373291 6.63994646072388 7.05867481231689 7.36114406585693 7.69519424438477 7.85169649124146 9.95880794525146 8.791748046875 8.76810169219971 9.16786766052246 10.4108200073242 10.6816139221191 10.171012878418 9.4583158493042 8.73484230041504 7.18919849395752 4.52368974685669 3.16594648361206 3.14743518829346 5.05220651626587 9.47736740112305 9.05801391601562 7.37112903594971 5.60504531860352 5.6491231918335 4.83864307403564 5.88330078125 9.84884548187256 12.6799612045288 9.66256618499756 6.98153162002563 5.74170017242432 3.12278008460999 1.95588910579681 1.96426093578339 1.92155408859253 1.35248303413391 -0.98986941576004 -1.01210427284241 -0.816301882266998 -0.490841746330261 5.29791688919067 3.43948006629944 3.55411267280579 5.30253505706787 5.36537170410156 2.48900699615479 1.82185041904449 1.54355525970459 1.33342921733856 1.15324461460114
4.19940996170044 -0.273260146379471 -0.254265487194061 -0.0532940961420536 0.0425993651151657 0.322122991085052 0.385384649038315 0.0979568064212799 0.0708092227578163 0.0205275844782591 -0.0989189445972443 -0.0907374918460846 0.097043476998806 0.277551680803299 0.39326086640358 0.457703113555908 0.53166651725769 0.60288405418396 0.753840982913971 1.03248369693756 1.09258222579956 1.08122634887695 0.8468337059021 0.671793818473816 0.610119760036469 0.556807219982147 0.479101002216339 0.463103294372559 0.531801521778107 0.508773744106293 0.510243952274323 2.42807102203369 0.622824192047119 0.591443002223969 0.616957783699036 0.664143919944763 0.662507295608521 0.666320025920868 0.678826093673706 0.713820099830627 0.753889262676239 0.764172673225403 1.05084347724915 1.19476211071014 1.55789709091187 2.00693035125732 2.13215684890747 2.51129174232483 2.57179236412048 2.1537013053894 1.70812511444092 1.96786391735077 1.07963347434998 0.792423903942108 0.642275512218475 0.655702114105225 0.768262028694153 0.74264532327652 0.675665020942688 0.5601567029953 0.494399279356003 0.494383424520493 0.426759511232376 0.0333675667643547 0.0313513055443764 0.0284914243966341 0.0260011479258537 0.0263382717967033 0.0266014169901609 0.0349596738815308 0.040194746106863 0.0479051023721695 0.128041952848434 0.741507947444916 1.96029508113861 4.75996589660645 7.83614110946655 8.98984909057617 8.44062614440918 7.29711866378784 6.45061159133911 6.19357252120972 5.34266662597656 4.29106473922729 3.44305276870728 3.15970921516418 2.69561672210693 2.3933470249176 1.76707565784454 1.45082867145538 1.49171435832977 1.52303862571716 2.53944325447083 3.49476051330566 3.70780229568481 5.74276447296143 7.67160511016846 5.82992601394653 1.34610164165497 2.60831260681152 1.9774831533432 2.2485454082489 4.93256187438965 5.05411291122437 5.30807304382324 6.05439329147339 7.73261499404907 8.82308197021484 9.40053272247314 9.83309078216553 9.97941303253174 10.8856687545776 11.381311416626 7.40558242797852 3.18490386009216 3.62731623649597 4.148193359375 4.76009750366211 4.9966926574707 5.02196741104126 5.63397359848022 6.18159055709839 6.51036882400513 6.75752830505371 7.16110229492188 7.73928308486938 8.17076778411865 8.31210994720459 8.4830436706543 8.29716491699219 8.38773632049561 9.34676265716553 10.6361865997314 11.7407732009888 11.5451173782349 10.8318004608154 10.6426038742065 10.0421314239502 7.89548969268799 4.67743539810181 4.54064321517944 4.77629470825195 7.4755597114563 10.7601585388184 3.46719145774841 4.18730354309082 0.417305707931519 4.93031883239746 10.0856266021729 11.4367122650146 15.1041421890259 18.381067276001 10.116081237793 7.0762414932251 5.34134149551392 2.49971413612366 2.51376986503601 3.64950299263 4.65221166610718 2.38594961166382 -0.135201647877693 -0.302946984767914 -0.137182772159576 0.770047068595886 3.39141631126404 8.97749805450439 7.3707799911499 9.06629180908203 2.96916627883911 2.27848958969116 1.73890769481659 1.52591979503632 1.4362119436264
2.68723726272583 1.69070494174957 -0.245591640472412 -0.0529779046773911 0.121154397726059 0.426196694374084 0.56242698431015 0.40681779384613 0.261391699314117 0.229982197284698 0.170623809099197 0.127001464366913 0.245198935270309 0.296460330486298 0.436439454555511 0.514672160148621 0.579353213310242 0.655573964118958 0.762141644954681 1.05863749980927 1.14352631568909 1.13328015804291 1.05538058280945 0.864683866500854 0.720088481903076 0.656688868999481 0.59863555431366 0.596792876720428 0.677034616470337 0.624017477035522 0.570781648159027 0.624662458896637 0.714711248874664 0.734172403812408 0.727502882480621 0.710740506649017 0.718519866466522 0.731449484825134 0.733745872974396 0.723037302494049 0.74242889881134 0.78728848695755 0.890298068523407 1.23447740077972 1.36557054519653 1.97787392139435 2.52342939376831 2.98549747467041 3.05387163162231 2.79053950309753 2.1841413974762 1.58690345287323 1.20328879356384 1.24726867675781 0.739444434642792 0.679932475090027 0.816846549510956 0.769925177097321 0.716452062129974 0.623184323310852 0.540762305259705 0.528544962406158 0.461040705442429 0.300832599401474 0.052419800311327 0.0467419326305389 0.0502008683979511 0.0539245121181011 0.0546451881527901 0.0672319233417511 0.0865497216582298 0.105580560863018 0.113847456872463 0.353491932153702 1.491335272789 4.08545923233032 7.73906564712524 9.57646751403809 9.68703651428223 8.57776546478271 7.64332294464111 6.70208168029785 6.25005960464478 5.47177743911743 4.85267639160156 4.17250776290894 3.25228357315063 3.23675847053528 2.31378889083862 1.54353809356689 1.61476516723633 1.53872168064117 2.02521705627441 3.10699939727783 3.17712235450745 4.63055896759033 7.482262134552 5.37914085388184 -0.123753719031811 -0.965769708156586 0.0403400398790836 1.15485870838165 3.07284545898438 4.18714666366577 5.08230876922607 6.04269313812256 8.49923896789551 9.17933940887451 9.92312335968018 10.8560333251953 10.4898920059204 11.7225885391235 12.5484266281128 11.2948904037476 4.5977897644043 3.32430672645569 4.1658501625061 5.00489521026611 5.25627756118774 5.52500677108765 5.80496883392334 6.19415235519409 6.8918023109436 7.20924377441406 7.62649297714233 8.0475606918335 8.25266075134277 8.37811470031738 8.09567260742188 7.97156476974487 8.69513511657715 9.1973934173584 9.97709560394287 12.0005865097046 12.5492305755615 12.7278823852539 12.295877456665 15.187873840332 11.0123977661133 5.83077383041382 2.03720021247864 3.18640923500061 1.90393817424774 1.31641018390656 -0.321597278118134 0.0320428982377052 1.0945018529892 7.20771169662476 12.3680992126465 15.9564008712769 15.4042434692383 15.4710054397583 14.6301298141479 9.40914058685303 7.61542320251465 4.6200909614563 2.90876698493958 4.35615921020508 8.66553688049316 8.88044548034668 3.51491332054138 3.87408351898193 5.74168014526367 6.60367298126221 8.36205673217773 6.57320690155029 7.06605625152588 5.79390382766724 7.80985260009766 3.22130608558655 2.24650120735168 1.95773613452911 1.66201043128967
-0.606731653213501 1.34293806552887 -0.129991933703423 -0.083984300494194 0.0869829058647156 0.285918653011322 0.604009032249451 0.685114920139313 0.463655591011047 0.416948229074478 0.350917547941208 0.324844896793365 0.349931538105011 0.418515086174011 0.48138827085495 0.583434522151947 0.631189465522766 0.689881801605225 0.724022567272186 0.906009376049042 1.15376627445221 1.200066447258 1.18865859508514 0.957716107368469 0.824912905693054 0.752905011177063 0.705317080020905 0.707340657711029 0.773217856884003 0.738422274589539 0.726337015628815 0.7046999335289 0.776658654212952 0.828266382217407 0.790144860744476 0.782179534435272 0.78738808631897 0.780852973461151 0.755144357681274 0.729423224925995 0.766383707523346 0.83294141292572 0.844538927078247 1.14172661304474 1.30556273460388 2.32200598716736 2.88969016075134 3.2903139591217 3.55415964126587 3.63749241828918 3.12265849113464 2.37361741065979 1.46165883541107 1.28052914142609 1.38160240650177 0.791091859340668 0.797212064266205 0.839231729507446 0.790451765060425 0.731553494930267 0.638694226741791 0.58366596698761 0.607709646224976 0.54161012172699 0.0921307355165482 0.0789470225572586 0.0860466510057449 0.0916067361831665 0.112566038966179 0.137938380241394 0.209413021802902 0.184074997901917 0.179428696632385 0.223018810153008 0.842709422111511 2.72276306152344 6.71371603012085 9.99281787872314 12.4012784957886 10.8446273803711 9.39459323883057 7.90526151657104 7.30015134811401 6.67047929763794 6.14352035522461 5.3577709197998 4.23112821578979 3.86536550521851 3.37636470794678 2.15981221199036 1.62492191791534 1.65248847007751 1.15076434612274 1.54371535778046 2.52312731742859 4.15246629714966 8.21276950836182 4.11070251464844 0.0712199285626411 -1.02210783958435 -0.12128734588623 1.06288588047028 2.45035123825073 4.03829383850098 5.14843988418579 6.14081573486328 7.63483572006226 9.32814788818359 10.4299383163452 11.5944757461548 11.6001977920532 12.141242980957 14.1596708297729 15.0533485412598 9.63783073425293 3.58784341812134 4.17470836639404 4.81447601318359 5.69594240188599 6.00536298751831 6.01752376556396 6.58817148208618 7.21930074691772 7.62387990951538 7.96350383758545 8.75273036956787 9.71408557891846 8.70857715606689 8.26354026794434 8.44921588897705 9.19017028808594 9.85340881347656 10.8667707443237 12.3678894042969 14.4754362106323 14.157172203064 11.6399507522583 10.1349859237671 14.3033771514893 13.4468355178833 5.95712423324585 -0.273942768573761 -0.117814570665359 -0.0874612033367157 0.0678964480757713 0.333855867385864 3.44037818908691 8.87559223175049 13.69384765625 14.0090866088867 6.05740118026733 1.49716448783875 7.76025009155273 14.5959787368774 12.3942985534668 9.62946128845215 5.00734710693359 4.01314926147461 4.3868727684021 9.98416805267334 9.23575019836426 2.45097017288208 2.05632853507996 2.36568403244019 2.34244608879089 4.97224760055542 5.62073993682861 4.31450271606445 4.8690299987793 4.48809480667114 3.28235721588135 2.32613801956177 2.08303952217102
-0.552078783512115 -0.504608452320099 -0.305582135915756 -0.106136776506901 0.0864357203245163 0.278084099292755 0.68512487411499 0.812596499919891 0.710839986801147 0.554546177387238 0.516379594802856 0.491912543773651 0.451694846153259 0.497171640396118 0.551809728145599 0.612148106098175 0.647756457328796 0.720964729785919 0.794565379619598 0.860062539577484 1.15291666984558 1.24186325073242 1.24109530448914 1.17716491222382 0.997713983058929 0.850059330463409 0.812609612941742 0.813832104206085 0.859022676944733 0.871937692165375 0.847091674804688 0.804443895816803 0.822393774986267 0.85871958732605 0.819759249687195 0.81391054391861 0.843435227870941 0.829629480838776 0.785684406757355 0.786232233047485 0.784173965454102 0.86324805021286 0.907853782176971 0.97786146402359 1.36488044261932 2.54325699806213 3.10290169715881 3.43912744522095 3.67161893844604 4.23645734786987 3.9452211856842 3.47391581535339 2.22898411750793 1.37275981903076 1.07306110858917 1.66466331481934 1.06966090202332 1.00560700893402 0.90415495634079 0.868451476097107 0.787435472011566 0.729772806167603 0.750395536422729 0.702453911304474 0.247583240270615 0.180349335074425 0.189341172575951 0.204151347279549 0.224510341882706 0.263752311468124 0.272260904312134 0.21038518846035 0.175364345312119 0.196160778403282 0.529338121414185 1.90035939216614 5.66080141067505 10.2629289627075 14.7377271652222 15.3864507675171 13.0524482727051 9.97781562805176 8.32232284545898 7.80944871902466 7.39042139053345 7.01422786712646 6.43637037277222 4.3906455039978 3.72543597221375 2.32322764396667 1.6159383058548 0.720015048980713 0.607463777065277 1.00911700725555 2.14845299720764 3.41180777549744 4.79098796844482 2.91441130638123 0.221887767314911 -0.0716134533286095 0.812290906906128 0.683840274810791 1.92792069911957 3.93648147583008 4.99706649780273 6.02846193313599 7.22371339797974 9.53158092498779 11.069188117981 12.1709871292114 13.5739297866821 13.1338729858398 15.7249317169189 18.8376350402832 17.4329490661621 6.16895198822021 3.92508745193481 5.06934547424316 6.19954633712769 6.55816078186035 6.57677459716797 6.91609287261963 7.51656579971313 8.36340808868408 8.73339748382568 10.0758953094482 9.29380512237549 8.94626045227051 8.50567436218262 8.80450057983398 9.79496192932129 10.3150234222412 11.0628910064697 12.2956962585449 15.250862121582 16.8138065338135 14.7292757034302 10.0696058273315 9.40033912658691 9.20725440979004 6.07207059860229 0.226464539766312 0.212902188301086 0.431662082672119 0.514412045478821 0.527033805847168 3.55466365814209 7.85099840164185 4.93172121047974 1.11812388896942 2.57158660888672 -0.943553030490875 -0.0684138163924217 7.54182863235474 10.6685266494751 10.0424823760986 7.49464750289917 4.41439962387085 5.06793022155762 3.12233686447144 14.5790910720825 14.3056859970093 3.16333961486816 3.1601254940033 2.61371088027954 3.40257859230042 4.94241952896118 5.21241569519043 7.36641311645508 6.8977575302124 5.02158069610596 3.68946433067322 3.22762989997864
-0.408067613840103 -0.38945284485817 -0.268544107675552 -0.0550934746861458 0.0759685859084129 0.287491083145142 0.714845180511475 0.881311476230621 0.862834215164185 0.705926418304443 0.655733942985535 0.620019137859344 0.571879088878632 0.603794991970062 0.626655280590057 0.651255905628204 0.679256618022919 0.739688813686371 0.814253866672516 0.813827872276306 0.977333605289459 1.25243079662323 1.32606852054596 1.33259499073029 1.0988153219223 0.960982799530029 0.926149010658264 0.90056973695755 0.908151090145111 0.966159582138062 0.936819970607758 0.920675992965698 0.882234036922455 0.87432724237442 0.841688990592957 0.855946242809296 0.883127212524414 0.87089204788208 0.856488883495331 0.829198122024536 0.808865904808044 0.87003082036972 0.949328482151031 0.975009620189667 1.42567813396454 2.2417209148407 3.27609300613403 3.36125779151917 3.84873557090759 4.22879314422607 5.12457418441772 4.84520101547241 4.20457315444946 2.32334351539612 1.09899199008942 0.910255014896393 0.845918536186218 0.939288794994354 1.07822346687317 1.08265769481659 1.04957473278046 0.98326176404953 0.988786339759827 0.87649130821228 0.76437896490097 0.397197246551514 0.317070096731186 0.33562758564949 0.349579066038132 0.398234605789185 0.294565051794052 0.239688202738762 0.189270317554474 0.202073335647583 0.272948443889618 1.37399137020111 3.88343787193298 9.33296298980713 14.2677221298218 21.6203498840332 18.2089824676514 13.7491521835327 11.2539358139038 8.80775833129883 8.51515960693359 8.52568531036377 8.36793899536133 7.23354005813599 5.20955514907837 3.51617312431335 2.09872484207153 1.17402100563049 0.819367051124573 0.911515831947327 1.97987139225006 2.45394277572632 2.32225298881531 1.30336999893188 0.40387761592865 0.937126755714417 3.22802472114563 3.33542466163635 1.80196499824524 3.24755787849426 5.21743535995483 6.42630577087402 7.69253921508789 9.81820774078369 11.5537128448486 12.4525451660156 14.6458377838135 14.9233198165894 21.6270084381104 27.9477920532227 27.2128314971924 16.7279624938965 4.37724876403809 5.47350025177002 6.51581239700317 7.15455150604248 7.52641868591309 7.52094459533691 8.20355701446533 8.86466121673584 9.68455505371094 9.03328800201416 8.48886203765869 8.45544147491455 8.96024513244629 9.31368923187256 10.4532012939453 11.553150177002 11.2010450363159 12.4946041107178 13.7595148086548 12.860330581665 13.4650793075562 13.2031192779541 8.06813335418701 1.41074991226196 0.358200997114182 0.510066449642181 0.58075076341629 0.707283139228821 0.724722802639008 1.98569071292877 3.49421262741089 4.00116491317749 0.150062620639801 -0.328448385000229 -0.681392729282379 -0.79089093208313 -0.723312437534332 -0.718996167182922 0.623517036437988 1.49295997619629 4.82661914825439 5.73506736755371 5.44340658187866 8.2500114440918 7.29181861877441 10.4004783630371 9.93009948730469 4.79055118560791 3.54940485954285 2.98031234741211 4.12058305740356 5.86442136764526 8.47405052185059 7.83800792694092 7.89457511901855 6.38399171829224 3.92292475700378
-0.320808857679367 -0.256676137447357 -0.14456444978714 -0.0429449193179607 0.114256039261818 0.331694960594177 0.545999109745026 0.958053231239319 1.1190128326416 0.848000824451447 0.768298208713531 0.73920214176178 0.727493941783905 0.691464841365814 0.7251296043396 0.728513479232788 0.757463097572327 0.775090754032135 0.832857429981232 0.868651568889618 0.926819741725922 1.26758897304535 1.39583146572113 1.43242061138153 1.34834408760071 1.15471911430359 1.0041366815567 0.967797160148621 0.975598692893982 1.03301596641541 1.0634218454361 1.02459514141083 0.943560600280762 0.921888947486877 0.936031460762024 0.947187602519989 0.925781011581421 0.944333732128143 0.928878843784332 0.885351181030273 0.895150661468506 0.883524179458618 0.966140627861023 1.01433086395264 1.32351315021515 2.07726907730103 3.39610385894775 3.40362596511841 3.52547764778137 4.07316493988037 6.43282651901245 6.30973768234253 6.36205387115479 5.35192489624023 2.26527500152588 0.974988400936127 0.864417791366577 0.892845928668976 1.09702658653259 1.1333212852478 1.17660772800446 1.11570465564728 0.9778733253479 1.04867422580719 1.01435422897339 0.49953693151474 0.363811492919922 0.365256130695343 0.365610659122467 0.346161454916 0.312658190727234 0.266915202140808 0.228774935007095 0.228501170873642 0.254422158002853 0.902442276477814 2.42273998260498 8.18192863464355 14.5779886245728 20.5601539611816 19.7439861297607 21.2211647033691 14.6246566772461 11.9530334472656 9.48783683776855 9.67570686340332 10.3877067565918 9.72212409973145 6.91163110733032 5.40627241134644 3.56714701652527 2.07076954841614 1.0324250459671 0.925540328025818 1.24562573432922 2.23802351951599 2.29474496841431 1.70783340930939 0.874280869960785 0.749874472618103 3.50905537605286 4.31804800033569 3.68594098091125 3.52046871185303 5.54525279998779 6.79829788208008 7.85967063903809 8.92184543609619 11.8840627670288 13.2466535568237 14.5123195648193 17.5918235778809 13.8658599853516 16.9391098022461 28.8067321777344 34.4756355285645 10.4649810791016 5.38308477401733 6.27660465240479 7.88239812850952 8.28281211853027 8.25626087188721 8.63050270080566 9.49839401245117 9.87703323364258 8.87373828887939 8.16413307189941 8.93176651000977 9.7089376449585 9.7825870513916 10.5095539093018 11.6636209487915 10.3221426010132 9.67551422119141 9.07432556152344 8.14177227020264 10.1610879898071 9.02054119110107 4.74886322021484 0.752288460731506 2.18661999702454 0.724948227405548 0.789030969142914 0.783724546432495 0.79450261592865 1.15471935272217 1.40231287479401 4.93722629547119 1.68184697628021 0.22363568842411 -0.48700538277626 -0.589476525783539 -0.226929187774658 0.73700475692749 -0.745079636573792 0.815551459789276 2.52673292160034 4.84992074966431 5.39975023269653 1.68329381942749 2.02744626998901 1.81496620178223 5.21994829177856 4.23444938659668 4.11935997009277 2.86072635650635 1.8709704875946 3.45868492126465 5.04801321029663 10.0781869888306 11.9325313568115 6.99237251281738 4.31072664260864
-0.277005195617676 -0.193829461932182 -0.0804191008210182 0.00638632010668516 0.167722836136818 0.300286054611206 0.531374037265778 1.03122651576996 1.21949911117554 1.12630653381348 0.884332656860352 0.870294511318207 0.929942190647125 0.901401817798615 0.796528220176697 0.80307137966156 0.813689053058624 0.820663630962372 0.900784075260162 1.37049388885498 2.36043381690979 4.97853851318359 3.56016874313354 2.03357219696045 1.80797910690308 1.2033885717392 1.05214595794678 1.02160310745239 1.00591766834259 1.02688908576965 1.10297524929047 1.06973481178284 1.02937841415405 0.94837361574173 0.964719951152802 1.00654661655426 1.02557528018951 1.00973463058472 0.978859782218933 0.960940897464752 0.934544146060944 0.909164249897003 0.970952093601227 1.05589354038239 1.14820611476898 1.95604979991913 2.91214060783386 3.63739776611328 3.38857126235962 2.68259358406067 3.69256591796875 6.29605293273926 5.5807580947876 5.65985059738159 5.50137329101562 2.60351395606995 0.990310072898865 0.917242586612701 1.01277220249176 1.17851781845093 1.19893562793732 1.21418905258179 1.09308648109436 1.13541686534882 1.01250803470612 0.912622392177582 0.47014394402504 0.37960347533226 0.381290584802628 0.378581255674362 0.35207200050354 0.333685487508774 0.281086891889572 0.237861305475235 0.269310772418976 0.445508778095245 1.86304259300232 5.63292217254639 15.4482326507568 16.2259197235107 7.04330062866211 9.95005893707275 13.509708404541 12.1206741333008 11.7689657211304 10.7443857192993 11.6862773895264 12.9537763595581 11.3261861801147 8.27866744995117 7.48809480667114 3.64073276519775 1.71472132205963 1.13735115528107 1.08565390110016 2.17616510391235 2.62974214553833 2.72356152534485 1.34524857997894 0.447370857000351 -0.592840075492859 1.34524536132812 0.480520635843277 3.23093366622925 5.67424821853638 6.77161598205566 7.93694019317627 9.29784393310547 12.60435962677 15.0042943954468 16.8625659942627 18.5674533843994 16.3490371704102 12.9091577529907 13.1449956893921 23.1773891448975 35.0661239624023 8.27917575836182 6.64674043655396 7.9470853805542 9.14978313446045 9.54934024810791 9.45110321044922 10.2624750137329 10.9924049377441 10.8045854568481 9.65083980560303 9.1952657699585 10.0448064804077 9.95932388305664 10.8416337966919 11.0984268188477 10.2194719314575 7.80986547470093 4.01339864730835 1.65490424633026 1.34852206707001 -0.160704582929611 0.157726734876633 0.513177752494812 0.710314571857452 1.75732088088989 0.863768875598907 0.835212588310242 0.882710695266724 0.78630143404007 0.577813506126404 0.416310906410217 0.549387693405151 0.371132165193558 0.101141750812531 -0.305388003587723 0.742575347423553 0.515906274318695 0.0606325641274452 0.13688038289547 3.59086656570435 5.05048036575317 3.24749684333801 -1.31544160842896 -1.356360912323 -0.332817703485489 2.19367218017578 5.20503234863281 4.81774854660034 2.12488079071045 1.16505599021912 0.584903419017792 2.63189554214478 6.79758262634277 10.5786619186401 7.04972314834595 4.22269773483276
-0.209487020969391 -0.135056897997856 -0.0509595684707165 0.0475259348750114 0.26685357093811 0.307585686445236 0.64196515083313 0.864344894886017 1.26243734359741 1.34150958061218 1.03270637989044 1.34807991981506 1.3990250825882 1.40072405338287 1.61155664920807 1.10589754581451 1.00646638870239 1.377117395401 2.1446750164032 6.1677680015564 3.89354181289673 1.39442193508148 1.38547420501709 1.45791912078857 1.49233973026276 1.42218387126923 1.20393455028534 1.06205856800079 1.03245723247528 1.04424595832825 1.10525143146515 1.14332330226898 1.09357476234436 0.999170303344727 1.00528419017792 1.03404426574707 1.02681624889374 1.01727437973022 1.03762352466583 1.02270996570587 0.985369861125946 0.994118630886078 1.01447653770447 1.07558488845825 1.12038946151733 1.45372152328491 3.01851201057434 4.56498908996582 4.72469902038574 2.69234371185303 1.84189426898956 2.93091154098511 4.31180000305176 3.94469213485718 4.58800601959229 4.70196008682251 1.75723898410797 0.90191638469696 0.980207562446594 1.18750429153442 1.2349853515625 1.26570069789886 1.15959763526917 1.13599848747253 1.24667811393738 1.93790054321289 0.932976007461548 0.414107412099838 0.415143996477127 0.409704655408859 0.411654114723206 0.384173482656479 0.34396305680275 0.282689779996872 0.287033200263977 0.321410626173019 1.07882356643677 3.01013827323914 13.5101747512817 12.5729722976685 5.79952478408813 4.79829216003418 7.5273289680481 9.97836399078369 9.39079189300537 10.5105895996094 11.6511392593384 14.1042585372925 12.3736944198608 11.3346138000488 8.9227123260498 7.2163519859314 3.93577313423157 1.74577498435974 1.00582826137543 1.62755966186523 2.50078129768372 3.26077842712402 1.77811872959137 0.900343120098114 -0.270517766475677 -0.263534158468246 0.0480751134455204 2.93370246887207 5.2852029800415 7.33259391784668 8.50603103637695 9.63493537902832 11.2087574005127 17.59694480896 18.0298004150391 17.321985244751 19.6789989471436 11.7892436981201 9.89530658721924 11.2651767730713 26.597412109375 20.5389652252197 6.00347280502319 7.32767868041992 10.0626230239868 10.6299066543579 10.6543827056885 10.4934539794922 10.5807857513428 9.79789257049561 9.58205890655518 9.35281848907471 9.55927848815918 10.3552865982056 10.2468290328979 9.85789203643799 8.29728698730469 6.16366291046143 1.82847630977631 -0.201162293553352 -0.230659872293472 -0.0194485578685999 0.276974618434906 0.594233989715576 0.751121699810028 0.816986501216888 0.944943428039551 0.955267310142517 0.97271054983139 0.924445927143097 0.798561692237854 0.735608994960785 0.643747925758362 0.805346727371216 0.659373641014099 -0.0772740468382835 0.546962261199951 1.2205536365509 2.17789793014526 0.754965424537659 3.17526936531067 -0.295881152153015 -1.19952118396759 -1.22446310520172 -1.24359822273254 -1.1397260427475 0.0702962726354599 0.88071084022522 0.702490746974945 -0.440736919641495 -0.333622872829437 -0.272381097078323 -0.222751155495644 -0.21110799908638 -0.398894429206848 0.955140769481659 1.29523396492004
-0.164578497409821 -0.104468122124672 -0.0122996894642711 0.0737678706645966 0.111686311662197 0.387771040201187 0.634303867816925 0.829002737998962 1.23767745494843 1.41173017024994 1.30207550525665 1.41195631027222 2.47973155975342 2.58926701545715 3.30877232551575 3.97098207473755 3.98588347434998 7.49060583114624 2.88765144348145 1.32748293876648 0.941810190677643 0.986092269420624 1.34236550331116 1.47706568241119 1.50289857387543 1.46654725074768 1.26548624038696 1.13241076469421 1.09621512889862 1.14752125740051 1.24195289611816 1.17305779457092 1.13842070102692 1.08538341522217 1.02933835983276 1.03483712673187 1.05362224578857 1.0630019903183 1.08848416805267 1.089475274086 1.0778831243515 1.05751347541809 1.05617272853851 1.09998345375061 1.16658616065979 1.21892356872559 2.50913381576538 3.52886152267456 6.64483976364136 3.31508040428162 2.20899033546448 0.615799784660339 2.28099250793457 3.28338861465454 2.94080281257629 2.37994837760925 1.82948625087738 1.07501244544983 0.994552731513977 1.09020411968231 1.26603174209595 1.30492794513702 1.27648949623108 1.19105672836304 1.25464653968811 1.14620447158813 1.05845272541046 0.725819051265717 0.610145032405853 0.505631506443024 0.502920687198639 0.49340409040451 0.445426225662231 0.398787021636963 0.306025058031082 0.351575821638107 0.564099073410034 2.19769310951233 9.44047737121582 7.65527772903442 4.62130308151245 3.62502789497375 4.15108060836792 6.27846670150757 8.78753185272217 10.2526617050171 12.2213163375854 14.2770576477051 20.0665588378906 17.0141983032227 9.67637920379639 7.02745485305786 5.44921922683716 2.53695821762085 1.27121818065643 1.41652321815491 2.7510507106781 2.82255339622498 1.99470436573029 1.38788139820099 0.463692456483841 -0.441696435213089 -0.202931255102158 2.36965036392212 4.85341882705688 7.50373268127441 9.00857162475586 9.99561405181885 11.3569602966309 17.5875091552734 19.1226596832275 13.5625057220459 8.88055229187012 14.1301364898682 9.37331962585449 8.54410362243652 18.2899837493896 19.3265914916992 7.83956289291382 7.86618089675903 9.79345798492432 12.4365673065186 12.7252473831177 11.5039892196655 10.8270063400269 8.7204065322876 7.93118333816528 8.3278341293335 9.29428195953369 9.21961879730225 9.95869541168213 8.9698543548584 6.48486566543579 3.324946641922 0.638680577278137 -0.135945305228233 -0.103401243686676 0.764782190322876 2.58519411087036 0.673150777816772 0.859144866466522 0.999453008174896 1.0044949054718 1.01198434829712 1.00195693969727 1.14176833629608 1.1131352186203 1.06822454929352 1.06535398960114 1.10379076004028 0.798754274845123 0.142618402838707 1.60863041877747 2.93309307098389 1.54638922214508 2.05475974082947 -0.476599603891373 -1.03336572647095 -1.06052327156067 -1.0681471824646 -1.06869065761566 -0.967154264450073 -0.915667831897736 -0.707071006298065 -0.589238882064819 -0.341071605682373 -0.215162888169289 -0.161029651761055 -0.108263805508614 -0.0612029954791069 -0.0961692929267883 -0.0117976972833276 0.220345482230186
-0.134953767061234 -0.0777734220027924 0.0123156914487481 0.0603530891239643 0.165938094258308 0.405934065580368 0.591692745685577 0.822571456432343 1.03829216957092 1.47007966041565 1.54532361030579 2.67811918258667 5.86066293716431 12.4379186630249 12.9168090820312 8.93864345550537 7.29050159454346 3.70833253860474 2.19743680953979 0.922159433364868 0.958857774734497 1.00841689109802 1.1342955827713 1.48114776611328 1.55648684501648 1.61191701889038 1.31477248668671 1.16593778133392 1.12401831150055 1.18282651901245 1.41064023971558 1.32217168807983 1.16937339305878 1.15366017818451 1.06426930427551 1.07302236557007 1.12940895557404 1.24588286876678 1.39732837677002 1.42603075504303 1.26747941970825 1.13287425041199 1.07255733013153 1.13978803157806 1.18184983730316 1.57606470584869 1.89884269237518 5.12889671325684 6.7645788192749 3.6078565120697 2.89198446273804 2.3966805934906 0.43207648396492 1.83602285385132 2.90934324264526 2.43510723114014 1.3400399684906 1.16289019584656 0.982764363288879 1.08926177024841 1.31566905975342 1.35195410251617 1.39437663555145 1.27281653881073 1.30254518985748 1.39839267730713 1.34167146682739 0.706597626209259 0.503306150436401 0.531134009361267 0.552792906761169 0.585639476776123 0.66020679473877 0.629161834716797 0.490192890167236 0.411714434623718 0.406299591064453 1.27693855762482 4.54217910766602 2.40055918693542 1.69954073429108 1.65256822109222 1.68141531944275 2.84087252616882 6.69240856170654 9.91153812408447 12.9755973815918 13.8085298538208 8.70826625823975 10.9946546554565 11.5218410491943 6.94395923614502 4.4092869758606 3.15866708755493 1.75412738323212 1.02805233001709 2.0259370803833 2.57927227020264 2.54883360862732 1.81753742694855 1.12257134914398 0.208124399185181 0.0559284500777721 1.69308280944824 4.41835641860962 7.79036474227905 10.1955547332764 10.6976289749146 11.0707168579102 13.4598693847656 9.21507263183594 11.0186891555786 9.03370571136475 10.3862180709839 9.11557388305664 4.82786703109741 2.55590867996216 0.128270745277405 11.0033159255981 7.49333190917969 9.29437828063965 14.6182079315186 15.599889755249 12.9249458312988 10.0331583023071 8.50524997711182 7.68011331558228 7.22056770324707 8.12789154052734 9.96419525146484 10.8848934173584 9.40374755859375 6.66589212417603 3.30173373222351 1.16758191585541 1.08945822715759 0.822962284088135 2.15510678291321 5.45956134796143 9.45992088317871 2.87963962554932 1.07501041889191 1.0956335067749 1.13963210582733 1.10440564155579 1.18958055973053 1.31188488006592 1.41363596916199 1.43329739570618 1.36779356002808 0.994547784328461 0.510825216770172 2.11817359924316 2.94433164596558 1.83156049251556 -0.584003150463104 -0.776310563087463 -0.78636771440506 -0.882297694683075 -0.935279130935669 -0.864948511123657 -0.633897244930267 -0.671133100986481 -0.618779301643372 -0.397956788539886 -0.181467190384865 0.0866203904151917 0.746019423007965 0.0901868790388107 0.136702746152878 0.195465847849846 0.115173555910587 0.229708939790726
-0.0329287648200989 -8.23811860755086e-05 0.0331523343920708 0.0862927809357643 0.225300624966621 0.385146886110306 0.574363768100739 0.795399010181427 1.0427531003952 2.10429430007935 4.24546766281128 6.21654891967773 5.6827244758606 1.87264883518219 1.17163753509521 0.993911385536194 2.21849727630615 1.31616449356079 1.44422447681427 0.950970828533173 0.98395848274231 1.03236782550812 1.07719945907593 1.45898759365082 1.59331119060516 1.64695072174072 1.54804623126984 1.33057081699371 1.17724394798279 1.25134229660034 1.44577872753143 1.42740571498871 1.36260545253754 1.22950637340546 1.14319050312042 1.17067515850067 1.26997756958008 1.52020394802094 1.83553421497345 1.77776992321014 1.6148374080658 1.34277188777924 1.1529940366745 1.14656627178192 1.18410694599152 1.17645418643951 1.90966522693634 4.51281356811523 4.36948490142822 1.58223509788513 1.86607158184052 1.13978087902069 0.685035347938538 0.283057779073715 0.692302823066711 1.05604493618011 1.37810826301575 1.22357988357544 1.06075310707092 1.11404347419739 1.37274813652039 1.40964531898499 1.46683514118195 1.44320523738861 1.3721182346344 1.55405724048615 1.46061491966248 1.30847525596619 0.674220442771912 0.555424213409424 0.598864436149597 0.620996117591858 0.664211392402649 0.636972367763519 0.635028958320618 0.455149441957474 0.618663549423218 1.30615127086639 3.46441888809204 2.86376309394836 2.18379020690918 1.59706497192383 1.23640429973602 2.05372262001038 2.24322891235352 5.90822887420654 9.02888202667236 8.50295352935791 6.2163462638855 4.2015700340271 8.81061172485352 16.7466144561768 10.9772777557373 6.38226509094238 3.25457715988159 1.86491167545319 1.01509916782379 2.27928113937378 2.87428402900696 2.22903871536255 2.32455706596375 2.21013236045837 1.11354351043701 1.26972877979279 3.50452303886414 6.72317600250244 9.60042953491211 11.154465675354 12.015531539917 11.9038352966309 6.83971500396729 4.58708190917969 5.46229553222656 6.14894437789917 7.05571031570435 3.6206374168396 -2.36910009384155 4.09900188446045 9.25521945953369 8.6898193359375 10.6949090957642 13.1937017440796 11.931040763855 12.2481384277344 8.57191467285156 7.0005202293396 8.89369773864746 9.15652751922607 9.45030975341797 9.71031093597412 9.1283483505249 8.86252307891846 6.69971036911011 4.82523536682129 4.91751050949097 2.91435718536377 2.11759614944458 4.06279468536377 7.57474422454834 9.40353012084961 6.99690771102905 1.1657862663269 1.28435397148132 1.24722993373871 1.27570712566376 1.33079493045807 1.5569828748703 1.57402992248535 1.55133259296417 1.55599069595337 1.51970791816711 1.06434416770935 0.439098179340363 0.0369717255234718 -0.0782817825675011 -0.100432686507702 -0.288620203733444 -0.53915548324585 -0.662254929542542 -0.712682247161865 -0.552764415740967 -0.271216630935669 9.07797148101963e-05 -0.24219685792923 -0.231626659631729 -0.091135136783123 -0.0360721535980701 0.0146110178902745 0.116182394325733 0.253990352153778 0.353083431720734 0.397385358810425 0.274699866771698
0.0133937308564782 0.0541828013956547 0.0548238232731819 0.175357595086098 0.263663709163666 0.380155026912689 0.5722616314888 0.798425257205963 2.76625752449036 4.3480110168457 2.28306579589844 1.84693717956543 1.13753426074982 0.867210924625397 0.816359639167786 0.797352910041809 1.4953625202179 1.52342879772186 1.53362584114075 1.13531565666199 1.00708174705505 1.058953166008 1.0871661901474 1.24116122722626 1.60668337345123 1.68138384819031 1.73560130596161 1.41541707515717 1.24847733974457 1.32255327701569 1.49968552589417 1.50505292415619 1.41558527946472 1.36956703662872 1.30697154998779 1.32033610343933 1.43481874465942 1.64161944389343 1.89837992191315 1.91554176807404 1.66057431697845 1.47789776325226 1.25962507724762 1.15585851669312 1.20437729358673 1.25951933860779 1.21562814712524 2.1342613697052 1.37957441806793 1.20351552963257 0.680756568908691 0.61706531047821 0.564694046974182 0.392355233430862 0.577413976192474 1.05039763450623 1.58295118808746 1.53876125812531 1.25985968112946 1.10793626308441 1.29204499721527 1.46777367591858 1.52392613887787 1.57483303546906 1.45859694480896 1.58965599536896 1.77942955493927 1.66628623008728 0.789356231689453 0.58624279499054 0.643141806125641 0.700125813484192 0.73224812746048 0.789021492004395 0.815179526805878 0.551239132881165 0.600802540779114 0.663926362991333 1.37946701049805 3.04584670066833 3.1318507194519 2.20281291007996 1.48489844799042 1.02612257003784 0.822623729705811 0.161717340350151 -0.601758599281311 -1.5180116891861 -1.8919860124588 -1.80352246761322 4.5810022354126 6.83048534393311 12.1491384506226 8.09210205078125 6.96883344650269 0.433818012475967 0.970139801502228 1.01440525054932 2.98279213905334 3.59955716133118 3.97686362266541 3.55610013008118 2.22157597541809 1.18930888175964 2.7465443611145 6.17071390151978 11.442756652832 14.1710348129272 13.8615188598633 11.1490097045898 7.51878452301025 3.61089539527893 0.709784269332886 0.664110541343689 7.45511198043823 3.06072568893433 0.193320944905281 6.03170728683472 5.66365146636963 5.43037462234497 8.05675315856934 9.39640331268311 3.7504460811615 3.47462272644043 4.9205207824707 7.7171778678894 8.79306125640869 9.25732135772705 8.13049983978271 6.97187519073486 5.56932401657104 3.10390377044678 3.26955509185791 2.3995988368988 -0.0103818876668811 0.541372001171112 1.21086692810059 -0.0368882343173027 0.0162111669778824 0.186654582619667 0.714215815067291 1.18707501888275 1.34183692932129 1.44493174552917 1.55707156658173 1.64945709705353 1.74498403072357 1.81187474727631 1.73989820480347 1.67260873317719 1.7094578742981 1.26015210151672 0.544665396213531 0.291944354772568 0.347392380237579 0.393639266490936 0.216872617602348 -0.211782798171043 -0.363845258951187 -0.443162590265274 -0.246742531657219 0.0928686708211899 0.343974262475967 0.32727387547493 0.135856568813324 -0.00334288040176034 0.131673753261566 0.219519272446632 0.293599665164948 0.361362457275391 0.431071788072586 0.481161683797836 0.343548774719238
0.0475848838686943 0.0848227366805077 0.174228861927986 0.252693474292755 0.309419542551041 0.393227994441986 0.584209322929382 2.18228387832642 2.16471314430237 1.12409520149231 1.64939570426941 1.67191505432129 1.38766884803772 0.967769503593445 0.882438719272614 0.90628981590271 0.928073227405548 1.88800024986267 1.65833210945129 1.42990374565125 1.50953221321106 1.10034966468811 1.16094672679901 1.18101251125336 1.58285224437714 1.72082281112671 1.79756641387939 1.64280617237091 1.43711566925049 1.3635231256485 1.55441880226135 1.56279504299164 1.53646016120911 1.45707178115845 1.40838205814362 1.43460190296173 1.58581006526947 1.68060970306396 1.9424307346344 1.95896303653717 1.87786948680878 1.69625639915466 1.41007077693939 1.22631788253784 1.2230441570282 1.28200113773346 1.27086138725281 1.30011737346649 1.47169053554535 1.34726405143738 0.895670354366302 0.764659702777863 0.670418739318848 0.553293883800507 0.596212983131409 1.10834813117981 1.61996686458588 1.82670557498932 1.42509496212006 1.15541088581085 1.27553558349609 1.55528283119202 1.61966741085052 1.67695593833923 1.67570412158966 1.7405903339386 1.97005641460419 1.82051002979279 0.957928895950317 0.633354187011719 0.705685794353485 0.788846492767334 0.885716319084167 0.960118174552917 1.06049990653992 0.986227512359619 0.667634069919586 0.701375961303711 1.19619500637054 2.41888451576233 3.59585905075073 3.05969762802124 2.10115671157837 1.39455723762512 0.8805211186409 0.345685064792633 -0.157151892781258 -1.25799810886383 -1.44800627231598 -1.26960027217865 -1.22735774517059 -1.2420768737793 -0.826436936855316 0.191326543688774 0.209904432296753 0.0437027290463448 0.564258635044098 1.4419732093811 3.98542737960815 4.77100133895874 5.12545442581177 4.37362098693848 3.07781219482422 2.15643811225891 2.55767941474915 5.31303882598877 8.55221176147461 10.7580242156982 14.138409614563 9.8773136138916 5.64866304397583 0.381774604320526 -2.54300951957703 -2.47652149200439 -2.55966877937317 -2.40651798248291 -1.97036409378052 -0.0571276843547821 4.15901327133179 3.42377233505249 4.16620016098022 1.00106728076935 -0.705804884433746 0.528551042079926 3.00050330162048 6.93233442306519 6.75208425521851 4.01679754257202 4.31505966186523 2.0992066860199 0.042250283062458 -0.133047521114349 -0.27354884147644 -0.347444295883179 -0.275713175535202 -0.213106095790863 -0.176679775118828 -0.0860180854797363 0.0356488190591335 0.314948707818985 0.791501998901367 1.18729043006897 1.501345038414 1.75228869915009 1.7749742269516 1.81028771400452 1.87747168540955 1.92550837993622 2.02588105201721 1.98218679428101 1.82858967781067 1.754429936409 1.29480695724487 0.94706928730011 0.959804832935333 0.76267147064209 0.581567764282227 0.21527798473835 -0.092862606048584 -0.162952348589897 0.683696806430817 0.375423759222031 0.629202008247375 0.6678626537323 0.566038846969604 0.31937101483345 0.244496166706085 0.289636194705963 0.326248347759247 0.384832948446274 0.451894670724869 0.502093076705933 0.534072875976562
0.059938907623291 0.178506270051003 0.256657928228378 0.301431775093079 0.350037723779678 0.424909651279449 0.636850833892822 1.82958173751831 0.839408755302429 1.02976703643799 1.55630528926849 1.70756185054779 1.5059472322464 1.07589626312256 0.972354292869568 0.944043457508087 0.915881812572479 1.54728996753693 1.90778613090515 3.22071218490601 1.84526133537292 1.74472415447235 1.27423512935638 1.21041226387024 1.34485840797424 1.74133157730103 1.85771429538727 1.87757062911987 1.5805242061615 1.4112628698349 1.53028118610382 1.58673071861267 1.5888866186142 1.4885938167572 1.46015202999115 1.47765898704529 1.61446046829224 1.72342491149902 1.84874534606934 2.00054860115051 2.01656675338745 1.74909257888794 1.56026756763458 1.32899606227875 1.24681353569031 1.2930189371109 1.31760382652283 1.5278776884079 1.66009771823883 1.57092952728271 1.24820339679718 0.881983578205109 0.846329033374786 0.744468331336975 0.602654695510864 1.0425021648407 1.93874847888947 2.77910304069519 2.18591928482056 1.4769299030304 1.30849099159241 1.48823130130768 1.72403931617737 1.73717558383942 1.84762215614319 1.86917996406555 2.13683414459229 2.05044293403625 1.81105065345764 0.918600142002106 0.807900249958038 0.952230453491211 1.10718441009521 1.1910492181778 1.38507401943207 1.39555501937866 0.71599280834198 0.541409611701965 0.510213017463684 1.8831729888916 3.40706062316895 3.98639869689941 3.35250020027161 2.13759803771973 1.3154125213623 1.08724641799927 0.485398918390274 -0.49318540096283 -0.796643912792206 -0.606470763683319 -0.440314471721649 -0.339287221431732 0.0857020318508148 0.788599848747253 1.16935527324677 1.02989375591278 0.939617455005646 1.90167725086212 3.94033265113831 5.20505905151367 5.80785369873047 6.08638000488281 4.90837287902832 2.97216081619263 2.08893823623657 3.81855177879333 7.25190258026123 3.53794765472412 2.03686022758484 0.707544326782227 -2.41271018981934 -2.44725012779236 -2.39294052124023 -2.2813880443573 -2.27551245689392 -2.13144469261169 -1.65290904045105 -1.14706063270569 1.21433508396149 1.4950076341629 1.23072004318237 -0.474076628684998 -0.46709793806076 -0.366313099861145 4.51181793212891 5.4862060546875 2.63996529579163 0.176245644688606 0.20527395606041 0.177879378199577 0.046951524913311 -0.0655970349907875 -0.24745686352253 -0.298970878124237 -0.251520812511444 -0.185373365879059 -0.132291361689568 -0.041021179407835 0.183185994625092 0.408911377191544 0.786337614059448 1.17634904384613 1.53768384456635 1.84516525268555 1.87667715549469 1.91934764385223 1.93022358417511 2.08403873443604 2.1311309337616 2.09405040740967 2.12693119049072 2.10525417327881 1.65317368507385 1.14163100719452 1.17024409770966 1.00527691841125 0.896963953971863 0.661760807037354 0.165278702974319 0.00607918854802847 0.130191549658775 0.450939446687698 0.952341198921204 1.11502265930176 1.28463888168335 1.21770763397217 0.314825564622879 0.362349450588226 0.368790924549103 0.401977002620697 0.457641631364822 0.530553221702576 0.58195298910141
0.158445045351982 0.245353996753693 0.280308067798615 0.33314311504364 0.381828278303146 0.467506468296051 0.669419467449188 0.742171943187714 0.842419624328613 0.945823729038239 1.26446783542633 1.7093049287796 1.7082701921463 1.17828691005707 0.94397234916687 0.906338691711426 1.00722074508667 1.31935930252075 2.33307695388794 2.34713745117188 2.41129875183105 1.74690771102905 1.86492538452148 3.72770309448242 2.96448159217834 1.72067058086395 1.86901700496674 1.96901834011078 1.80804967880249 1.56603944301605 1.53264153003693 1.61099851131439 1.62243700027466 1.59670412540436 1.52085041999817 1.50313305854797 1.6248025894165 1.67027997970581 1.76326262950897 2.04610228538513 2.06554460525513 1.98736989498138 1.79937934875488 1.49184834957123 1.31066238880157 1.28781843185425 1.43572103977203 1.70250809192657 1.67706608772278 1.61296081542969 1.57723486423492 1.24903154373169 1.12273693084717 0.993997395038605 0.846738517284393 0.919396817684174 2.13144207000732 3.73132228851318 3.25796508789062 2.58065032958984 1.73543000221252 1.48769128322601 1.81402170658112 1.88063371181488 1.95810079574585 2.02064824104309 2.30080628395081 2.51216006278992 2.34227418899536 1.32496762275696 0.962782144546509 1.16562175750732 1.28920102119446 1.4312492609024 2.17776727676392 1.96049606800079 1.5943009853363 0.48646667599678 0.452000379562378 1.63558053970337 3.24073123931885 4.09834909439087 3.96574902534485 3.30804181098938 2.53547215461731 2.12724328041077 1.7009516954422 0.938778281211853 -0.100179299712181 0.129348814487457 0.535269916057587 0.739542901515961 0.843271970748901 1.26081502437592 1.57516121864319 1.77780222892761 1.30591154098511 2.03081965446472 2.34936499595642 5.83914852142334 6.67301559448242 7.07126522064209 5.90358209609985 4.1576886177063 2.69282007217407 2.765056848526 5.92192029953003 1.35247611999512 -2.22086095809937 -2.2587878704071 -2.23509478569031 -2.21352410316467 -2.1597900390625 -2.00410342216492 -1.84517824649811 -1.76260888576508 -1.42549633979797 -0.932097375392914 -0.00256815110333264 0.220750615000725 -0.224232330918312 -0.213023647665977 -0.0901229158043861 0.135378912091255 2.02720618247986 1.24691617488861 0.206754744052887 0.251726597547531 0.304099887609482 0.223638311028481 0.192471832036972 0.0508776530623436 -0.108359850943089 -0.202204674482346 -0.238411083817482 -0.160552516579628 -0.156417638063431 0.00810702238231897 0.207071453332901 0.511340498924255 0.919086933135986 1.28050696849823 1.63981151580811 1.89261937141418 2.00315022468567 2.11718392372131 2.11887550354004 2.16989827156067 2.2170569896698 2.33634495735168 2.33327555656433 2.27260112762451 2.27494597434998 1.82152915000916 1.38054311275482 1.38093173503876 1.19493365287781 0.994124054908752 0.50128573179245 0.104817822575569 0.166919454932213 0.464610904455185 0.816197395324707 1.18730401992798 1.02777504920959 1.43349409103394 1.24497485160828 0.413001269102097 0.418641328811646 0.42484039068222 0.4743292927742 0.547589600086212 0.601066052913666
0.21642193198204 0.265957206487656 0.30298525094986 0.340412586927414 0.454922020435333 0.796963393688202 0.65486878156662 0.697663903236389 0.832665264606476 0.927383303642273 1.14646339416504 1.64721357822418 1.80287170410156 1.54050862789154 1.1284077167511 1.158562541008 0.979475438594818 1.01879286766052 1.01496922969818 0.828769147396088 1.77162337303162 2.48668909072876 2.1862108707428 1.16269254684448 1.61291909217834 1.4513920545578 1.88727927207947 2.00395035743713 2.02904915809631 1.68328893184662 1.54742252826691 1.59449505805969 1.6670731306076 1.67086052894592 1.56808352470398 1.53843808174133 1.56317889690399 1.69485747814178 1.81016886234283 1.96312248706818 2.12604308128357 2.13744068145752 1.86286020278931 1.64674508571625 1.37828874588013 1.3467071056366 1.58377647399902 1.81358218193054 1.83813226222992 1.78526961803436 1.75267970561981 1.57582974433899 1.44333064556122 1.34797418117523 1.22133302688599 0.931488037109375 2.24948120117188 4.84391212463379 6.92991924285889 5.31624126434326 2.90729951858521 1.46408295631409 1.66631031036377 2.04068779945374 2.08490443229675 2.20285272598267 2.46621084213257 2.8805730342865 2.87844252586365 2.50795125961304 1.19548010826111 1.31002235412598 1.96969223022461 1.87322199344635 1.0889835357666 0.99352902173996 1.20929658412933 0.644237279891968 0.498762369155884 0.606415808200836 2.65039491653442 3.84941387176514 4.71419811248779 4.38841533660889 3.79721546173096 3.25975155830383 2.91227698326111 2.54040956497192 1.62230479717255 1.01472854614258 1.27332770824432 1.50967979431152 1.59706401824951 1.82344448566437 2.21164751052856 2.34482026100159 2.09481287002563 2.10784292221069 2.96033263206482 5.67899227142334 7.10989236831665 8.13562393188477 8.29817771911621 6.80510520935059 3.84806799888611 2.69110918045044 3.92640852928162 -1.7602664232254 -1.93002223968506 -1.94087696075439 -1.88933873176575 -1.9085328578949 -1.84458923339844 -1.68717980384827 -1.50221300125122 -1.34474015235901 -1.09700405597687 -0.672814249992371 -0.431814342737198 -0.158100426197052 -0.00501193385571241 0.22307176887989 0.550592005252838 0.74177473783493 0.714788854122162 0.483561098575592 0.401675164699554 0.460184901952744 0.440175384283066 0.416676461696625 0.36096978187561 0.180765256285667 0.0266566853970289 -0.130646720528603 -0.163881570100784 -0.117449715733528 -0.059263076633215 0.0667297914624214 0.266793102025986 0.61619645357132 1.07692837715149 1.4807562828064 1.80448257923126 2.06936597824097 2.21627497673035 2.18948698043823 2.18403220176697 2.18737721443176 2.36867618560791 2.47619390487671 2.49276304244995 2.55797696113586 2.55624985694885 2.15636920928955 1.60048735141754 1.57753396034241 1.41794776916504 1.30436444282532 0.957371413707733 0.464702248573303 0.419315487146378 0.55780017375946 0.938840270042419 1.32721388339996 1.60735356807709 1.13497018814087 1.53920888900757 1.12302613258362 0.499308079481125 0.492374688386917 0.517796576023102 0.571738839149475 0.640591204166412
0.6384596824646 0.282378405332565 0.324374258518219 0.351420104503632 0.386778682470322 0.466184258460999 2.29885911941528 0.723493576049805 0.803840696811676 0.922971308231354 1.14625358581543 1.35381174087524 1.83680653572083 1.80974817276001 1.26589250564575 0.977298200130463 0.858170330524445 0.804914534091949 1.18380379676819 1.80114209651947 2.24531269073486 1.87895321846008 1.98471450805664 1.19340741634369 1.27588093280792 1.46243250370026 1.92459273338318 2.02042150497437 2.08556151390076 1.94286668300629 1.6759477853775 1.61650335788727 1.70504581928253 1.71837759017944 1.69525623321533 1.62780046463013 1.60577058792114 1.72750949859619 1.77171182632446 1.88430893421173 2.18443942070007 2.19956517219543 2.108553647995 1.90028047561646 1.55916857719421 1.48190128803253 1.73043143749237 1.93492949008942 1.98366403579712 1.93368279933929 1.85617828369141 1.89293277263641 1.65537202358246 1.54879629611969 1.41215002536774 1.20302224159241 1.22272729873657 2.52100658416748 3.6065821647644 3.78606796264648 3.92754745483398 2.50377297401428 1.70847904682159 2.10441780090332 2.28512048721313 2.39555692672729 2.71401619911194 3.39635133743286 3.47829532623291 3.18025159835815 1.99255084991455 1.8181049823761 0.974614977836609 0.737961113452911 0.681429505348206 0.432433098554611 0.444609075784683 1.15084135532379 0.529494822025299 0.529681146144867 2.9214551448822 3.52693247795105 4.77044725418091 5.41819286346436 5.29828214645386 5.09282064437866 4.53290987014771 3.99319458007812 3.54213404655457 2.42765665054321 1.91205513477325 2.24038815498352 2.37373661994934 2.47442674636841 2.65114736557007 2.71664690971375 2.53004932403564 2.72488617897034 3.1246452331543 3.73231840133667 8.3860445022583 9.80050849914551 10.0816631317139 8.54532718658447 6.59260177612305 3.80084180831909 2.03383231163025 -1.43795537948608 -1.53430509567261 -1.55255460739136 -1.48496079444885 -1.44012200832367 -1.42945051193237 -1.28330767154694 -1.14244568347931 -0.988450706005096 -0.73707103729248 0.0753506049513817 -0.202572762966156 0.121387533843517 0.340368151664734 0.761444807052612 1.19328081607819 1.18413376808167 1.11155271530151 0.915969133377075 0.706008851528168 0.658244729042053 0.585684299468994 0.606412172317505 0.463092297315598 0.332454144954681 0.130871817469597 -0.00714546069502831 -0.0814878866076469 -0.0194279290735722 0.095009058713913 0.151957914233208 0.376367956399918 0.752598345279694 1.11625146865845 1.58526682853699 1.9977194070816 2.21992516517639 2.33315229415894 2.4039351940155 2.41780614852905 2.44839930534363 2.5469114780426 2.6573634147644 2.80141735076904 2.79228091239929 2.74693202972412 2.78578352928162 2.32495880126953 1.74438619613647 1.76557493209839 1.55368590354919 1.28828370571136 0.774929881095886 0.584479093551636 0.654031217098236 1.01297235488892 1.41227269172668 1.82452940940857 1.58206021785736 1.1827141046524 1.70994913578033 1.63699662685394 0.884548485279083 0.546858310699463 0.592950344085693 0.655818581581116
0.238095715641975 0.294190496206284 0.338193237781525 0.36848857998848 0.413491010665894 0.477539658546448 0.579603731632233 0.762254774570465 0.766928493976593 0.899536550045013 1.065385222435 1.23128437995911 1.76070737838745 1.90083944797516 1.58614945411682 1.06654644012451 0.922312080860138 0.829896926879883 0.759527087211609 0.818986117839813 1.32304561138153 2.28116989135742 2.03003859519958 1.73038029670715 1.33621740341187 4.76388120651245 2.75730681419373 2.05829691886902 2.14238905906677 2.01011443138123 1.7506548166275 1.66549336910248 1.69055140018463 1.77243316173553 1.75118446350098 1.67509126663208 1.63698530197144 1.64531123638153 1.78164291381836 1.93926095962524 2.09528183937073 2.25403952598572 2.27107310295105 1.97012674808502 1.73444187641144 1.66613793373108 1.86477625370026 2.06991052627563 2.13594746589661 2.10821199417114 2.13300609588623 2.16599416732788 2.03934097290039 1.75818574428558 1.76153337955475 1.56280124187469 1.16269779205322 1.4421751499176 1.63331782817841 1.98134613037109 1.97599589824677 2.18574714660645 1.66816735267639 1.98530769348145 2.50819635391235 2.59782958030701 2.74168753623962 3.47175097465515 4.30474805831909 4.36423969268799 3.48943996429443 1.19612324237823 0.680760264396667 0.55883115530014 0.52193546295166 0.552135407924652 0.515037059783936 0.735024631023407 0.700551271438599 0.723212659358978 0.774840533733368 2.57828330993652 4.23167610168457 6.21358633041382 6.87954092025757 7.0241174697876 6.63094663619995 6.12097024917603 5.37189197540283 4.24406003952026 3.28102898597717 2.67896628379822 3.00860595703125 2.99727988243103 3.00430417060852 3.05427813529968 2.90348124504089 2.76170635223389 3.73048424720764 3.73386359214783 6.95688915252686 10.9419927597046 12.5735855102539 12.7328224182129 10.2648191452026 5.25595664978027 1.12791311740875 -1.00684809684753 -1.09047710895538 -1.07067120075226 -1.04739081859589 -0.941578805446625 -0.884649932384491 -0.816930532455444 -0.743010103702545 -0.693813264369965 -0.519222497940063 -0.266685366630554 0.220884323120117 0.547374963760376 0.84099954366684 1.2373263835907 1.56524121761322 1.57900500297546 1.41704165935516 1.15616726875305 0.961087346076965 0.798114240169525 0.830141067504883 0.787263691425323 0.662544190883636 0.538785457611084 0.336633205413818 0.257287055253983 0.13882677257061 0.209515571594238 0.289326876401901 0.410108774900436 0.612731337547302 0.930186927318573 1.30977177619934 1.80392265319824 2.15165019035339 2.35231757164001 2.59095239639282 2.6855936050415 2.5977258682251 2.62747740745544 2.68420886993408 2.88872480392456 3.00188374519348 2.97731947898865 3.0643846988678 3.06736755371094 2.55028986930847 1.86518585681915 1.9303195476532 1.74693334102631 1.59758615493774 1.38064563274384 1.12265014648438 1.09229969978333 1.27018809318542 1.70474803447723 2.07778215408325 2.30912446975708 1.64200806617737 1.09822607040405 1.24881160259247 1.55504333972931 1.19258368015289 0.623350501060486 0.677035808563232
0.259297519922256 0.309427827596664 0.347435086965561 0.392871588468552 0.455012321472168 0.517052590847015 0.576602041721344 0.797250211238861 0.755000650882721 0.864259243011475 0.990646600723267 1.23451805114746 1.4543399810791 1.97543215751648 1.89984822273254 1.31060659885406 1.00356113910675 0.861738741397858 0.823073863983154 0.797624886035919 0.896698653697968 1.73040759563446 2.3958215713501 2.59030413627625 1.97628247737885 1.34366655349731 1.53066253662109 2.09291434288025 2.17741703987122 2.24447417259216 1.86223578453064 1.74954867362976 1.80409824848175 1.82905566692352 1.8390257358551 1.71667242050171 1.66485607624054 1.68013727664948 1.8069543838501 1.86626756191254 2.02603459358215 2.33757305145264 2.34604406356812 2.02760553359985 1.78731119632721 1.80102860927582 1.93763017654419 2.12403464317322 2.19903612136841 2.20313668251038 2.22104692459106 2.33489155769348 2.44742918014526 2.18782258033752 1.98876965045929 1.7491751909256 1.38260817527771 1.30064368247986 1.7917195558548 2.02108597755432 2.02285623550415 1.76655685901642 1.71870386600494 2.13678550720215 2.67247605323792 2.85883140563965 2.93608474731445 3.7137336730957 4.6893048286438 4.49586820602417 4.1036171913147 3.33135390281677 0.589428603649139 0.563622713088989 0.517359137535095 0.528177201747894 0.542218863964081 0.576270937919617 0.966666877269745 0.699824512004852 0.79113507270813 1.2934478521347 3.54090332984924 6.56593418121338 8.17647838592529 8.87274169921875 8.5520133972168 7.85337495803833 7.04411029815674 6.36017608642578 5.10581922531128 4.37773418426514 3.52322912216187 3.29267549514771 3.24997186660767 3.24910044670105 3.08918213844299 2.88484978675842 4.6325740814209 3.98186469078064 3.99723982810974 13.7981815338135 16.4009456634521 17.6326656341553 17.0830707550049 11.907187461853 4.98364973068237 -0.453506618738174 -0.582234859466553 -0.606259226799011 -0.582904875278473 -0.476297676563263 -0.381807923316956 -0.319358110427856 -0.334015697240829 -0.372509747743607 -0.235054552555084 0.040545865893364 0.537182331085205 0.997836530208588 1.3600492477417 1.5973596572876 1.82034707069397 1.7155613899231 1.57992959022522 1.28952789306641 1.12018752098083 1.06310629844666 1.03519403934479 1.10486268997192 1.09218764305115 0.844271779060364 0.81249213218689 0.663013875484467 0.511479198932648 0.548725068569183 0.704117476940155 0.778581261634827 0.983799517154694 1.21855366230011 1.66126370429993 2.02023983001709 2.2083044052124 2.39824438095093 2.72040462493896 2.83773398399353 2.8898720741272 2.93302059173584 2.97598838806152 3.07617521286011 3.18975567817688 3.31642317771912 3.29305696487427 3.26865410804749 2.91688561439514 2.32797193527222 2.0666868686676 2.09171056747437 1.96668171882629 1.90634715557098 1.5348846912384 1.40892624855042 1.54398691654205 1.93660235404968 2.31400537490845 2.81579208374023 2.42402267456055 1.66128039360046 0.961782097816467 1.12100517749786 1.28121185302734 0.719986975193024 0.697609066963196
0.301585853099823 0.350839138031006 0.372866868972778 0.426264554262161 0.492851734161377 0.565309107303619 0.611742734909058 0.700979769229889 0.781947374343872 0.812034428119659 0.965434670448303 1.13918375968933 1.32062566280365 1.90366387367249 2.05107092857361 1.75663197040558 1.12903606891632 0.961803376674652 0.877502918243408 0.812744855880737 0.900910258293152 0.925341904163361 1.015172123909 1.81552577018738 2.63403582572937 1.38556253910065 1.89864444732666 2.03425550460815 2.21904015541077 2.31846070289612 2.13043570518494 1.88019621372223 1.87726843357086 1.87932097911835 1.86216425895691 1.82841765880585 1.76167953014374 1.75139939785004 1.7559118270874 1.91081345081329 2.06793284416199 2.38405275344849 2.3996319770813 2.32639336585999 2.09296488761902 1.84465157985687 1.99394547939301 2.10040688514709 2.19180011749268 2.36314868927002 2.29878664016724 2.55676293373108 2.69187998771667 2.52084374427795 2.15017414093018 1.90426433086395 1.53622186183929 1.55377268791199 2.0600221157074 2.18968963623047 2.12363004684448 2.07640171051025 1.89429318904877 2.1521008014679 2.67351531982422 3.14677119255066 3.1141402721405 3.28907489776611 6.63013219833374 7.74970865249634 6.99698829650879 6.53408098220825 2.20050597190857 0.57953542470932 0.46447965502739 0.425228804349899 0.517727911472321 0.689487993717194 0.754746913909912 0.449614942073822 0.737687528133392 1.18856334686279 2.90248417854309 7.10959529876709 9.78539276123047 10.6458654403687 10.5843725204468 9.80120468139648 8.5458402633667 7.55045795440674 6.28791904449463 5.25188541412354 4.38847208023071 3.66033101081848 3.40648865699768 3.37797355651855 3.35343265533447 3.1306095123291 4.24444437026978 6.30155992507935 4.78696012496948 10.4765605926514 8.64638614654541 12.9766092300415 14.618824005127 12.5599212646484 4.94216156005859 0.186454445123672 -0.0346255786716938 -0.164012536406517 -0.0956956520676613 -0.00136979692615569 0.10931047052145 0.167691826820374 0.239776983857155 0.175118431448936 0.254824697971344 0.457318216562271 0.889012277126312 1.4340648651123 1.68903493881226 1.88939106464386 1.93274831771851 1.86790990829468 1.80202770233154 1.58640825748444 1.34460699558258 1.2334395647049 1.25759637355804 1.42251074314117 1.46208107471466 1.40568470954895 1.36470687389374 1.1915477514267 1.02646470069885 0.968740582466125 1.12083959579468 1.34549343585968 1.48813462257385 1.71357119083405 1.99871945381165 2.23389744758606 2.40373826026917 2.60675859451294 2.87560939788818 3.15058660507202 3.19999933242798 3.12072348594666 3.14733481407166 3.19567346572876 3.3735830783844 3.48005557060242 3.45720076560974 3.44770836830139 3.54295802116394 3.05001187324524 2.18284583091736 2.23474717140198 2.16963315010071 2.6437451839447 2.53320288658142 2.24605059623718 2.19473099708557 2.39384269714355 2.77574872970581 3.14628648757935 3.38198399543762 2.46798777580261 1.56555795669556 0.707424402236938 0.591341912746429 0.641855359077454 0.730085253715515
0.332449793815613 0.388223677873611 0.418783962726593 0.465099453926086 0.520232439041138 0.594317376613617 0.646048903465271 0.715323686599731 0.879794955253601 0.794135510921478 0.913593530654907 1.04577672481537 1.31493139266968 1.56230461597443 2.13836860656738 2.06350564956665 1.36575531959534 1.03867149353027 0.93107408285141 0.907798051834106 0.886069893836975 0.958205878734589 1.02188444137573 1.54002797603607 1.88588523864746 2.0254545211792 3.30197358131409 4.95920515060425 2.26937675476074 2.34599375724792 2.38692092895508 2.0283796787262 1.93130004405975 1.95227003097534 1.95131695270538 1.95941591262817 1.9354259967804 1.89915060997009 1.85899806022644 1.94030690193176 2.08727359771729 2.26152443885803 2.45944476127625 2.47471857070923 2.1522376537323 1.9264280796051 1.98656260967255 2.0537965297699 2.24401569366455 2.90935397148132 2.42456364631653 3.12801361083984 2.91199851036072 2.77696442604065 2.36329650878906 2.29489922523499 1.98138964176178 1.66798377037048 2.0116593837738 2.51000094413757 2.87792038917542 2.91848492622375 2.51968789100647 2.08041071891785 2.69114971160889 3.28471302986145 3.51922416687012 3.03914570808411 2.10345864295959 1.62044215202332 3.55675315856934 4.05922031402588 1.40157568454742 0.390683561563492 0.465228825807571 0.429115682840347 0.550305068492889 0.367937237024307 0.368770480155945 0.598842680454254 0.925382673740387 1.30146646499634 1.8078521490097 7.13851928710938 10.5731134414673 12.178147315979 13.0584983825684 12.4628276824951 11.3675394058228 9.47774314880371 7.9436206817627 6.93266534805298 5.58859634399414 4.23698854446411 3.53356266021729 3.48961567878723 3.45156455039978 3.26457858085632 3.60578155517578 6.71372222900391 4.56136846542358 1.83304727077484 -0.418242633342743 0.236623734235764 -0.878344058990479 3.8101544380188 3.71698403358459 0.670076727867126 0.552976846694946 0.385274976491928 0.336476236581802 0.497310936450958 0.64792811870575 0.712748110294342 0.757355928421021 0.664566338062286 0.761176943778992 0.893112480640411 1.21830677986145 1.6493057012558 1.88485825061798 1.96684896945953 1.94148206710815 2.05904698371887 1.9629088640213 1.77663707733154 1.6028299331665 1.58673119544983 1.64992213249207 1.66922926902771 1.68574118614197 1.79406821727753 1.84567272663116 1.73963487148285 1.51098954677582 1.38311469554901 1.5719838142395 1.85477709770203 1.98830115795135 2.11998772621155 2.27124714851379 2.42072772979736 2.62349605560303 2.87838912010193 3.13000559806824 3.3545994758606 3.41688895225525 3.45161151885986 3.4531946182251 3.43174028396606 3.51834011077881 3.62622284889221 3.61005711555481 3.7620837688446 3.78931546211243 3.4495894908905 2.79793620109558 2.35554528236389 2.75842571258545 3.36076760292053 3.3068470954895 2.99124789237976 2.76571226119995 2.81427240371704 3.13968062400818 3.50474214553833 3.69166445732117 3.06417012214661 2.3028519153595 1.39198553562164 0.675839900970459 0.695381283760071 0.750696182250977
1.54084694385529 0.423616915941238 0.468323826789856 0.507184982299805 0.550694823265076 0.609152138233185 0.665543675422668 0.729656994342804 0.836055934429169 0.820083141326904 0.907815992832184 1.0134140253067 1.19600248336792 1.52294516563416 2.27056622505188 2.19189286231995 1.66260170936584 1.18206250667572 1.03556060791016 0.966668546199799 0.923738360404968 0.988087058067322 1.02799391746521 1.44182169437408 2.18162775039673 1.67649674415588 1.77839243412018 1.69381678104401 3.69010376930237 2.39759016036987 2.45006704330444 2.27732396125793 2.06651568412781 2.07098007202148 2.10970640182495 2.1196174621582 2.03789949417114 1.99846434593201 1.96357858181 1.96359443664551 2.05884647369385 2.1810610294342 2.51698064804077 2.53947782516479 2.45835590362549 2.22609734535217 2.00610089302063 2.1817467212677 2.21293210983276 2.32392406463623 3.62129783630371 3.11846375465393 4.6697735786438 4.15973329544067 4.51106595993042 2.44865560531616 2.17790150642395 1.73175406455994 2.1066370010376 3.00034284591675 3.43628144264221 3.62183308601379 3.40349555015564 2.65477681159973 2.65570068359375 3.26663327217102 3.85685753822327 3.39125180244446 2.72996664047241 1.25424528121948 0.177898541092873 0.215040668845177 0.430321156978607 0.331708580255508 0.438585191965103 0.546753704547882 0.340480923652649 0.408834517002106 0.614406585693359 0.841828525066376 1.13191199302673 1.63302528858185 1.98537766933441 5.45362567901611 10.7522573471069 13.9373731613159 15.0054311752319 14.9252529144287 13.3652038574219 12.7465677261353 10.1332893371582 8.175537109375 7.17981481552124 5.66665363311768 4.26099681854248 3.72567486763 3.51889157295227 3.48791885375977 3.22839212417603 2.84013700485229 2.11638760566711 1.25225961208344 -0.0339595675468445 -0.532408475875854 -0.612469375133514 -0.48173463344574 0.250692665576935 0.793229103088379 0.958348274230957 0.950134634971619 0.94464647769928 0.963537156581879 1.0981537103653 1.12157797813416 1.09365606307983 0.967394948005676 1.01164817810059 1.16585695743561 1.46797895431519 2.26564884185791 1.8852972984314 1.95136165618896 2.10044836997986 2.15644121170044 2.10002565383911 1.973841547966 1.8034633398056 1.81974935531616 1.88946962356567 1.80302679538727 1.92629683017731 2.0547251701355 2.01315760612488 2.07790303230286 1.92443203926086 1.83997678756714 1.95003890991211 2.06699085235596 2.30637574195862 2.43385696411133 2.54580998420715 2.68215560913086 2.86072134971619 3.1244261264801 3.3501889705658 3.55394148826599 3.77864694595337 3.81023049354553 3.66996765136719 3.6050820350647 3.6812915802002 3.81236410140991 3.96108293533325 3.9646430015564 3.98044037818909 4.09084939956665 3.53811955451965 2.46659159660339 2.51676511764526 3.78257060050964 4.41219520568848 3.81568479537964 3.43878817558289 3.31201314926147 3.55100774765015 4.09408378601074 4.67324256896973 4.00420188903809 2.60006833076477 1.78428518772125 1.11598289012909 1.02999079227448 1.23958146572113
0.339420884847641 0.455446422100067 0.515792727470398 0.551435172557831 0.583164036273956 0.622332513332367 0.678951323032379 0.737739980220795 0.840286314487457 0.843180894851685 0.901291489601135 1.005486369133 1.13332450389862 1.41622579097748 2.17500257492065 2.33096075057983 1.98750531673431 1.31688034534454 1.11900269985199 1.02434659004211 0.93508106470108 1.02159905433655 1.04639101028442 1.10071074962616 1.4512140750885 1.91793811321259 2.48951148986816 1.59098362922668 1.74983835220337 2.43339204788208 2.51169991493225 2.52922511100769 2.14129137992859 2.93580269813538 2.22008371353149 2.17582082748413 2.18426752090454 2.16637301445007 2.15765023231506 2.15807700157166 2.22451090812683 2.28157138824463 2.39501667022705 2.61472797393799 2.63708710670471 2.50966262817383 2.46950769424438 2.43346285820007 2.32321977615356 2.66624450683594 4.23772478103638 2.399005651474 2.66313433647156 2.80599069595337 2.68776559829712 2.56835436820984 2.58375978469849 2.25460600852966 2.21123719215393 2.90738153457642 4.06870937347412 4.30663776397705 4.82298421859741 3.32485413551331 2.59793305397034 3.40803337097168 3.8953423500061 4.21020030975342 3.56013011932373 1.58392286300659 0.27125209569931 -0.149779126048088 0.0561411827802658 0.48072475194931 0.253831744194031 0.216853931546211 0.402851581573486 0.376174092292786 0.44997164607048 0.765812039375305 1.22332632541656 1.7348268032074 2.04573392868042 3.77733492851257 9.50858688354492 15.9246139526367 17.8561744689941 16.6485500335693 14.3172082901001 13.536111831665 11.905592918396 9.64377498626709 8.55806064605713 6.89215326309204 5.15694189071655 4.02997589111328 3.70389103889465 3.97727465629578 3.3524055480957 2.94737195968628 2.38871479034424 1.66579687595367 0.599605083465576 0.209473371505737 0.0796812102198601 0.083301842212677 0.377716153860092 0.843899488449097 1.15367329120636 1.25727689266205 1.37273573875427 1.41398024559021 1.43114638328552 1.36152684688568 1.28574097156525 1.18462061882019 1.16830146312714 1.31406843662262 1.62159180641174 1.80003833770752 1.8966121673584 2.04465556144714 2.15750479698181 2.15591931343079 2.31957697868347 2.24193000793457 2.10200881958008 2.11485075950623 2.19424700737 2.18884778022766 2.18179392814636 2.19294309616089 2.30464148521423 2.30397939682007 2.28249382972717 2.25819158554077 2.31287097930908 2.45435261726379 2.58604431152344 2.67148208618164 2.79827880859375 2.87959432601929 3.05206036567688 3.29975533485413 3.54182982444763 3.81874966621399 4.02823877334595 4.06339550018311 3.9432487487793 3.8749144077301 3.89741134643555 4.06696844100952 4.19719934463501 4.18111515045166 4.37416172027588 4.36251974105835 4.01701784133911 3.29429984092712 2.61964535713196 4.2759108543396 5.21826887130737 4.98367500305176 4.66238403320312 4.36147546768188 4.36592149734497 4.83625745773315 5.62328386306763 5.55710697174072 3.92739748954773 2.61488699913025 1.45430469512939 0.982606530189514 0.922282755374908
0.387444376945496 0.474466860294342 0.528445601463318 0.804707288742065 0.631194531917572 0.655211448669434 0.695169806480408 0.746734321117401 0.825715601444244 0.875113844871521 0.896676421165466 1.01247358322144 1.15446496009827 1.28281736373901 1.74604737758636 2.48545622825623 2.3849401473999 1.63136184215546 1.17409729957581 1.0918025970459 1.05453634262085 1.01417779922485 1.08935356140137 1.1078667640686 1.27991473674774 1.95506548881531 2.14826202392578 1.65245366096497 1.78414309024811 4.72611093521118 3.12735748291016 2.65375733375549 2.39563322067261 2.22992038726807 3.66075944900513 3.3883535861969 2.77784514427185 2.39960479736328 2.40962862968445 2.44810175895691 2.55602860450745 2.62230110168457 2.69460320472717 2.75297069549561 2.97456336021423 3.00809097290039 2.78424048423767 2.46729159355164 2.3657808303833 2.36222982406616 3.68550562858582 5.9103102684021 2.61499214172363 2.77816152572632 2.95880317687988 2.83857870101929 2.64898920059204 2.38710021972656 1.92405521869659 3.38686370849609 4.69070672988892 4.99634075164795 4.7163233757019 4.58778810501099 3.58555507659912 3.27687239646912 4.31795835494995 4.6449670791626 3.93392419815063 3.27453851699829 1.22397494316101 -0.119607530534267 0.100952669978142 0.267870247364044 0.252729177474976 0.21540567278862 0.169576093554497 0.224468141794205 0.451086074113846 0.768395602703094 1.23841893672943 1.77198791503906 2.08908414840698 2.42145967483521 7.29178094863892 16.1827259063721 22.0617847442627 19.5870246887207 18.4814624786377 17.0161151885986 15.9580564498901 11.4923944473267 9.74419116973877 8.33040809631348 6.76000928878784 4.92491722106934 4.04357481002808 4.05394458770752 3.52252006530762 3.23307943344116 2.86729097366333 2.25174617767334 1.49571478366852 0.913958251476288 1.05866718292236 0.774168252944946 0.839420855045319 1.05905842781067 1.30628204345703 1.45462441444397 1.55261445045471 1.60458886623383 1.61018800735474 1.532071352005 1.42753088474274 1.37544643878937 1.34474945068359 1.41587126255035 1.71277117729187 1.90162003040314 1.93835687637329 2.13156342506409 2.16565012931824 2.32577538490295 2.46703338623047 2.48032474517822 2.54429483413696 2.52888607978821 2.52873420715332 2.50401782989502 2.54234528541565 2.52569460868835 2.64014744758606 2.47092747688293 2.59240126609802 2.67054843902588 2.74920678138733 2.74861311912537 2.71601176261902 2.9335560798645 3.04672837257385 3.12744474411011 3.33673429489136 3.58146142959595 3.85480904579163 4.14750623703003 4.3243556022644 4.3502049446106 4.43686723709106 4.40023183822632 4.32433366775513 4.41273498535156 4.5799503326416 4.7016773223877 4.6698784828186 4.64193820953369 4.73246955871582 4.08506679534912 2.7248227596283 3.32429242134094 5.58647108078003 6.63791179656982 5.85044527053833 5.31634616851807 5.44053173065186 5.99463510513306 6.81275987625122 7.48002052307129 6.39936876296997 3.75019431114197 2.29847574234009 1.17490518093109 0.995849072933197
0.465618968009949 0.505856573581696 0.557960450649261 0.599087059497833 0.650948643684387 0.681483924388885 0.70793604850769 0.755874395370483 0.827228665351868 1.12723529338837 0.915039777755737 1.02556169033051 1.17125403881073 1.25480043888092 1.5567489862442 2.38597297668457 2.5868980884552 2.22308945655823 1.34499228000641 1.18988716602325 1.11191463470459 1.00603592395782 1.1087441444397 1.14136040210724 1.202152967453 1.3191134929657 1.8206433057785 2.58283352851868 2.74647188186646 1.81878113746643 2.54116439819336 2.68760347366333 2.69018006324768 2.23776841163635 2.31211113929749 2.42340850830078 2.44174218177795 2.59980607032776 3.04316735267639 3.36344170570374 3.43170785903931 3.0586245059967 3.14811372756958 3.30493187904358 3.34326601028442 3.25220775604248 2.90627980232239 2.65012073516846 2.67174005508423 2.94495010375977 2.2835590839386 2.24975991249084 2.32954072952271 2.94928097724915 3.21530938148499 3.13994383811951 2.87622141838074 2.87406325340271 2.54205393791199 3.50850343704224 4.49699783325195 6.4205527305603 5.53173542022705 5.85082244873047 5.796959400177 3.19579219818115 4.30579137802124 4.22584009170532 2.86826181411743 2.16100287437439 1.49114429950714 -0.0696057751774788 0.299161821603775 0.276379972696304 0.263673305511475 0.222795963287354 0.212338358163834 0.441945463418961 0.536741554737091 0.753783881664276 1.16376340389252 1.68554782867432 2.10851263999939 2.57427930831909 5.40463018417358 15.9050350189209 24.631742477417 26.6947002410889 21.1858062744141 20.7978801727295 19.5111904144287 14.713529586792 12.979305267334 11.7965202331543 9.43690299987793 6.46367263793945 4.30008697509766 3.73441219329834 3.56410431861877 3.34091663360596 3.12693977355957 2.83469128608704 2.15193796157837 1.29394340515137 1.54477751255035 1.89273524284363 1.25041782855988 1.43511962890625 1.55184209346771 1.67597472667694 1.73601937294006 2.09696936607361 1.75758302211761 1.68918192386627 1.58498466014862 1.55357146263123 1.56832027435303 1.60962128639221 1.85336625576019 2.09317851066589 2.15176868438721 2.23652148246765 2.32771611213684 2.40082669258118 2.53306746482849 2.78065609931946 2.84594082832336 2.87126231193542 2.85634851455688 2.83838677406311 2.83119559288025 2.95097589492798 2.85021686553955 2.91441798210144 2.95717287063599 2.9746572971344 2.98899269104004 2.94330215454102 3.02816534042358 3.18349719047546 3.21416187286377 3.37068200111389 3.62990093231201 3.88477611541748 4.16017055511475 4.40039014816284 4.65872669219971 4.84894943237305 4.87614011764526 4.79491901397705 4.76128101348877 4.83084774017334 5.02961397171021 5.09974431991577 4.99910545349121 5.13262748718262 4.99854803085327 4.6267409324646 3.77475357055664 2.83899521827698 6.7454719543457 7.97316455841064 7.08056831359863 6.62494993209839 6.3426833152771 6.84349536895752 7.95255041122437 10.1856136322021 10.2075271606445 6.05701160430908 4.14983081817627 2.20492482185364 1.09095144271851
0.534801781177521 0.56428200006485 0.611118912696838 0.609419822692871 0.68945837020874 0.721505999565125 0.719298779964447 0.765398681163788 0.837032318115234 1.20960366725922 0.922861754894257 1.00002634525299 1.14403796195984 1.27848279476166 1.54519498348236 1.90614974498749 2.80448007583618 2.64589023590088 1.77887535095215 1.2834107875824 1.21700525283813 1.16116654872894 1.11545598506927 1.19351470470428 1.21139621734619 1.32177197933197 1.50166928768158 2.06826591491699 2.79903674125671 2.62332129478455 2.91886711120605 4.21287441253662 2.77758407592773 2.55560302734375 2.46756148338318 2.4611988067627 2.54334735870361 2.49659705162048 2.43183159828186 2.52115106582642 2.88171935081482 3.51447176933289 3.35433769226074 3.44098114967346 3.41320443153381 3.32959938049316 3.48245477676392 3.36057996749878 3.03321599960327 2.92683553695679 2.60137367248535 2.3600172996521 2.39750099182129 2.60557723045349 3.11439609527588 3.4251754283905 3.27811408042908 3.05196762084961 2.71638131141663 2.37063241004944 6.51031589508057 7.18242597579956 9.50643444061279 9.1352424621582 8.12703323364258 5.96285390853882 3.67950081825256 3.25151658058167 1.96022307872772 1.24415564537048 1.43696165084839 3.20911026000977 0.80387419462204 0.360451549291611 0.332620173692703 0.270079970359802 0.22070936858654 0.2409538179636 0.451776891946793 0.862121224403381 1.3883113861084 1.92831838130951 2.40630102157593 2.89055633544922 3.32730627059937 10.268651008606 16.6287860870361 16.204532623291 20.8953037261963 20.2014751434326 20.0976467132568 25.5606498718262 19.5845355987549 17.0690288543701 15.6271314620972 8.56651878356934 5.47979307174683 3.94923400878906 3.70649266242981 3.55952906608582 3.24293208122253 3.00973296165466 2.35459351539612 1.63980197906494 1.73842358589172 4.59649038314819 3.03486156463623 2.00416493415833 1.76568841934204 1.7853912115097 1.78270828723907 3.50736784934998 1.98067581653595 1.87643992900848 1.81533789634705 1.77337276935577 1.80890047550201 1.89593005180359 1.99353528022766 2.15137434005737 2.38367366790771 2.33190584182739 2.51721906661987 2.59256529808044 2.78862643241882 2.98578333854675 3.0945258140564 3.15298056602478 3.20433878898621 3.29099917411804 3.29974174499512 3.31340193748474 3.24340152740479 3.26953434944153 3.2768280506134 3.36427402496338 3.31166911125183 3.38455390930176 3.36096405982971 3.36165904998779 3.20860600471497 3.40223360061646 3.8273241519928 4.09672260284424 4.3677544593811 4.67857599258423 4.98550701141357 5.18570566177368 5.23812770843506 5.34415721893311 5.35359525680542 5.28881454467773 5.39813089370728 5.535560131073 5.56908845901489 5.40213203430176 5.25840091705322 5.34711122512817 4.60311508178711 2.93446326255798 5.06051397323608 9.3072395324707 10.5426406860352 8.76901721954346 7.72648334503174 7.82168388366699 8.98878574371338 11.5049858093262 12.8144378662109 10.595682144165 6.44807052612305 3.76623177528381 1.83103632926941
0.594414412975311 0.606482923030853 0.664544582366943 0.690464496612549 0.741674244403839 0.761434376239777 0.773504078388214 0.763447165489197 0.845423877239227 1.8898561000824 0.918576061725616 1.00119292736053 1.10949516296387 1.27409791946411 1.42403554916382 1.70150196552277 2.68932890892029 2.90854573249817 2.48458194732666 1.51452529430389 1.35987615585327 1.33008658885956 1.22819066047668 1.23525726795197 1.28619015216827 1.37261271476746 1.52725100517273 2.09069418907166 2.28035163879395 2.58493304252625 3.73700714111328 4.34377336502075 6.3550238609314 2.61687326431274 2.68028354644775 2.79242706298828 2.95438623428345 3.20721745491028 2.86458277702332 2.70742344856262 3.17012166976929 3.31226634979248 3.6379029750824 3.70908284187317 3.85289120674133 3.92828130722046 3.82120132446289 3.82617497444153 3.32288599014282 2.8484046459198 2.26646447181702 2.35459852218628 2.45186686515808 2.51011300086975 3.32631397247314 3.62481784820557 3.67388558387756 3.44266986846924 3.37878251075745 2.98961305618286 5.97471618652344 5.2737398147583 3.02637124061584 5.96292161941528 5.88415670394897 5.46584224700928 3.02801966667175 1.6600638628006 0.998458921909332 1.05175828933716 0.690744519233704 1.78819108009338 3.44629907608032 0.492098480463028 0.403005033731461 0.311836272478104 0.226784139871597 0.32270935177803 0.587030708789825 1.00344216823578 1.70436191558838 2.43744254112244 3.10719847679138 3.47500896453857 3.73160576820374 6.75545167922974 12.6313762664795 9.36755561828613 9.91109943389893 13.3700304031372 13.6278343200684 13.1678438186646 17.7792949676514 16.1061840057373 15.5668087005615 14.4316473007202 9.09191989898682 4.40888977050781 4.30952024459839 3.69323635101318 3.50949716567993 3.35944104194641 2.86915421485901 2.09844303131104 2.01664233207703 4.95393133163452 7.10411357879639 3.34524965286255 2.8668966293335 1.89747655391693 1.85727727413177 1.82733249664307 1.94622409343719 2.0502393245697 2.07677459716797 2.06938982009888 2.04256701469421 2.13096499443054 2.19773578643799 2.291095495224 2.54556941986084 2.62781500816345 2.695387840271 2.85251522064209 2.94813275337219 3.13548374176025 3.25928354263306 3.51871347427368 3.5612998008728 3.58142614364624 3.61102080345154 3.55392026901245 3.62963247299194 3.56120371818542 3.62847328186035 3.65006113052368 3.74421262741089 3.7555034160614 3.68253874778748 3.47786688804626 3.37267541885376 3.47826910018921 3.92123913764954 4.31875562667847 4.63798761367798 4.93820571899414 5.21297979354858 5.50896406173706 5.69628763198853 5.7209997177124 5.70574951171875 5.68720960617065 5.68625640869141 5.86683940887451 5.85001659393311 5.62622880935669 5.73468589782715 5.61289596557617 4.83389902114868 3.27705836296082 3.01994466781616 12.1384525299072 12.8072061538696 9.52727317810059 8.75861835479736 8.68283748626709 9.96136379241943 11.0248355865479 17.7238483428955 23.239501953125 11.6248245239258 7.06111907958984 3.8870255947113
0.662737965583801 0.679707884788513 0.721077740192413 0.750130414962769 0.772298216819763 0.791868388652802 0.810806035995483 0.827001452445984 0.87437242269516 0.882533192634583 1.23564910888672 1.11886286735535 1.14993381500244 1.22531282901764 1.38714480400085 1.68861365318298 2.13550209999084 3.22840452194214 3.0368320941925 2.14610171318054 1.48113167285919 1.40456962585449 1.32484900951385 1.27675271034241 1.34745824337006 1.39533734321594 1.74017941951752 2.02340793609619 1.99856305122375 2.19715046882629 1.80403113365173 2.53570938110352 2.70043277740479 2.92869567871094 3.22207403182983 3.38424253463745 2.79687118530273 2.59533309936523 2.58442306518555 2.50690031051636 2.83798360824585 3.31426787376404 3.99533319473267 4.25830554962158 4.40092182159424 4.36496067047119 3.98618412017822 3.80656409263611 3.76328611373901 2.920161485672 2.14728331565857 2.37668085098267 2.51183795928955 2.5302791595459 2.99801921844482 3.65161490440369 4.01785659790039 3.94583415985107 3.68391823768616 3.23923563957214 2.75757837295532 0.612787842750549 0.70496666431427 0.90757954120636 3.44612216949463 2.20050597190857 2.3830304145813 1.58637249469757 1.40739583969116 0.76002299785614 0.411057233810425 0.360948026180267 2.64386391639709 1.44235408306122 0.594819784164429 0.478949040174484 0.286483079195023 0.401410460472107 0.81935727596283 1.40917026996613 2.38271331787109 2.87120985984802 3.36320996284485 3.69930386543274 3.85704779624939 4.44579553604126 9.31222534179688 5.1321873664856 2.8012228012085 3.50091695785522 7.75692415237427 7.29187250137329 10.7137699127197 14.2585783004761 9.3816967010498 10.8272514343262 10.3750629425049 7.1926474571228 5.44393301010132 5.2677321434021 3.75341558456421 3.45595145225525 3.22257900238037 2.56580781936646 2.0085244178772 2.54716825485229 2.31866073608398 6.01490068435669 5.44640302658081 3.46155691146851 1.91921937465668 1.91763162612915 2.0304388999939 2.14013648033142 2.27499485015869 2.33198571205139 2.29817080497742 2.34216713905334 2.40772938728333 2.47084784507751 2.64537668228149 2.93788576126099 2.96435165405273 3.11285209655762 3.18421578407288 3.19811367988586 3.5390567779541 3.73049306869507 3.82671618461609 3.84615564346313 3.91891837120056 3.90018820762634 3.90074682235718 3.89039444923401 3.94329833984375 3.90667867660522 4.12284994125366 4.12824821472168 3.95348024368286 3.7830867767334 3.67785215377808 3.78277969360352 4.13228511810303 4.5258960723877 4.84863042831421 5.16019201278687 5.52485704421997 5.86439371109009 6.05557680130005 6.15857172012329 6.21285200119019 6.11416625976562 5.98527574539185 6.07203531265259 6.18515491485596 6.1360445022583 5.99462890625 5.88189077377319 5.50065994262695 4.47060680389404 3.11130571365356 8.19455718994141 13.8152799606323 16.341100692749 12.6546831130981 9.92510318756104 9.05434226989746 8.68357181549072 5.94481325149536 9.95428657531738 20.1164150238037 13.1169214248657 8.90132713317871
0.702271103858948 0.730683386325836 0.758396029472351 0.795742094516754 0.820137321949005 0.831340670585632 0.855255782604218 1.44136571884155 1.30779504776001 0.909626722335815 0.927948296070099 1.00038528442383 1.39594793319702 1.27348864078522 1.353067278862 1.51952397823334 1.88601052761078 3.09673452377319 3.48813271522522 3.05837535858154 1.83799862861633 1.56403470039368 1.41403770446777 1.27810788154602 1.41084015369415 1.48205661773682 1.49461483955383 1.52761960029602 1.72345018386841 2.27100896835327 2.69071292877197 2.45558834075928 2.79996705055237 3.22227835655212 2.96860527992249 3.17240953445435 3.37361073493958 3.10698008537292 2.78908824920654 2.70501708984375 2.54557275772095 2.77427434921265 3.22903227806091 3.59307098388672 3.71820831298828 3.86203551292419 3.60832381248474 3.58243036270142 3.34024405479431 2.34083700180054 2.14351725578308 2.27167510986328 2.56685590744019 2.60350871086121 2.65629100799561 3.95096611976624 4.29777526855469 4.39877128601074 4.08989715576172 3.70214605331421 2.49202656745911 0.971558094024658 1.0628354549408 1.28430330753326 1.44643175601959 1.94198131561279 2.03497529029846 1.91093683242798 1.77074575424194 1.5087274312973 1.06825232505798 0.787512123584747 0.567414999008179 0.422294855117798 0.540921270847321 0.286119252443314 0.405476927757263 0.579059422016144 1.11351215839386 1.7356219291687 2.54203391075134 3.03809094429016 3.47584199905396 3.85111880302429 3.97529864311218 4.06301879882812 8.96335124969482 4.05985927581787 2.27424788475037 2.07726049423218 2.12786436080933 3.55482959747314 8.65265369415283 8.88327312469482 8.00703239440918 5.00897359848022 4.89795637130737 6.06547880172729 6.40248823165894 10.991810798645 8.79064083099365 4.50203800201416 3.58887648582458 3.0708224773407 2.25047373771667 2.72142195701599 2.42759442329407 2.99310708045959 4.68050718307495 5.58185386657715 2.021488904953 2.12335753440857 2.27370285987854 2.42368602752686 2.50239491462708 2.49776244163513 2.51090502738953 2.53780078887939 2.60239505767822 2.70283126831055 2.86707806587219 3.15041160583496 3.28687882423401 3.43904495239258 3.42108535766602 3.58198022842407 3.75322508811951 3.85370588302612 4.14342498779297 4.17917060852051 4.15794706344604 4.13199186325073 4.08242607116699 4.1188006401062 4.05446720123291 4.2779369354248 4.49193143844604 4.42968034744263 4.48270130157471 4.30335330963135 4.10048723220825 4.2903847694397 4.44711351394653 4.72809362411499 5.07492303848267 5.41327667236328 5.76377868652344 6.13155889511108 6.48321533203125 6.65027618408203 6.55805253982544 6.47434139251709 6.3801703453064 6.36045742034912 6.47403001785278 6.34013223648071 6.22010087966919 6.11698913574219 6.30348443984985 5.42834424972534 3.2139720916748 3.04169631004333 1.98245108127594 1.42360436916351 7.20859432220459 8.2009973526001 6.68432235717773 5.25317811965942 4.14091300964355 2.71992206573486 9.24779415130615 12.9480037689209 11.5406475067139
0.780389606952667 0.777473568916321 0.808704972267151 0.836486876010895 0.849358260631561 0.858847141265869 1.20808005332947 1.67124199867249 0.919033944606781 0.935208976268768 0.976745069026947 1.00026476383209 1.03770923614502 1.34570479393005 1.38517773151398 1.5963042974472 1.8285014629364 2.51070237159729 3.86400771141052 3.67127108573914 2.43338632583618 1.7339825630188 1.62943482398987 1.54274213314056 1.52243864536285 1.57573747634888 1.54304993152618 1.54366481304169 1.71106588840485 1.90857326984406 2.23658347129822 3.07926416397095 3.3656063079834 3.08356118202209 3.0419135093689 3.18997716903687 3.93917226791382 4.15588808059692 3.46627974510193 2.88720178604126 2.54508423805237 2.43360710144043 2.42984366416931 2.69638323783875 3.04711771011353 3.10150671005249 3.27050805091858 3.51576471328735 3.40457963943481 2.74516344070435 2.04749369621277 2.17132210731506 2.44934225082397 2.65898585319519 2.6873984336853 3.54087424278259 4.38266181945801 4.7537260055542 4.77108812332153 4.71234512329102 3.84702348709106 1.69814300537109 1.50730776786804 1.69636833667755 1.70986294746399 2.01337385177612 2.06175065040588 2.00994324684143 1.92579174041748 1.76623272895813 1.52714252471924 1.26416754722595 0.93589049577713 0.686270833015442 0.463674545288086 0.339837849140167 0.512137532234192 0.790255546569824 1.32860600948334 2.08961367607117 2.79834580421448 3.20249176025391 3.54002046585083 3.96435713768005 4.05321025848389 4.10894250869751 5.8682861328125 6.78625965118408 2.54262018203735 2.23335480690002 2.13146090507507 2.25149703025818 3.67029619216919 4.3259801864624 7.03509759902954 3.47799372673035 3.70707583427429 3.80651879310608 3.81409692764282 3.79863667488098 7.18903064727783 4.86494779586792 3.65508532524109 3.43274092674255 2.71450161933899 2.4670946598053 3.6694803237915 5.83644390106201 4.64150667190552 3.73453140258789 2.05957174301147 2.26123952865601 2.43846154212952 2.58566665649414 2.66476607322693 2.67126822471619 2.74971008300781 2.77068209648132 2.83775734901428 2.94192481040955 3.05740237236023 3.2717170715332 3.60020899772644 3.73062825202942 3.83679747581482 3.91356587409973 3.85961890220642 4.17906188964844 4.34200286865234 4.37848281860352 4.34525871276855 4.41907024383545 4.36473178863525 4.26317501068115 4.25969552993774 4.55134391784668 4.71704435348511 4.86902952194214 4.90153980255127 4.74255180358887 4.77913379669189 4.78040552139282 4.81804084777832 4.97697591781616 5.26112747192383 5.63762235641479 6.02180051803589 6.50931310653687 6.83570528030396 6.96872901916504 7.02325677871704 6.9716329574585 6.82666254043579 6.69216632843018 6.83475923538208 6.63362121582031 6.40517282485962 6.66039419174194 6.64817667007446 6.27977991104126 5.05408954620361 3.1215033531189 2.29264783859253 1.65485215187073 1.11848199367523 0.293797820806503 -0.145225822925568 -0.398183226585388 -0.674119174480438 -0.563089966773987 0.184837937355042 6.23401737213135 7.87036848068237
0.85182797908783 0.863049685955048 0.904114365577698 0.937002539634705 2.22586274147034 0.919131577014923 0.932406485080719 0.909167170524597 0.938168287277222 0.961723268032074 1.00708031654358 1.09500753879547 1.29718768596649 1.11866748332977 1.38829922676086 1.53366088867188 1.75076627731323 2.54205441474915 4.21646165847778 4.29232978820801 3.18268799781799 2.13924598693848 1.82530677318573 1.68174278736115 1.64502656459808 1.68518149852753 1.65981602668762 1.61290872097015 1.65978193283081 1.93537187576294 2.15279817581177 2.77877187728882 2.78264212608337 3.11950302124023 3.2043125629425 2.93437218666077 3.31468987464905 3.82043600082397 3.56452322006226 3.01212215423584 2.89221978187561 2.59410929679871 2.28700804710388 2.24731779098511 2.43400263786316 2.36579322814941 2.67039847373962 2.6630380153656 2.55204606056213 2.2968270778656 1.9766366481781 2.19984817504883 2.36858129501343 2.57428789138794 2.78327894210815 3.1036536693573 4.74026393890381 5.17207145690918 5.43151712417603 5.73237037658691 5.14128351211548 3.3829345703125 1.85361778736115 1.89209973812103 1.90158987045288 2.06788158416748 2.10343480110168 2.10996961593628 2.04841685295105 2.02150940895081 1.82066309452057 1.54941284656525 1.36312329769135 1.26787006855011 1.25900828838348 0.823804259300232 0.625269711017609 0.889445424079895 1.37676727771759 2.248375415802 2.93106722831726 3.3910551071167 3.67685866355896 4.0402979850769 4.1302375793457 4.16621398925781 4.19620132446289 6.27173089981079 2.78817820549011 2.39467859268188 2.21836233139038 2.22740793228149 2.29501295089722 2.59113144874573 5.49418640136719 3.52325057983398 3.77544236183167 3.86279535293579 3.90450239181519 3.80349636077881 3.77061581611633 3.87249422073364 3.87476754188538 3.83971953392029 3.2653374671936 2.53498673439026 2.37169241905212 4.73985576629639 1.76916360855103 1.82460153102875 2.10416316986084 2.37830471992493 2.59178829193115 2.68411636352539 2.77641773223877 2.78682279586792 2.75741100311279 2.81641674041748 2.92287039756775 3.08388185501099 3.26351118087769 3.5380756855011 3.89824461936951 3.95498919487 4.18363809585571 4.1590051651001 4.31429147720337 4.44414949417114 4.4774603843689 4.68753051757812 4.64540100097656 4.60493469238281 4.56888580322266 4.46259450912476 4.49111318588257 4.7309398651123 4.91332483291626 5.2321310043335 5.22715759277344 5.28500604629517 5.27104425430298 5.23557376861572 5.3862943649292 5.3910813331604 5.57635116577148 5.89521598815918 6.34054088592529 6.75466203689575 7.11308574676514 7.3552885055542 7.46030282974243 7.32934617996216 7.17224645614624 7.06331157684326 7.14787626266479 7.27769327163696 7.10653686523438 6.99536514282227 6.93969488143921 7.24428272247314 6.19729471206665 3.40967321395874 3.11182403564453 2.29858994483948 1.76264274120331 0.901243984699249 0.18729642033577 -0.209278494119644 -0.53421938419342 -0.75622832775116 -0.929935157299042 1.87169373035431 3.06022167205811
