NCOLS 174
NROWS 32
XLLCORNER 353712
YLLCORNER 6700272
CELLSIZE 16 
NODATA_value -3.4e+38 
-0.663973033428192 2.56211352348328 3.46819162368774 6.09615850448608 3.51456904411316 -1.00287580490112 16.503454208374 19.6965045928955 10.5493173599243 7.393714427948 -0.552960574626923 -0.120060071349144 0.155415803194046 0.357977718114853 1.78637135028839 4.05093574523926 4.12855625152588 6.52657222747803 6.78509998321533 3.67572021484375 3.67785573005676 3.98373770713806 4.0437536239624 8.38943481445312 5.60197830200195 20.1038913726807 17.2977313995361 14.9009370803833 12.6557931900024 18.2330455780029 7.76751661300659 4.87895774841309 2.93885636329651 2.65177512168884 5.58029222488403 1.77678799629211 1.63490116596222 2.30072927474976 2.08282256126404 2.19012784957886 2.3606231212616 2.91841554641724 3.60786390304565 4.50296115875244 3.01025700569153 8.56269359588623 7.74740409851074 10.8559522628784 4.32413959503174 7.9757776260376 3.94971632957458 2.94882154464722 1.40414237976074 1.65276265144348 1.64059734344482 1.83669900894165 1.1640659570694 4.95488548278809 20.3304271697998 24.5499076843262 5.88009023666382 1.98641431331635 2.54465961456299 7.60322332382202 2.2432427406311 1.99080693721771 2.50105428695679 8.76490306854248 7.28136110305786 2.35522365570068 3.47167944908142 5.43269205093384 2.64679217338562 7.72144794464111 5.67313814163208 9.68563556671143 12.1223011016846 12.2428026199341 29.195779800415 26.9398899078369 29.156400680542 25.9875202178955 28.5301933288574 24.6053638458252 26.9452457427979 19.1799983978271 1.44988906383514 9.1307315826416 3.1256730556488 8.24201107025146 10.0797901153564 8.57946872711182 3.08467578887939 3.12689733505249 8.96787452697754 4.90870046615601 6.89178419113159 4.98363018035889 8.98268508911133 7.82165622711182 8.28967475891113 5.50797939300537 11.9869594573975 13.4963665008545 11.681432723999 6.35115718841553 27.1568164825439 22.2219734191895 30.1831321716309 -0.399733871221542 28.7225666046143 5.59137153625488 -2.87861466407776 -3.42157292366028 5.49426412582397 6.67167234420776 8.68832111358643 9.7257251739502 24.0720481872559 8.43374633789062 9.42403411865234 7.36380100250244 -2.23936748504639 -0.930832207202911 15.5678424835205 1.3657968044281 -2.45400619506836 -2.6400465965271 -2.89403748512268 -2.49464273452759 -0.312799781560898 3.99037170410156 4.44338178634644 3.70581221580505 1.10961246490479 2.02058839797974 1.00377976894379 0.883329391479492 1.50393974781036 -3.30720734596252 -3.25791621208191 -3.54128289222717 -2.83233976364136 -2.4117796421051 -2.41180896759033 2.3107533454895 -2.48075652122498 -3.43225765228271 -3.94956970214844 -4.28269195556641 -4.14917182922363 -4.31128168106079 -4.69037055969238 0.141169130802155 -4.9153265953064 -3.73990273475647 2.2541491985321 2.31667065620422 7.28342485427856 3.1204571723938 21.728006362915 8.29128837585449 7.87103366851807 7.04848480224609 7.20924711227417 8.29134082794189 5.09240531921387 2.57614421844482 3.92925810813904 3.26211905479431 2.26395750045776 4.51072549819946 5.13852787017822 -1.97724545001984
0.172557309269905 -0.0780495926737785 1.94298934936523 2.87645292282104 4.94587421417236 2.85251140594482 1.83849585056305 9.5070276260376 11.6132802963257 6.67718744277954 4.73133945465088 -0.681808292865753 -0.13660492002964 3.1712052822113 3.87345552444458 4.36932897567749 5.50248289108276 7.07034015655518 6.13228178024292 4.35295820236206 5.14141607284546 3.46353697776794 4.12944889068604 5.40807819366455 6.56269979476929 14.6506719589233 12.0881633758545 13.8448600769043 14.2678699493408 22.8531932830811 7.46053791046143 7.25354290008545 2.88709425926208 2.38534116744995 4.91110134124756 1.64777362346649 1.7594336271286 2.11696362495422 2.56885147094727 2.16184592247009 2.1775541305542 2.33689641952515 3.55263018608093 4.42040491104126 2.94879150390625 2.89220190048218 7.56535291671753 7.00394487380981 6.03189325332642 3.79684853553772 4.95738363265991 8.19285678863525 2.61809062957764 1.10378420352936 1.2885023355484 1.46909022331238 0.764773845672607 5.15389490127563 4.10156869888306 20.4085006713867 13.436710357666 1.54529750347137 5.92748785018921 1.11747789382935 1.58360409736633 10.1687822341919 16.4865303039551 2.32580852508545 4.74508714675903 4.52565383911133 2.28136658668518 6.76658344268799 2.69195175170898 4.31874322891235 6.33944892883301 9.24778270721436 16.5334949493408 17.1695709228516 17.9454002380371 17.5041484832764 22.3720512390137 17.3750476837158 14.5281648635864 17.4713268280029 24.6142711639404 12.8654165267944 8.31973171234131 3.44070553779602 6.33761787414551 0.957613825798035 3.62736821174622 7.47416734695435 6.75312948226929 5.83791923522949 2.00919318199158 -0.382653653621674 -0.621429920196533 2.94061493873596 1.54830861091614 6.11488342285156 7.52228021621704 6.58159208297729 17.9188594818115 12.0853137969971 8.93833637237549 10.1346197128296 19.9130611419678 18.1607418060303 8.52883529663086 0.737663686275482 15.5758533477783 -2.19648432731628 -2.23231244087219 -3.50245308876038 1.58690619468689 8.65260601043701 1.98752653598785 13.0806617736816 13.0071039199829 7.2625527381897 1.05599451065063 -1.17597913742065 -1.23400938510895 19.9341068267822 -0.313264578580856 -3.23637819290161 -3.34482574462891 -3.40775370597839 -3.45821976661682 -3.34962558746338 -2.80356955528259 7.95131397247314 3.46272587776184 3.80176329612732 1.29481136798859 1.80967724323273 0.807657361030579 0.769549787044525 0.574370980262756 -2.69192409515381 -3.39031744003296 -3.62628483772278 -2.10195016860962 -0.107856132090092 -3.67452716827393 -3.25377988815308 -1.94205236434937 -3.82784867286682 -4.20069026947021 -4.02068138122559 1.84312832355499 4.42691898345947 -4.69429588317871 -2.70997405052185 -2.4361879825592 9.62035369873047 10.4621963500977 5.24376153945923 5.8732852935791 4.8854718208313 13.3866500854492 1.7347377538681 6.84594631195068 4.80761528015137 5.81400918960571 5.27471590042114 14.2760810852051 4.05089473724365 8.10563468933105 3.52287888526917 3.63269901275635 2.13542151451111 0.456081658601761 -1.49670338630676
-0.191067725419998 0.0384018421173096 -0.0328303351998329 1.60986351966858 2.38948583602905 4.05046081542969 2.18560314178467 -0.0147767160087824 6.12167930603027 7.55503177642822 4.25949382781982 0.390096336603165 5.5106315612793 5.28196859359741 4.38322305679321 3.84366345405579 3.79110264778137 5.9445481300354 5.97305154800415 5.02871084213257 4.09333181381226 3.59788846969604 1.50861644744873 4.59357690811157 3.86751914024353 5.34500551223755 9.95718193054199 9.38964939117432 11.9078369140625 15.7266893386841 14.3188772201538 6.96894645690918 4.45402574539185 2.63257765769958 2.70714044570923 4.79602861404419 4.06036329269409 2.50728797912598 1.60120069980621 2.23749828338623 2.00481009483337 2.0980224609375 2.1967875957489 3.21687984466553 4.00977993011475 2.74384236335754 2.77946853637695 6.56750011444092 3.66989398002625 16.594596862793 30.4333000183105 8.80885887145996 2.98322033882141 4.12371587753296 18.2991714477539 8.47622299194336 11.8126373291016 22.2665462493896 17.0813274383545 32.4010925292969 15.9820289611816 17.7581348419189 24.042516708374 13.4908781051636 1.06236398220062 1.20840704441071 2.604736328125 1.79739594459534 1.54959392547607 3.95903134346008 3.41621136665344 22.5693187713623 3.15933656692505 4.4008150100708 2.36355042457581 9.51942825317383 18.4077339172363 12.6342735290527 11.044472694397 17.7132740020752 13.5972194671631 14.2826471328735 18.8895835876465 20.9056987762451 10.8024168014526 2.90694618225098 4.47212076187134 4.90201234817505 8.11253643035889 5.11561393737793 1.95980036258698 18.4207935333252 6.20345401763916 9.09497451782227 0.962552070617676 -1.38613975048065 -1.22186386585236 -0.870229005813599 -0.562741041183472 3.56865692138672 0.477790385484695 4.46070528030396 8.05629444122314 5.97908210754395 8.64399337768555 8.87123012542725 10.2277927398682 13.4168262481689 16.3390808105469 19.0060195922852 1.71653378009796 0.0806524306535721 6.67875051498413 16.3222961425781 2.45384883880615 6.30503749847412 5.42989492416382 1.61905372142792 15.0867156982422 8.53437232971191 2.10725617408752 5.62390470504761 4.54649209976196 6.62044334411621 -2.70799946784973 -1.8181471824646 -3.29804468154907 6.98832941055298 3.72021460533142 -1.4177759885788 -3.65747666358948 4.33157062530518 0.613158226013184 3.29017853736877 2.75017857551575 0.939764499664307 1.42816650867462 0.506182253360748 0.357726633548737 -2.85376238822937 0.987500429153442 0.0271659437566996 2.1626079082489 -3.81151127815247 -3.96473455429077 -3.55261659622192 -3.62800073623657 -2.52934980392456 -4.02002477645874 12.9232721328735 -2.6579577922821 -4.98523139953613 -4.93480730056763 -5.19139051437378 -4.98216009140015 1.6402428150177 15.9932193756104 13.5390357971191 3.86324000358582 4.5879545211792 8.45484638214111 0.134579300880432 2.08907413482666 5.02435111999512 25.8590431213379 16.1285037994385 7.84127235412598 3.63084554672241 9.36335468292236 2.7474000453949 0.893406748771667 1.1747829914093 0.55064183473587 0.0301093999296427
-0.149653598666191 0.214996784925461 -0.0961205959320068 0.059429369866848 2.26345896720886 2.23956966400146 3.25048923492432 -1.15474796295166 4.17479753494263 4.47818994522095 6.16416501998901 6.23004674911499 5.49128007888794 3.80790185928345 3.41637325286865 3.73508238792419 3.68274164199829 3.81669545173645 5.00649452209473 5.06489658355713 4.07329845428467 4.27118968963623 4.86082649230957 13.2128324508667 3.93574571609497 3.49286127090454 4.84737491607666 8.5228796005249 8.21639156341553 10.4014883041382 11.8164577484131 12.6460590362549 6.69312000274658 4.42497539520264 3.81421160697937 2.09645509719849 3.75574016571045 1.4269927740097 1.6076911687851 2.09761619567871 1.58457899093628 1.94816482067108 1.80428457260132 2.14508724212646 2.93770432472229 3.64568185806274 2.50524544715881 2.78041696548462 5.89877462387085 17.3776245117188 28.0408191680908 4.14169788360596 3.73986148834229 5.61862802505493 11.2796926498413 15.2800846099854 16.0900707244873 16.0059127807617 19.3583717346191 29.8459606170654 12.8560600280762 15.2580509185791 17.4465370178223 5.6217885017395 3.51210999488831 5.9812216758728 0.999275982379913 2.49654531478882 1.04672610759735 26.3499050140381 2.06898522377014 18.1571979522705 5.44565391540527 4.28081607818604 2.47458648681641 11.7147836685181 5.23773860931396 7.99301242828369 9.76772880554199 8.68092727661133 10.4602060317993 12.3901958465576 10.0927038192749 8.91300487518311 1.33425438404083 6.09282064437866 13.0427131652832 0.395460873842239 3.6874897480011 3.13196086883545 0.619626700878143 6.94409894943237 5.58838224411011 4.95773315429688 -1.05188763141632 -1.47053253650665 -1.77413272857666 -2.09716653823853 -0.92596161365509 -1.54916906356812 -1.41718029975891 -2.04750609397888 3.6038498878479 2.57522201538086 3.76585006713867 6.0157265663147 8.26154899597168 6.09694194793701 9.74770832061768 11.402889251709 -0.0683870986104012 -0.602368831634521 9.88010883331299 13.3874082565308 11.0175504684448 10.810640335083 6.16614437103271 16.3887424468994 35.3308525085449 8.56715297698975 7.70811080932617 7.88643550872803 25.9912395477295 -2.18993759155273 -3.46920943260193 -3.08736205101013 -2.8772394657135 -3.6959490776062 -3.514404296875 -3.60581302642822 -4.02491807937622 4.2198166847229 27.0604286193848 0.590017557144165 2.57845568656921 2.19930100440979 0.291607111692429 1.03176462650299 -3.27198314666748 -3.19163036346436 -1.71719563007355 -1.81188225746155 1.64456939697266 -3.61921954154968 0.509884119033813 -2.97625470161438 -4.14622163772583 -3.11448383331299 0.134390324354172 -4.39797353744507 4.61165475845337 -4.34932661056519 -5.11514854431152 -5.23555898666382 6.37035942077637 12.1460208892822 18.3505020141602 7.95648860931396 -0.326796174049377 3.50574207305908 4.82255268096924 13.52467918396 24.3953895568848 25.8060531616211 20.8865070343018 8.05943202972412 5.96774005889893 4.75881767272949 3.12274360656738 1.60484504699707 2.03261947631836 3.29356598854065 0.894342303276062 5.35310363769531
-0.136603519320488 0.0457816384732723 -0.393695205450058 -0.557597219944 1.15565204620361 1.92976021766663 3.07685470581055 1.54206824302673 -1.55761778354645 4.29355239868164 5.90609788894653 5.10300588607788 4.12832164764404 3.87274265289307 3.66054391860962 3.18015027046204 3.27333760261536 3.52602028846741 3.81600713729858 3.92141366004944 4.76283645629883 5.34010791778564 3.85032892227173 9.08079242706299 3.80765128135681 3.19459223747253 4.11662721633911 6.76233386993408 7.88470268249512 3.84790682792664 6.29126262664795 8.1721019744873 10.4559097290039 6.23365688323975 3.94391798973083 1.91815829277039 1.69335627555847 3.30634379386902 1.53451728820801 1.29457223415375 2.04042053222656 1.42407286167145 1.44670414924622 1.69733357429504 2.81642889976501 3.4879674911499 2.41957902908325 2.40633130073547 5.37404012680054 11.0793256759644 13.2333898544312 7.69582080841064 16.5366668701172 23.5148372650146 14.6983852386475 20.5105171203613 16.6067333221436 22.5504817962646 25.1283473968506 21.1323909759521 21.6165962219238 10.0983076095581 6.24787998199463 1.5364978313446 1.17683243751526 1.31887590885162 0.786244869232178 0.532166421413422 24.9070434570312 26.149751663208 10.3317623138428 2.30206108093262 4.63322257995605 2.89325618743896 2.63953924179077 1.69706058502197 1.94612741470337 14.5902309417725 7.99214124679565 7.93896532058716 8.78529357910156 5.69851732254028 8.12802314758301 3.88233757019043 4.93360137939453 14.5477752685547 2.23759412765503 3.61341500282288 16.2983417510986 1.43261826038361 1.93832314014435 4.41483783721924 19.087345123291 3.76848888397217 -0.624970197677612 -1.39692747592926 -1.24022471904755 -1.77582013607025 13.7437200546265 -1.21999979019165 9.57496166229248 1.22623288631439 -2.18929362297058 -2.16747879981995 1.3507022857666 3.523442029953 13.7899446487427 6.88385725021362 5.55100774765015 7.51896619796753 9.03139495849609 7.60497331619263 18.5853252410889 3.51905083656311 3.61305499076843 16.1797046661377 5.16867446899414 24.8105449676514 23.862434387207 8.73543930053711 4.96515703201294 3.54839491844177 5.17594194412231 -2.59757733345032 -2.4570472240448 -3.73596954345703 -3.69838714599609 -3.89773464202881 -1.19284570217133 -3.93232989311218 -3.87062406539917 5.82493543624878 34.917911529541 -0.851543664932251 -0.783217787742615 -1.95981800556183 -2.67804527282715 -2.9434027671814 -3.16287231445312 -3.39200019836426 -1.48015093803406 -3.55990767478943 -0.1048424243927 -0.705314040184021 -3.89847779273987 -0.612184941768646 -4.40927505493164 11.5376930236816 7.69643497467041 -4.38096141815186 -4.09101486206055 -4.17178344726562 3.75759124755859 5.69708728790283 15.634786605835 13.9424247741699 6.02041149139404 3.78667140007019 2.65088248252869 -1.09122014045715 4.17261266708374 20.24267578125 29.2568969726562 18.0338001251221 16.3557014465332 11.0350246429443 5.14431858062744 4.16703510284424 3.09538054466248 2.75348281860352 1.36028170585632 4.33891010284424 8.55766201019287 8.60275363922119
4.49478054046631 -0.288307011127472 -0.40602895617485 -0.614163815975189 -0.420119166374207 1.00434195995331 1.5722621679306 2.71284699440002 1.47714018821716 5.06343936920166 4.07451343536377 5.37512159347534 4.05330038070679 3.85147905349731 3.81755423545837 2.9147469997406 2.83920979499817 3.24058985710144 3.27362132072449 3.9870765209198 5.86836814880371 4.08679103851318 3.54620957374573 3.30610632896423 6.29972076416016 3.64532017707825 3.11704087257385 -0.317372232675552 4.50261163711548 5.92883348464966 20.251127243042 14.5273694992065 16.8289337158203 5.92296028137207 5.61614751815796 1.85868644714355 1.50750231742859 3.07240295410156 1.25228607654572 1.49255907535553 1.70676505565643 1.91002070903778 1.36810171604156 1.3620274066925 1.63340926170349 2.59052443504333 3.2124183177948 2.33533930778503 2.22717308998108 5.07674121856689 6.97014045715332 4.64103221893311 11.5507068634033 19.187858581543 19.5986270904541 26.5255718231201 22.5109729766846 21.5602836608887 22.7952480316162 17.481575012207 14.4416456222534 15.1432600021362 7.43695116043091 2.70749521255493 0.681412518024445 3.63112902641296 0.344178438186646 11.0735645294189 29.4868812561035 15.0015535354614 9.06684017181396 4.07110548019409 9.78494167327881 7.77397346496582 2.195880651474 1.82520627975464 7.08326053619385 23.5665340423584 6.95102739334106 11.0453224182129 4.01014471054077 7.7568998336792 2.64873695373535 2.76993417739868 4.27301692962646 3.8085150718689 1.79298770427704 10.2390289306641 12.9512557983398 2.72491431236267 1.45179414749146 1.80639231204987 5.84651660919189 1.48299884796143 0.0899463891983032 -1.56684350967407 -1.85771667957306 -2.07558846473694 -0.362030625343323 2.81010580062866 -2.15700554847717 -3.02977657318115 -3.10575246810913 -3.45306658744812 -1.71492350101471 7.13481616973877 4.37505483627319 4.20378160476685 2.03365182876587 2.53521990776062 3.87781524658203 9.25901126861572 2.24685716629028 4.27040910720825 7.53299522399902 6.35446453094482 10.4617605209351 14.9817485809326 8.6499080657959 12.4142293930054 7.52738952636719 1.70726895332336 0.83887904882431 -1.03289437294006 -1.94035375118256 -3.93305397033691 -4.23118877410889 -4.12819194793701 -4.5576696395874 -4.61071157455444 -4.41489362716675 -4.33122205734253 29.295280456543 5.25768995285034 -2.1089723110199 22.5472888946533 -3.18786358833313 -1.03851127624512 -0.457327485084534 -0.0652391240000725 -0.561054825782776 -3.5815269947052 0.358577281236649 -3.69555997848511 -3.8102331161499 -0.14293484389782 5.39850234985352 -4.59160041809082 4.76522159576416 -3.04893827438354 7.50276660919189 -4.40438985824585 21.43337059021 7.16867733001709 18.1812305450439 7.72024965286255 6.48000240325928 4.27006053924561 5.33474159240723 1.41434144973755 22.7996501922607 6.26697444915771 16.8394317626953 20.6664390563965 15.6007862091064 12.0212440490723 7.04084444046021 4.86360168457031 4.15034437179565 2.93946862220764 2.1250376701355 3.11982989311218 11.6200160980225 13.3647050857544
2.22041010856628 3.54520225524902 -0.302269697189331 0.0820391401648521 0.360408127307892 0.490133911371231 1.66012895107269 1.59939515590668 2.46511101722717 3.9034481048584 2.87135100364685 3.92549324035645 4.93098306655884 4.02099514007568 3.27085137367249 3.34364366531372 3.49596071243286 3.03796052932739 3.0080828666687 4.42916202545166 4.26645565032959 4.23128986358643 3.7607638835907 3.49511528015137 4.11218166351318 5.95009899139404 1.70217168331146 -1.3470858335495 -0.403098255395889 15.9384965896606 17.282901763916 13.3895816802979 9.21943759918213 9.23901176452637 5.37134170532227 3.51868343353271 1.71539294719696 1.46263861656189 2.86273002624512 1.21332466602325 1.48926079273224 1.8790123462677 1.20216834545135 1.28768634796143 1.3411682844162 1.41053605079651 2.41659712791443 2.99072933197021 1.81488609313965 2.05398941040039 4.72401142120361 6.12039709091187 25.2436981201172 25.102108001709 17.501974105835 17.4000339508057 17.2923164367676 14.3181371688843 13.8871641159058 14.3336734771729 13.4355955123901 11.15198802948 6.93906927108765 2.76087427139282 2.03323650360107 0.672153413295746 -0.272102981805801 17.7062721252441 9.4925479888916 11.5452032089233 8.48992443084717 7.3360424041748 2.11583828926086 3.37026739120483 2.8821587562561 3.24112439155579 19.4082431793213 6.77474880218506 5.05545997619629 6.51283693313599 5.81410503387451 11.7940158843994 5.03085231781006 11.9473752975464 3.21815037727356 2.60415005683899 5.6535210609436 16.2625522613525 5.62014865875244 8.85012722015381 2.43886756896973 2.50489115715027 0.923367381095886 4.82484674453735 0.0557330437004566 7.15504550933838 -1.71019351482391 -2.02934646606445 -2.11441397666931 4.91274261474609 -1.53954243659973 -3.01649713516235 -3.6755735874176 -3.32165956497192 25.7794647216797 22.9184761047363 2.70843648910522 3.81510543823242 3.09707140922546 8.97418212890625 6.83076953887939 18.5171508789062 -0.663314342498779 -1.20847988128662 -1.00313472747803 15.8474235534668 8.89263916015625 11.4602394104004 11.2755565643311 7.2974591255188 9.43001174926758 5.97300720214844 35.94677734375 -0.00716823805123568 -1.19338417053223 -3.30097126960754 -4.45166683197021 -4.7281174659729 -4.5988655090332 -1.36342585086823 2.25796604156494 7.04555749893188 29.9697742462158 3.28945899009705 -0.396718502044678 31.5735931396484 -2.47041177749634 5.92778778076172 -3.34448957443237 -3.32248067855835 -3.47959995269775 -3.67390108108521 -3.75181818008423 -4.0673656463623 -4.07471513748169 -4.22995948791504 -4.53055334091187 -4.84203481674194 -5.04250383377075 0.392349362373352 -1.04000759124756 4.72207069396973 24.3123359680176 5.82880640029907 4.48269844055176 7.90808820724487 13.1245374679565 5.25970411300659 12.5124759674072 22.6402721405029 16.5492877960205 14.3777027130127 7.14015245437622 13.8958158493042 21.1420040130615 10.7768535614014 5.73478031158447 2.67513084411621 3.55669236183167 3.14174270629883 9.48416137695312 22.7529983520508 20.3369922637939 12.0388193130493
6.85583829879761 3.52087116241455 -0.130555495619774 -0.06803098320961 0.724483132362366 1.22755932807922 0.930347084999084 1.50518214702606 2.4727144241333 2.21670079231262 3.5606734752655 3.5125687122345 3.71529960632324 4.73772811889648 3.663738489151 3.25599122047424 3.18486928939819 2.67085194587708 3.62918758392334 4.87795400619507 3.41032242774963 3.83915972709656 4.13935708999634 5.02004957199097 3.37429690361023 2.7821934223175 -0.199941754341125 1.02969861030579 24.6051292419434 1.73022437095642 6.95424032211304 7.98672676086426 8.3322286605835 7.61552619934082 8.38488388061523 5.0759596824646 3.36053133010864 1.59296143054962 1.47578191757202 2.67596244812012 1.41076254844666 1.24128890037537 1.79221558570862 1.24529814720154 1.25531649589539 1.2859411239624 1.3725471496582 2.29150915145874 2.84119033813477 1.62389147281647 4.27004623413086 4.42611932754517 16.7001457214355 16.5500965118408 12.6423892974854 12.8565788269043 12.08713722229 12.6530923843384 11.3344125747681 10.9264965057373 12.2580089569092 9.93643283843994 3.47760248184204 2.9706597328186 3.50943326950073 4.38610792160034 25.1391372680664 23.8477668762207 8.41734409332275 11.5254058837891 7.4598388671875 11.929615020752 3.62316942214966 3.57339596748352 2.99652123451233 11.8947973251343 5.71754217147827 13.2909088134766 12.9864158630371 4.82448816299438 4.16712141036987 5.39064836502075 4.14550161361694 12.8219356536865 2.71074628829956 2.09224891662598 1.76482510566711 7.41979122161865 6.49696111679077 4.07146310806274 5.40712118148804 2.19845771789551 1.03319072723389 10.5781202316284 1.15318119525909 -0.298764288425446 19.1549625396729 2.50917887687683 17.370138168335 19.4922847747803 2.09576892852783 -2.01680898666382 -3.12128877639771 26.4344291687012 5.03658390045166 5.56645917892456 0.587346196174622 3.07353472709656 6.96365022659302 6.95373344421387 1.6132984161377 14.7475891113281 -2.0519335269928 -1.57004976272583 6.48592519760132 28.4618511199951 11.8908700942993 6.46665382385254 15.443413734436 7.10434722900391 4.70750284194946 6.48862981796265 0.386224418878555 0.819199681282043 -2.61925220489502 -3.74075198173523 -4.5125527381897 -4.60475969314575 7.0807147026062 4.3309965133667 -1.15327787399292 -4.80145978927612 21.5053977966309 5.88135004043579 4.1294960975647 3.63759016990662 -2.08192372322083 -3.42429447174072 -3.639324426651 -1.62050259113312 -3.4797260761261 -3.83980512619019 -3.89234328269958 -4.18156242370605 -4.47890138626099 -4.68506526947021 -4.91942358016968 -5.07045984268188 5.51652860641479 2.69083690643311 -3.4519305229187 3.55447697639465 12.583155632019 6.07180976867676 4.11914682388306 3.83537364006042 11.6334972381592 5.68043994903564 12.513801574707 20.6896858215332 40.0798454284668 37.6934776306152 27.2550067901611 6.73960971832275 13.4757165908813 21.0855808258057 24.5028820037842 18.8563823699951 9.61429119110107 3.13435649871826 7.93315410614014 14.6785163879395 15.9775295257568 25.1166172027588
6.13069772720337 1.62769496440887 3.04142808914185 0.318996608257294 0.101472161710262 0.717031180858612 0.886342346668243 0.84405106306076 2.220379114151 3.55128240585327 3.09493184089661 2.89576148986816 4.0726842880249 4.45965814590454 3.6511595249176 3.43829703330994 2.8667528629303 3.03203845024109 5.37841796875 3.92208528518677 3.28582835197449 3.49995088577271 5.18847799301147 3.76970481872559 2.98202729225159 2.48270893096924 3.04672479629517 22.8326110839844 12.6563367843628 -0.772526860237122 22.6600017547607 5.04178667068481 8.11626243591309 6.64180421829224 7.88981342315674 4.92799377441406 4.82804918289185 3.22811913490295 1.36948239803314 2.52346134185791 1.15078675746918 1.66385674476624 1.0933643579483 1.7413022518158 1.21949517726898 1.23912799358368 1.26843452453613 2.24194884300232 2.73092937469482 1.55528128147125 1.50885045528412 3.93765330314636 4.03247690200806 10.5048208236694 10.5109949111938 9.9549446105957 10.1157503128052 9.48292446136475 10.3137903213501 9.73297500610352 9.21465015411377 10.1821393966675 7.86111974716187 5.38614797592163 23.9574356079102 3.69705986976624 3.9627742767334 11.170220375061 11.2212991714478 9.3044261932373 10.9695596694946 10.012638092041 1.66580700874329 7.0027060508728 1.6469920873642 22.2769756317139 14.2367973327637 6.56683349609375 3.05629920959473 2.47441077232361 0.688826858997345 6.06669235229492 4.09208345413208 4.49483442306519 8.19908714294434 15.5750064849854 17.8382186889648 16.225793838501 2.56456756591797 1.90774178504944 1.00793480873108 0.904794752597809 0.671996414661407 23.4223899841309 17.5344543457031 19.0301189422607 4.59587955474854 16.5985889434814 17.9648838043213 15.641450881958 11.6838293075562 -1.62787210941315 16.4896564483643 27.0140781402588 12.365496635437 15.2967548370361 14.3374195098877 9.74222373962402 3.41604471206665 4.11811971664429 5.67407274246216 6.29697942733765 7.28122520446777 40.3165054321289 30.2455539703369 24.5614891052246 7.1675009727478 17.588794708252 9.55493354797363 12.9265842437744 6.18445158004761 -0.036700502038002 1.15346086025238 0.381104648113251 -2.11059331893921 -3.06537127494812 -4.25229454040527 -0.549704253673553 -4.43487405776978 -5.01961851119995 -5.19904184341431 -1.50408184528351 20.8676204681396 12.1633558273315 14.4241971969604 2.65283584594727 -3.04304766654968 -3.15071487426758 0.709237992763519 16.6238784790039 -3.45487499237061 -3.91081190109253 -4.18302822113037 -4.24505662918091 -4.50324678421021 -4.79859447479248 -4.92053604125977 -5.05899143218994 -1.28013718128204 2.34700274467468 -1.3855562210083 19.4304809570312 0.460103332996368 2.82704949378967 2.22639036178589 5.8357834815979 18.3869705200195 8.40977573394775 19.2041854858398 21.1149768829346 16.7177791595459 30.011137008667 19.2396450042725 6.10114336013794 10.7405920028687 15.5894355773926 23.2125053405762 24.2081775665283 34.5282821655273 34.4572677612305 44.0710601806641 33.4487495422363 37.8750228881836 45.4914169311523
3.57523488998413 4.63982820510864 1.38207387924194 2.80468702316284 0.715943932533264 0.928637325763702 0.757912695407867 1.86304831504822 2.44376039505005 3.54890203475952 3.15914344787598 2.84997487068176 4.74553537368774 3.5958092212677 4.17384052276611 3.37790679931641 3.03340435028076 4.32169342041016 4.3487548828125 3.17906212806702 3.39134454727173 4.15392398834229 3.66506600379944 3.34502029418945 2.77360653877258 2.35853433609009 2.12958335876465 10.0587854385376 10.6798467636108 8.84027481079102 13.4091262817383 2.42349290847778 8.83526134490967 6.2797908782959 6.26040267944336 7.30417251586914 4.68701314926147 4.58920383453369 1.5607396364212 1.29896438121796 2.37363195419312 1.56191563606262 1.39193141460419 1.64852094650269 1.72100973129272 1.17294037342072 1.14015662670135 1.29057681560516 2.06187725067139 2.53629446029663 1.46174108982086 1.44067227840424 3.90963101387024 3.35704278945923 7.62375497817993 8.87391948699951 9.02736282348633 8.49862384796143 8.88761234283447 8.92042827606201 8.19840335845947 7.8088207244873 8.5281286239624 20.4862098693848 22.3295612335205 6.27848291397095 11.0242109298706 29.2288818359375 14.9569234848022 10.7683849334717 9.3551082611084 7.11834335327148 5.80027961730957 24.9807987213135 15.9259033203125 27.0091152191162 13.9705972671509 6.70986795425415 1.42540049552917 2.44486904144287 2.43477606773376 22.8359489440918 3.90363240242004 3.36162924766541 3.7648913860321 7.57026815414429 8.55881023406982 2.62528371810913 2.35211443901062 1.16022908687592 1.42305302619934 0.429875493049622 0.402307897806168 0.101411268115044 7.82780790328979 13.0031480789185 17.8315906524658 -0.629870772361755 12.8984107971191 11.6526679992676 2.88044667243958 -0.0575680918991566 21.2708110809326 27.3878841400146 15.7387218475342 18.9272193908691 8.1711483001709 7.74805116653442 10.9635066986084 13.3790044784546 8.76161193847656 1.40196323394775 0.971929848194122 23.1506538391113 9.39539432525635 13.3361892700195 17.6035480499268 12.6359529495239 14.8423681259155 13.4476137161255 7.57485628128052 0.824014842510223 -0.505095958709717 0.132036969065666 -1.31038045883179 2.31154036521912 -3.88687825202942 -4.72386312484741 -4.10193824768066 -1.20258975028992 8.25109100341797 26.9858360290527 22.765926361084 21.1632175445557 10.6774806976318 6.45703887939453 12.3031883239746 -3.1264762878418 -3.78755974769592 3.61007618904114 -3.5039849281311 1.99388444423676 -4.13108539581299 -4.40771245956421 -4.73463535308838 -4.66410160064697 5.64323997497559 -2.95299959182739 1.20426201820374 4.64682626724243 1.68098223209381 3.10869288444519 1.62055850028992 0.587437689304352 7.61042070388794 11.9550132751465 9.76667213439941 6.90899562835693 18.6104125976562 30.7382984161377 39.3093147277832 32.11328125 20.976978302002 15.84264087677 5.55532598495483 9.57235240936279 13.9613571166992 16.7097110748291 16.9846630096436 32.4306030273438 37.3603477478027 35.211784362793 34.3246612548828 33.8675308227539
3.31057572364807 1.27652525901794 3.98821425437927 2.63648796081543 0.116502590477467 0.866003811359406 0.990541875362396 1.7124285697937 1.98507440090179 2.16570329666138 2.83808183670044 2.88232564926147 3.70050811767578 3.41452693939209 3.27384400367737 4.08985948562622 4.62023448944092 3.11817669868469 2.85871338844299 3.19805288314819 2.98399496078491 4.37254619598389 3.00574016571045 3.00608968734741 2.89410614967346 2.43487620353699 2.02354717254639 1.16042077541351 8.53742599487305 9.98511219024658 17.4926414489746 1.13583898544312 7.91082143783569 5.3186092376709 4.41183948516846 5.77952241897583 6.79342412948608 4.40226793289185 2.96946883201599 1.44809675216675 1.26976191997528 2.25382280349731 1.14470493793488 1.33739578723907 1.65897154808044 1.02380084991455 1.07190585136414 1.12100625038147 1.2381272315979 1.93255054950714 2.3819591999054 1.39000511169434 2.00563788414001 3.6276912689209 4.62592172622681 6.00091934204102 7.49684572219849 7.6333909034729 7.1253809928894 7.41681957244873 7.75736427307129 7.06198787689209 6.66018676757812 7.15834760665894 16.0018138885498 11.9114093780518 17.6687870025635 13.5640811920166 6.87805891036987 6.71924924850464 8.07916259765625 5.10977792739868 3.93404483795166 24.1377468109131 14.4867238998413 23.0589714050293 12.3415603637695 2.48891139030457 0.878538250923157 1.37739491462708 2.71733140945435 11.0141801834106 3.59900236129761 3.00566720962524 2.93157911300659 9.41721630096436 4.40690612792969 3.57717442512512 5.13191843032837 0.307954221963882 0.236362725496292 0.227184563875198 0.584374070167542 2.87359094619751 13.4676961898804 5.66814470291138 6.34144878387451 10.7999486923218 0.855821013450623 10.8903274536133 14.3239488601685 34.1034812927246 29.720832824707 23.3634662628174 21.4023208618164 19.8325214385986 13.2971048355103 13.174427986145 12.1867046356201 13.181713104248 6.20967388153076 1.83942151069641 16.9441318511963 20.2938613891602 14.0215892791748 4.26938104629517 11.6737680435181 12.4472894668579 8.59442806243896 8.84003639221191 7.55045986175537 3.32635593414307 0.191764146089554 0.154921486973763 2.66502952575684 -1.96911537647247 -3.82688999176025 -3.99757957458496 10.6801023483276 7.41901874542236 10.1133880615234 16.7747936248779 16.1404609680176 14.5254211425781 11.4798774719238 16.3914813995361 5.2602596282959 -0.827699542045593 -2.08366942405701 10.855676651001 -1.21102845668793 -3.72735071182251 5.05418014526367 6.71037626266479 7.41724443435669 26.5714645385742 16.4178810119629 1.08290088176727 12.2884569168091 0.802751183509827 0.295302927494049 11.2337160110474 13.8643064498901 12.792818069458 19.4540977478027 12.6275463104248 5.70207595825195 7.66312694549561 21.9864196777344 40.501781463623 28.0051536560059 22.1674060821533 17.7062072753906 16.2539978027344 11.4656000137329 5.38921356201172 8.79590892791748 12.5957536697388 13.4156332015991 13.9643487930298 23.6769485473633 27.5042400360107 25.7651672363281 24.4774932861328
2.85267901420593 2.84964799880981 1.14327645301819 3.43993711471558 2.39495325088501 0.30035462975502 0.661311984062195 1.17779207229614 1.00079131126404 1.7015460729599 1.66386616230011 2.4250967502594 2.63968729972839 2.76315855979919 3.29326438903809 4.82223415374756 3.35707426071167 3.18542695045471 2.65727496147156 2.5714418888092 2.69949626922607 3.76601052284241 2.75528788566589 2.74396371841431 2.71008777618408 2.56503105163574 2.05848598480225 1.78148746490479 6.28684425354004 -1.06079530715942 8.12708568572998 10.6295919418335 18.2365837097168 21.0926761627197 3.674556016922 12.5473470687866 5.7959508895874 6.3443775177002 4.11475706100464 2.78946781158447 1.32323133945465 1.23706936836243 2.17881035804749 1.31508839130402 1.03627586364746 1.59232985973358 1.04940795898438 1.03793060779572 1.05668199062347 1.18826425075531 1.83513617515564 2.27695798873901 1.3211555480957 3.20443820953369 3.44753098487854 5.42286348342896 5.6417818069458 6.50322532653809 6.56539869308472 6.0465202331543 7.20656251907349 6.6107611656189 6.28796625137329 6.88125514984131 5.17487096786499 9.50042819976807 12.7834072113037 13.4659872055054 8.90124130249023 6.08707523345947 16.6519718170166 5.76885366439819 8.48904895782471 27.4489364624023 16.5104846954346 11.535698890686 14.6116981506348 8.92631912231445 7.83111524581909 24.6663246154785 4.59612894058228 5.94602489471436 5.62975835800171 2.64056921005249 1.25361573696136 2.7607090473175 2.60304093360901 1.0186665058136 0.689505040645599 0.448770105838776 0.100193470716476 0.633316278457642 0.634206771850586 -0.159974411129951 2.37999558448792 18.1346073150635 6.58799982070923 1.01552605628967 15.4169788360596 14.8993310928345 13.488263130188 26.0584239959717 27.7776336669922 22.898401260376 14.8274688720703 15.679256439209 14.0272722244263 15.5924186706543 18.8450736999512 13.5050563812256 4.03224325180054 1.84463393688202 16.793363571167 20.6717739105225 1.4271068572998 7.69694995880127 3.62397456169128 8.09043025970459 9.33551597595215 6.97518730163574 5.61052417755127 4.01895952224731 7.7159161567688 15.1969614028931 -0.455833733081818 -1.61907947063446 -2.19096899032593 8.75596523284912 9.19865703582764 8.34560012817383 14.6476545333862 15.3447704315186 21.8907337188721 13.4544429779053 13.779468536377 12.030689239502 4.04421043395996 0.388895481824875 5.68674278259277 6.02517461776733 -3.67676138877869 -3.97259712219238 8.33845901489258 10.4702110290527 15.0433568954468 23.3319931030273 14.2113084793091 9.10994815826416 9.45635509490967 4.96353340148926 6.77145862579346 5.70714473724365 13.9886465072632 9.39958190917969 14.55491065979 14.7690382003784 9.5229959487915 15.3511371612549 27.570333480835 40.4281845092773 15.7859315872192 19.766565322876 16.2647876739502 14.7247428894043 13.5687780380249 9.32544994354248 5.24416303634644 8.3218297958374 11.5607862472534 11.4364442825317 12.0388584136963 18.9367980957031 21.8195457458496 20.0428485870361
1.3806289434433 2.44972944259644 2.54490494728088 3.2886106967926 1.11794900894165 2.23854899406433 0.61531001329422 0.643665075302124 0.796206176280975 0.902014553546906 1.18635451793671 1.6199471950531 2.33249950408936 2.17296528816223 3.42448210716248 3.26497578620911 3.74304723739624 3.14398765563965 2.98459720611572 2.39467525482178 2.40897297859192 3.38009977340698 2.71521329879761 2.52530717849731 2.57825350761414 2.47741866111755 2.09609770774841 1.73256659507751 4.54784202575684 2.14432048797607 29.7307453155518 6.63179683685303 11.3339233398438 13.2803773880005 2.80036282539368 2.56302809715271 5.00569725036621 5.99577522277832 4.03523302078247 3.95302772521973 1.94380581378937 1.18340075016022 2.02941632270813 1.07121706008911 1.25713682174683 0.952000439167023 1.53575074672699 0.99681693315506 0.988603949546814 1.02511942386627 1.80299162864685 2.22288727760315 1.30972623825073 1.26673781871796 3.01795625686646 3.26671552658081 4.5861496925354 5.07814741134644 5.66852140426636 5.6825966835022 5.52284240722656 6.45047092437744 5.90177822113037 5.59244680404663 6.07964754104614 4.65728569030762 7.11854219436646 8.88712882995605 12.4819536209106 18.9875869750977 6.11999654769897 5.59892225265503 16.2400970458984 16.9265079498291 6.79129934310913 11.6955804824829 8.37911128997803 10.6452379226685 16.5749168395996 17.5372772216797 11.8104152679443 1.02511703968048 0.851885437965393 0.946375131607056 0.210638105869293 0.0440156497061253 1.07497251033783 1.46818172931671 4.25116682052612 3.77453565597534 0.0782144889235497 -0.186815649271011 3.63135457038879 10.0934038162231 7.39595031738281 19.7286186218262 4.44308996200562 2.40024757385254 4.04813528060913 19.0032806396484 19.466344833374 12.7087526321411 21.4376087188721 24.4329261779785 19.3456802368164 14.1852254867554 20.6885509490967 17.3479518890381 12.5802021026611 7.18843078613281 6.22788906097412 3.07582449913025 27.9159564971924 14.3097820281982 7.73099613189697 1.70851850509644 16.816312789917 15.1410846710205 8.03485774993896 4.11772203445435 5.13747882843018 4.06781387329102 0.969940900802612 12.5362167358398 7.51841497421265 6.70244932174683 1.54078507423401 8.29630661010742 9.51729297637939 9.62400722503662 11.4550724029541 13.7090225219727 16.3365077972412 15.2852411270142 13.0122356414795 24.1782741546631 9.42314052581787 1.96930313110352 20.3971500396729 -3.29732275009155 2.65272283554077 -2.10661911964417 4.52433776855469 -1.57049012184143 5.61903047561646 9.51029491424561 10.4692316055298 5.70725393295288 1.93213987350464 2.5942177772522 5.22234344482422 5.85190057754517 9.49706077575684 7.91973400115967 6.23740768432617 12.370189666748 12.0479545593262 16.081205368042 23.3307132720947 17.989294052124 20.8677997589111 27.537223815918 16.591968536377 14.2442951202393 13.2911100387573 11.6841869354248 4.86199378967285 8.03117084503174 11.2043857574463 10.9075765609741 11.5085983276367 15.8883399963379 15.8843517303467 17.9648895263672
1.50515854358673 2.31020998954773 2.40534543991089 1.01030695438385 2.89058423042297 1.01752495765686 2.07990169525146 0.241711497306824 0.459422051906586 0.605399608612061 0.91156941652298 1.27739918231964 1.70496237277985 2.20327687263489 0.647459268569946 2.67225050926208 3.06964659690857 3.50487041473389 2.9568886756897 2.17817354202271 2.30660581588745 2.4641273021698 2.7077853679657 2.37595629692078 2.27855777740479 2.31627464294434 2.21331167221069 1.84781134128571 1.51406097412109 1.81056129932404 19.820915222168 3.99107050895691 5.36282396316528 6.85760736465454 1.50245654582977 2.55974817276001 29.3937034606934 4.7230806350708 5.66631555557251 3.84009838104248 2.64552402496338 1.33631634712219 1.10658991336823 1.95276439189911 0.991060018539429 1.20735049247742 0.917566239833832 1.49047315120697 0.964574038982391 1.01905620098114 1.15310394763947 1.71450710296631 2.092933177948 1.21617782115936 1.15850627422333 3.19674611091614 2.73117303848267 4.40211772918701 5.3488187789917 5.37498807907104 5.01801204681396 5.1446328163147 5.84674024581909 5.34790420532227 5.05645513534546 5.52502918243408 6.66684293746948 7.11753273010254 7.17045307159424 13.2772445678711 14.2792806625366 19.5273761749268 16.4448623657227 9.32958221435547 9.42495536804199 5.39417695999146 9.24884414672852 7.3220591545105 8.33055973052979 5.48524618148804 12.4088859558105 10.313271522522 9.23152637481689 0.414899528026581 0.665549159049988 3.37207746505737 17.3779029846191 15.0672664642334 12.5235614776611 10.7654857635498 5.71633625030518 3.82637071609497 4.88080739974976 3.15752816200256 7.68658113479614 16.9511547088623 7.17692518234253 2.11243534088135 0.573531210422516 -0.427562475204468 12.2496767044067 12.6528587341309 12.491060256958 17.0882320404053 13.5962352752686 11.8103923797607 13.1300945281982 11.2000646591187 9.21068859100342 8.07633399963379 4.33390378952026 4.64921712875366 20.5808238983154 10.4537410736084 8.08038425445557 4.51231288909912 9.78409862518311 3.34052658081055 3.33081412315369 3.00397157669067 3.44293212890625 4.08000755310059 6.44958066940308 24.5266704559326 4.99462747573853 10.6005010604858 8.00502967834473 9.79231643676758 12.4415702819824 9.74678993225098 11.6384305953979 9.82710361480713 13.7538757324219 15.5987195968628 34.5589447021484 41.1981544494629 13.6372842788696 25.2376747131348 5.14406251907349 -2.83259415626526 3.40191912651062 4.11186695098877 8.74569892883301 11.0212726593018 5.60117721557617 2.44741725921631 1.3097288608551 3.01400208473206 3.3197181224823 13.6807899475098 17.6801013946533 8.07754516601562 5.43651962280273 4.08662128448486 7.53377103805542 29.4361171722412 31.3341197967529 44.3988265991211 42.8475303649902 11.0054092407227 29.6558628082275 19.7179946899414 15.679051399231 13.5103244781494 13.0649108886719 12.1955156326294 10.8270778656006 5.04961013793945 7.78713464736938 10.4774723052979 10.1623306274414 10.3190793991089 14.7956132888794 16.6562194824219
3.28167223930359 1.42929697036743 2.04895067214966 2.20149898529053 0.910927832126617 2.65314531326294 2.02092480659485 0.114847809076309 0.300019294023514 0.434357494115829 0.664814412593842 1.03899776935577 1.42670559883118 2.58715748786926 3.60555863380432 20.8552417755127 2.95300459861755 2.89225459098816 3.30076289176941 2.79119110107422 2.26710295677185 2.2433066368103 2.77158498764038 2.3221492767334 2.1250479221344 2.15047454833984 2.09517073631287 1.9790370464325 1.64288759231567 1.27182006835938 1.14402782917023 12.2230215072632 3.15819907188416 4.94007349014282 4.92051076889038 33.7064666748047 29.566349029541 4.20305919647217 4.49046611785889 5.39081287384033 3.62399339675903 2.51766562461853 1.23406910896301 1.06604218482971 1.88601648807526 0.925098657608032 1.1780858039856 1.4771591424942 0.958710730075836 0.936443328857422 0.953400254249573 1.09673953056335 1.61495816707611 1.99220454692841 1.17546594142914 1.75028610229492 3.04520082473755 3.80543780326843 4.41097593307495 4.77026128768921 4.79050254821777 4.61546659469604 5.58671092987061 5.13527250289917 4.91236639022827 5.48094892501831 4.45523977279663 6.11120748519897 6.37258386611938 6.63387060165405 8.81013870239258 12.8855009078979 10.9954605102539 6.17124223709106 6.86408185958862 7.07872247695923 7.93033981323242 5.72366380691528 7.34815073013306 5.1452260017395 7.09463500976562 8.32662105560303 0.966030180454254 0.0732431188225746 6.14615249633789 21.7922897338867 18.5174674987793 14.8728065490723 7.78116273880005 9.03576278686523 7.06058311462402 7.90795278549194 2.7635064125061 8.49417400360107 0.698771178722382 -0.252046674489975 8.17629146575928 0.00597865739837289 4.97227621078491 0.199408233165741 28.0437679290771 6.68830156326294 9.80871772766113 9.7694845199585 11.7680149078369 12.5257911682129 7.90607213973999 10.8570737838745 9.18521308898926 8.16831684112549 5.66583681106567 20.6237449645996 9.11092567443848 8.45796775817871 2.0919201374054 -0.417191505432129 1.65420293807983 0.780147433280945 -1.80415308475494 1.24165260791779 0.894631266593933 3.9888858795166 3.75943541526794 15.7189779281616 15.8342752456665 11.0366687774658 12.0508966445923 12.3123588562012 13.0880889892578 9.70435619354248 8.72748374938965 9.34071922302246 10.1934547424316 32.1544303894043 33.3051261901855 33.8271675109863 23.3361434936523 26.0355606079102 16.3467864990234 0.804791271686554 -2.07356119155884 2.21382522583008 5.78704643249512 11.3901872634888 8.19866561889648 1.55323123931885 3.04923176765442 10.9632081985474 20.6684818267822 13.330587387085 16.0888862609863 9.8884859085083 4.97691535949707 12.6666421890259 21.5128879547119 51.1641540527344 40.8307228088379 32.5026473999023 30.3650379180908 24.9918231964111 37.2849922180176 18.2201557159424 15.2871627807617 13.8076009750366 12.4077224731445 12.0443687438965 11.2111597061157 8.41134643554688 4.96440124511719 7.45780849456787 9.83745288848877 9.54895210266113 9.34628391265869 12.848090171814
4.92496347427368 1.3789758682251 1.21564543247223 1.96156358718872 2.03030800819397 2.51031851768494 0.914320886135101 1.87437462806702 0.353871613740921 0.34061536192894 0.555611968040466 0.702206671237946 1.10155129432678 1.68017625808716 2.2021791934967 13.817813873291 2.38979268074036 2.82149243354797 3.20660853385925 2.79294848442078 2.72842955589294 2.21619510650635 2.61800360679626 2.24611902236938 2.06318831443787 1.91472625732422 1.99321675300598 1.93800055980682 1.74593675136566 1.32976090908051 1.11543083190918 0.981098473072052 8.50199508666992 2.64767074584961 4.15198278427124 22.5976066589355 19.0489253997803 11.9197187423706 3.99632573127747 4.69491195678711 5.0597071647644 3.61365270614624 2.48995089530945 1.11688566207886 1.06434869766235 1.75132477283478 1.15002822875977 0.848052561283112 1.40031814575195 0.875684201717377 0.867928981781006 0.912729203701019 1.58890116214752 1.96268844604492 1.16252875328064 1.13377356529236 2.62877202033997 2.87762331962585 3.61536240577698 4.05974340438843 4.28613615036011 4.36140537261963 4.32303857803345 5.1471734046936 4.72071599960327 4.52443265914917 5.08260107040405 4.19233274459839 5.22722959518433 5.53881216049194 5.63705968856812 7.41183757781982 7.74590730667114 6.38025712966919 4.94364976882935 5.65565919876099 6.06095504760742 7.0137677192688 4.84951782226562 6.10242319107056 7.53436231613159 5.22037839889526 0.837417781352997 2.62545466423035 26.623815536499 9.52375316619873 14.9415893554688 12.0737791061401 7.01158809661865 5.91534948348999 1.27594542503357 1.65347003936768 3.77217864990234 7.09063243865967 0.210815638303757 0.024563156068325 7.54840993881226 0.154619097709656 -0.0314269326627254 8.65088844299316 18.9070339202881 3.49016427993774 6.88088369369507 8.43538475036621 14.2843570709229 10.3161153793335 10.8332109451294 5.57377624511719 7.51102495193481 10.7474069595337 8.16701698303223 22.363582611084 6.27737808227539 3.56243085861206 7.94986534118652 0.352974683046341 9.37094497680664 -1.68174183368683 -2.42556095123291 -2.22403073310852 -0.762415051460266 19.416296005249 3.42003321647644 3.29778075218201 11.1094036102295 17.2595081329346 10.9369888305664 14.6764650344849 18.7632236480713 19.5064563751221 9.33349609375 14.7105741500854 17.7844314575195 32.3930358886719 32.3994064331055 26.3211154937744 23.4064998626709 18.5963439941406 8.10212707519531 10.7710189819336 7.38211297988892 3.82665729522705 3.09990215301514 11.9410858154297 11.7209815979004 10.6947298049927 14.2073192596436 20.2766418457031 18.0347633361816 16.846529006958 12.1261367797852 11.186336517334 11.875846862793 28.2924346923828 31.5247802734375 43.9841690063477 30.4938907623291 25.5317325592041 23.5508518218994 22.9640636444092 24.368953704834 18.4691410064697 14.6367158889771 13.9092712402344 12.5022144317627 11.4237041473389 10.6321592330933 9.64967727661133 7.05782461166382 7.10037040710449 9.53080177307129 9.28160858154297 8.19722080230713 8.5130558013916
3.99838900566101 2.26812601089478 1.32698357105255 1.6934722661972 1.8675822019577 1.87134313583374 2.32707762718201 0.87699294090271 1.79640936851501 0.803258299827576 1.16426420211792 1.36484611034393 0.95579719543457 1.55470538139343 1.82313656806946 2.50374960899353 9.30278873443604 2.27077889442444 2.74403738975525 3.10668849945068 2.70593857765198 2.64815855026245 2.18973660469055 2.16669344902039 1.96781826019287 1.85769641399384 1.80574524402618 1.83394122123718 1.74249374866486 1.42584896087646 1.1393940448761 0.947404026985168 0.849764585494995 6.50876665115356 3.7066662311554 3.59911608695984 14.472297668457 12.3450784683228 8.90472030639648 4.0500659942627 4.85955858230591 3.53789353370667 3.48514890670776 1.18225514888763 0.962470233440399 1.66928136348724 0.8592649102211 1.09241366386414 0.78359192609787 1.34978413581848 0.855821549892426 0.862343072891235 1.05516588687897 1.51494228839874 1.8538144826889 1.08404934406281 1.07150542736053 2.7936635017395 2.39846634864807 3.84797883033752 4.18035173416138 4.22138357162476 4.01226186752319 4.01482534408569 4.74225997924805 4.38100957870483 4.19399499893188 4.63754749298096 3.8486180305481 4.54750823974609 4.86624717712402 4.82928800582886 6.241135597229 5.7890772819519 5.28672790527344 5.04962539672852 5.45762586593628 4.45580148696899 6.06881713867188 4.68572521209717 5.16810512542725 4.74313926696777 6.13557815551758 25.1717872619629 12.2459383010864 8.0922212600708 4.31440401077271 9.47955894470215 7.28193426132202 5.08676147460938 1.0632404088974 0.610171318054199 0.233332902193069 1.9272129535675 0.152985498309135 -0.237250626087189 1.33373022079468 -0.548018872737885 7.79942941665649 4.15284776687622 13.3615427017212 6.83670663833618 4.22101831436157 4.99451446533203 8.22335624694824 14.961841583252 9.61777877807617 11.8256664276123 24.2745265960693 24.3390865325928 9.70021915435791 19.7695636749268 14.181510925293 4.8956470489502 1.08189749717712 0.271084040403366 4.95210218429565 -1.49755108356476 -1.92561304569244 -2.7598078250885 10.944896697998 6.2194242477417 5.02163887023926 2.47487258911133 2.34403967857361 3.74711084365845 12.2476358413696 9.83797740936279 16.8128318786621 19.6783924102783 16.0151824951172 16.9426555633545 14.8261117935181 12.5881042480469 29.7903747558594 22.2602443695068 20.3507232666016 18.0461387634277 14.6429529190063 4.93962669372559 4.9927282333374 14.474157333374 9.69064807891846 18.33056640625 12.921088218689 8.68555927276611 16.0772171020508 16.5400943756104 17.1261253356934 14.6918630599976 13.8286628723145 12.7729969024658 14.5654754638672 38.5697975158691 37.1217613220215 36.5378379821777 30.6597957611084 24.5711345672607 21.1890430450439 14.8956623077393 18.9342269897461 22.6828231811523 14.9355945587158 12.8217010498047 12.6341972351074 11.3215160369873 10.5366744995117 9.84684562683105 9.07326126098633 4.70291423797607 6.76175117492676 8.97220516204834 8.7290620803833 8.22521305084229
0.935853183269501 3.48103308677673 1.98177194595337 1.28020668029785 1.65160763263702 1.79873394966125 0.756623029708862 2.07811331748962 0.798342227935791 1.69068431854248 1.8441241979599 1.93556308746338 1.39826798439026 2.26139163970947 2.26207637786865 2.55689787864685 2.23568606376648 7.12070083618164 2.07527589797974 2.66508603096008 2.9852921962738 2.61551332473755 1.98472833633423 2.13341212272644 1.93672394752502 1.8055202960968 1.65867626667023 1.63078570365906 1.63242268562317 1.53796660900116 1.23802983760834 0.9595627784729 0.841980457305908 5.83172845840454 2.15975689888 3.35078001022339 3.15520858764648 10.7311868667603 9.11233425140381 7.13213109970093 3.86827516555786 4.65793323516846 3.25943684577942 2.31102299690247 1.06236600875854 0.890547871589661 1.57026147842407 0.819266080856323 1.04623126983643 1.31258869171143 0.77083158493042 0.804571032524109 0.842809617519379 1.00088584423065 1.42893838882446 1.76840579509735 1.04606807231903 1.04750657081604 2.66266107559204 3.32489848136902 3.67277693748474 3.96446061134338 3.93320608139038 3.69906091690063 3.65623641014099 4.33459758758545 3.96105241775513 3.78603911399841 3.39541101455688 1.73037040233612 4.5716814994812 4.40945100784302 5.23678731918335 5.36822128295898 5.22245407104492 4.95696592330933 4.86022567749023 4.81108951568604 4.13021039962769 5.28559684753418 4.14673471450806 4.28941679000854 3.39741373062134 16.2734375 12.530161857605 15.6466674804688 10.9508905410767 4.20271921157837 6.30440092086792 2.73889303207397 0.462559252977371 0.458510160446167 0.275871098041534 1.90943622589111 1.07262432575226 11.4957714080811 8.37371635437012 8.4893741607666 17.2945919036865 3.5705349445343 1.03818488121033 0.052891593426466 4.23446846008301 12.9892778396606 16.1128559112549 6.92641258239746 13.7712135314941 26.1750411987305 27.5160846710205 27.0324897766113 17.2341365814209 13.3310861587524 13.8465013504028 5.72770214080811 1.94694232940674 24.3263835906982 2.81990742683411 1.20992267131805 -1.60026979446411 23.3792972564697 26.5037822723389 27.3244743347168 15.8766555786133 5.4709792137146 1.502077460289 1.67237782478333 7.69968700408936 28.4061260223389 26.1521968841553 42.8551864624023 17.5128345489502 22.8204498291016 13.3705730438232 42.0040397644043 40.5802726745605 8.21461486816406 11.6748208999634 16.6404972076416 14.6717233657837 8.33462715148926 4.07902765274048 3.75854682922363 8.75627326965332 11.9354333877563 9.87833309173584 8.48341083526611 9.31259822845459 10.7233095169067 11.6924257278442 12.0212965011597 17.7556266784668 26.1989593505859 26.1876182556152 43.22119140625 33.4934425354004 31.1045875549316 23.4023551940918 24.638256072998 20.428653717041 18.156623840332 23.7706832885742 16.233455657959 18.1416320800781 13.5266180038452 11.9816923141479 10.9128122329712 10.1479387283325 9.85729312896729 9.26584053039551 7.16648626327515 4.5409460067749 6.64777183532715 8.4810094833374 8.24582576751709
1.80175423622131 2.32960510253906 3.10696935653687 1.87474071979523 1.20226526260376 1.57919383049011 1.70433688163757 0.682236015796661 1.96311056613922 1.67685651779175 2.73462700843811 2.42247200012207 2.11759424209595 2.14505934715271 1.52810442447662 1.41856098175049 2.17439937591553 2.10126852989197 5.89610147476196 2.61433005332947 2.57332825660706 2.87710499763489 2.48816585540771 2.06304121017456 1.84256958961487 1.72744488716125 1.62266683578491 1.49903702735901 1.57114386558533 1.44470500946045 1.35751974582672 1.0496963262558 0.816751480102539 0.756638050079346 4.84521150588989 1.93356049060822 3.02581286430359 2.48845505714417 8.43513679504395 7.19699287414551 3.49828362464905 4.10762786865234 4.39762592315674 3.18355011940002 2.22511768341064 0.939585149288177 0.866144835948944 1.48527216911316 1.03647792339325 0.728771269321442 1.25050377845764 0.758887052536011 0.768851041793823 0.812369108200073 0.970371782779694 1.36868715286255 1.68519806861877 0.99970543384552 2.29316234588623 2.54920673370361 3.19607090950012 3.5472891330719 3.80316567420959 3.63038229942322 3.39056015014648 4.07239580154419 2.4742169380188 2.17919278144836 3.83570051193237 1.38493430614471 4.07742023468018 2.49193620681763 3.9383180141449 5.11289739608765 4.65973281860352 4.81137609481812 4.1225266456604 4.48287630081177 4.07611656188965 4.84884262084961 3.31271266937256 3.86176514625549 2.70601534843445 2.4632031917572 9.17720603942871 9.96802425384521 10.214747428894 1.08672058582306 5.01185894012451 2.27253079414368 0.0617995262145996 4.42699766159058 7.23915863037109 10.2348546981812 0.686791896820068 6.23479509353638 7.74324417114258 9.15485668182373 13.5183067321777 -0.171396806836128 -0.0652617812156677 13.6417598724365 -0.651783585548401 0.914502203464508 4.15201377868652 4.63891172409058 6.71705436706543 6.80684852600098 10.9031295776367 16.6492214202881 16.47092628479 9.13356494903564 7.86558055877686 9.43616485595703 7.57241201400757 18.0923557281494 23.2157497406006 25.8655471801758 17.7047386169434 28.5030307769775 19.3918132781982 6.12010908126831 12.7721338272095 5.20570707321167 11.5661516189575 6.79762077331543 30.5522136688232 37.6510124206543 30.268590927124 31.092945098877 24.6844844818115 10.8738794326782 11.2003507614136 39.8690528869629 7.93980598449707 7.82582998275757 12.4593315124512 31.5084495544434 13.3981990814209 12.4891958236694 13.550877571106 3.96220397949219 8.8524284362793 9.55799102783203 10.6432247161865 8.72686862945557 7.5131196975708 7.01037549972534 5.63748645782471 10.5301170349121 19.5830535888672 28.0681915283203 24.0761127471924 39.3564071655273 30.7528305053711 27.5672931671143 24.652214050293 22.4982280731201 21.0277652740479 16.8197803497314 17.4545555114746 15.2223386764526 14.4439678192139 15.3384809494019 12.3817510604858 11.1823167800903 10.283127784729 9.52348899841309 8.92897415161133 8.32603645324707 6.08750867843628 4.5091290473938 6.37562036514282 8.01333808898926
1.54466700553894 1.77061021327972 1.94639360904694 2.90970277786255 1.18467342853546 1.03889167308807 1.65989077091217 1.55849301815033 1.89562356472015 2.07253217697144 2.69064998626709 1.59316504001617 1.23531353473663 1.26627886295319 1.66767394542694 2.02984428405762 3.05625152587891 2.12744307518005 5.37045860290527 2.09663820266724 2.53251218795776 2.79985785484314 2.44941520690918 2.43060350418091 1.85372400283813 1.63792586326599 1.56663239002228 1.46560621261597 1.36736583709717 1.4247624874115 1.34787797927856 1.16164839267731 0.838712632656097 0.716609179973602 0.687449336051941 4.10882425308228 2.847496509552 2.61359190940857 7.36325359344482 6.19882965087891 5.20405149459839 3.54592609405518 4.232253074646 3.13447523117065 3.11711263656616 2.13868546485901 0.84913969039917 1.37157881259918 0.695190370082855 0.991214394569397 0.694600999355316 1.22973275184631 0.741509616374969 0.74802029132843 0.789696753025055 1.35404586791992 1.66191625595093 0.981441378593445 0.965435922145844 2.21644616127014 2.47015333175659 3.03370046615601 3.30567240715027 3.53713583946228 3.41615128517151 3.07581424713135 3.6575939655304 4.87992715835571 1.73257839679718 1.93960297107697 16.6020526885986 21.3596076965332 12.3107252120972 2.40344548225403 4.57891654968262 4.55101442337036 4.16901969909668 3.69070506095886 4.09205722808838 3.67674994468689 4.20371246337891 3.21045303344727 3.0946843624115 2.29053235054016 1.80818009376526 6.19185304641724 6.99364566802979 1.40621900558472 10.0981492996216 3.48732089996338 0.191858887672424 9.26699352264404 1.0715297460556 8.24643611907959 0.903815865516663 0.433849692344666 2.5683479309082 7.63864803314209 3.67949748039246 2.39837908744812 7.87728357315063 -0.0268877539783716 -0.76874190568924 -0.791627943515778 -0.316975861787796 3.1182222366333 4.25011301040649 4.01545143127441 11.3410387039185 5.42128562927246 10.5884132385254 10.5249433517456 6.7012300491333 6.48447465896606 6.43921756744385 4.84741973876953 10.2530088424683 24.0430870056152 27.0181713104248 36.9386100769043 19.0206089019775 28.398889541626 33.7436637878418 11.3808994293213 20.5312824249268 14.3891267776489 29.8794116973877 26.6583003997803 15.0900030136108 20.1809120178223 20.4881286621094 12.2534494400024 9.86458969116211 12.822826385498 7.94752216339111 8.9176197052002 21.1420288085938 20.05251121521 13.8995275497437 12.3330774307251 19.2834358215332 26.5802993774414 30.8944072723389 14.0564012527466 11.3510589599609 10.1275091171265 8.55210590362549 20.5182075500488 8.13770771026611 48.3249969482422 43.0553932189941 38.5941352844238 22.092041015625 31.2480487823486 28.260139465332 24.2664413452148 19.5133266448975 20.9031219482422 19.506067276001 17.5227565765381 15.3037414550781 14.3028516769409 13.9772205352783 14.3769474029541 12.7758150100708 10.6426467895508 10.6400279998779 9.60880756378174 9.17164993286133 8.59367084503174 7.97397565841675 4.13896751403809 5.96404790878296 7.7706298828125
2.72834324836731 2.5198016166687 1.71864640712738 -0.484968423843384 1.63420426845551 1.14254176616669 1.24214935302734 1.60396540164948 1.68126738071442 2.24372315406799 1.88935911655426 1.79777276515961 1.0300235748291 1.07569229602814 2.38552236557007 3.34724569320679 2.31289029121399 1.7098331451416 2.05496621131897 4.57842350006104 1.98927080631256 2.44373536109924 2.69522285461426 2.37402987480164 1.73058772087097 1.65576159954071 1.49734652042389 1.43062937259674 1.33081042766571 1.27460050582886 1.29198729991913 1.21201503276825 0.937259078025818 0.714374721050262 0.665159940719604 1.39786720275879 3.55759215354919 2.58989262580872 2.36036729812622 6.19415998458862 5.27883625030518 4.52758693695068 3.41442823410034 4.09126996994019 2.98982310295105 2.96288299560547 0.930120706558228 0.7388516664505 1.27769148349762 0.616801381111145 0.894228339195251 0.59128999710083 1.1524111032486 0.678310453891754 0.695597648620605 0.754180133342743 1.29307997226715 1.59815418720245 0.954943716526031 0.938662648200989 2.36371612548828 1.95867073535919 3.18657875061035 3.43317198753357 3.19985747337341 3.11883902549744 2.55507826805115 2.36027312278748 3.45861196517944 9.76163101196289 24.2234973907471 8.4556188583374 2.95221662521362 2.8699357509613 2.49363589286804 4.092942237854 3.97691249847412 3.73415422439575 3.43999981880188 3.7798171043396 3.21555829048157 3.54330682754517 2.57477283477783 2.30506372451782 1.93127346038818 2.61202621459961 0.338930368423462 4.38253211975098 16.4346008300781 4.87422323226929 1.02442252635956 7.11316013336182 0.356139808893204 0.371487379074097 2.28188133239746 0.181680262088776 0.270351648330688 1.92836344242096 0.572661161422729 1.32652616500854 7.23988103866577 -0.596176326274872 -1.1496719121933 -1.30838942527771 -1.46667349338531 -1.14088332653046 2.80131936073303 3.71773600578308 3.67452430725098 6.36223459243774 23.5205039978027 6.43791103363037 5.48024892807007 6.08678865432739 4.53267765045166 3.26894330978394 1.75359809398651 8.6931095123291 14.2918901443481 20.1096878051758 22.9602661132812 12.4804773330688 22.751615524292 10.5992383956909 13.8824663162231 1.99033510684967 9.20617008209229 17.9771728515625 17.9489765167236 11.6132068634033 15.2977657318115 16.1147327423096 13.5666389465332 30.1525859832764 12.435001373291 28.5872478485107 10.5840368270874 14.1084852218628 10.1401977539062 11.4195108413696 11.8164491653442 26.910249710083 27.8048629760742 27.2836780548096 22.0349025726318 12.7930488586426 22.4976615905762 23.7307319641113 15.5646619796753 42.2254219055176 32.7459983825684 28.5795993804932 22.411642074585 23.2371711730957 21.2430992126465 21.6989707946777 20.379358291626 22.9970817565918 18.6211376190186 17.5779495239258 16.0341835021973 14.0533332824707 13.1964864730835 13.049521446228 13.0694961547852 11.4363489151001 10.5601558685303 9.79791069030762 9.16644191741943 8.82687282562256 8.193115234375 7.5244460105896 4.09760713577271 5.64235877990723
2.51625561714172 1.8518146276474 1.60996091365814 1.22122001647949 25.6331806182861 1.55412614345551 1.10236001014709 1.36853742599487 1.57766914367676 1.65915441513062 2.3047993183136 2.31736493110657 1.78655338287354 3.9793062210083 4.38647031784058 3.346186876297 2.18364429473877 2.01652860641479 1.56438541412354 2.04404282569885 4.11349439620972 2.3682816028595 2.35836458206177 2.60551881790161 2.25739216804504 1.51479995250702 1.50716733932495 1.42273473739624 1.31994819641113 1.22269225120544 1.27531552314758 1.15826797485352 1.06471371650696 0.796649754047394 0.642184853553772 0.63070011138916 3.30837774276733 1.4665002822876 2.3863844871521 1.7685854434967 5.39570140838623 4.60542058944702 4.01227521896362 3.26341724395752 3.88263273239136 2.84608674049377 1.95965385437012 0.833910346031189 0.682375311851501 1.18758165836334 0.55991405248642 0.843089282512665 0.521949648857117 0.541912436485291 0.590263366699219 0.648389756679535 0.669481694698334 1.18355453014374 1.47497808933258 0.84595662355423 1.28744828701019 2.19026327133179 2.71287560462952 2.99967885017395 3.20751476287842 3.10210919380188 2.62789821624756 2.56830263137817 1.1791068315506 13.2136602401733 0.880389630794525 5.1272611618042 8.43813419342041 11.7200536727905 4.38396883010864 15.4633893966675 2.29179239273071 1.86498284339905 3.24949932098389 3.21760964393616 2.94298696517944 3.21252727508545 2.24250149726868 2.00557994842529 1.78723526000977 1.78648495674133 1.7149703502655 20.4462738037109 13.1324768066406 3.789137840271 1.65649354457855 1.39908003807068 0.18484129011631 0.331258207559586 0.190366819500923 0.39203143119812 3.49787759780884 4.01810932159424 -0.0117842173203826 5.12895345687866 -0.325180947780609 -1.23940408229828 -1.34811818599701 -1.61137306690216 -1.76787519454956 -1.65389537811279 -1.26267468929291 1.08540117740631 2.49298024177551 3.20562434196472 4.96746587753296 5.02376317977905 5.64923858642578 18.2705211639404 3.95973443984985 2.09201836585999 2.10099768638611 14.3415145874023 5.81664276123047 8.7087869644165 16.2384338378906 18.0342960357666 18.8245048522949 12.3168306350708 10.4061784744263 8.71706676483154 7.0042781829834 9.21685886383057 13.8896179199219 14.0996408462524 12.8128366470337 13.375391960144 16.9807586669922 31.6662864685059 25.8938484191895 24.2628345489502 24.9135074615479 22.8293170928955 25.6936531066895 30.8030567169189 25.6070461273193 11.2907266616821 21.0064125061035 24.4139785766602 23.7330989837646 25.1747169494629 25.2317008972168 29.1352367401123 19.6634159088135 36.5011177062988 27.996452331543 23.5797634124756 20.6702880859375 17.7846527099609 17.8925457000732 8.43079376220703 10.7701034545898 18.7462768554688 17.2987098693848 16.9100933074951 15.9945878982544 14.7945556640625 13.0384864807129 12.5199556350708 12.2071876525879 12.0389623641968 10.8872966766357 10.0988664627075 9.33744335174561 8.73416137695312 8.30772018432617 7.65595006942749 5.87920045852661 4.09304857254028
2.63637542724609 1.41481935977936 0.606675326824188 1.57562458515167 16.9444541931152 2.19860792160034 0.51803594827652 1.052579164505 1.36905407905579 2.22055649757385 3.19093632698059 3.02219223976135 3.26474046707153 4.39162874221802 4.25189924240112 2.62087726593018 1.92537415027618 1.94847798347473 1.87588834762573 3.11585998535156 1.74719786643982 3.69927382469177 2.27451157569885 2.53119230270386 2.21363735198975 2.07446599006653 1.47440493106842 1.3328013420105 1.28118419647217 1.18446469306946 1.1165224313736 1.16760087013245 1.0697934627533 0.880473375320435 0.649622082710266 0.600905537605286 0.575022578239441 2.94143199920654 1.33918714523315 2.22132706642151 2.53228330612183 4.77318000793457 4.05900001525879 2.93989133834839 3.43688750267029 3.70816612243652 2.71291851997375 1.89174103736877 0.740292906761169 0.616660296916962 1.11866497993469 0.521653234958649 0.493944674730301 0.482039958238602 0.516837418079376 0.52139151096344 0.565272390842438 0.696259260177612 1.07003140449524 1.34251403808594 0.750424981117249 1.77980148792267 2.01729226112366 2.50501203536987 2.78134751319885 2.96748280525208 2.89058566093445 2.48653769493103 9.86672401428223 30.98486328125 8.31083202362061 3.34734392166138 5.15018081665039 7.21866798400879 1.5467312335968 4.72521114349365 2.06679630279541 6.39822196960449 14.7895631790161 2.61055707931519 2.24047899246216 1.59367322921753 2.53088045120239 1.91440165042877 1.7214652299881 1.70766925811768 1.38126397132874 10.3148384094238 2.0564877986908 5.91905641555786 1.73612606525421 0.0292631704360247 0.91988879442215 13.8634824752808 11.775242805481 2.82933926582336 2.50201439857483 2.70511198043823 1.2166748046875 6.0238733291626 -0.120704859495163 -1.11642158031464 -2.01302313804626 -1.81010389328003 -1.93339121341705 -2.020174741745 -1.89390671253204 -1.60507237911224 0.726578235626221 2.88887238502502 2.709641456604 10.3714628219604 5.62279939651489 12.6365156173706 4.69625806808472 3.83499431610107 3.57746005058289 1.28811514377594 3.35686326026917 12.6404981613159 13.5790576934814 12.5768575668335 10.641489982605 11.6391191482544 7.15045738220215 8.50455856323242 4.65559005737305 1.77500307559967 15.9806547164917 12.0928325653076 12.1681871414185 12.4946155548096 13.0243244171143 24.1396160125732 21.7850456237793 22.1223907470703 13.5972108840942 11.2989063262939 26.2439956665039 22.1111698150635 18.1050148010254 11.2259845733643 11.070707321167 22.3245315551758 23.2245578765869 28.1391639709473 33.3034744262695 21.4759635925293 13.0221605300903 19.5976276397705 23.3117427825928 22.2166919708252 18.8830184936523 16.9295387268066 10.9861669540405 14.8118600845337 27.535457611084 24.2844562530518 16.9434795379639 15.7196063995361 15.5479440689087 14.713231086731 12.4560947418213 11.7855014801025 11.7341289520264 11.5066108703613 10.9824781417847 9.453049659729 9.45747566223145 8.73077201843262 8.02901935577393 7.38301372528076 6.832115650177 4.84969329833984
0.0145452758297324 1.87594437599182 7.47915554046631 9.61762237548828 1.45885133743286 10.7177610397339 1.48202455043793 1.03300309181213 0.936336576938629 2.08555507659912 2.90158009529114 2.34977626800537 2.38792681694031 2.92618346214294 3.02939367294312 2.55617642402649 2.06097817420959 2.43492937088013 1.91533529758453 2.29997277259827 1.98826313018799 3.50019025802612 1.78497624397278 2.24926900863647 2.36198925971985 2.04432249069214 1.94685673713684 1.34315657615662 1.19656074047089 1.15044856071472 1.06474900245667 1.0280659198761 1.06175816059113 0.962104201316833 0.751075148582458 0.607771754264832 0.555242776870728 0.529109120368958 2.65461301803589 2.10171508789062 1.88229668140411 4.33537817001343 3.6215546131134 3.17424011230469 2.95335984230042 3.51291155815125 2.61896538734436 2.5690495967865 0.904570162296295 0.632723331451416 1.03286397457123 0.444616258144379 0.402357667684555 0.381630688905716 0.401608645915985 0.432490527629852 0.43021485209465 0.491113841533661 0.956153690814972 1.22797608375549 0.636013031005859 0.611734509468079 1.57924020290375 1.82944166660309 2.28986740112305 2.57764768600464 2.78097105026245 2.78599834442139 2.39220333099365 20.7369823455811 4.29186773300171 20.1440143585205 13.9277658462524 3.3358108997345 1.53073811531067 20.7883377075195 2.16090512275696 4.68073272705078 6.85786819458008 2.53378200531006 2.44651079177856 1.9344722032547 16.7124042510986 2.05146741867065 1.78571343421936 1.63345718383789 3.38489317893982 5.12031888961792 6.64556264877319 0.946166694164276 8.50101280212402 0.0202517732977867 3.06362175941467 6.63045644760132 6.49017524719238 1.9739031791687 1.18866896629333 6.26970529556274 5.56110286712646 0.21475487947464 3.41966414451599 -0.7915198802948 -1.60140490531921 -2.17661452293396 -2.43513607978821 -2.26476454734802 1.28564023971558 0.696686565876007 -1.23664081096649 -0.18366950750351 1.42115366458893 10.0028848648071 4.56123018264771 7.4364218711853 6.59094953536987 3.61749339103699 3.10041618347168 5.57567739486694 9.20539379119873 18.0045070648193 8.09913635253906 8.44826889038086 9.13358974456787 6.24506425857544 5.71048641204834 5.45647525787354 3.00563383102417 2.98817920684814 11.5927295684814 11.3381404876709 11.7058782577515 9.38524341583252 11.5178499221802 13.3767147064209 17.8413257598877 17.8896827697754 19.6413516998291 33.851016998291 34.7109909057617 18.8034858703613 16.7679634094238 14.333779335022 10.9795351028442 12.5540533065796 17.9031543731689 20.8054008483887 20.1383686065674 23.6756629943848 16.0059089660645 16.9197425842285 19.1901473999023 18.4629783630371 18.5376987457275 11.6087265014648 9.39696598052979 27.1556854248047 32.3182983398438 29.1424369812012 24.4944667816162 15.5849704742432 14.7726421356201 13.9995937347412 13.2009010314941 11.8144941329956 11.2232713699341 11.0356750488281 10.5018997192383 9.75827693939209 8.78710079193115 8.75232982635498 7.84975910186768 7.47905445098877 6.89890575408936 6.4206223487854
0.796847462654114 22.8950538635254 4.69961595535278 6.04564380645752 1.35015523433685 0.855781853199005 7.96833086013794 1.44386696815491 1.01268815994263 2.33124184608459 3.00683784484863 2.32334017753601 2.22552537918091 2.16334080696106 2.25477170944214 2.04490399360657 1.95305705070496 1.875075340271 1.89847242832184 1.72586107254028 1.69363462924957 1.93404471874237 3.29546976089478 1.72384345531464 2.10415410995483 2.20657420158386 1.90608549118042 1.20837545394897 1.20246469974518 1.12667632102966 1.04110896587372 0.945756673812866 0.928122401237488 0.974879443645477 0.88777357339859 0.704321384429932 0.556481420993805 0.516174614429474 2.4988739490509 1.16649866104126 1.96698546409607 1.71265125274658 3.82760691642761 3.21859622001648 2.83850002288818 2.84215044975281 3.37855839729309 2.48870611190796 1.89787900447845 0.665502190589905 0.473811477422714 0.920383214950562 0.382164359092712 0.356500089168549 0.316339284181595 0.320752859115601 0.343833833932877 0.381019085645676 0.388554275035858 0.815700888633728 1.06586003303528 0.507400870323181 0.458396583795547 1.69643092155457 1.37406897544861 2.46444249153137 2.67813992500305 2.70496368408203 2.40688681602478 2.23998737335205 13.289475440979 3.23452854156494 3.83845162391663 2.55479717254639 12.458176612854 2.26784181594849 2.08913016319275 3.7757785320282 2.17417812347412 4.49587678909302 2.12189412117004 1.49710142612457 12.1076745986938 1.95714223384857 1.97288584709167 2.42850780487061 4.0994873046875 6.32253265380859 0.520778238773346 6.01743221282959 4.38349914550781 2.58895683288574 13.258807182312 14.6059217453003 4.62429046630859 3.86473798751831 1.68624091148376 0.841772675514221 3.03791522979736 0.818989336490631 9.07504844665527 -0.98542445898056 -1.45859313011169 -2.16379880905151 -2.49339842796326 -2.68020415306091 -2.61765074729919 -2.53745412826538 -1.20810449123383 6.96502828598022 20.1171875 25.4720344543457 15.2164907455444 6.48377752304077 5.35320377349854 4.3306679725647 3.4048023223877 17.0173110961914 20.3321170806885 12.2618741989136 7.45012187957764 6.14502048492432 2.30836391448975 4.03220844268799 3.93777775764465 8.04990673065186 30.3478908538818 24.3720684051514 26.6322536468506 31.5166721343994 10.667781829834 10.8295822143555 9.2764196395874 10.7795848846436 12.3104734420776 15.0245265960693 15.6650304794312 26.4506664276123 27.214168548584 17.8419303894043 15.7805271148682 14.277379989624 12.4916830062866 10.6904983520508 13.753134727478 18.0512142181396 17.2540302276611 17.1411209106445 17.624195098877 24.4572124481201 20.6649188995361 12.9835224151611 17.4147968292236 13.6846046447754 15.1551294326782 24.6867446899414 12.6041288375854 23.8412113189697 19.7696151733398 14.6847362518311 13.643159866333 13.7587223052979 13.0803136825562 12.4242496490479 11.246976852417 10.5861101150513 10.2473850250244 9.69987964630127 9.04321765899658 8.42005157470703 7.72763729095459 7.30143117904663 7.01467609405518 6.47864627838135
6.44673538208008 -0.685748875141144 2.04260754585266 3.06306791305542 4.26728391647339 1.56515872478485 1.36459159851074 6.35168075561523 1.41536808013916 2.4599494934082 3.25947403907776 2.51292777061462 2.18621897697449 2.1121084690094 1.93078708648682 1.73452508449554 1.66399002075195 1.77762126922607 1.70815908908844 1.60224795341492 1.43626701831818 1.53082191944122 1.86331021785736 2.81195640563965 2.05048322677612 2.00428771972656 2.09799194335938 1.75726222991943 1.17046213150024 1.03113412857056 1.00361347198486 0.93108868598938 0.908038020133972 0.9664705991745 0.864276707172394 0.811445653438568 0.625278890132904 0.502739012241364 0.482942938804626 2.28978323936462 1.08984553813934 1.82347118854523 1.44788134098053 3.47644901275635 1.70933604240417 2.56856870651245 2.746333360672 3.28737807273865 2.42947244644165 1.60394930839539 0.49360990524292 0.368061453104019 0.820656836032867 0.303279548883438 0.275451570749283 0.255701631307602 0.272811830043793 0.258522629737854 0.291015088558197 0.292555898427963 0.685370445251465 0.925452530384064 0.393121540546417 0.359148323535919 1.56959807872772 2.02772521972656 2.33471441268921 2.56158494949341 2.63434529304504 2.27004146575928 2.64552640914917 9.56485176086426 1.21629083156586 8.23717975616455 14.429141998291 14.8340148925781 3.92416334152222 1.95458614826202 3.32744312286377 1.94137275218964 5.95071077346802 2.00536966323853 14.7937507629395 6.75569725036621 2.99246549606323 4.36167478561401 4.99019908905029 4.45163917541504 1.08093965053558 11.8881044387817 4.05677938461304 4.04885673522949 10.2389097213745 8.49791526794434 6.16905641555786 8.12208843231201 0.30929908156395 0.115393035113811 13.1876783370972 0.529613316059113 2.24789905548096 -0.302320897579193 -1.43429481983185 -2.01586985588074 -2.37374973297119 -2.84770965576172 -2.87811088562012 8.30687618255615 7.8076319694519 -2.05980682373047 24.3266506195068 24.8266563415527 8.81441974639893 4.24617004394531 3.03928995132446 4.7342004776001 3.93038177490234 12.6650419235229 16.7165679931641 12.0727834701538 9.94762516021729 1.94375765323639 2.52512335777283 0.393576264381409 3.18953585624695 10.3281803131104 5.71406316757202 25.2741222381592 8.33314895629883 22.3485431671143 9.35042572021484 9.993332862854 10.2239437103271 10.3551483154297 10.7990455627441 12.2791175842285 15.1846895217896 13.5404682159424 19.5752696990967 20.2402877807617 15.6383666992188 14.0373754501343 12.7305517196655 11.2241868972778 10.2000846862793 12.0249271392822 15.6141729354858 15.1126194000244 14.9468040466309 14.4712944030762 15.9859733581543 14.2243795394897 13.1995935440063 15.2445240020752 10.6517782211304 26.4007053375244 22.7354125976562 12.0390024185181 18.8139457702637 15.6531171798706 13.6698350906372 12.774055480957 12.9785718917847 12.2414197921753 10.5063791275024 10.5535697937012 9.89959239959717 9.5149507522583 9.00200653076172 8.33841037750244 7.72038984298706 7.18282127380371 6.87789392471313 6.61839818954468
2.40986180305481 5.00222301483154 37.0869674682617 1.46898365020752 2.45463371276855 3.20470309257507 1.28416275978088 5.75695705413818 1.82883644104004 2.04305124282837 3.19094610214233 2.57989883422852 2.08442211151123 2.06983399391174 1.81425797939301 1.74181032180786 1.76690006256104 2.46316027641296 2.58129644393921 1.61911284923553 1.43442821502686 1.37393438816071 1.78277242183685 2.63226413726807 1.50372362136841 1.95346975326538 2.07742619514465 1.75348615646362 1.6303870677948 1.03223037719727 0.906591653823853 0.889654040336609 0.822577118873596 0.815726935863495 0.877705991268158 0.814132988452911 0.68520975112915 0.503463804721832 0.459491729736328 0.458780527114868 2.09303879737854 1.00153505802155 1.70110130310059 3.20060682296753 1.84904992580414 1.24683165550232 2.47593235969543 2.91232943534851 3.1176929473877 2.3011360168457 1.47639226913452 0.345652282238007 0.27477815747261 0.709010124206543 0.203084230422974 0.174002468585968 0.18078239262104 0.198231115937233 0.186647325754166 0.209948807954788 0.600298821926117 0.831930160522461 0.289773255586624 0.299759566783905 1.18302929401398 1.47843539714813 1.92837011814117 2.25576615333557 2.49720811843872 2.56638836860657 1.19578802585602 2.98123264312744 4.1619348526001 8.52108001708984 14.5444030761719 4.82244157791138 3.98131036758423 2.22467875480652 3.4136278629303 1.53849828243256 0.945459008216858 1.30652344226837 9.47229862213135 5.33082008361816 5.75317144393921 4.73371553421021 4.93814134597778 0.394996613264084 1.18747591972351 7.54149723052979 12.0030393600464 12.2583332061768 10.7016077041626 19.7339286804199 19.5841045379639 4.69663953781128 4.02871799468994 0.137332871556282 10.8334655761719 -0.0181716494262218 0.0302176382392645 -0.362806141376495 -1.12438821792603 -1.71255707740784 -2.62676215171814 -2.77606749534607 -3.17295241355896 5.45005130767822 -2.89698386192322 2.08923125267029 37.3599014282227 15.6912784576416 12.7431774139404 4.15399646759033 3.61443734169006 3.06839537620544 3.95004940032959 9.33985900878906 18.2119407653809 13.2174520492554 7.04610538482666 1.13807916641235 0.390588194131851 0.292181968688965 1.72038245201111 8.32657814025879 10.5855665206909 11.7357330322266 18.1554317474365 24.4612197875977 15.2243432998657 8.2902946472168 9.15047454833984 9.33303833007812 10.0783929824829 10.9952583312988 12.9306364059448 13.805832862854 12.5025396347046 16.2005176544189 16.6773929595947 13.4289789199829 12.992091178894 11.0842561721802 10.0277643203735 9.73110103607178 11.1425180435181 13.6521463394165 12.826397895813 12.6662979125977 12.4122285842896 12.6465845108032 12.6729230880737 12.6546773910522 13.4973125457764 17.6178512573242 21.2473449707031 12.6457481384277 11.4142074584961 15.9174394607544 13.3728485107422 12.9152870178223 12.4429407119751 11.697527885437 11.0807275772095 10.1749505996704 9.55174732208252 9.13188457489014 8.89378929138184 8.3748779296875 7.53582715988159 7.24986171722412 6.81283664703369 6.41948175430298
11.7969579696655 1.59498345851898 25.1536350250244 6.6563515663147 1.54088747501373 2.06060886383057 2.8841564655304 2.02254128456116 5.10619688034058 2.24617266654968 2.72167420387268 2.47120118141174 2.05441904067993 1.92069470882416 1.87570095062256 1.66813015937805 1.64226150512695 3.22325158119202 1.84020578861237 1.28783249855042 1.44449937343597 1.21197104454041 1.28627324104309 1.71342957019806 2.39958333969116 1.40509939193726 1.84671223163605 1.9344390630722 1.61714911460876 1.51541233062744 0.900314211845398 0.78684937953949 0.776661276817322 0.719961047172546 0.732126235961914 0.793390333652496 0.729225873947144 0.579486072063446 0.458873778581619 0.430003881454468 0.431850045919418 -0.187809199094772 0.273333519697189 -0.988901734352112 0.832024574279785 1.0706512928009 26.2355251312256 2.48474168777466 2.98136687278748 2.25513386726379 2.15516233444214 0.373434871435165 0.205605447292328 0.603924870491028 0.150491982698441 0.136991411447525 0.104303635656834 0.116189882159233 0.132185399532318 0.116634733974934 0.138917312026024 0.51891154050827 0.739217579364777 0.227003782987595 0.267519146203995 1.41757345199585 1.1580365896225 2.20495080947876 2.45411086082458 1.88938903808594 1.63819181919098 29.4854316711426 6.51897954940796 14.1787567138672 13.7753381729126 4.38041877746582 3.12456560134888 11.1218318939209 10.7628345489502 2.91578245162964 1.4252096414566 3.94972443580627 20.7019309997559 7.02533626556396 4.93425369262695 5.48737478256226 0.772936940193176 1.23110091686249 21.0204105377197 10.5789937973022 3.76872229576111 6.95243453979492 7.85078001022339 15.2407350540161 12.8455924987793 8.89099502563477 3.36875581741333 0.264863818883896 0.0855317339301109 4.15642023086548 5.50450849533081 0.0568510293960571 -0.421440213918686 -1.8459380865097 -2.29885029792786 -1.14340269565582 1.42046737670898 5.80940198898315 6.37484741210938 3.73531937599182 23.6559906005859 6.61438751220703 14.3664665222168 10.1401100158691 8.34074783325195 4.75213098526001 9.79048156738281 13.0424289703369 12.3218374252319 4.07064962387085 7.28305578231812 0.986114919185638 0.562878727912903 -0.1395593136549 3.7678394317627 22.7206382751465 16.720739364624 6.71290731430054 4.6892237663269 8.97621059417725 11.266975402832 11.6440849304199 8.23931407928467 8.51147937774658 8.17326068878174 9.5864200592041 11.0617408752441 11.7155017852783 12.6711454391479 11.7075424194336 13.9435749053955 14.2705450057983 12.5994176864624 12.0378980636597 10.6438217163086 9.53247261047363 9.23034000396729 11.80140209198 12.2607421875 11.7324714660645 11.1945104598999 11.1214981079102 11.3146839141846 11.4251279830933 11.2412643432617 13.7258377075195 11.2813100814819 16.3005352020264 10.9700298309326 14.7334260940552 12.10023021698 12.2580585479736 11.5883855819702 11.6025047302246 10.8560628890991 10.336085319519 9.59669303894043 8.99746227264404 8.63316917419434 8.13271236419678 7.82293510437012 6.92924642562866 6.99063682556152 6.47510099411011
24.6381683349609 0.873304128646851 3.70077300071716 17.0739059448242 5.60413837432861 2.45550489425659 2.7552797794342 2.14682769775391 2.20732498168945 4.80520296096802 2.15573072433472 2.38870429992676 2.10594272613525 1.87022697925568 1.67841875553131 1.80229592323303 1.55235254764557 3.02786564826965 1.54444110393524 1.34791314601898 1.29723012447357 1.2140064239502 1.27513825893402 1.30203080177307 1.64386391639709 2.17593622207642 1.24255430698395 1.73269045352936 1.78346252441406 1.49198889732361 0.792631864547729 0.786371171474457 0.74381011724472 0.685215353965759 0.630462825298309 0.652485311031342 0.715563416481018 0.661670446395874 0.531301259994507 0.429967790842056 0.407293558120728 -0.394426792860031 -0.676567614078522 -1.01458990573883 -1.38380086421967 0.09354567527771 0.946303844451904 2.23497271537781 2.358402967453 2.81718873977661 1.85406708717346 0.548174023628235 0.280761122703552 0.151440337300301 0.523875296115875 0.0886013582348824 0.0696159899234772 0.0374306924641132 0.0546218827366829 0.0735379084944725 0.0638857036828995 0.0293001681566238 0.479114890098572 0.701423168182373 0.59074467420578 1.27379024028778 1.41620850563049 1.86982715129852 2.1984658241272 2.43410658836365 3.99963688850403 26.1503009796143 1.89861869812012 9.93937587738037 2.81890249252319 1.98044157028198 5.57242202758789 7.30012464523315 6.95059251785278 1.93823719024658 9.79619693756104 18.4387969970703 23.1365966796875 5.48821878433228 6.33652210235596 1.28400135040283 1.47701418399811 8.56507301330566 19.7591419219971 8.86850833892822 6.42912769317627 14.6062383651733 5.91997718811035 4.85157108306885 9.6785364151001 8.11004066467285 4.92259311676025 1.88906073570251 4.5630931854248 6.40719413757324 6.83823680877686 2.80525493621826 1.2489800453186 -1.18892824649811 -2.21554017066956 4.62007713317871 -0.734279334545135 5.11251020431519 3.03025650978088 9.63462066650391 9.88589763641357 10.7173833847046 18.2359447479248 10.624137878418 6.2601752281189 3.06176590919495 2.8174786567688 3.13206768035889 3.77786231040955 5.5395245552063 2.65759253501892 0.727087140083313 0.399823129177094 0.0565052516758442 20.7959480285645 12.9561862945557 10.9014730453491 7.19011116027832 8.07455921173096 33.6656494140625 18.8737125396729 10.3564338684082 9.93754863739014 7.86046981811523 8.21020030975342 8.87429237365723 9.47149753570557 10.4783029556274 11.2257614135742 11.6163244247437 12.9999494552612 13.3239030838013 12.1509685516357 11.6076755523682 9.88823986053467 10.1275634765625 9.06295680999756 9.0096435546875 11.643383026123 11.0545845031738 10.8812341690063 10.5209293365479 10.5068435668945 10.9997043609619 10.3981733322144 11.7196416854858 10.253246307373 10.5749406814575 13.2932720184326 10.4123620986938 13.0523548126221 10.9307088851929 11.6209573745728 10.8750858306885 10.8418273925781 10.1221561431885 9.66378974914551 9.06313991546631 8.50746154785156 8.20321464538574 7.69059371948242 7.26918935775757 6.96475648880005 6.56160545349121
20.8706836700439 0.717808783054352 11.4272813796997 3.59695315361023 12.9551525115967 1.73521637916565 2.01207137107849 2.65374135971069 1.64568376541138 1.90796875953674 4.35366106033325 1.98520016670227 1.99611151218414 1.80303454399109 1.59899926185608 1.5653715133667 2.48904705047607 2.62404751777649 1.43454170227051 1.25385367870331 1.22032356262207 1.18760049343109 1.06257283687592 1.21809899806976 1.61216616630554 1.26747679710388 1.94327175617218 1.68027591705322 1.60673582553864 1.66380560398102 1.38413953781128 0.774562835693359 0.652300894260406 0.643851041793823 0.59137886762619 0.6164311170578 0.688182592391968 0.623688519001007 0.601757943630219 0.445786148309708 0.360558778047562 -0.180725857615471 -1.17452776432037 15.6974191665649 -1.24324071407318 2.21479082107544 13.9433193206787 4.98596954345703 2.11323761940002 2.51142263412476 2.6626763343811 0.834943652153015 0.488637059926987 0.189985185861588 0.0720321387052536 0.440931797027588 0.0108685819432139 -0.00108497706241906 -0.0168277081102133 -0.0257760901004076 -0.0418545268476009 -0.0523078069090843 -0.0248967353254557 0.470316052436829 1.42656445503235 2.09732389450073 2.14275717735291 1.86031568050385 1.85973072052002 2.16143941879272 9.81353569030762 8.30670356750488 2.49244856834412 2.23877358436584 0.786545038223267 10.9463996887207 0.121742501854897 2.06741094589233 3.49978280067444 4.55869579315186 2.28452801704407 13.3302459716797 16.9889965057373 0.828615486621857 0.637855350971222 1.56804311275482 9.51696300506592 9.47480297088623 1.22085440158844 11.3624839782715 3.55054903030396 9.36288452148438 5.25917100906372 3.99272012710571 3.82728672027588 8.09245109558105 6.98524284362793 2.40485453605652 6.39741897583008 3.5336766242981 3.96025681495667 -0.0835183039307594 0.00445938110351562 -0.455005168914795 9.62864303588867 1.15145313739777 1.22630631923676 12.5079355239868 10.6653604507446 7.58100366592407 12.2463569641113 15.7491092681885 18.5896606445312 13.0165538787842 6.89277648925781 1.32571363449097 2.31675457954407 2.16722083091736 2.9136061668396 2.6174898147583 1.75321280956268 0.622882664203644 -0.260900586843491 0.0233160853385925 -0.0410200729966164 6.06452560424805 8.67304801940918 8.55252647399902 6.6811146736145 3.95303654670715 12.1691951751709 8.733473777771 9.45553112030029 6.90901851654053 7.83930397033691 7.9650673866272 8.69595336914062 9.19568920135498 10.2362623214722 10.9977588653564 10.4941205978394 11.8739557266235 11.3663463592529 10.7902841567993 10.6456003189087 9.88097381591797 8.85464096069336 8.6458740234375 8.9962911605835 10.5361127853394 10.0533771514893 9.95821762084961 9.82633209228516 9.80047225952148 10.0408754348755 9.72525691986084 10.6739883422852 9.63208293914795 12.7672910690308 10.2786502838135 10.3002099990845 11.8054656982422 10.2498064041138 10.849720954895 10.2054510116577 10.154070854187 9.4628734588623 8.57487487792969 8.61469268798828 8.10921001434326 7.71872091293335 7.36277437210083 6.94507694244385 6.69585084915161
15.5760526657104 -0.350589781999588 -1.14117884635925 1.70716071128845 3.19619131088257 10.5911350250244 2.89789009094238 1.94615185260773 2.42374420166016 1.95377242565155 4.16294717788696 1.84133946895599 1.91023790836334 1.98953723907471 1.58960270881653 1.51342415809631 1.72869253158569 1.521608710289 1.51957547664642 1.18136346340179 1.12119126319885 1.09801781177521 1.03719294071198 0.965293705463409 1.15784704685211 1.5302962064743 1.85773599147797 1.1295964717865 1.56287133693695 1.630291223526 1.35139393806458 1.26579570770264 0.664281904697418 0.543791830539703 0.531821191310883 0.496480941772461 0.531613290309906 0.591204583644867 0.539603710174561 0.450605154037476 0.325668573379517 0.309977501630783 -0.814557433128357 13.0130252838135 5.46447038650513 10.8352022171021 11.7078790664673 0.226494982838631 0.985078930854797 2.10269093513489 2.54658031463623 1.02218163013458 0.776403963565826 0.339302718639374 0.0756288543343544 0.350626975297928 -0.052760723978281 -0.0635989084839821 -0.110216058790684 -0.147735700011253 -0.162295237183571 -0.134354010224342 -0.0835810899734497 0.688581645488739 1.59286963939667 1.92142164707184 1.80026686191559 1.27671945095062 1.40996170043945 1.81270003318787 2.10163283348083 6.99246740341187 13.4504261016846 19.5889186859131 1.90261542797089 -0.18256813287735 -1.48958551883698 33.3272018432617 1.50647211074829 3.10617876052856 4.17247104644775 0.839463233947754 -0.215491369366646 0.507150411605835 15.8387632369995 15.9606218338013 3.79624962806702 1.41471147537231 8.91833400726318 11.0346040725708 9.32685089111328 2.78177165985107 4.76135444641113 3.39021921157837 3.39409804344177 4.22548484802246 6.25808048248291 2.46024608612061 2.95435762405396 0.583220243453979 2.45285296440125 0.206051558256149 15.2385816574097 4.84150981903076 -1.32409965991974 7.8600869178772 16.7624111175537 28.1205902099609 23.5010375976562 13.3375673294067 17.4823436737061 23.6535015106201 15.7598905563354 9.79036712646484 7.14304161071777 3.24138808250427 17.9006748199463 6.55101203918457 4.19536018371582 2.74279928207397 5.00255584716797 1.50785601139069 0.0799098834395409 -0.327068120241165 4.10769414901733 23.5801944732666 9.41935443878174 10.8479995727539 7.62125492095947 6.16867828369141 13.129451751709 9.65153026580811 8.15542030334473 8.94100379943848 7.36018753051758 7.63767337799072 7.47588539123535 8.60874462127686 9.29598903656006 9.83258247375488 9.99045181274414 9.76603031158447 10.7386112213135 10.1513347625732 10.1556577682495 9.53307628631592 9.4134521484375 8.44351768493652 8.25527572631836 9.38801193237305 9.60024833679199 9.52560806274414 9.13778877258301 9.17179584503174 8.9193811416626 9.22655868530273 8.84373760223389 9.86105155944824 9.86240005493164 11.0961332321167 9.73962783813477 9.74678039550781 10.4790105819702 9.73778915405273 10.159478187561 9.77913093566895 9.13737773895264 8.81069850921631 8.40665435791016 7.91387605667114 7.65983772277832 7.04927158355713 5.71619081497192 5.25021123886108
9.35588264465332 -1.29245805740356 -1.32156097888947 -1.46749246120453 0.606270492076874 9.13570690155029 4.22600555419922 1.7664920091629 2.06092715263367 2.40358972549438 2.1978907585144 3.88062644004822 1.77084732055664 1.78750085830688 1.62395751476288 1.52252578735352 1.48547518253326 1.706378698349 1.2064653635025 1.46790862083435 1.05148279666901 1.00004780292511 0.975628435611725 0.900331795215607 0.915057897567749 1.0959986448288 1.44783556461334 1.6430070400238 1.00666105747223 1.46825778484344 1.50628817081451 1.240114569664 0.547011971473694 0.546910762786865 0.427713066339493 0.423292726278305 0.356695234775543 0.39307427406311 0.488389819860458 0.456694781780243 0.361669510602951 0.276367574930191 -1.12254726886749 -1.27640795707703 6.10286331176758 10.0312843322754 -0.411749631166458 1.23700022697449 5.07041692733765 32.1773109436035 2.00138354301453 2.44131278991699 0.864201068878174 0.461459517478943 0.123185954988003 -0.0361824929714203 0.286788910627365 -0.139267787337303 -0.178730666637421 -0.227210208773613 -0.230531647801399 -0.0453023239970207 0.451970756053925 1.32323038578033 1.78276193141937 1.62531876564026 1.5332647562027 1.24906551837921 1.11683809757233 1.12584888935089 1.74643647670746 1.61195886135101 0.994186758995056 13.7334423065186 5.11391687393188 -0.760793626308441 -1.38289070129395 18.9403839111328 1.54462742805481 1.63652420043945 0.571115911006927 0.276607602834702 10.0437440872192 35.5066757202148 23.4887809753418 10.6928091049194 15.3027076721191 1.03490507602692 13.4200458526611 7.02249002456665 3.61914443969727 6.33425235748291 1.9391770362854 3.50650501251221 3.04880833625793 2.39531993865967 4.19502305984497 2.34110856056213 1.80082678794861 1.13580107688904 0.186635568737984 12.2698163986206 -0.149273708462715 12.4994535446167 3.50934815406799 10.4941091537476 25.1276626586914 29.1085262298584 23.3659915924072 18.9426574707031 24.9981479644775 23.8323135375977 14.8839073181152 7.30961084365845 5.10210371017456 5.55936527252197 18.3361110687256 18.8294429779053 23.4047431945801 23.5635719299316 11.5490884780884 4.24154758453369 0.858064234256744 5.7279224395752 17.5609397888184 26.7805347442627 8.33621025085449 4.77436923980713 8.11261558532715 13.2432861328125 3.91424775123596 4.20953226089478 8.83924007415771 7.84728956222534 8.56240272521973 7.23491668701172 7.49754524230957 7.31633043289185 8.23841667175293 9.09376049041748 9.26223850250244 9.39363479614258 9.31577110290527 9.77877235412598 9.3817834854126 9.38069343566895 8.69547367095947 8.98002815246582 8.05110836029053 7.20219421386719 9.13635444641113 8.76577472686768 8.79477119445801 8.54725170135498 8.60077095031738 8.8661642074585 8.41829776763916 9.53820037841797 8.90487957000732 9.31261444091797 9.69017314910889 9.1923828125 9.99934482574463 9.28286933898926 9.72439384460449 9.20051956176758 9.22772312164307 8.64835453033447 8.25435543060303 7.81206369400024 6.7698450088501 5.78301668167114 5.22960042953491 4.5590558052063
