NCOLS 174
NROWS 31
XLLCORNER 354032
YLLCORNER 6701040
CELLSIZE 16 
NODATA_value -3.4e+38 
-0.611836731433868 4.98994016647339 -0.68733811378479 0.555367946624756 1.4931173324585 9.89183235168457 19.1638431549072 13.0164260864258 15.7400074005127 0.298033207654953 1.45033121109009 1.65740764141083 16.3123435974121 4.64580059051514 15.6877508163452 19.9825973510742 -0.661265432834625 1.73142027854919 2.29982566833496 3.07704377174377 16.7853240966797 0.490566790103912 2.26380491256714 4.05342721939087 -2.53585648536682 -4.46563577651978 -4.26063585281372 -3.26183748245239 -4.04706764221191 -3.55905175209045 -3.0563702583313 -2.7075309753418 0.73462176322937 1.56174492835999 9.13657283782959 20.745584487915 15.6787614822388 15.7455549240112 18.7714328765869 -4.60964584350586 -4.3091459274292 -4.13103866577148 -3.81351780891418 -3.56511330604553 0.451231211423874 1.32556867599487 -3.026606798172 3.04776191711426 6.65281772613525 -2.43626880645752 -2.30137896537781 -2.16820955276489 -0.833399653434753 -0.724787533283234 -0.716401159763336 -0.70469081401825 -0.676619648933411 -0.315626680850983 -0.0776728615164757 0.220327153801918 -0.172598361968994 -0.455608397722244 -0.337404042482376 -0.259595513343811 -0.151254191994667 -0.14258673787117 -0.346559703350067 -0.312959730625153 -0.245971351861954 -0.16782546043396 -0.132376179099083 -0.0866680890321732 -0.0622388459742069 0.0129284337162971 0.193402051925659 0.229449465870857 0.289381474256516 0.357770562171936 0.463526159524918 0.605454921722412 0.750935912132263 0.909420788288116 1.00500071048737 1.10515284538269 0.922967910766602 0.743425250053406 0.858678817749023 0.954398632049561 1.05583453178406 1.16480219364166 1.2492208480835 1.33076119422913 1.45525979995728 1.54256522655487 1.68985104560852 1.88354980945587 2.14185523986816 2.47098255157471 2.85896944999695 3.29752135276794 3.85558867454529 4.66087007522583 2.96193647384644 4.63798236846924 6.26252269744873 11.1690692901611 7.55336570739746 0.417492359876633 0.776613891124725 5.36059141159058 0.68218070268631 1.46430063247681 3.89362978935242 4.71604633331299 4.179039478302 1.78096723556519 11.7921991348267 7.32738399505615 0.0836490020155907 0.512692034244537 0.532509207725525 0.545384585857391 0.949297964572906 0.977166652679443 1.0060977935791 1.03582108020782 1.05850636959076 1.08954322338104 1.79079055786133 1.83319628238678 2.47405004501343 2.53076672554016 2.58860659599304 2.64258456230164 3.03579640388489 3.2920982837677 3.79702067375183 3.87787127494812 4.84449338912964 5.12595176696777 5.36447143554688 5.47937154769897 5.59967803955078 6.10883808135986 6.23958969116211 6.37511157989502 6.51664781570435 6.66602516174316 6.68923711776733 6.86386108398438 7.04410171508789 7.2331976890564 7.43217897415161 7.64425849914551 7.64875841140747 8.01401996612549 8.23607635498047 8.48157691955566 8.77410125732422 9.05311393737793 10.0129041671753 20.1168937683105 9.30263900756836 9.72592258453369 11.2068481445312 16.5334072113037 19.0265007019043 9.68029975891113 28.0800304412842 15.6805944442749 16.8761043548584 24.9340724945068 16.9761238098145 11.3699111938477
-0.812991678714752 7.48880910873413 0.17397466301918 0.841944932937622 2.44718408584595 16.0929126739502 8.16322994232178 11.262622833252 23.3146667480469 2.01768684387207 2.12919640541077 4.98639726638794 4.85169887542725 5.26243305206299 6.57782554626465 8.64631366729736 -0.740136861801147 1.00416588783264 1.76048529148102 3.33607816696167 5.83233118057251 -2.53678488731384 -2.50978302955627 4.52715587615967 6.28913450241089 -4.71891307830811 -4.41420602798462 -4.2195348739624 -3.51658177375793 -2.61341762542725 -1.01149094104767 -2.84228324890137 3.37507271766663 5.36127948760986 12.9137306213379 30.8590927124023 5.11370134353638 21.7955112457275 23.5405960083008 -4.13040542602539 -3.71681833267212 -3.55519080162048 -3.46666765213013 -1.7647123336792 -3.06976938247681 12.6880493164062 -2.77374792098999 3.34758996963501 1.98214387893677 -2.48230338096619 -2.32881045341492 25.3874988555908 -2.08016014099121 -0.476722538471222 -0.656273663043976 -0.631432414054871 -0.327226251363754 0.109938591718674 0.240790069103241 -0.389919221401215 -0.147654697299004 -0.0161465667188168 -0.0973027795553207 -0.47020697593689 -0.397660881280899 -0.392757058143616 -0.446704924106598 -0.438436150550842 -0.393475085496902 -0.327731639146805 -0.10059579461813 -0.0465840063989162 -0.0122405299916863 0.008906708098948 0.0244456399232149 0.0502196848392487 0.0976089239120483 0.170692920684814 0.253506928682327 0.336136132478714 0.445012956857681 0.541886925697327 0.616742372512817 0.940603494644165 1.21527779102325 1.32480549812317 1.42299652099609 1.53032517433167 1.66431164741516 1.81223273277283 1.96014261245728 2.10096788406372 2.24437308311462 1.91818952560425 1.71525013446808 1.88134849071503 2.12048125267029 2.48166346549988 2.89577341079712 3.37488341331482 4.11496829986572 4.54454755783081 6.1716628074646 9.41030597686768 18.5793609619141 4.89132261276245 -0.0341240428388119 13.2425670623779 6.44227123260498 2.18172860145569 -0.01738784275949 0.0642215088009834 2.97969651222229 -0.0424699820578098 -0.0230592712759972 7.28153228759766 8.31098651885986 0.847124874591827 0.0373770967125893 0.768075466156006 0.832055687904358 0.839037477970123 0.737172663211823 0.615966975688934 0.582240402698517 0.614916801452637 0.706552863121033 1.08869218826294 1.78326463699341 1.90692663192749 1.94738125801086 1.99276149272919 2.0386483669281 2.082195520401 3.38870215415955 3.47942805290222 3.52131652832031 3.63729357719421 3.78815340995789 4.49768352508545 5.31094694137573 5.42334794998169 5.54406929016113 5.66872978210449 5.79841756820679 6.00625228881836 6.14974164962769 6.29980182647705 6.83778142929077 7.00208330154419 7.17232322692871 7.35244274139404 7.54001235961914 7.73682308197021 7.94462728500366 8.16297054290771 8.37163734436035 8.642653465271 8.91068458557129 9.22203731536865 9.92347621917725 14.6252241134644 27.9493026733398 10.8303775787354 20.7624397277832 9.20163536071777 9.71000289916992 10.6813411712646 11.0842294692993 14.990255355835 25.4990749359131 11.6449127197266 29.6610240936279 12.4446725845337
-0.106961138546467 -0.0377928167581558 0.0269461236894131 0.312295615673065 2.56556272506714 3.06235980987549 10.0511770248413 9.11297416687012 11.9348726272583 19.2807922363281 4.63042163848877 2.83969664573669 8.614013671875 18.4107112884521 38.1639938354492 17.4314098358154 -2.9033031463623 5.09648895263672 8.5633659362793 3.59952044487 -4.63040542602539 -4.43562936782837 -1.38514375686646 -4.26967000961304 -3.10575079917908 -4.05901193618774 3.17614102363586 -3.89460444450378 -2.00824189186096 8.71597576141357 -3.66761517524719 3.56880688667297 14.8944988250732 8.44798946380615 30.0412731170654 -3.68850064277649 6.73859453201294 2.20140624046326 0.467923134565353 10.5396108627319 -1.10053050518036 -0.0275611765682697 -3.12617158889771 -1.15118908882141 0.95877069234848 27.1848659515381 -2.61438417434692 -2.48032665252686 -2.16214609146118 2.06761932373047 -1.8069030046463 -0.56341540813446 -0.45746773481369 -0.249699890613556 -0.0977717861533165 0.0331264138221741 0.0436858832836151 -0.500288367271423 -0.335194528102875 -0.127555847167969 0.0449562966823578 0.0503111593425274 -0.207472920417786 -0.730932891368866 -0.499642997980118 -0.595174908638 -0.730491995811462 -0.466073364019394 -0.440297245979309 -0.391497910022736 -0.341738641262054 -0.212145283818245 -0.171483069658279 -0.145598769187927 -0.134227991104126 -0.116116151213646 -0.0687086582183838 -0.00315367081202567 0.0875611752271652 0.384156286716461 0.471291065216064 0.546606421470642 0.620863556861877 0.685194909572601 0.751351833343506 0.807317197322845 0.853443443775177 0.928427636623383 1.00413453578949 1.09711742401123 1.19614744186401 1.29635941982269 2.04564809799194 2.41875195503235 2.62869429588318 2.88601589202881 3.22891759872437 3.61898374557495 4.06868982315063 4.60713481903076 5.25807094573975 6.30450916290283 7.33435869216919 10.248420715332 20.523229598999 2.12905764579773 6.8030104637146 -0.0497200414538383 3.08225250244141 19.3120212554932 1.41489470005035 -0.110343657433987 2.61207938194275 3.71050620079041 6.91213083267212 0.117019392549992 0.62745463848114 0.717837333679199 0.744938910007477 0.772871673107147 0.795976459980011 0.882073819637299 0.977041065692902 1.04662978649139 1.12915182113647 1.23530733585358 1.36863780021667 1.57349932193756 2.1203887462616 2.17087936401367 2.56652402877808 2.53054642677307 2.3178653717041 2.42499351501465 4.45072460174561 3.5372269153595 3.6636278629303 3.7619936466217 3.89448308944702 3.98261332511902 4.57638692855835 5.0951075553894 5.20219850540161 5.31650686264038 5.43592023849487 5.94728994369507 6.08963680267334 6.23853397369385 6.39574909210205 6.56062078475952 6.73263740539551 6.91734600067139 7.10649251937866 7.30724382400513 7.61544847488403 7.83063173294067 8.05087280273438 8.65950775146484 8.89678001403809 9.19164943695068 10.7180871963501 15.7299423217773 29.3399562835693 9.36380004882812 9.8476037979126 10.0747566223145 32.8572311401367 12.6300916671753 11.0193319320679 14.4136180877686 29.7152404785156 12.0242691040039 14.36048412323 15.086893081665
17.814115524292 -1.52757239341736 -0.438306778669357 0.142817422747612 7.56649541854858 11.0940446853638 33.7161636352539 2.77930307388306 11.0260429382324 14.7554817199707 2.82002377510071 10.9458408355713 8.05708885192871 35.8405113220215 16.2022380828857 24.4384136199951 1.21403288841248 8.92383193969727 3.21167302131653 -2.5426652431488 2.57103037834167 -4.54060983657837 -1.10905134677887 -4.22963666915894 -3.94206953048706 0.862582266330719 -3.65830612182617 -3.55979490280151 -2.50934314727783 18.175594329834 -3.21958208084106 -2.79322266578674 1.47510147094727 4.41961097717285 7.28968715667725 24.86887550354 -3.03976917266846 3.32380342483521 0.014259890653193 -1.68671977519989 -0.051574744284153 0.643387675285339 2.5231716632843 11.634934425354 2.24135875701904 11.0034284591675 -2.48757576942444 -2.38763880729675 -1.8270435333252 -1.79415488243103 -0.305744588375092 -0.178718149662018 0.416292697191238 0.638309419155121 0.89637553691864 1.03296780586243 -0.457869708538055 -0.247025921940804 -0.0934414565563202 0.0380987897515297 0.112656995654106 -0.241322815418243 -0.688730657100677 -0.645979225635529 -0.635872662067413 -0.633002281188965 -0.619962811470032 -0.60948657989502 -0.605455756187439 -0.621468126773834 -0.604668140411377 -0.564117193222046 -0.259033441543579 -0.230278134346008 -0.20863763988018 -0.195629745721817 -0.147550418972969 -0.0715300291776657 0.00049645930994302 0.0560216084122658 0.225812450051308 0.288454741239548 0.348840534687042 0.397624641656876 0.445622801780701 0.489383578300476 0.541712284088135 0.58476322889328 0.691547989845276 1.0430736541748 1.12370765209198 1.22335255146027 1.31732547283173 1.41331362724304 1.50961768627167 1.63449847698212 1.77496838569641 2.01512312889099 2.20484852790833 2.41223978996277 2.63838958740234 2.91044282913208 7.86082983016968 10.5711841583252 13.7675685882568 28.3729000091553 5.11142921447754 0.0717071443796158 0.209211513400078 11.2195482254028 0.677631616592407 10.3116416931152 1.70147144794464 2.24189114570618 3.09700512886047 5.87949323654175 0.243757769465446 0.936853647232056 0.591539800167084 0.611373722553253 0.641873598098755 0.665341079235077 0.938585579395294 0.95591527223587 0.998676717281342 1.04580450057983 1.47832584381104 1.1437656879425 1.29085159301758 1.90605080127716 1.9507167339325 3.16267085075378 4.16437005996704 5.71349954605103 12.0658140182495 2.88291549682617 3.34149575233459 3.44726896286011 3.68255257606506 3.79950094223022 4.09867238998413 4.18469524383545 4.369553565979 4.68306970596313 4.77974700927734 5.12458896636963 5.70275497436523 5.83786773681641 5.98082876205444 6.13345432281494 6.29113101959229 6.45765495300293 6.62783527374268 6.80238342285156 7.52630805969238 7.7337532043457 7.97895336151123 8.26493740081787 8.52089214324951 8.84224987030029 9.16386222839355 9.5066089630127 12.1665887832642 18.1915893554688 32.9894142150879 9.67717456817627 9.86342144012451 10.4491109848022 10.92223072052 11.0045318603516 11.4968881607056 11.6183013916016 16.6589546203613 20.8113269805908
21.5308647155762 -1.56295883655548 -0.942885279655457 1.69862830638885 2.39628148078918 28.2329730987549 3.20318818092346 5.73347425460815 8.66899967193604 3.90779757499695 4.91255760192871 6.56221866607666 14.6755218505859 15.3330869674683 19.8644962310791 22.6646366119385 29.2432250976562 13.7316551208496 1.95214653015137 5.77052211761475 11.8783483505249 -4.74149751663208 -4.37436485290527 -3.89762926101685 -3.71550273895264 1.07783567905426 5.87216711044312 9.96300411224365 0.223903387784958 -3.15423917770386 1.83454632759094 4.19946527481079 6.65831089019775 13.3273334503174 -3.09360456466675 -0.887224972248077 5.45907926559448 -0.794502258300781 1.67183434963226 1.54281401634216 2.53522038459778 6.2727222442627 16.0166988372803 -2.43297934532166 8.16584396362305 -1.87179744243622 -2.18052792549133 -1.86260724067688 -1.29977178573608 -1.12914144992828 0.257485300302505 0.666883230209351 0.922023236751556 1.09754538536072 1.4954035282135 0.776490330696106 0.00647501926869154 -0.136050283908844 -0.0943612530827522 0.116126716136932 0.240489542484283 -0.598179876804352 -0.664528965950012 -0.612330615520477 -0.571943819522858 -0.563962042331696 -0.549794614315033 -0.535353720188141 -0.524152100086212 -0.513408064842224 -0.527171492576599 -0.495973736047745 -0.464294642210007 -0.437683790922165 -0.412232905626297 -0.379117548465729 -0.329034686088562 -0.29448264837265 -0.328443765640259 -0.291500091552734 -0.238402888178825 0.122111566364765 0.162918329238892 0.215652778744698 0.261003643274307 0.313081175088882 0.353289365768433 0.395787596702576 0.437291294336319 0.475434690713882 0.703618466854095 0.775714159011841 0.863488972187042 0.941008687019348 0.997492074966431 1.1139520406723 1.22118079662323 1.49789381027222 2.05944013595581 2.22762727737427 2.43920373916626 2.68219995498657 2.95375776290894 3.22331953048706 3.54154539108276 4.10897970199585 4.85775756835938 7.20404481887817 9.69931411743164 14.0587520599365 25.8817577362061 0.4117691218853 1.01610922813416 10.2819004058838 0.422212451696396 0.901071608066559 0.922389388084412 1.2939749956131 1.33858072757721 1.38043391704559 1.42701756954193 1.46969902515411 1.52409291267395 1.5862295627594 1.63847506046295 1.35143780708313 1.44259202480316 1.35363411903381 1.10785531997681 1.1371203660965 1.16409039497375 1.15569460391998 1.47404503822327 2.77642965316772 3.65475869178772 5.49580240249634 11.1284637451172 3.31134462356567 3.53277015686035 7.07384586334229 3.55748224258423 3.7883358001709 4.19191265106201 4.28189611434937 5.03330087661743 9.95594596862793 4.58827924728394 4.94400215148926 5.2361741065979 5.37010335922241 5.56899881362915 5.69906854629517 5.83617448806763 5.97549247741699 6.47220849990845 7.1895899772644 7.43684768676758 7.66547536849976 7.93138837814331 8.20286655426025 9.6725025177002 12.8603944778442 18.7367458343506 33.6700897216797 9.10727977752686 10.1120014190674 10.3337955474854 11.0061187744141 11.7175464630127 12.5547885894775 12.8374071121216 24.3212985992432 13.422025680542 14.7696123123169
-1.53341019153595 -1.287513256073 -0.510254979133606 0.467915564775467 11.0751113891602 24.3774833679199 3.33562588691711 6.80645322799683 4.72524166107178 7.50259685516357 6.39344930648804 10.4669189453125 25.8784427642822 12.4399738311768 18.1253280639648 17.153902053833 24.4652290344238 6.58683347702026 19.01123046875 -2.73832440376282 0.88872754573822 -4.28384733200073 7.79590511322021 -0.0703863352537155 4.01404142379761 11.0956258773804 22.9555797576904 1.63453984260559 6.73550939559937 15.4024505615234 -3.18549561500549 3.32701635360718 -1.30985307693481 5.64219903945923 7.4935359954834 -2.7151358127594 -1.82867419719696 4.03221750259399 16.1426372528076 3.04864048957825 -2.54031252861023 -2.09768223762512 -0.805598676204681 1.19601774215698 27.6267719268799 -1.83067202568054 -1.71843981742859 -1.42251777648926 -1.25771915912628 0.425054967403412 0.890537142753601 1.26723051071167 1.39021241664886 1.71458268165588 1.88023591041565 1.09779119491577 0.263493180274963 0.25535175204277 -0.194828122854233 -0.129063040018082 0.208688676357269 -0.700230658054352 -0.653934240341187 -0.594180405139923 -0.548747956752777 -0.528904736042023 -0.517465472221375 -0.507733523845673 -0.496423989534378 -0.48368513584137 -0.478696644306183 -0.459567993879318 -0.438354253768921 -0.41427606344223 -0.377364844083786 -0.339089751243591 -0.312724828720093 -0.293578863143921 -0.282283186912537 -0.284898310899734 -0.22829395532608 -0.170637801289558 -0.114062488079071 -0.063896045088768 -0.00604088976979256 0.0470432378351688 0.0819178000092506 0.0735764726996422 0.0524630323052406 0.0712305456399918 0.111785598099232 0.518812298774719 0.595735490322113 0.654857814311981 0.739049971103668 0.782418191432953 0.892921984195709 0.97574371099472 1.05561375617981 1.48759853839874 1.63684511184692 1.79703569412231 1.94682502746582 2.1346538066864 2.30629062652588 2.63529133796692 3.00097298622131 5.29142236709595 7.06013965606689 10.4702711105347 20.9611701965332 7.20621156692505 -0.323182642459869 0.404122948646545 1.05455935001373 1.38918006420135 1.43588709831238 1.48489606380463 1.53916668891907 1.5764867067337 1.64812207221985 1.70275175571442 1.76336562633514 1.8498740196228 1.69824540615082 1.72621834278107 1.78192520141602 1.91812610626221 1.97998130321503 2.0967013835907 2.18803334236145 2.37647652626038 2.48680710792542 2.91266560554504 3.14483594894409 3.57541298866272 4.27059507369995 3.21604251861572 3.29042410850525 5.96490526199341 3.44565558433533 3.62224578857422 3.89037752151489 5.76941871643066 8.72071838378906 17.2561054229736 4.41678476333618 4.62287759780884 4.68688297271729 5.03923177719116 5.29810237884521 5.42312145233154 5.55332469940186 5.68360996246338 5.81370782852173 5.97004556655884 6.2348747253418 6.61573600769043 6.86090040206909 7.41819953918457 7.75140476226807 8.10833740234375 8.49681091308594 11.2377786636353 21.1116104125977 9.36155986785889 9.72920036315918 10.7493591308594 11.0742025375366 11.6416139602661 14.4498081207275 17.5644378662109 19.3197956085205 26.0690784454346
-0.690172135829926 -0.0751345902681351 0.628956198692322 7.87612056732178 13.5395669937134 30.0847492218018 2.48260045051575 5.01845455169678 7.86001205444336 7.30970907211304 14.2576856613159 9.43242168426514 10.3892192840576 17.1937217712402 14.1534538269043 14.5341548919678 15.2632389068604 23.4587516784668 -2.44317173957825 -2.24992871284485 -1.90115785598755 -1.2871071100235 -0.0440187901258469 1.79251074790955 7.63826751708984 15.4300546646118 10.6734199523926 19.7562065124512 13.1841201782227 -3.50899839401245 -3.00340437889099 -2.86021542549133 -2.72036528587341 -1.09204506874084 9.87197780609131 -2.74809098243713 5.33488941192627 -2.34034705162048 -1.62313365936279 1.29520118236542 -1.4339964389801 0.380196899175644 3.38526201248169 6.93602275848389 18.3655872344971 4.17757225036621 -1.33192563056946 -0.898701906204224 -0.413333803415298 1.08796679973602 1.73623859882355 2.01076054573059 2.25201654434204 2.25882935523987 1.0903080701828 0.898751854896545 0.666213929653168 0.421565324068069 0.445647209882736 -0.506090223789215 -0.610138237476349 -0.487499803304672 -0.627808153629303 -0.573474884033203 -0.534657120704651 -0.516168594360352 -0.51442962884903 -0.511345267295837 -0.498806804418564 -0.484543085098267 -0.463816672563553 -0.455190032720566 -0.442452251911163 -0.417476654052734 -0.394191533327103 -0.388336509466171 -0.36758416891098 -0.347380042076111 -0.324493944644928 -0.303668111562729 -0.264557898044586 -0.207639411091805 -0.156150430440903 -0.100649192929268 -0.0432034693658352 0.00327306217513978 0.0469721667468548 0.0816732496023178 0.0941516235470772 0.125496417284012 0.151747941970825 0.221797123551369 0.278897523880005 0.36275976896286 0.441297858953476 0.521294891834259 0.436704903841019 0.558405697345734 0.615208804607391 0.69314044713974 1.17530488967896 1.27692663669586 1.38685369491577 1.52657091617584 1.63954710960388 1.78990602493286 2.00998449325562 2.18506336212158 2.30008125305176 4.23904752731323 5.9710955619812 9.70709896087646 21.6977062225342 -0.395410984754562 -0.258156925439835 0.424439519643784 0.442592263221741 0.457973092794418 0.482031643390656 0.906689643859863 0.965754389762878 1.00450360774994 1.04819095134735 1.60554146766663 1.94007349014282 2.01103234291077 2.10653829574585 2.23426699638367 2.30416369438171 2.43680477142334 2.64334177970886 2.72998142242432 2.89314126968384 2.49876356124878 2.87105417251587 3.06505155563354 3.29418611526489 5.45312738418579 7.32006740570068 10.9400339126587 21.334379196167 3.78561329841614 4.40713548660278 6.56146001815796 9.69298267364502 4.44411849975586 4.5314564704895 4.62238788604736 4.72765779495239 4.8845648765564 5.39886856079102 5.51076602935791 5.62690782546997 5.74399375915527 5.86707305908203 6.01791524887085 6.19091701507568 6.34927558898926 6.55389451980591 6.74042129516602 7.3375415802002 7.66272401809692 8.03095626831055 9.85965633392334 18.7848930358887 8.24645709991455 8.35893440246582 9.64428424835205 11.9508628845215 13.3379535675049 17.3309440612793 17.5458221435547 17.8007068634033 23.9316158294678
17.8834457397461 0.202265709638596 0.266476511955261 6.43923330307007 9.43851661682129 19.4019889831543 23.2816162109375 1.00249767303467 17.1987285614014 2.67322158813477 9.0362663269043 19.5040073394775 20.0411548614502 31.120304107666 47.7537841796875 -1.038419008255 8.40209197998047 25.4724979400635 -0.192334666848183 7.27752304077148 -1.2878919839859 -0.93986302614212 0.113706409931183 4.34746789932251 4.94809675216675 9.24954605102539 26.4022903442383 17.6092662811279 22.8727512359619 -3.68895053863525 -3.50453209877014 -3.13581991195679 2.90365886688232 20.5729160308838 -0.929682016372681 -2.60821580886841 -2.4048388004303 0.902521193027496 -2.23167490959167 -1.38075375556946 -0.323898702859879 3.42622780799866 11.8077068328857 -0.954157412052155 17.3438472747803 -0.933030009269714 -0.80167281627655 0.721480250358582 1.17180037498474 1.66077327728271 1.96820962429047 2.40756916999817 3.0041663646698 1.67641484737396 0.953461050987244 0.603397607803345 0.664574921131134 0.630401015281677 0.489794582128525 -0.155659630894661 -0.579486668109894 -0.546874940395355 -0.512578189373016 -0.524914443492889 -0.476312756538391 -0.37270450592041 -0.506143867969513 -0.505948483943939 -0.49904277920723 -0.486042499542236 -0.402052789926529 -0.370262295007706 -0.362994402647018 0.0194113962352276 -0.4551662504673 -0.448019236326218 -0.432255357503891 -0.422356307506561 -0.397128582000732 -0.354656517505646 -0.329072654247284 -0.281884700059891 -0.242928832769394 -0.193259954452515 -0.139194130897522 -0.0903994739055634 -0.0434809327125549 -0.0138533227145672 0.0328415296971798 0.0721718966960907 0.111472830176353 0.164685934782028 0.230316415429115 0.298685252666473 0.38335332274437 0.46297162771225 0.527177333831787 0.710554122924805 0.730482339859009 0.751310050487518 0.849211990833282 0.964578688144684 1.13719248771667 1.26107144355774 1.50130367279053 1.69956767559052 1.91645765304565 2.44575643539429 1.83670508861542 0.295089811086655 2.3205246925354 3.80899119377136 7.39453554153442 17.8875560760498 0.0580279901623726 0.807873547077179 0.826559245586395 0.810121178627014 0.844375431537628 0.874053359031677 0.913267135620117 0.761942267417908 0.611349403858185 0.622823655605316 1.18401992321014 2.03988933563232 2.09394502639771 2.12141942977905 2.18462300300598 2.23478150367737 2.2285270690918 2.27684926986694 2.79758667945862 3.13198208808899 3.34083008766174 3.69334292411804 3.99292469024658 4.45401811599731 4.92623615264893 6.38424730300903 9.07559490203857 12.0924921035767 4.95573043823242 5.54193687438965 12.4315748214722 7.14629793167114 8.20329570770264 27.57080078125 4.43271541595459 5.43017768859863 5.32499504089355 5.46277856826782 5.61893320083618 5.72759485244751 5.87344551086426 6.06415796279907 6.20199251174927 6.37662744522095 6.59102773666382 6.78381299972534 6.99625873565674 7.26332139968872 7.59249973297119 7.93531703948975 8.65748119354248 11.8143463134766 12.2322874069214 8.58543872833252 10.1493406295776 22.8683128356934 10.5612535476685 14.421238899231 20.9431381225586 37.305061340332
-0.00779460789635777 1.42781376838684 2.38535714149475 4.75396156311035 8.39168834686279 10.2390031814575 5.03273439407349 2.03020691871643 4.49653291702271 5.67904853820801 7.88208532333374 9.98392295837402 10.2171039581299 15.5079832077026 11.2725563049316 5.87709283828735 6.21246767044067 6.28984355926514 14.069712638855 9.17966175079346 0.357175767421722 1.15576303005219 3.27438998222351 5.31213283538818 10.3995141983032 16.5284252166748 23.0119113922119 23.0763683319092 0.693249464035034 1.31045746803284 -3.51615834236145 -3.17479372024536 -2.93085837364197 14.7103128433228 -2.54718375205994 4.94014120101929 15.6917591094971 -1.95245051383972 -1.48167395591736 -1.05828702449799 6.89937210083008 20.549991607666 0.171857580542564 -0.227431207895279 1.69906115531921 8.31020164489746 6.3980827331543 14.2372674942017 7.21205902099609 12.0296230316162 -0.664055347442627 2.92782545089722 3.28534936904907 2.3085560798645 1.14712727069855 0.528719067573547 0.568553626537323 0.647638261318207 0.419284164905548 -0.24600824713707 -0.432386070489883 -0.409549832344055 -0.367264270782471 -0.362570405006409 -0.41134124994278 -0.297021776437759 -0.0336181856691837 -0.384233355522156 -0.414826631546021 -0.359149098396301 -0.220565482974052 -0.0855946466326714 -0.066879041492939 -0.198744043707848 -0.315264701843262 -0.484849125146866 -0.482793003320694 -0.473397612571716 -0.458566039800644 -0.434722125530243 -0.408464521169662 -0.367242157459259 -0.342640489339828 -0.30372953414917 -0.265456706285477 -0.212643831968307 -0.169863119721413 -0.140163779258728 -0.0775009766221046 -0.0330196283757687 -0.00686521315947175 0.022436797618866 0.0905238166451454 0.154433265328407 0.235993355512619 0.315336972475052 0.414435803890228 0.493727296590805 0.693140745162964 0.71324747800827 0.727189302444458 0.809035301208496 0.910358011722565 1.0756653547287 1.26963722705841 1.58514869213104 1.80674636363983 2.19155120849609 2.25288271903992 1.18646645545959 0.749428689479828 0.469592660665512 0.353940665721893 0.51682722568512 0.688579022884369 0.791704654693604 0.818211674690247 0.854389607906342 0.91325056552887 0.950530707836151 1.00836408138275 1.07411527633667 1.13688945770264 1.22625553607941 1.30083429813385 1.61635506153107 2.05492281913757 2.08652305603027 2.38275241851807 2.43155956268311 2.4854896068573 2.54787182807922 2.97115540504456 3.13417601585388 3.18527030944824 3.25699424743652 3.78720140457153 3.86174082756042 4.96913766860962 6.61866807937622 10.4497718811035 16.5542163848877 4.13531637191772 9.19956493377686 10.7856826782227 18.537748336792 31.4267807006836 4.30593156814575 5.31898069381714 5.5207314491272 5.58715677261353 5.72607803344727 5.84617567062378 5.98567771911621 6.16192626953125 6.31401395797729 6.50835371017456 6.67568206787109 6.8656120300293 7.12944984436035 7.40308427810669 8.45382213592529 10.0195302963257 9.59086799621582 9.52199649810791 11.4052143096924 12.3105211257935 10.4237785339355 27.6365795135498 7.9097056388855 10.5107202529907 14.2270126342773 13.7045307159424 21.4450836181641
-0.540902435779572 -0.0255056414753199 5.20978212356567 2.82422852516174 31.9850921630859 4.31073760986328 15.1068897247314 1.60296356678009 4.51257610321045 6.88776922225952 8.65616035461426 11.2190885543823 23.8038787841797 10.2369918823242 8.74997997283936 6.7391185760498 13.3687810897827 20.3767147064209 6.80424976348877 0.948320686817169 0.169542446732521 0.804981410503387 3.18202137947083 6.85123729705811 13.5183534622192 26.4498825073242 16.8674221038818 6.94431447982788 7.34795999526978 -1.33774995803833 0.863718569278717 -3.54938793182373 -3.25582551956177 -2.49513292312622 -2.28706812858582 5.82551574707031 16.9674377441406 -1.77606439590454 -0.662346541881561 2.88268446922302 10.1352090835571 13.7040576934814 -1.1307624578476 12.8958749771118 19.9372425079346 38.3206176757812 3.61579370498657 -0.798379242420197 5.85062599182129 14.6912775039673 -1.01850748062134 1.30892622470856 3.34737777709961 3.26747179031372 1.5235652923584 0.826040506362915 0.472524553537369 0.541611015796661 0.552750051021576 -0.11534807831049 -0.327492117881775 -0.290984570980072 -0.252099007368088 -0.213982090353966 -0.233908772468567 -0.221123993396759 0.0118367178365588 0.143064841628075 -0.276364743709564 -0.243732810020447 -0.100423209369183 0.0400513522326946 0.0942049920558929 -0.0447503514587879 -0.0503999516367912 -0.0125675480812788 -0.501424729824066 -0.500342726707458 -0.478335946798325 -0.474443763494492 -0.467354834079742 -0.413663059473038 -0.42416924238205 -0.403082549571991 -0.373868495225906 -0.269451230764389 -0.297944605350494 -0.264258325099945 -0.204138055443764 0.34169664978981 -0.194293692708015 -0.129877805709839 -0.0734841898083687 -0.00814404245465994 0.0612616427242756 0.138592705130577 0.261417746543884 0.342189878225327 0.368197649717331 0.454706251621246 0.474485337734222 0.557115316390991 0.624391674995422 0.748591363430023 0.822543084621429 1.29935383796692 1.54651641845703 1.83863604068756 2.3067421913147 0.937305212020874 0.87101423740387 0.747577369213104 0.786161005496979 0.916033029556274 1.10598051548004 1.27480792999268 1.39062213897705 1.45078372955322 1.49446392059326 1.53731405735016 1.60374820232391 1.17482233047485 1.11714732646942 1.21267569065094 1.44980370998383 2.06114029884338 2.13469743728638 2.17547035217285 2.25605225563049 2.30103230476379 2.35673427581787 2.45589661598206 3.289306640625 3.53995323181152 3.60457062721252 3.93530797958374 3.76392793655396 3.84684801101685 3.77181196212769 4.11148118972778 4.12792301177979 6.01123285293579 9.77903175354004 4.44234704971313 4.64717197418213 4.89751195907593 4.92583179473877 5.1400785446167 5.41279888153076 5.52354288101196 5.66323041915894 5.81027317047119 5.97925901412964 6.13802242279053 6.28782415390015 6.48001956939697 6.6857795715332 6.94100332260132 7.20070362091064 7.22890615463257 7.50170803070068 8.3738842010498 9.68706130981445 12.6850357055664 16.7037696838379 24.1251449584961 41.6560096740723 7.45107793807983 7.97696495056152 10.8505258560181 8.38398551940918 10.5189447402954 25.3565673828125 9.82541751861572
5.79667043685913 -0.0681409612298012 0.279418557882309 31.9308624267578 0.934375643730164 15.3114461898804 5.84896469116211 1.09442353248596 2.92526531219482 3.29818081855774 3.57021164894104 4.63561582565308 8.94062900543213 12.0031118392944 12.7659502029419 32.2672119140625 12.119402885437 27.0221252441406 -0.262299865484238 0.123585030436516 1.83129334449768 2.5074291229248 4.65013360977173 8.52273368835449 10.0126285552979 24.2291679382324 11.2166519165039 13.9653911590576 3.99174880981445 4.73433017730713 12.8282403945923 -3.52829027175903 -2.08924245834351 -2.39026880264282 -1.57528042793274 0.659842252731323 3.86202454566956 -1.46397650241852 -1.27509212493896 -1.21344196796417 3.76935863494873 8.11555576324463 15.8890008926392 27.3043384552002 20.7641506195068 -1.02325451374054 44.9867134094238 -0.935764312744141 -0.595756769180298 -0.444486558437347 3.38006782531738 3.99061584472656 4.04376602172852 3.19750785827637 2.57999801635742 1.23807954788208 0.669970035552979 0.312245845794678 0.355691194534302 0.402236878871918 -0.236408188939095 -0.215572446584702 -0.149870157241821 -0.0897845923900604 -0.0678399205207825 -0.0605252496898174 -0.0405148230493069 -0.0137862395495176 -0.0344241484999657 -0.064368762075901 -0.019173800945282 0.0437113158404827 0.171405911445618 0.120799541473389 0.129001557826996 0.188826724886894 -0.255925476551056 -0.491550654172897 -0.479165077209473 -0.470751821994781 -0.401181370019913 -0.266474902629852 -0.374189555644989 -0.454996526241302 -0.435897767543793 -0.364821404218674 -0.404337793588638 -0.248046293854713 -0.124598376452923 0.0687936320900917 -0.341087996959686 -0.299057900905609 -0.245735436677933 -0.182373732328415 -0.0999617725610733 -0.033284030854702 0.0603520050644875 0.27337321639061 0.75146895647049 0.129436179995537 0.234294041991234 0.275562077760696 0.317863464355469 0.348649531602859 0.498946696519852 0.646560609340668 0.981828927993774 1.07608592510223 1.42325520515442 1.02402317523956 0.88915091753006 0.237497970461845 0.767834365367889 0.833803474903107 0.973452389240265 1.14270901679993 1.300248503685 1.40652334690094 1.4590904712677 1.51120352745056 1.57447397708893 1.69941580295563 1.7800384759903 1.91817200183868 2.01087784767151 2.26707172393799 2.31630635261536 2.36885929107666 2.49985504150391 2.6552586555481 3.04322218894958 3.10594606399536 3.17456579208374 3.24002981185913 3.38319516181946 4.02090120315552 5.09781789779663 6.73695373535156 10.0390958786011 19.0823554992676 3.66814208030701 4.87026596069336 10.9085807800293 18.8869686126709 5.00152587890625 5.1981201171875 5.62744617462158 5.61346960067749 5.41763067245483 5.55109691619873 5.63051271438599 5.76940250396729 5.90909337997437 6.05126762390137 6.21148824691772 6.40051221847534 6.60970258712769 6.90018510818481 7.10547494888306 7.56358289718628 7.91702651977539 8.54201889038086 9.39304828643799 10.6562976837158 14.561713218689 19.1091232299805 27.3076877593994 45.8237953186035 7.5599570274353 13.7632303237915 8.70169353485107 7.64022302627563 21.4074440002441 9.33732223510742
0.297711610794067 1.21198105812073 11.8296003341675 18.1260051727295 14.4074506759644 -0.0446411371231079 0.656070411205292 3.77767395973206 4.29482555389404 5.58446645736694 9.35443496704102 24.2895355224609 1.51187574863434 13.9229650497437 2.74686050415039 7.94634294509888 8.03275203704834 8.62090969085693 17.7154960632324 1.45393562316895 3.11974430084229 4.24103498458862 8.88300514221191 20.1301040649414 10.549017906189 30.7733421325684 9.30042552947998 2.78463196754456 3.04371762275696 17.1190509796143 -3.2119026184082 -3.00792717933655 -2.38576579093933 1.10103392601013 14.0360622406006 30.4917240142822 -2.01532244682312 -1.22893476486206 2.86849880218506 14.4097080230713 1.45275676250458 17.9179344177246 35.7475395202637 2.86410713195801 3.68427038192749 -0.432908266782761 -0.60884016752243 26.1616554260254 44.4606781005859 -0.867069661617279 -0.681427299976349 -0.000513617414981127 3.68293452262878 3.66893577575684 2.74261498451233 1.94359040260315 0.943792104721069 0.45953893661499 0.178438112139702 0.195697814226151 -0.095857061445713 -0.0989641547203064 -0.0613648369908333 0.0075511122122407 0.0965666472911835 0.188001111149788 0.207854703068733 0.283344298601151 0.294644117355347 0.226815730333328 0.1416305154562 0.0794918462634087 0.126701399683952 0.183276534080505 0.128145381808281 0.126617833971977 0.148242101073265 -0.337185680866241 -0.412103086709976 -0.394031852483749 -0.288195878267288 -0.283194273710251 -0.21505469083786 -0.310050755739212 -0.349281013011932 0.011174188926816 -0.452679961919785 -0.30882915854454 -0.114554770290852 -0.137929111719131 -0.209056451916695 -0.379769712686539 -0.376943439245224 -0.34144726395607 -0.272495448589325 -0.20543497800827 -0.100699186325073 0.175445824861526 0.259691774845123 0.171601161360741 -0.0196890998631716 0.0759920179843903 0.076250433921814 0.102571450173855 0.260423839092255 0.421733438968658 0.543380200862885 0.604019045829773 0.717931389808655 0.853396356105804 0.683655858039856 0.310176819562912 0.314722895622253 0.355295211076736 0.427482753992081 0.557646989822388 0.700354695320129 0.828927993774414 0.910170614719391 0.948532342910767 0.977867066860199 0.700355887413025 1.71790182590485 1.84417974948883 1.92909646034241 2.02605009078979 2.13067507743835 2.25241899490356 2.37469673156738 2.52004289627075 2.86726212501526 3.16892719268799 3.33926463127136 3.73339676856995 3.96853852272034 4.3848671913147 5.06908178329468 6.74447107315063 9.89502334594727 18.6849231719971 4.06476068496704 4.47383308410645 4.72408866882324 5.5753960609436 6.2854380607605 9.39435291290283 5.08084917068481 5.87501955032349 6.00173997879028 6.17193651199341 6.34021949768066 6.50292015075684 6.67617750167847 6.85349416732788 7.03831672668457 7.25018644332886 7.10535192489624 6.84612131118774 7.03392934799194 7.35035371780396 7.97265481948853 8.72760391235352 9.57589244842529 10.5763835906982 11.8603630065918 13.451192855835 18.3695220947266 25.4855098724365 22.7777767181396 38.6753883361816 9.25610542297363 11.3398532867432 8.02551746368408 12.3741006851196
0.366224944591522 2.96002650260925 4.60148620605469 16.7104015350342 9.44401836395264 0.345385015010834 1.02418172359467 2.70622181892395 8.06276321411133 11.8908061981201 8.17013072967529 21.730167388916 20.0646591186523 1.50284326076508 0.639754354953766 17.2666683197021 1.52595150470734 2.11283779144287 2.1842405796051 2.72894358634949 3.15164875984192 5.07861948013306 11.5408620834351 15.2569952011108 19.0933246612549 29.9842319488525 12.6000261306763 2.17673349380493 15.8640775680542 0.642196655273438 -3.06060314178467 1.51657605171204 -2.57912635803223 -2.20352554321289 4.19210529327393 1.09288620948792 -1.36208939552307 2.19648671150208 4.36551761627197 8.29599952697754 16.8453903198242 36.8509826660156 4.03941917419434 2.54041481018066 8.12838363647461 14.9929790496826 50.8309669494629 -1.06456565856934 -0.893533110618591 42.6399345397949 -0.736218571662903 -0.152090206742287 4.43071508407593 2.93587756156921 3.10743141174316 2.24244856834412 1.11658084392548 0.934601187705994 0.408506691455841 0.0599871501326561 0.0620138794183731 0.0405358821153641 0.0559125170111656 0.115262240171432 0.256084084510803 0.380433559417725 0.464588820934296 0.519667506217957 0.561812818050385 0.538599193096161 0.63269567489624 0.448365449905396 0.0896694287657738 0.127400621771812 0.174342080950737 0.146397441625595 -0.0186942052096128 -0.135030418634415 -0.27632811665535 -0.301244616508484 -0.218368589878082 -0.218108728528023 -0.220699310302734 -0.184131130576134 -0.228331714868546 -0.320526152849197 -0.283288031816483 -0.24642550945282 -0.0263508446514606 0.0352907329797745 0.0871886610984802 -0.096586637198925 -0.329866826534271 -0.435909509658813 -0.402197867631912 -0.372339129447937 -0.291637748479843 -0.179016292095184 0.11117921769619 0.0338279902935028 0.0141720185056329 0.410050243139267 -0.0943827405571938 -0.0800297185778618 0.0389696583151817 0.230019956827164 0.35427987575531 0.400332927703857 0.520218431949615 0.559258639812469 0.725463926792145 -0.165686264634132 0.0294636487960815 0.131419152021408 0.177019014954567 0.249782338738441 0.367027372121811 0.501748204231262 0.584287881851196 0.63239198923111 0.985893249511719 1.03619384765625 1.08620464801788 1.16529762744904 1.4923689365387 1.51968133449554 1.60466349124908 1.63884675502777 1.67467248439789 1.7457686662674 2.5759961605072 3.20626449584961 3.45377993583679 3.52575588226318 3.62772083282471 3.9721736907959 4.98998308181763 6.59286022186279 9.71260547637939 14.9569606781006 4.87587690353394 6.14756965637207 12.7172431945801 25.5580883026123 4.39784526824951 4.73597812652588 4.99080467224121 5.61266613006592 5.74136352539062 5.90427589416504 6.07121992111206 6.23958778381348 6.41638994216919 6.58870887756348 6.77729749679565 6.81137275695801 7.49119138717651 7.71693277359009 7.9662766456604 8.21252632141113 8.48546028137207 8.7840690612793 9.18163776397705 9.71007442474365 10.6136589050293 11.8539524078369 13.4220457077026 15.4440231323242 26.0816020965576 21.5021686553955 30.6139717102051 35.1890258789062 7.52035617828369 11.3789873123169
0.184181347489357 1.08339726924896 1.14713621139526 1.72477781772614 5.81017208099365 16.556978225708 2.80285120010376 3.84835124015808 13.1794118881226 6.4396595954895 7.61624956130981 15.1965084075928 20.0450687408447 4.8847017288208 15.9510917663574 -0.998166680335999 -1.13849461078644 4.97037935256958 -0.100222915410995 0.804311454296112 1.21316075325012 8.48667049407959 1.15281057357788 8.0121374130249 14.6088161468506 18.9837970733643 24.9575042724609 7.44230985641479 4.26998853683472 -2.6197612285614 -2.36877012252808 -2.24571704864502 -2.1007182598114 -1.87164986133575 1.3616464138031 26.512170791626 -1.05666851997375 7.1871976852417 12.627495765686 21.6411666870117 41.5403633117676 0.953374922275543 5.11357021331787 1.99769639968872 24.5657176971436 42.3410911560059 5.35021734237671 7.94572401046753 -0.752810180187225 0.851585388183594 46.3836364746094 -0.853119075298309 4.45036315917969 3.0187292098999 2.25455331802368 2.69210338592529 1.58414542675018 1.2325633764267 0.758735001087189 0.196927547454834 0.207691475749016 0.185150101780891 0.177866265177727 0.226752445101738 0.410923033952713 0.534266114234924 0.651945233345032 0.752782881259918 0.695021748542786 0.738907933235168 0.981170058250427 0.77366316318512 0.226780593395233 0.102801948785782 0.152109071612358 0.135815367102623 0.0922385975718498 0.00487313838675618 -0.0528929680585861 -0.219828814268112 -0.233255684375763 -0.16305011510849 -0.170010149478912 -0.202771544456482 -0.14967904984951 -0.132190674543381 -0.123644642531872 -0.0935030952095985 0.0769548192620277 0.183646231889725 0.11861614882946 -0.107822418212891 -0.279639393091202 -0.550004303455353 -0.536855399608612 -0.510613977909088 -0.471875011920929 -0.396468311548233 -0.285601198673248 -0.215327948331833 0.311767727136612 -0.0253946408629417 -0.156848073005676 -0.16424748301506 0.0279162954539061 0.103797286748886 0.26064920425415 0.522536516189575 0.403247714042664 0.485949486494064 0.624213635921478 -0.0929314717650414 -0.291358947753906 -0.283818662166595 -0.255206167697906 -0.21769668161869 -0.145601198077202 -0.0756375268101692 -0.0157646797597408 0.0323465615510941 0.229877769947052 0.240993544459343 0.634960472583771 0.78227972984314 0.827066600322723 0.859858393669128 0.934561550617218 1.33577036857605 1.36292850971222 1.6789458990097 2.25774955749512 2.30611872673035 2.83931612968445 3.08102631568909 3.43165373802185 3.63022875785828 3.83132696151733 4.3590030670166 6.2633228302002 12.3185529708862 4.4504771232605 9.57710266113281 8.18664932250977 15.8410053253174 34.7182083129883 4.74034595489502 5.04605150222778 5.41464567184448 5.76468944549561 5.91669607162476 6.06843090057373 6.23146438598633 6.40110015869141 6.57594442367554 6.75706243515015 7.00549650192261 7.26909971237183 7.48843097686768 7.78129816055298 8.09265422821045 8.32048320770264 8.83299541473389 9.59695243835449 10.6342658996582 11.9035654067993 13.4993352890015 15.5388555526733 18.3402576446533 24.220085144043 17.0031661987305 17.8987045288086 17.1844387054443 19.6758766174316 9.89909267425537
2.33276891708374 -0.427480071783066 -0.367243379354477 0.125953420996666 2.79637241363525 11.4483528137207 1.00760054588318 2.0130820274353 2.33343458175659 10.897274017334 15.6633272171021 30.480318069458 45.6063385009766 8.58822536468506 3.60299825668335 -1.41973423957825 -1.17583358287811 12.2070331573486 -0.520765721797943 2.70707726478577 -0.921567499637604 0.0642802491784096 1.32537281513214 4.28830623626709 7.57555246353149 8.12383842468262 8.65190315246582 7.94362306594849 -1.12027871608734 5.88012313842773 -1.52195453643799 -1.77678084373474 11.4631462097168 -1.41308033466339 -1.15802574157715 -0.574525713920593 7.42610311508179 3.65254378318787 24.3507041931152 45.2269744873047 -0.278441816568375 4.813157081604 21.6607513427734 38.1773109436035 18.7290649414062 0.416893899440765 2.88433027267456 5.07343149185181 7.52763080596924 19.9776954650879 -1.07093513011932 21.7318859100342 0.0418225936591625 3.39499640464783 1.70705115795135 1.85047423839569 2.6623067855835 1.36739003658295 1.10617566108704 0.387129217386246 0.356926023960114 0.350144296884537 0.322954893112183 0.370167076587677 0.563392162322998 0.738889157772064 0.888471484184265 0.89842700958252 0.837364733219147 0.84057205915451 0.68877249956131 0.661269545555115 0.370851635932922 0.340153098106384 0.0950078442692757 0.0278725288808346 0.0920778587460518 0.0581909865140915 -0.0617594383656979 -0.0604061707854271 -0.130990490317345 -0.178274855017662 -0.10945125669241 -0.119636848568916 -0.0576461963355541 0.00255578570067883 -0.0230208225548267 -0.00525088049471378 0.18786832690239 0.248038247227669 0.130042120814323 -0.0332895070314407 -0.115061208605766 -0.621167719364166 -0.626296937465668 -0.60247141122818 -0.551943123340607 -0.474117249250412 -0.38588535785675 -0.331029325723648 -0.150919511914253 0.410050243139267 -0.325127631425858 -0.157234653830528 -0.0818377882242203 -0.0191158428788185 0.105071067810059 0.25788614153862 0.339165419340134 0.393257915973663 0.506069719791412 0.618476927280426 -0.327794045209885 -0.31207412481308 -0.283489495515823 -0.236910074949265 -0.171892881393433 -0.0957449823617935 -0.039291936904192 -0.00672659976407886 -0.000984940794296563 0.0692615285515785 0.0871969684958458 0.167961642146111 0.200647473335266 1.44683945178986 1.5051406621933 1.53953659534454 2.1561062335968 2.20168972015381 2.24923062324524 2.43736457824707 2.48707938194275 2.75384926795959 2.92023539543152 2.99781847000122 3.59941506385803 3.67092657089233 4.19489479064941 5.64331722259521 7.44996118545532 8.46117877960205 16.362340927124 4.85518455505371 4.93504333496094 7.19034004211426 14.0506010055542 5.57009553909302 5.67547655105591 6.11105728149414 6.34612464904785 6.5181245803833 6.69006156921387 6.87129068374634 7.06528806686401 7.27439594268799 7.36382246017456 7.64260721206665 7.94493246078491 8.32141304016113 8.81466102600098 9.5913553237915 10.5055980682373 11.6535482406616 13.030855178833 14.7656564712524 17.019115447998 20.0158615112305 22.846134185791 37.102108001709 24.6809406280518 27.0241107940674 8.99164962768555 8.6822395324707
11.4418802261353 -0.358928620815277 0.22974956035614 1.49186599254608 1.8850269317627 3.31989216804504 5.09234189987183 8.97933197021484 10.4391012191772 4.03067541122437 12.9112148284912 17.2499809265137 23.1233310699463 34.9907455444336 4.64052152633667 8.73804378509521 -0.312732517719269 1.83111965656281 21.2366580963135 3.41143178939819 12.5810499191284 -1.05151200294495 1.67304503917694 2.90113544464111 6.13529062271118 12.6307182312012 0.463117718696594 6.08566999435425 -0.856834292411804 -0.670221269130707 2.28320407867432 7.29928779602051 11.2815933227539 12.4343156814575 18.4522476196289 -1.17702949047089 17.6492023468018 35.3353080749512 0.760774314403534 5.47166967391968 20.0668621063232 34.8192977905273 21.4706745147705 0.619850158691406 2.24799370765686 4.86327028274536 5.97131967544556 7.14498472213745 9.89503860473633 16.0882205963135 3.42273116111755 5.04978609085083 -0.921763360500336 3.46031832695007 2.04451394081116 1.6660008430481 2.16308307647705 3.23409795761108 1.35272705554962 0.820789158344269 0.885641098022461 0.493807047605515 1.13737726211548 1.16462409496307 1.19212031364441 1.21880555152893 1.24787425994873 0.978216290473938 0.972791850566864 1.22233641147614 0.724603474140167 0.540331721305847 0.492643684148788 0.54393994808197 0.0982590019702911 -0.0139519590884447 -0.00333718792535365 0.0390627942979336 0.046647097915411 0.0790069475769997 0.0299809165298939 -0.0637127682566643 -0.105773776769638 0.0285974573343992 0.0585692003369331 0.135630518198013 0.151439324021339 0.174572482705116 0.286896586418152 0.335698872804642 0.207700878381729 0.0908053293824196 -0.0479205958545208 -0.450305104255676 0.323406875133514 0.476112902164459 0.650335192680359 0.707069456577301 0.772683322429657 0.836381435394287 0.886588335037231 0.754425942897797 -0.32026195526123 -0.269928455352783 4.82223695144057e-05 0.10156424343586 0.17208905518055 0.206240832805634 0.196465209126472 0.010472291149199 0.258725821971893 -0.256881684064865 -0.0753779262304306 -0.345213860273361 -0.31415843963623 -0.25656196475029 -0.195524260401726 -0.13284820318222 -0.0685736760497093 -0.0397647581994534 -0.0165811292827129 0.0167785864323378 0.0387063398957253 0.0902860164642334 0.113375432789326 0.136692211031914 0.597710430622101 1.16434490680695 1.18712627887726 1.2145973443985 1.61760807037354 1.68292367458344 1.76446676254272 2.47410464286804 2.77880144119263 2.852863073349 3.34394407272339 3.76456809043884 3.89890670776367 4.32348871231079 4.50700998306274 4.85749101638794 4.98078966140747 5.32163143157959 9.15279197692871 5.34945297241211 5.41266012191772 5.64886665344238 6.42211866378784 5.83479499816895 6.28922605514526 6.44753170013428 6.62027549743652 6.80417060852051 6.98963832855225 7.19291734695435 7.50827360153198 7.74117469787598 7.98935222625732 8.25768375396729 8.65093326568604 9.0253734588623 9.44501686096191 10.0107393264771 10.6623086929321 11.312159538269 12.360179901123 14.407811164856 24.8522834777832 32.7125091552734 31.0357551574707 45.8854293823242 8.56621265411377 11.7036457061768
3.53323197364807 3.80829524993896 16.8700313568115 0.0770716965198517 1.83982634544373 2.06820487976074 2.47804951667786 3.0546407699585 3.79811549186707 5.08514833450317 9.3816385269165 12.7722291946411 18.1759796142578 31.6780586242676 8.42218971252441 12.7848062515259 17.3958721160889 -0.374932438135147 -0.350793927907944 2.06976985931396 2.3436872959137 2.64119124412537 11.1177577972412 13.240195274353 6.78753614425659 31.7031345367432 10.9252071380615 26.0473880767822 1.29286444187164 0.375373631715775 14.3751964569092 0.78402841091156 13.4219055175781 17.7295436859131 25.5697116851807 45.4117050170898 -0.161110028624535 0.199266865849495 4.2696967124939 48.0788269042969 1.24244344234467 5.01375913619995 0.373049110174179 9.04778289794922 3.57630181312561 0.61952543258667 7.00197410583496 7.10833835601807 11.9324855804443 14.8654813766479 2.46721029281616 -0.386724889278412 11.9463109970093 -0.849435448646545 2.66376543045044 1.86772620677948 2.03106188774109 2.73828077316284 3.57789921760559 1.2087436914444 1.24644947052002 0.941432952880859 1.31242704391479 1.3359546661377 1.34703123569489 1.35637724399567 1.37399542331696 1.21938633918762 1.24277794361115 1.26607406139374 1.27677404880524 1.28462696075439 1.31322407722473 1.34958922863007 1.37917411327362 1.41662979125977 -0.00849082600325346 0.000558773288503289 0.0912902280688286 0.197847560048103 0.107168734073639 0.0789296180009842 -0.00197421200573444 0.055346105247736 0.110931046307087 0.194954261183739 0.327072709798813 0.403852999210358 0.355072855949402 0.369726657867432 0.258068323135376 0.201563313603401 0.0508183278143406 0.0467452257871628 0.0610866993665695 0.349648118019104 0.567018210887909 0.614009261131287 0.681840360164642 0.745311796665192 0.798003196716309 0.864213466644287 0.921751976013184 1.77080452442169 0.976853847503662 1.07660555839539 1.10446083545685 1.16218018531799 1.19722163677216 1.23631882667542 1.04690384864807 -0.381836086511612 -0.157640367746353 -0.387466192245483 -0.354474157094955 -0.299057811498642 -0.242291897535324 -0.185678467154503 -0.126157343387604 -0.0832457914948463 -0.0396192297339439 0.00366999791003764 0.0199679490178823 0.0512410551309586 0.0845933854579926 0.107409179210663 0.122045285999775 0.152605026960373 0.305833876132965 0.905708730220795 0.923721313476562 2.0339674949646 2.07483220100403 2.10871648788452 2.15089225769043 2.19343400001526 2.6988730430603 3.07520842552185 3.89819025993347 3.98112177848816 4.2871356010437 4.62581825256348 5.14269065856934 5.25411462783813 5.36902189254761 5.48354482650757 5.60945081710815 5.66128444671631 6.06144189834595 6.21214199066162 6.3791184425354 6.5365309715271 6.70123481750488 6.88014841079712 7.06110000610352 7.25984287261963 7.46801614761353 7.65741348266602 7.90034055709839 8.16299343109131 8.45678329467773 8.75881862640381 9.07277870178223 9.45630264282227 10.6581764221191 11.4608640670776 13.4266815185547 13.4300832748413 18.10378074646 28.9062652587891 20.9993000030518 31.7198696136475 12.302755355835 12.7450189590454
11.6460952758789 25.4446086883545 0.752891540527344 1.53989624977112 1.76843965053558 1.85737717151642 2.12043452262878 2.57972145080566 3.30821061134338 4.48903369903564 8.15417671203613 11.5876560211182 17.8197898864746 32.8638534545898 2.12166738510132 3.34058523178101 7.87681150436401 9.28540992736816 2.11207604408264 3.16984868049622 7.19713926315308 10.4402179718018 12.2845544815063 12.8966636657715 9.34477615356445 8.27001953125 9.64856910705566 8.27104377746582 9.26541423797607 17.2234439849854 22.5100955963135 31.6962509155273 50.7967834472656 -1.07694208621979 -0.92684930562973 2.65850853919983 6.46666383743286 50.3316688537598 0.591022610664368 0.559080481529236 1.51365482807159 0.303376168012619 8.36686706542969 1.80431628227234 0.387942671775818 1.22538816928864 6.69488286972046 19.1661758422852 6.80707836151123 -0.450065106153488 2.38034391403198 7.25321483612061 0.622924208641052 3.21910262107849 -0.803100526332855 2.07181310653687 2.0833306312561 2.34734654426575 2.86367654800415 2.90359330177307 2.16481041908264 2.18868207931519 2.21616697311401 2.25056576728821 2.27058243751526 1.56955361366272 1.27078592777252 1.3456951379776 1.37399744987488 1.39374196529388 1.4196754693985 1.44121706485748 1.46412205696106 1.50043964385986 1.54640591144562 1.5945520401001 1.40234339237213 1.45415782928467 1.52182447910309 1.59937524795532 1.68140089511871 1.7476499080658 1.80490231513977 1.8631044626236 1.94399678707123 2.05905175209045 0.394889414310455 0.516498506069183 0.440564304590225 0.487636417150497 0.294054746627808 0.286117017269135 0.126803189516068 -0.136978015303612 -0.0169041398912668 -0.0131250806152821 0.0179031807929277 0.100631512701511 0.393725514411926 0.439507216215134 0.499074757099152 0.764351427555084 0.856159627437592 0.89823979139328 0.903419375419617 0.981464028358459 1.0371401309967 1.08485221862793 1.10311233997345 1.15168786048889 1.1983038187027 1.26322484016418 1.32417690753937 1.38326942920685 1.47623324394226 1.61522042751312 1.76352667808533 1.91697025299072 2.09366989135742 2.28427958488464 2.11606907844543 -0.0338088311254978 -0.00306172668933868 0.0259111374616623 0.179947569966316 0.0490440167486668 0.14588575065136 0.156280279159546 0.152936235070229 0.345403164625168 0.52055811882019 1.6438707113266 1.87226974964142 1.90844786167145 1.94606328010559 1.98898386955261 2.60420370101929 3.11769413948059 3.18584585189819 3.5664370059967 4.37768840789795 4.47486972808838 4.97004652023315 5.07519912719727 5.23610019683838 5.35805225372314 5.47229862213135 5.75763034820557 5.89423513412476 6.04913473129272 6.20760202407837 6.36483812332153 6.53693723678589 6.70490980148315 6.8906421661377 7.08837127685547 7.14779043197632 7.71147489547729 7.94420480728149 8.19775867462158 8.48588848114014 8.78876209259033 9.09237480163574 9.41783428192139 9.76153182983398 10.1386661529541 10.624547958374 16.9239387512207 22.0027713775635 35.2995185852051 26.5926895141602 9.97075176239014 18.2467746734619 11.3857822418213
13.5571031570435 23.1997928619385 1.08542835712433 4.26952648162842 2.35507440567017 1.67837405204773 1.76412105560303 2.07232356071472 2.23547649383545 2.46823287010193 7.13705730438232 10.4071378707886 16.3563385009766 30.9400825500488 1.63998115062714 4.28516244888306 4.72092008590698 5.24964332580566 5.88763189315796 6.65536403656006 7.59360074996948 8.7349853515625 10.5785779953003 17.1970272064209 22.3890991210938 31.7161293029785 50.7122917175293 3.79783797264099 0.458655446767807 1.32342386245728 8.47433376312256 0.917068839073181 5.72410726547241 1.31912267208099 5.52611780166626 50.2904968261719 1.41307282447815 3.04377579689026 6.46188497543335 7.46039819717407 -0.203216418623924 4.66713285446167 0.0876763388514519 0.989361107349396 -0.65368777513504 0.692635774612427 1.39825963973999 4.34761428833008 0.515478134155273 0.532972037792206 0.837605655193329 1.56109595298767 1.14379632472992 3.19827318191528 5.55224895477295 0.315094947814941 2.05778837203979 2.02791476249695 2.18100690841675 2.75245499610901 1.85341501235962 1.85346078872681 1.99317443370819 2.11267948150635 2.24275541305542 2.42856192588806 2.29529047012329 2.29765653610229 2.33254027366638 2.38025116920471 2.42918300628662 2.49259066581726 2.55128288269043 2.62049770355225 1.54299414157867 1.46277248859406 1.59168243408203 1.64969146251678 1.72307670116425 1.80878865718842 1.89527666568756 1.97772812843323 2.05061006546021 2.1208610534668 2.19908952713013 2.30536293983459 2.11290073394775 2.22764492034912 2.34358978271484 2.4515643119812 2.54361152648926 2.67303156852722 2.83116412162781 3.03774499893188 3.23711800575256 0.500978171825409 0.539945065975189 0.572733044624329 0.639623999595642 0.681825995445251 0.726218640804291 0.629922807216644 0.905575513839722 2.11515426635742 0.53878790140152 0.5612872838974 0.574601531028748 0.889055371284485 2.4312481880188 0.704939007759094 1.06713569164276 1.1464512348175 1.22034859657288 1.29480648040771 1.37891924381256 1.51058495044708 1.64204156398773 1.79448568820953 1.9645676612854 2.15851664543152 2.42235803604126 2.64529895782471 2.86662173271179 3.09172916412354 3.29226899147034 3.46559548377991 3.68637299537659 3.92129468917847 4.1953330039978 3.73346090316772 0.372440665960312 0.463381171226501 1.57718026638031 1.75708603858948 1.79125583171844 1.83219361305237 2.13205099105835 2.57988333702087 3.73893237113953 3.81916546821594 3.9011504650116 4.49292755126953 5.04285669326782 5.14864206314087 5.26115989685059 5.37659740447998 5.49822425842285 5.56236886978149 5.69911003112793 5.8806676864624 6.02052927017212 6.16734933853149 6.31978368759155 6.48208808898926 6.65749406814575 6.8493537902832 7.31856393814087 7.5349555015564 7.76759243011475 8.02171516418457 8.30864906311035 8.61625480651855 8.94092559814453 9.26932907104492 9.62818050384521 10.0097370147705 11.0284557342529 12.9774532318115 13.9703435897827 20.7713260650635 15.0738792419434 31.6502265930176 12.2638092041016 18.3141536712646
5.29357242584229 9.65832233428955 12.0239095687866 15.3672151565552 20.1626071929932 0.733798384666443 1.43181610107422 1.91273522377014 2.127357006073 2.35737776756287 2.62667965888977 2.87785649299622 3.31954789161682 3.59084630012512 4.14374017715454 4.86656808853149 5.59084415435791 6.2805118560791 6.98008441925049 7.84493112564087 8.89958572387695 10.4148235321045 8.52316188812256 15.001503944397 19.5529594421387 27.9825706481934 46.5234870910645 1.23948299884796 5.77754402160645 6.30217981338501 5.62629222869873 2.41152238845825 0.853859007358551 50.9237098693848 1.09454131126404 0.873393893241882 0.902896583080292 1.26492989063263 5.87118005752563 7.82758045196533 8.09034824371338 0.68261194229126 0.706678807735443 0.773684322834015 0.883444964885712 7.18911123275757 1.00890612602234 1.05676877498627 2.51184177398682 0.9393390417099 1.33927440643311 1.02725970745087 3.02316188812256 -0.619447588920593 -0.449365556240082 1.58365452289581 5.83708715438843 6.1573429107666 6.52215337753296 6.98379945755005 7.59547328948975 8.13666820526123 9.1403636932373 10.378589630127 11.9437608718872 10.0376300811768 2.90788531303406 2.19649577140808 1.50863516330719 1.51386034488678 1.54770624637604 1.5800598859787 1.62401103973389 1.67136371135712 2.66400003433228 2.74633026123047 2.84586524963379 2.94474196434021 3.06594085693359 3.21297407150269 3.35902833938599 3.5019838809967 3.64922714233398 3.79670810699463 2.26035785675049 2.08697390556335 2.39427542686462 2.51158976554871 2.64496874809265 2.771559715271 2.88426923751831 3.0156102180481 3.17809319496155 3.39074635505676 3.59930276870728 3.3241024017334 3.59363722801208 3.97418355941772 4.52838325500488 5.09505176544189 5.7747654914856 6.61727714538574 7.86597871780396 9.32138538360596 10.7145137786865 0.832917809486389 0.872087955474854 0.87699955701828 0.995777130126953 1.02997136116028 0.868042051792145 0.713809192180634 0.751726567745209 0.813389241695404 0.891195774078369 0.979334771633148 1.08974170684814 1.23955154418945 1.43691325187683 1.77570772171021 2.31668448448181 2.56707572937012 2.79099607467651 3.01265025138855 3.2022500038147 3.4003529548645 3.62461519241333 3.86321139335632 4.10908842086792 4.39075183868408 4.46718978881836 5.0571231842041 5.53282880783081 6.11442947387695 6.88702249526978 8.04514980316162 9.60143756866455 10.8303890228271 12.1259479522705 10.8252515792847 4.03592014312744 4.37398099899292 4.56224822998047 4.93475961685181 5.0392541885376 5.15392065048218 5.2671012878418 5.64142417907715 5.78263092041016 5.93755769729614 6.08688259124756 6.24303150177002 6.40478038787842 6.57479429244995 6.75464487075806 6.94478416442871 7.07316398620605 7.28242349624634 7.51068353652954 7.74825811386108 8.01217746734619 8.3056526184082 8.61869716644287 8.95557117462158 9.29917240142822 9.67004013061523 10.4711198806763 10.9282913208008 16.3866901397705 21.2199687957764 29.9324512481689 48.5706253051758 11.0611143112183 15.0540752410889
8.93498039245605 7.16865205764771 9.23816967010498 12.7765007019043 3.42353272438049 2.50320053100586 2.0192391872406 2.33982396125793 2.73037266731262 3.10544919967651 3.46451544761658 3.68638873100281 3.40699434280396 3.88948678970337 4.03421258926392 4.4324517250061 4.86197090148926 5.32157945632935 5.8487982749939 6.44730663299561 7.16733503341675 8.17219352722168 14.4057474136353 18.9747734069824 27.3354473114014 45.9692192077637 3.35794258117676 20.3593559265137 29.3353118896484 7.7923731803894 0.889546036720276 39.6482238769531 22.0060348510742 1.30007576942444 9.4503059387207 1.39331030845642 2.73919677734375 1.42848145961761 3.07972168922424 1.52825582027435 1.67470514774323 3.94264459609985 7.73715209960938 1.23411917686462 2.91063213348389 1.32050490379333 1.46858024597168 4.37286758422852 1.23230993747711 1.2984025478363 4.52385711669922 2.79860138893127 6.4800009727478 3.32949161529541 1.28195238113403 1.39487373828888 2.83103466033936 5.19039249420166 3.60986113548279 3.76848220825195 4.01928567886353 4.32569169998169 4.55484628677368 5.33008623123169 5.34559917449951 14.6725635528564 18.4412784576416 25.2883338928223 41.6217956542969 -0.0894585847854614 0.116205245256424 1.18218469619751 1.2191846370697 1.25764715671539 1.29404735565186 1.72735965251923 1.79778909683228 1.86990797519684 1.94790720939636 2.04423189163208 2.14453458786011 2.25231671333313 2.35124540328979 2.45995903015137 3.95534229278564 4.12703466415405 4.33521461486816 4.54202604293823 4.79853105545044 5.05530452728271 5.32197761535645 5.61718082427979 5.95729351043701 3.49938607215881 3.28697848320007 3.72425889968872 4.03662347793579 4.47922372817993 5.00626039505005 5.55730247497559 6.16211605072021 7.15559530258179 8.71469306945801 10.0345449447632 11.3854608535767 12.4807777404785 16.4881858825684 24.4512672424316 42.1456298828125 -0.455580919981003 1.4973224401474 1.74531054496765 2.35757350921631 1.63033807277679 1.26206517219543 1.33781671524048 1.54247546195984 7.60146236419678 1.45496022701263 2.08112478256226 1.93460071086884 1.81389486789703 2.28349328041077 2.61102724075317 2.90041136741638 3.26658892631531 3.69083046913147 4.18377780914307 4.61184024810791 5.05527305603027 5.56974601745605 6.58978748321533 5.15255117416382 5.82551765441895 6.66482877731323 7.62419462203979 8.74441337585449 12.1498289108276 15.9946765899658 23.268762588501 40.6604766845703 6.66310977935791 6.85742616653442 3.19700336456299 3.47776174545288 4.77471733093262 4.89143848419189 5.10952949523926 5.54324674606323 5.67524480819702 5.82224893569946 5.96706199645996 6.11512041091919 6.27713918685913 6.44202756881714 6.6176586151123 7.16702508926392 7.38772535324097 7.62023639678955 7.85824489593506 8.11908435821533 8.39678859710693 8.71901702880859 9.06553173065186 9.42012405395508 9.79822731018066 10.1114282608032 10.5524005889893 11.0355310440063 11.5558271408081 13.0390634536743 16.9170722961426 23.9730415344238 25.0362796783447
3.81164360046387 11.576807975769 14.1378364562988 18.5722370147705 30.8737525939941 1.04031944274902 2.22859954833984 2.22940349578857 2.53151726722717 2.9131760597229 3.18401432037354 3.6826479434967 4.67069005966187 5.19464683532715 5.73301362991333 6.33410501480103 6.99889039993286 7.79092264175415 8.76833915710449 9.94369506835938 11.519326210022 13.7420654296875 11.07493019104 13.1489143371582 14.836446762085 19.6018943786621 22.3923416137695 19.2168617248535 4.55038356781006 50.9949150085449 0.928766548633575 1.37727725505829 2.64875674247742 4.05345439910889 6.68683385848999 1.09315586090088 1.35535514354706 1.94775342941284 4.31585025787354 1.49418878555298 2.98400163650513 4.40230178833008 1.89232885837555 1.96857953071594 2.81285285949707 3.87349843978882 8.88173389434814 6.37012386322021 8.10829067230225 21.334623336792 4.52278709411621 1.95915067195892 1.79813706874847 5.83791971206665 4.79851388931274 1.93281495571136 2.44766139984131 2.91849994659424 6.96812200546265 7.36341619491577 7.8364052772522 8.42267417907715 9.1335973739624 9.85102653503418 11.0241136550903 12.2947959899902 14.0405597686768 16.3572311401367 2.39339685440063 0.808142483234406 1.04156196117401 1.07888078689575 1.13849127292633 1.18350648880005 1.22551321983337 1.27803134918213 1.33780550956726 1.40554082393646 1.48285210132599 1.55462908744812 1.63289082050323 1.72422051429749 1.81925821304321 1.90772306919098 2.01442313194275 2.65955066680908 2.76450109481812 2.87722539901733 3.02653026580811 3.17010998725891 3.3344612121582 3.5071427822113 3.7001326084137 6.28786849975586 6.73107957839966 7.2969765663147 7.92847585678101 8.69896125793457 9.67008209228516 10.9231948852539 12.5616035461426 14.878643989563 18.3695869445801 11.1226034164429 10.1664552688599 13.3121662139893 17.0291500091553 25.1881294250488 43.5487785339355 -0.515856206417084 4.87526988983154 5.94119358062744 7.4332389831543 2.3054096698761 3.32358551025391 5.04371118545532 12.6143388748169 1.86481046676636 2.32412815093994 3.20508909225464 2.63675260543823 2.39131259918213 2.6402280330658 2.90038681030273 3.13101243972778 3.3994882106781 3.67904853820801 3.97429156303406 3.93544220924377 3.50312232971191 3.8498203754425 4.65654468536377 7.54631757736206 10.8306674957275 17.5654296875 33.6294212341309 1.75373888015747 22.4831581115723 5.09631776809692 7.85077047348022 10.6924057006836 12.930380821228 8.95849704742432 3.00870418548584 3.33877015113831 3.39022469520569 3.52253890037537 5.02292013168335 5.1631383895874 5.2920298576355 5.43288373947144 5.5771427154541 5.7264723777771 5.88473606109619 6.0506272315979 6.22833776473999 6.49419260025024 7.02111959457397 7.24008750915527 7.45916652679443 7.70168304443359 7.94996404647827 8.22878360748291 8.53927898406982 8.87858772277832 9.22267055511475 10.2460107803345 10.6886386871338 11.1652278900146 11.6951894760132 12.2854490280151 12.9190244674683 13.5899848937988 14.2311353683472
3.46689534187317 3.54753088951111 3.85847949981689 4.20163488388062 4.51708030700684 4.99162101745605 5.10905742645264 3.37352657318115 2.92669320106506 3.28376650810242 3.11706924438477 3.38463401794434 4.50176239013672 5.03348255157471 5.54878807067871 6.10880327224731 6.74480724334717 7.52825975418091 8.45916080474854 9.60453224182129 11.1750783920288 13.3461275100708 17.5614490509033 22.9135112762451 32.3849792480469 51.7272415161133 0.76331889629364 50.6784400939941 0.879672169685364 2.08763957023621 3.07684779167175 3.93756246566772 2.16574430465698 1.85284042358398 0.78434157371521 0.880988836288452 0.962231814861298 3.20227408409119 5.15449953079224 6.70180177688599 1.84943068027496 1.86383235454559 2.06231188774109 2.19236874580383 2.37415981292725 2.71174693107605 4.48636198043823 8.85119915008545 11.2368850708008 19.7938747406006 2.41055631637573 2.47716760635376 2.55148696899414 7.80375814437866 11.2533779144287 20.6009540557861 2.68669772148132 3.14337062835693 4.3001503944397 8.03037261962891 8.78670120239258 9.83025455474854 11.3683910369873 11.4132099151611 11.9707889556885 13.4801473617554 18.0983257293701 13.5263557434082 16.8193206787109 19.7535915374756 45.5541915893555 -0.654160022735596 -0.313782334327698 0.95006537437439 0.995254337787628 1.19739961624146 1.25904524326324 1.33610391616821 1.41268873214722 1.4922981262207 1.57197213172913 1.65527284145355 1.7455427646637 1.83421456813812 1.94017171859741 2.05775094032288 2.13597965240479 2.19474792480469 2.29507279396057 2.38716220855713 2.51513242721558 2.65174388885498 2.81502842903137 3.00974464416504 4.12772989273071 4.36170530319214 4.66290950775146 5.05921745300293 5.55391693115234 6.21010875701904 7.14702749252319 8.50861740112305 10.5860862731934 21.5528869628906 27.0625438690186 36.9209022521973 55.8603477478027 -1.36000227928162 -0.30983904004097 -0.408226281404495 2.09663605690002 2.19080662727356 2.9913957118988 8.67427635192871 11.5319776535034 17.2247142791748 34.6277770996094 0.750644326210022 2.72669982910156 3.1584746837616 3.71078872680664 4.1813793182373 4.35265588760376 5.6646089553833 6.56225681304932 7.57495021820068 8.71317291259766 10.1062145233154 11.7503070831299 10.8615922927856 8.28536796569824 4.55479383468628 5.33077621459961 12.3215913772583 5.997633934021 19.0212516784668 5.33248949050903 9.1989278793335 11.5712804794312 10.9947519302368 12.2354164123535 22.0585079193115 4.95464134216309 7.02376079559326 11.2435989379883 3.50304913520813 4.0990629196167 4.87341499328613 4.99904251098633 5.19837999343872 5.32605791091919 5.46203136444092 5.59980392456055 5.73939752578735 5.92826557159424 6.23748445510864 6.42403554916382 6.63220357894897 6.85131120681763 7.06528043746948 7.30554246902466 7.56649923324585 7.84092426300049 8.16151428222656 8.4994649887085 8.88398361206055 9.27496719360352 10.0198936462402 10.4633464813232 10.93812084198 11.4510288238525 12.3260478973389 13.2009477615356 14.1509590148926
3.09921669960022 3.19905138015747 3.44070506095886 3.98471593856812 4.26913738250732 4.63863611221313 5.23861598968506 3.07573008537292 3.77013659477234 4.04446649551392 4.37112903594971 5.27642917633057 6.48914480209351 7.59562826156616 8.67354011535645 9.98022365570068 11.6281862258911 13.887375831604 11.2467060089111 13.3419313430786 12.5529203414917 11.1938924789429 17.002815246582 22.2549209594727 31.4929885864258 50.8181915283203 1.14808034896851 1.16415095329285 1.31881594657898 10.4301748275757 3.9632511138916 4.42635345458984 6.09343862533569 10.5353221893311 0.924778282642365 0.974083721637726 1.04250502586365 1.23044168949127 4.86674880981445 1.74324989318848 6.22973537445068 1.92245817184448 2.03972363471985 2.28804636001587 2.8320677280426 4.73941707611084 6.29653167724609 10.7789449691772 8.40818023681641 3.82332921028137 3.51812171936035 5.03700828552246 5.13949775695801 10.521411895752 22.4727058410645 3.42362403869629 7.60037803649902 2.13152384757996 5.05764770507812 4.29616785049438 8.76640319824219 9.56688213348389 9.91822338104248 14.1816158294678 17.7271060943604 24.454704284668 28.5479335784912 8.34958839416504 9.87654113769531 21.1798419952393 43.525463104248 -1.00134491920471 -0.787799894809723 -0.761009991168976 0.728041231632233 0.965342938899994 1.02432250976562 1.09183764457703 1.17000305652618 1.24508368968964 1.32954931259155 1.38303923606873 1.45894849300385 1.54358005523682 1.64350056648254 1.95445418357849 2.04175972938538 2.08899617195129 2.1577742099762 2.22923541069031 2.35195660591125 2.49153542518616 2.68759632110596 2.87986135482788 3.04958438873291 3.23898935317993 3.4805314540863 3.73233819007874 4.05638837814331 4.49364185333252 5.25090265274048 6.37520313262939 8.00916481018066 8.82561492919922 13.4956836700439 17.0594711303711 23.866382598877 26.138916015625 -0.398071736097336 0.385005176067352 2.24888825416565 2.47118425369263 2.69013977050781 2.86630749702454 3.63261580467224 6.16940975189209 15.0865669250488 2.58707475662231 5.05461406707764 6.44912338256836 8.23216724395752 4.74633979797363 5.44791889190674 6.37321710586548 19.9753189086914 5.82929992675781 10.7741556167603 12.6253929138184 12.3129606246948 12.5269632339478 16.6363105773926 25.3340435028076 44.9571914672852 -0.0565414689481258 0.223828062415123 2.03903961181641 8.6277379989624 11.6112089157104 25.9682559967041 6.52713108062744 12.7772569656372 4.69209814071655 2.15938663482666 2.28863286972046 2.47783136367798 2.73971772193909 3.1389799118042 4.49376201629639 4.60824918746948 5.11365604400635 5.24380350112915 5.38018417358398 5.51960754394531 5.66133689880371 5.80337715148926 5.95856618881226 6.12168741226196 6.30246543884277 6.59609413146973 6.78946495056152 6.98586320877075 7.20893001556396 7.45059156417847 7.83471632003784 8.42715930938721 8.88796806335449 9.28759002685547 9.71799182891846 10.1923198699951 10.706033706665 11.3069629669189 11.9763622283936 12.7150783538818 13.3443918228149
3.0285804271698 3.14799451828003 3.39164781570435 4.18536376953125 4.5766224861145 4.67019414901733 4.95475769042969 3.42560315132141 4.17582178115845 3.24200439453125 3.46452021598816 4.07461786270142 5.16055822372437 6.16440200805664 7.0362606048584 8.04370594024658 9.2293701171875 10.7776880264282 17.597562789917 22.955358505249 32.6642074584961 52.1679649353027 0.0529454685747623 51.1783561706543 0.0830838084220886 1.58749783039093 6.18910932540894 12.2324495315552 0.357120513916016 1.27140498161316 7.1065502166748 14.9853010177612 9.20061492919922 4.86202383041382 1.32109940052032 1.33982110023499 1.41076326370239 1.86751472949982 1.88188111782074 1.93987429141998 1.97870874404907 2.000244140625 2.11346650123596 2.83521199226379 3.20837569236755 3.82085108757019 8.96041870117188 7.94955635070801 3.9604172706604 5.91143226623535 8.70008945465088 13.7804841995239 2.85033226013184 4.9344654083252 1.69717788696289 1.7414972782135 2.68350458145142 2.88507437705994 5.80251121520996 8.81346321105957 3.53900909423828 10.7781982421875 11.8810939788818 14.9901323318481 20.9885025024414 35.1888847351074 6.09432029724121 11.8168821334839 11.9295444488525 19.9366207122803 25.5939559936523 34.9871635437012 54.3700866699219 -1.46357238292694 -0.102819174528122 0.709204912185669 0.752409040927887 0.794507145881653 0.869215130805969 0.948793590068817 1.02369689941406 1.07178795337677 1.11469304561615 1.17785775661469 1.84603321552277 2.33911919593811 2.54966592788696 2.68060207366943 2.71675038337708 2.75753164291382 2.82104969024658 2.89546704292297 2.73230719566345 2.55567622184753 2.86379075050354 3.07245135307312 3.32192015647888 3.53477311134338 3.8001446723938 4.13216209411621 4.86739635467529 5.99231863021851 7.51249837875366 8.26982021331787 9.85494709014893 12.2695693969727 17.0237693786621 28.8656406402588 0.185602620244026 0.276978820562363 1.6170871257782 1.82335305213928 2.04397892951965 2.21291399002075 2.3612961769104 2.28918933868408 3.12394905090332 3.51967287063599 3.90781140327454 4.3132791519165 4.70016956329346 8.4340181350708 11.1584529876709 18.0620861053467 36.9651145935059 3.30635643005371 11.9585409164429 4.55345678329468 13.8396100997925 17.9149169921875 26.3515739440918 46.1367683410645 -0.368125736713409 -1.29689121246338 -0.16640716791153 0.247453480958939 3.95953631401062 13.3451652526855 14.7021207809448 16.2027435302734 2.22217988967896 1.37314987182617 2.52532029151917 2.33283567428589 4.40369510650635 1.62729585170746 3.17534971237183 3.26238512992859 4.15921449661255 4.25464200973511 4.37396764755249 4.65420246124268 4.76893663406372 4.88323402404785 5.13107252120972 5.55995893478394 5.74288988113403 5.92352914810181 6.50833797454834 6.70443391799927 6.90131711959839 7.10908317565918 7.34418869018555 7.59617710113525 7.87724685668945 8.3344841003418 8.71129322052002 9.11726665496826 9.56037139892578 10.0445127487183 10.5761051177979 11.1557006835938 12.7246618270874 13.6211137771606
3.1608099937439 3.42032837867737 3.69936156272888 4.29330921173096 4.81073570251465 4.93292093276978 5.58622455596924 3.71638631820679 3.29782152175903 3.36074304580688 3.39725804328918 3.81616973876953 4.84653329849243 5.97679662704468 7.25909471511841 8.4292573928833 9.86004257202148 11.8280229568481 11.8378133773804 16.4187450408936 21.5121383666992 30.6966094970703 49.2906227111816 2.34993982315063 6.78009939193726 0.917799174785614 11.1056652069092 0.249210134148598 0.573437511920929 4.00281810760498 6.2529091835022 7.58986616134644 23.490909576416 0.499822378158569 5.19930696487427 0.578107833862305 3.35070753097534 2.32589530944824 1.7352706193924 7.77469110488892 2.30782151222229 2.43634533882141 3.08942151069641 5.5628662109375 6.01491975784302 2.79922699928284 9.53733062744141 8.54281806945801 3.15028119087219 4.33871269226074 6.65537309646606 8.8401403427124 9.19877910614014 11.4609727859497 4.50602960586548 3.42170333862305 2.14720129966736 2.41232800483704 15.2697639465332 3.15781021118164 5.22090196609497 3.66744089126587 12.099328994751 13.9096832275391 13.7864198684692 19.0865612030029 31.9854145050049 16.5013751983643 34.8107414245605 49.7628936767578 -0.298311501741409 37.7114486694336 9.22995281219482 17.4351081848145 48.6037902832031 -0.554842472076416 0.444537132978439 0.483473390340805 0.556576073169708 0.763025164604187 0.847408533096313 0.879041612148285 0.991211950778961 1.04383683204651 2.02804946899414 2.97772574424744 3.43581819534302 3.8401575088501 3.90959548950195 3.9950053691864 4.08037567138672 4.15376138687134 4.14450931549072 3.743248462677 3.83728289604187 3.92700934410095 3.52981042861938 3.27413082122803 3.34134697914124 3.41014003753662 3.90719723701477 4.93868494033813 6.33735513687134 6.88064908981323 9.22020530700684 11.3588991165161 15.684362411499 27.1479835510254 1.92080271244049 2.2509617805481 3.24324655532837 3.04434943199158 3.20423769950867 3.36005330085754 3.51624703407288 3.66493988037109 3.2826771736145 2.73823595046997 3.74477672576904 5.92216730117798 11.4366655349731 2.81859016418457 4.42244100570679 5.81071329116821 8.09865760803223 5.93774318695068 7.00026607513428 14.4308471679688 19.2112102508545 27.7320671081543 46.9658317565918 -0.866209626197815 2.94880390167236 10.3388109207153 14.4711742401123 21.2294578552246 40.2540092468262 2.57821464538574 3.35048627853394 11.8615121841431 15.8166351318359 8.62701225280762 0.947102665901184 1.13566029071808 1.17758870124817 7.51340579986572 1.60344254970551 2.87383818626404 3.59407782554626 4.31990766525269 4.48327541351318 6.04767942428589 9.08731174468994 17.5999050140381 3.84322738647461 4.99386072158813 5.16270160675049 5.32537317276001 5.50563478469849 5.68353796005249 5.91241216659546 6.11047410964966 6.50205135345459 6.79632949829102 7.29269123077393 7.91043424606323 8.27244567871094 8.66027164459229 9.25264739990234 9.66343879699707 10.1040859222412 10.6064805984497 11.3267879486084 12.1460876464844
5.27795457839966 5.90462493896484 6.74937963485718 7.8983473777771 5.85227203369141 7.03681993484497 5.98538064956665 6.46922397613525 4.81345891952515 5.72829627990723 7.13414907455444 15.5661497116089 2.92190074920654 4.62604665756226 6.19012498855591 8.15025615692139 9.86218452453613 11.8183288574219 15.0360460281372 19.7968158721924 28.4729824066162 47.5386810302734 0.993865847587585 1.68846797943115 8.58322525024414 1.66070234775543 2.48895382881165 2.59800386428833 0.119016975164413 11.5001497268677 2.03354525566101 6.38108015060425 3.4853892326355 8.2462854385376 9.6828498840332 2.02982020378113 2.12323546409607 0.718676745891571 2.1049964427948 1.35317170619965 1.50252723693848 1.69127082824707 2.11210536956787 7.10551261901855 3.08471941947937 3.44103074073792 11.0948781967163 6.34169006347656 4.01226425170898 5.00701761245728 3.71949100494385 6.03292512893677 11.3523893356323 9.41643524169922 10.5031337738037 3.01185131072998 4.42928647994995 3.47696471214294 12.8569259643555 4.95280408859253 14.6692705154419 4.00911951065063 4.04338979721069 11.8350963592529 17.3910446166992 22.007776260376 30.0357074737549 46.9213180541992 6.74463558197021 13.8833618164062 -0.91890150308609 28.3345985412598 -0.365935832262039 2.40569424629211 0.502150654792786 0.914570510387421 1.41660499572754 1.50717782974243 1.58504128456116 1.68919360637665 1.78020429611206 1.86614346504211 1.93826603889465 2.01509571075439 2.39055323600769 3.4434609413147 3.85999369621277 3.94981360435486 4.04179811477661 4.13012838363647 4.19808387756348 4.07879018783569 4.20275926589966 4.30792617797852 4.42981624603271 4.54929447174072 4.68052577972412 4.79016256332397 4.90288829803467 5.03151988983154 5.1931734085083 5.24002599716187 4.77200317382812 6.13361692428589 7.75964403152466 9.21925640106201 14.2476682662964 10.8483934402466 3.43456935882568 4.09052896499634 4.84195995330811 4.61484146118164 4.28959178924561 4.50355577468872 4.59699487686157 4.66054439544678 5.02061605453491 5.33929443359375 5.65565872192383 5.32075881958008 4.89004850387573 4.6642746925354 4.97941303253174 5.22776460647583 12.5426683425903 4.70786285400391 10.7469501495361 18.4271850585938 34.5579299926758 1.35017466545105 9.94191455841064 2.6207160949707 6.29988765716553 9.09770679473877 9.17648315429688 11.0716104507446 8.19833850860596 11.1885900497437 22.1471862792969 8.89613151550293 14.5381498336792 14.5562982559204 0.134446993470192 0.611965417861938 1.68548572063446 0.838822782039642 1.1528092622757 6.79275608062744 10.8731594085693 3.08017635345459 5.35444259643555 7.26568269729614 10.8556985855103 21.175443649292 3.40006470680237 4.22043561935425 4.35779094696045 4.51993274688721 4.67191505432129 5.03658533096313 5.26296472549438 5.49066400527954 5.73468923568726 6.09186840057373 6.34334087371826 7.08877801895142 7.40265417098999 7.7632737159729 8.16853523254395 8.58802700042725 9.97125244140625 10.6814670562744 11.4822454452515 12.406153678894
6.70546817779541 7.81746244430542 9.24484157562256 4.08848714828491 9.73346710205078 10.8648853302002 13.8608531951904 25.6897277832031 2.15520191192627 8.29718017578125 9.17812061309814 13.3337097167969 2.23795485496521 4.97216320037842 5.76663255691528 6.96245574951172 8.89237880706787 10.6372747421265 15.0004186630249 19.7206707000732 28.3919105529785 47.5669975280762 1.47238028049469 3.77434659004211 5.97201824188232 0.576038241386414 2.35621166229248 0.645265817642212 1.54758083820343 9.82016754150391 2.06098389625549 2.98974657058716 3.47319841384888 4.24378967285156 4.3971529006958 5.87905597686768 6.49042272567749 14.2481803894043 21.0589504241943 2.50826954841614 0.189968481659889 1.23444330692291 1.38700222969055 1.6570235490799 2.77197766304016 4.76238632202148 18.8939342498779 2.42823505401611 4.19722175598145 7.35057878494263 7.43689966201782 10.5172920227051 20.5116100311279 1.20042133331299 0.746407985687256 1.82200753688812 7.52428913116455 4.75112104415894 11.8266448974609 5.28643369674683 5.86575031280518 9.71388339996338 6.29382991790771 7.21217966079712 15.2584667205811 17.2636699676514 19.7892112731934 20.5399379730225 28.0578651428223 23.5409374237061 23.7777481079102 -1.05211663246155 -0.455524742603302 0.321528822183609 0.233832761645317 0.267323523759842 0.287784487009048 0.34175968170166 0.522004783153534 0.702828466892242 0.844737470149994 1.03903150558472 1.81037640571594 1.89315891265869 2.30915784835815 4.10132837295532 4.19093179702759 4.29233312606812 4.37420082092285 4.47591876983643 4.39015579223633 4.48473072052002 4.58857393264771 4.47112894058228 4.59912252426147 4.72980451583862 4.87605476379395 5.00226545333862 5.13325262069702 5.27798175811768 5.143310546875 5.34110450744629 5.53651905059814 5.79263019561768 6.42206716537476 7.15568780899048 8.61575984954834 12.125186920166 5.87798023223877 6.23012161254883 7.13450384140015 7.16040325164795 6.35372257232666 6.65701055526733 6.81641244888306 6.18617343902588 6.56679964065552 6.91837596893311 7.32715702056885 7.73625516891479 7.1767373085022 6.68812370300293 11.4715719223022 6.93577146530151 17.6971340179443 7.76177883148193 13.2314710617065 11.8255290985107 16.22092628479 15.7761840820312 7.30528402328491 6.96009588241577 7.99417161941528 9.07773303985596 9.71772003173828 7.77381610870361 2.10679984092712 3.62834811210632 4.99456691741943 12.3423929214478 -0.560286283493042 27.1317329406738 -0.386706054210663 24.7287826538086 -0.126001313328743 2.69754767417908 4.06144905090332 11.9907188415527 9.77379894256592 13.4927291870117 17.9238529205322 25.9670944213867 44.5233497619629 1.83377146720886 2.85824346542358 17.1189250946045 3.07575726509094 3.70769762992859 3.83869099617004 3.95352053642273 4.16399526596069 4.89586353302002 5.08249568939209 5.30250120162964 5.81285238265991 6.06291913986206 6.33526420593262 6.65505123138428 8.15066909790039 8.75827407836914 9.46405029296875 10.2907085418701 11.2334642410278 12.3159589767456
3.19694304466248 3.30445742607117 3.41759538650513 11.3960132598877 13.4937543869019 19.232027053833 33.726749420166 1.69104254245758 5.28376293182373 4.01169967651367 3.90710258483887 3.98857474327087 4.31715393066406 4.8752293586731 5.75332021713257 7.07464981079102 9.01906585693359 11.5440444946289 13.6182851791382 17.8171901702881 25.9554176330566 44.7001457214355 6.55860757827759 14.7569408416748 5.16432332992554 0.413370370864868 6.51198291778564 0.581058442592621 4.71305322647095 8.13752269744873 1.02085101604462 1.1587530374527 1.95177161693573 2.74612426757812 3.68814921379089 10.0865459442139 8.59155750274658 9.50123119354248 27.1698741912842 1.24987936019897 0.807062208652496 0.820420265197754 0.923570990562439 2.19700884819031 2.89019465446472 4.69974803924561 6.13304233551025 3.36923384666443 8.2813138961792 5.10120105743408 6.97207260131836 8.73577690124512 16.8843822479248 0.802973330020905 2.62143278121948 5.00078535079956 16.15114402771 1.38737773895264 2.66759133338928 5.45310640335083 7.67505502700806 5.64353322982788 4.45429277420044 14.9346323013306 1.90816652774811 10.3357067108154 11.4389820098877 23.9878463745117 29.0962657928467 36.8940010070801 51.3339996337891 -0.792047560214996 5.82884836196899 1.09261441230774 0.697723984718323 0.343326091766357 0.345840990543365 0.361447751522064 0.484288930892944 0.676702857017517 0.841537356376648 0.895007371902466 1.75257253646851 1.78322279453278 2.27723526954651 3.38519525527954 3.85303163528442 4.32869052886963 4.4170880317688 4.52329683303833 4.63111257553101 4.74208498001099 4.76184272766113 4.88734579086304 5.0283784866333 5.17593097686768 5.34168720245361 5.48993253707886 5.6477108001709 5.47242307662964 5.64065027236938 6.16017913818359 7.0255880355835 8.38319301605225 10.4210290908813 6.40324068069458 6.52571725845337 9.49658489227295 6.5588321685791 6.85984563827515 7.03310012817383 7.4116096496582 7.78893423080444 8.19728946685791 8.6052885055542 9.0709924697876 9.55153560638428 10.0499124526978 10.6013345718384 11.2199802398682 11.067214012146 9.48934268951416 10.0881357192993 10.291916847229 10.5687828063965 16.8846893310547 11.283709526062 13.2050876617432 19.3378524780273 21.4211845397949 31.6023712158203 29.0273780822754 5.69877767562866 5.26939582824707 0.719960689544678 4.1785831451416 8.30109596252441 12.4221458435059 3.0259108543396 -0.85769522190094 -0.622451305389404 0.475038647651672 18.9610900878906 0.526497900485992 1.24883389472961 3.84213089942932 10.0829277038574 16.0265293121338 16.2436466217041 21.6167621612549 30.9265995025635 49.9419326782227 1.25951099395752 11.3127174377441 1.59592759609222 2.64723539352417 2.8393132686615 3.22182869911194 3.52225136756897 3.62441253662109 3.79795145988464 3.88932967185974 4.00404214859009 4.1166820526123 4.27136993408203 4.52222347259521 4.76829242706299 5.23046636581421 5.82128047943115 6.43946981430054 7.90023565292358 8.48670864105225 9.12019443511963 9.83019065856934
14.7731847763062 19.2145824432373 26.958158493042 43.3448867797852 0.849580347537994 3.82839131355286 4.5016713142395 3.87054753303528 3.88324189186096 3.9063606262207 3.95105528831482 4.09779977798462 4.36033725738525 4.75303983688354 5.38782024383545 6.28232336044312 7.59891891479492 9.30810451507568 14.3767929077148 19.3479156494141 28.0733375549316 47.1156730651855 4.17982196807861 2.78077507019043 0.863311529159546 0.737440049648285 3.32539916038513 0.949540734291077 4.71283626556396 1.41256392002106 1.43229746818542 1.1735782623291 1.77041745185852 4.67919397354126 4.21522235870361 3.50050592422485 4.0228385925293 2.53747630119324 3.9067542552948 11.6143369674683 2.83227109909058 8.41438770294189 1.56176555156708 3.35943388938904 2.07260966300964 2.57332515716553 3.33777976036072 3.60338616371155 6.7280216217041 4.86465692520142 7.20550966262817 10.1333379745483 23.1832408905029 1.36080920696259 4.66093158721924 11.1168766021729 16.2908096313477 1.48666155338287 0.627717256546021 2.06745505332947 10.0902318954468 5.97862863540649 11.9616565704346 12.2204189300537 1.11678302288055 1.58020389080048 8.76499271392822 13.6196880340576 16.3185997009277 19.9469547271729 30.9081611633301 11.7987833023071 -0.216780751943588 9.47410774230957 0.970241010189056 1.0465270280838 1.29990243911743 1.37070751190186 1.43257439136505 1.4808155298233 1.55681073665619 1.62207961082458 1.72128129005432 1.85784661769867 2.46471524238586 3.59071183204651 3.66501212120056 4.14951515197754 4.23497533798218 4.32750415802002 4.42431163787842 4.52850437164307 4.80871772766113 4.92808389663696 5.06465816497803 5.20799493789673 5.36691093444824 5.52071475982666 5.67299890518188 5.83074808120728 6.0204644203186 6.17675256729126 6.3865795135498 6.64673042297363 9.22100734710693 12.7539157867432 20.4988822937012 13.6471729278564 14.9830656051636 5.69508361816406 7.67065143585205 7.96133184432983 8.25105762481689 8.69772338867188 9.17750358581543 9.68355178833008 10.2090673446655 10.7502136230469 11.3781051635742 10.9972877502441 11.7746715545654 12.5766639709473 13.5057916641235 14.6050825119019 15.7796421051025 17.0074577331543 18.3916893005371 20.9543743133545 24.0693321228027 27.4133033752441 42.9372787475586 21.6424102783203 11.5448179244995 10.4909019470215 5.86496639251709 -0.768182694911957 12.7044095993042 2.30200409889221 -1.11886692047119 -0.517568290233612 -0.0602300837635994 13.7790699005127 0.466478586196899 0.959744989871979 3.48193645477295 8.20108985900879 16.5108470916748 41.603816986084 7.27246427536011 43.1094055175781 18.7528591156006 8.68354034423828 0.878060281276703 1.36982655525208 1.69118797779083 2.7237696647644 5.70577001571655 3.22839426994324 3.30171322822571 3.53219127655029 3.48696279525757 3.84752631187439 3.96214556694031 4.07180070877075 4.19506502151489 4.33204984664917 4.46306276321411 4.6167049407959 4.89654493331909 5.27483987808228 5.96992254257202 6.40417289733887 6.87147760391235 7.39571332931519
15.4051990509033 21.3954010009766 36.7408294677734 1.63422131538391 3.85156559944153 4.02570819854736 4.17883634567261 4.21712064743042 4.23020219802856 4.27420663833618 4.01078701019287 4.14398097991943 4.33579969406128 4.65305328369141 5.26697683334351 6.15231895446777 7.35386371612549 8.96830749511719 10.8552570343018 13.9005756378174 18.7169914245605 33.8846702575684 20.3815155029297 11.1906385421753 0.192432418465614 0.774022877216339 0.776706397533417 0.871231317520142 0.953917980194092 1.08244931697845 1.17852210998535 7.52555418014526 1.68796920776367 5.69263792037964 11.1031923294067 1.80874884128571 2.61462473869324 2.86625337600708 3.05962514877319 3.7242751121521 4.12425422668457 2.72187924385071 6.66113662719727 8.40324401855469 8.87620830535889 4.22956132888794 6.04712104797363 1.0371425151825 2.64960026741028 3.52893733978271 4.33817481994629 4.18680763244629 6.48278713226318 7.33583927154541 18.0110054016113 1.47808086872101 7.54850053787231 1.4938817024231 1.58344888687134 1.63753485679626 9.36837005615234 4.53941345214844 8.71408748626709 12.3010654449463 22.0409908294678 1.87570190429688 5.90139627456665 22.8986797332764 36.7830009460449 0.327432006597519 11.5851612091064 16.6641826629639 11.5404434204102 29.8323841094971 -0.201357960700989 0.792000830173492 0.83259916305542 0.879237055778503 0.943408966064453 0.967546463012695 0.99766594171524 1.11993718147278 2.1183979511261 2.16588997840881 2.19946789741516 2.84070348739624 3.09090042114258 3.54548859596252 3.69322943687439 3.7696704864502 3.98102831840515 4.07738399505615 4.60904312133789 4.72795724868774 4.8558235168457 4.99224328994751 5.14171743392944 5.29091548919678 5.43450355529785 5.58637475967407 5.77657842636108 6.1847677230835 6.39096212387085 6.63928174972534 6.9325590133667 7.21079349517822 7.39012718200684 7.40967178344727 7.79927682876587 8.17687129974365 8.50148487091064 8.83735656738281 9.26358222961426 9.77754974365234 10.342698097229 10.9436159133911 11.5709648132324 12.2247982025146 11.2152070999146 12.0019559860229 12.811243057251 13.7574625015259 14.8274173736572 16.0895843505859 17.440034866333 18.6499481201172 20.1402606964111 23.1736030578613 26.430757522583 28.5095920562744 39.026065826416 37.8705711364746 20.6004695892334 18.5806980133057 -0.550829589366913 -3.41083025932312 16.0572624206543 4.17584085464478 -2.002277135849 -1.48124206066132 -0.00525759672746062 0.685757458209991 1.28920459747314 1.51928901672363 1.72836053371429 17.194091796875 4.16129493713379 20.5588970184326 4.9113712310791 7.84284210205078 14.2068901062012 20.1603622436523 1.07452416419983 1.7528600692749 2.0944402217865 3.16658997535706 15.5636825561523 3.10140061378479 3.69400882720947 3.73970890045166 4.06416749954224 4.22189664840698 4.38335800170898 4.54955387115479 4.70986557006836 4.08745288848877 4.18105840682983 4.29123401641846 4.42300605773926 4.3576397895813 4.46462249755859 5.41871643066406 5.6357741355896 5.87027788162231
