NCOLS 175
NROWS 31
XLLCORNER 353904
YLLCORNER 6701232
CELLSIZE 16 
NODATA_value -3.4e+38 
3.16724371910095 4.43258237838745 10.9958696365356 10.8444366455078 -0.12539267539978 -0.339071124792099 0.543457746505737 -1.07626914978027 -3.30660796165466 -2.89325189590454 3.63695859909058 -1.57081043720245 3.18917655944824 6.10763025283813 13.4278249740601 3.07209658622742 6.80840063095093 4.75399398803711 2.57943773269653 5.04875087738037 2.75945019721985 4.9678316116333 8.49999332427979 9.70488548278809 9.63614368438721 7.63704824447632 9.3509349822998 7.52668905258179 8.45287799835205 13.0672149658203 19.2951507568359 46.3212280273438 5.54532623291016 13.6304655075073 5.2094464302063 3.80230498313904 2.86574578285217 2.79001116752625 2.42637968063354 4.87820339202881 3.3661208152771 0.232214152812958 5.60637664794922 3.48677921295166 6.70475006103516 -0.994292795658112 -0.222629398107529 6.97596120834351 7.957200050354 6.32613801956177 7.40930986404419 31.4814891815186 15.813364982605 58.8756294250488 7.0291223526001 1.75890898704529 0.862332165241241 0.315453886985779 3.77990627288818 2.54216027259827 -2.66565752029419 0.279213517904282 0.858145594596863 9.77562427520752 4.57251119613647 -2.74557590484619 -2.21211552619934 -1.71918606758118 -1.67676210403442 -1.55590808391571 -0.966033458709717 1.16774189472198 0.278002262115479 -0.258874803781509 -1.04196119308472 -0.373071283102036 -0.589814126491547 16.0905437469482 1.42379462718964 1.62242603302002 2.01159238815308 2.14629054069519 2.57726335525513 2.49563121795654 2.56093716621399 2.60856580734253 2.69225978851318 2.79713845252991 2.76328635215759 2.09908699989319 3.28532457351685 3.02502536773682 3.31880688667297 3.73891878128052 2.3323085308075 3.43790698051453 3.06183004379272 8.01964092254639 7.20074939727783 1.63641119003296 7.21809911727905 3.24298238754272 5.13619136810303 1.62116122245789 1.61264264583588 1.61042475700378 1.63754391670227 1.64013016223907 1.63906455039978 2.59890484809875 2.50438404083252 2.59764695167542 2.7451183795929 2.91164541244507 1.77775037288666 6.42968082427979 6.43132209777832 2.09140801429749 8.84785270690918 3.43662023544312 1.06101596355438 1.50081789493561 2.84423780441284 2.90743517875671 2.2994077205658 6.17885303497314 3.84072065353394 3.63802933692932 3.60591673851013 17.2199440002441 9.99227237701416 19.1632328033447 16.710054397583 1.5610316991806 1.54651057720184 1.50369608402252 2.11283087730408 1.521848320961 1.55921745300293 1.59045398235321 1.6216048002243 1.67005860805511 1.67853164672852 1.70415377616882 1.86907875537872 2.09416079521179 2.05107069015503 2.21849012374878 2.23269987106323 10.7227449417114 29.2295188903809 2.31099438667297 2.45549535751343 5.30580186843872 3.57187485694885 3.67417192459106 37.6112213134766 13.8200664520264 5.47481679916382 5.33200788497925 4.98121547698975 4.80162954330444 4.27568292617798 3.67402172088623 3.49614977836609 2.5878574848175 2.18786025047302 1.76810622215271 1.57830822467804 1.66884756088257 1.79615211486816 12.4218463897705 8.47955131530762 9.06412220001221 6.63368082046509
7.32668209075928 12.2236785888672 21.5978660583496 18.2334804534912 4.31607723236084 5.42668581008911 1.91822648048401 0.332055240869522 -2.42885184288025 -1.33145332336426 -1.81489086151123 -0.298129707574844 -1.75824618339539 20.6570529937744 10.994517326355 3.55008029937744 10.1931686401367 13.062876701355 4.53722524642944 2.45869612693787 4.33919906616211 5.40849542617798 8.44820022583008 9.36732769012451 9.42475605010986 12.8738203048706 6.90030717849731 8.20301151275635 10.7520418167114 38.1259918212891 36.0206489562988 6.77001428604126 19.3712062835693 11.5324335098267 11.5566244125366 4.35569858551025 4.2223048210144 7.78828859329224 22.576623916626 0.287185817956924 -0.451532453298569 0.360299497842789 -0.518043994903564 0.185942158102989 -1.37165248394012 -1.34148097038269 -0.781643569469452 -0.671168923377991 27.3323154449463 5.21147775650024 18.5256175994873 9.89643096923828 10.1869945526123 1.42734229564667 44.1303749084473 3.00061869621277 5.77294301986694 4.34332180023193 4.69243717193604 1.81657671928406 -2.654052734375 13.2258682250977 14.4218578338623 18.4874229431152 -2.32338738441467 9.57505893707275 -2.15849328041077 4.63916873931885 8.94923496246338 24.1858577728271 -0.39517930150032 4.57380819320679 0.337175875902176 0.562806844711304 -0.271468311548233 -0.190835639834404 -0.167804434895515 0.83471667766571 1.55737745761871 2.42181324958801 2.65866732597351 2.79868125915527 2.864018201828 3.1330885887146 3.24977540969849 3.28548169136047 3.19052267074585 3.09687781333923 2.94658184051514 2.76492619514465 3.38738965988159 3.16573214530945 3.85288381576538 2.56945848464966 2.34692931175232 3.57290554046631 2.50639319419861 10.4085836410522 8.82215309143066 15.7745904922485 7.54542016983032 6.66520881652832 6.04523372650146 1.77403557300568 1.65136051177979 1.66429507732391 1.68306648731232 1.6824893951416 2.66889142990112 2.57071566581726 2.66700506210327 2.82797932624817 3.01459956169128 2.97436738014221 1.95235538482666 5.69275569915771 1.75454807281494 2.75482845306396 12.2716550827026 5.49017333984375 2.53874754905701 9.40466594696045 9.36977577209473 5.07182693481445 4.72428607940674 7.09088516235352 4.28129577636719 3.03025364875793 6.00468063354492 4.84498643875122 7.07615184783936 1.13656234741211 1.20305848121643 1.63954782485962 1.62430608272552 1.61457943916321 2.22534441947937 1.61288321018219 1.64964771270752 1.68186295032501 1.71411550045013 1.74583280086517 1.75965428352356 1.94984686374664 2.18681049346924 2.1439368724823 2.04748630523682 2.28539633750916 40.5952987670898 14.1513185501099 0.430343061685562 3.29426455497742 1.69992244243622 3.10983991622925 4.26527166366577 5.76462650299072 4.75302362442017 9.28218460083008 5.28250169754028 5.4936637878418 5.15219831466675 4.87155485153198 4.14952850341797 4.20631170272827 3.97568535804749 3.49652600288391 2.59688115119934 2.08991003036499 1.89398419857025 1.88566160202026 1.79810988903046 16.9748764038086 11.9301376342773 10.7026386260986 6.53375959396362
25.6963920593262 43.0478668212891 34.4913864135742 18.9261302947998 14.5611028671265 32.5041923522949 21.8270626068115 6.80796718597412 4.18326616287231 -0.885588645935059 -0.207364320755005 0.229209721088409 -1.82190072536469 -1.38463175296783 3.29517126083374 6.12835884094238 13.9315004348755 7.41557693481445 6.02021837234497 6.43957138061523 7.19757461547852 8.83832263946533 10.2806529998779 19.6157360076904 17.3564548492432 19.8646564483643 17.1496047973633 11.744532585144 12.2088174819946 10.4520149230957 16.5781192779541 8.20804977416992 5.53330993652344 5.91045761108398 5.80672216415405 5.09471893310547 19.1686897277832 3.03208327293396 0.575987279415131 0.657661020755768 8.9073314666748 3.5385160446167 5.52287721633911 4.42370414733887 -0.721217930316925 0.0907700434327126 0.676436185836792 4.14525032043457 2.10452103614807 17.4054183959961 8.99913311004639 3.92488145828247 3.70303797721863 3.67200493812561 15.6608209609985 42.1735916137695 7.39779424667358 9.67385292053223 -0.259141236543655 2.14583897590637 13.093692779541 -2.71521139144897 -0.935068249702454 -2.62622117996216 6.20365571975708 -1.76754009723663 19.7664623260498 -1.26517593860626 5.6034893989563 -0.915591180324554 1.81913149356842 2.68450880050659 0.534066200256348 0.952726721763611 0.981395065784454 -0.0545047409832478 0.0732144489884377 0.926689326763153 1.40006291866302 2.15215420722961 2.77215123176575 3.80778026580811 4.62797355651855 4.15650749206543 3.77807688713074 3.76121091842651 3.76106452941895 3.60470771789551 3.26777291297913 3.38744378089905 3.4854850769043 3.47152423858643 3.95074701309204 2.5119640827179 3.61852169036865 4.04921674728394 2.91907525062561 19.0547275543213 2.87669634819031 1.37246108055115 9.56802940368652 8.72714710235596 3.11863112449646 2.04391431808472 1.88867425918579 1.70969271659851 1.72118031978607 1.72308540344238 2.72447228431702 2.62539958953857 2.72387528419495 2.88691449165344 3.07543730735779 3.03459739685059 2.32702398300171 1.49488282203674 6.44056606292725 25.9333362579346 8.13675212860107 7.12041664123535 2.76762819290161 13.1909322738647 12.1750106811523 6.17795324325562 4.72318363189697 8.34565162658691 4.90895795822144 3.14769601821899 12.4896230697632 1.95501244068146 3.4806113243103 5.6021990776062 1.69928586483002 1.69643497467041 1.67885327339172 2.33578538894653 1.71745419502258 1.67092144489288 1.69918942451477 1.73216605186462 1.81296646595001 1.78962731361389 1.81773352622986 2.00385117530823 2.25373029708862 2.20191693305969 2.39838361740112 2.52126288414001 1.32450914382935 0.6231529712677 0.523827373981476 1.30236673355103 2.68135046958923 4.05441045761108 4.8733983039856 3.85368061065674 9.96286392211914 5.56953954696655 5.43034315109253 5.65829133987427 5.3324933052063 5.07300281524658 4.40686368942261 4.11371850967407 3.99959754943848 3.53111481666565 2.76622295379639 2.03055143356323 2.22826719284058 1.88455772399902 2.24050569534302 14.9541168212891 13.803825378418 9.10095405578613 7.76599884033203
11.749231338501 13.1976833343506 12.7267608642578 19.0449085235596 17.2399101257324 4.18368482589722 4.46283054351807 13.8671083450317 4.62884569168091 2.39324736595154 26.1733551025391 1.32276165485382 -2.14097809791565 2.01999425888062 3.51826572418213 4.69551992416382 16.9863395690918 19.4097518920898 7.17569923400879 10.8287162780762 14.6112880706787 9.96853160858154 11.1756982803345 20.2754764556885 44.6179275512695 19.475378036499 43.320556640625 28.9569396972656 16.5101890563965 11.2066621780396 10.6118907928467 11.1487169265747 11.6065282821655 8.22393226623535 12.9414157867432 7.67356204986572 5.53027153015137 7.88801050186157 8.06181812286377 22.3838500976562 18.3993301391602 28.8566474914551 6.94350719451904 9.19969367980957 5.73504018783569 6.40198850631714 1.61067306995392 21.4209747314453 14.4100494384766 6.71063756942749 13.2380332946777 7.12650060653687 2.50756883621216 3.01370644569397 5.39418792724609 12.5981473922729 45.4976615905762 10.7933597564697 -1.01070380210876 -1.91299080848694 -2.41696810722351 -1.32513725757599 -2.42012858390808 -2.32126569747925 -2.13071894645691 -1.60842621326447 -1.58421003818512 -1.19400119781494 -1.22166299819946 0.302980303764343 14.5853519439697 0.451822012662888 1.08467471599579 1.00573265552521 1.13076782226562 1.14948749542236 1.02624237537384 1.00502550601959 1.10662412643433 1.55837261676788 3.04855155944824 4.0845251083374 4.75390148162842 5.3570442199707 5.0831561088562 4.35653924942017 3.99632906913757 3.97035527229309 3.6384449005127 3.56720566749573 3.35107636451721 3.55783343315125 4.04202747344971 2.47680521011353 3.69873023033142 4.6215968132019 29.5242557525635 8.48022174835205 2.55198621749878 4.61615514755249 5.72788572311401 12.2194900512695 2.57755494117737 2.40222191810608 2.21371483802795 1.76699817180634 1.76971662044525 1.81911277770996 2.78143906593323 2.67957925796509 2.77734303474426 2.93749403953552 3.13280415534973 3.08962726593018 2.37021255493164 2.28905558586121 2.03224873542786 1.57248044013977 8.05318355560303 9.91412162780762 27.3773212432861 14.1096696853638 16.9623756408691 8.00181293487549 10.8557662963867 4.21696472167969 5.82161140441895 32.8912582397461 2.22520852088928 6.18911218643188 1.24369466304779 3.01993632316589 1.74377071857452 1.73404812812805 1.71726536750793 2.40397095680237 1.71252477169037 1.74368274211884 1.76835024356842 1.79243683815002 1.86204409599304 1.85426795482635 1.87579751014709 2.05825614929199 2.30781483650208 2.25515913963318 2.45136260986328 2.56637763977051 1.3222119808197 1.31682205200195 2.03179049491882 2.90769028663635 3.20350956916809 5.02727174758911 5.41479778289795 5.32911109924316 5.18492698669434 5.85594081878662 5.83864259719849 5.51514673233032 5.35415744781494 4.79526329040527 4.55479907989502 4.2627649307251 3.71962451934814 3.41043090820312 2.98918223381042 2.2905809879303 1.98491144180298 2.31016087532043 41.9382247924805 5.84645462036133 18.0593242645264 10.672532081604 8.77542972564697
20.2903957366943 22.4033184051514 30.6722316741943 22.9235019683838 31.5988712310791 9.97138404846191 12.8135375976562 1.35407316684723 9.4743709564209 4.86555433273315 1.44690608978271 5.01175546646118 24.3738346099854 15.1189193725586 19.8401927947998 25.0735969543457 7.42484140396118 9.44586086273193 10.5948371887207 15.107008934021 11.13267993927 11.4782915115356 14.8363838195801 11.9248762130737 15.4957475662231 18.3589420318604 14.0302839279175 9.43941497802734 16.308967590332 14.3121089935303 12.4033241271973 14.9091558456421 16.0808982849121 20.0121116638184 10.8649530410767 11.7548360824585 9.62432956695557 3.81186556816101 3.49367785453796 0.103854723274708 9.85776996612549 1.58259320259094 14.3626670837402 2.68830513954163 1.87588632106781 0.987876653671265 5.53706121444702 2.9659857749939 5.61188554763794 24.1996250152588 34.2481117248535 5.47255611419678 3.0043408870697 2.10743188858032 4.78091192245483 11.3708238601685 17.9828872680664 37.9500885009766 4.50949621200562 -1.84767413139343 -2.07009077072144 -2.02679562568665 -1.74431097507477 -1.54914700984955 -1.15876996517181 -0.952963948249817 -0.5980024933815 5.8970685005188 3.04718208312988 16.5926685333252 0.110640779137611 1.22193741798401 1.24189794063568 1.00503087043762 1.2907383441925 1.27361500263214 0.988119721412659 1.06563782691956 1.42540729045868 1.76633441448212 2.12062001228333 2.76713538169861 3.70910429954529 4.70093727111816 5.36025381088257 5.26506614685059 4.83556175231934 4.2776403427124 3.6755998134613 3.62416744232178 3.41114091873169 4.16157817840576 2.74532318115234 2.46823310852051 5.98199367523193 4.52556467056274 5.6698145866394 2.61447024345398 2.77567577362061 3.16057538986206 25.8416328430176 14.3021383285522 3.13584876060486 2.91201400756836 1.79585123062134 1.81615138053894 1.86887907981873 2.88128447532654 2.75914216041565 2.86339020729065 3.03129553794861 3.22302031517029 3.18532586097717 2.31622672080994 2.42406487464905 2.34705853462219 2.2327709197998 1.95906400680542 18.9668521881104 3.19228720664978 2.21621656417847 26.3843402862549 8.17632293701172 11.2657651901245 14.0479764938354 7.57990503311157 3.3235867023468 1.90434145927429 2.30350947380066 4.605055809021 1.28063106536865 1.79993641376495 1.7874561548233 1.76754236221313 1.75362145900726 2.47606039047241 1.75912189483643 1.79308247566223 1.82121622562408 1.85630548000336 1.91181063652039 1.91030836105347 2.12732005119324 2.39966988563538 2.33386516571045 2.22598218917847 2.50733542442322 2.62941312789917 1.9250123500824 2.0595486164093 2.67147064208984 3.2913818359375 4.22287559509277 5.65238761901855 5.56011199951172 6.14791774749756 5.95215559005737 5.76702976226807 5.9895167350769 5.651939868927 5.39517164230347 4.64231729507446 4.66345548629761 4.36523962020874 3.80578207969666 3.35629153251648 2.76891756057739 2.33552145957947 2.02127075195312 2.36323547363281 1.255087018013 16.0903491973877 24.2780246734619 11.4650545120239 9.96992206573486
14.9153175354004 16.0444965362549 7.16865015029907 18.6119117736816 20.0074806213379 41.8951835632324 12.8285703659058 8.52064418792725 5.08406019210815 5.79413461685181 4.15921449661255 -0.193846717476845 -1.34549856185913 3.23179936408997 3.56991171836853 5.79106903076172 17.5098533630371 8.87091541290283 21.755802154541 20.5426025390625 24.0675468444824 14.0913982391357 4.7378044128418 37.625804901123 19.3027763366699 24.8209781646729 19.8286151885986 26.6619548797607 21.5173034667969 19.5588130950928 23.8460502624512 30.091438293457 17.5312385559082 22.4116172790527 15.970085144043 12.7956628799438 14.8666734695435 15.6441679000854 4.13397169113159 4.85267114639282 10.4080953598022 14.1175107955933 13.2902364730835 1.01941931247711 3.63572692871094 24.0127429962158 14.701301574707 20.9729537963867 24.7922706604004 1.7423894405365 0.127553716301918 -2.8731095790863 -3.34316539764404 3.60864996910095 3.12912940979004 -0.821920156478882 -3.17567563056946 13.3433294296265 29.6153869628906 -1.78973710536957 -1.61950671672821 -1.83333170413971 -0.847693026065826 0.00081700028385967 -0.526811957359314 -0.49452343583107 18.5477676391602 26.1992378234863 0.838078260421753 0.0656784549355507 1.27274262905121 1.35835719108582 1.37600541114807 1.39672780036926 1.28791880607605 1.4007602930069 1.058220744133 1.13185226917267 1.50808548927307 1.31140553951263 1.38313245773315 1.60112822055817 2.38888216018677 3.38725090026855 4.49580144882202 5.16165685653687 5.08460474014282 4.62847089767456 3.85162448883057 3.67911434173584 3.68079447746277 4.24804019927979 2.66788840293884 3.90936613082886 7.56504440307617 4.98072242736816 1.83833694458008 2.70389795303345 3.63412857055664 3.71604681015015 4.90005588531494 7.4323902130127 4.07162380218506 3.77395391464233 1.98104298114777 1.86080479621887 2.9593334197998 2.92922782897949 2.82142066955566 2.92747330665588 3.09941411018372 3.2997088432312 3.26237654685974 2.50265097618103 2.03442001342773 3.13135957717896 3.37671732902527 2.36366128921509 2.33008289337158 4.76280117034912 2.70164084434509 0.837846040725708 17.9069042205811 11.2527933120728 19.4719486236572 9.84633541107178 5.52884531021118 2.3120858669281 3.58956360816956 2.4429931640625 1.49092388153076 1.84070682525635 1.83197069168091 1.81182646751404 2.57376790046692 1.89121890068054 1.81517386436462 1.84111368656158 1.86609578132629 1.9825850725174 1.93889033794403 1.96120941638947 2.1896059513092 2.46763896942139 2.39799284934998 2.6066563129425 2.71192765235901 2.59976601600647 2.99810385704041 2.79155993461609 3.54470610618591 4.02258586883545 5.19797611236572 5.94188690185547 6.0515251159668 6.41910839080811 6.35138177871704 5.90778255462646 6.14115238189697 5.7946195602417 5.5297966003418 4.82041215896606 4.51413536071777 4.34259176254272 3.81093525886536 3.16102027893066 3.23149013519287 2.53744745254517 2.03400373458862 2.41173696517944 5.36065101623535 45.8570976257324 17.5314235687256 16.0811595916748 13.0519485473633
14.7124900817871 6.54727268218994 1.56664061546326 -0.349100321531296 12.2077121734619 5.02633714675903 21.1443691253662 8.35291385650635 14.4227809906006 10.4702215194702 1.20452499389648 -0.668315649032593 -0.666160643100739 -2.71138834953308 6.672523021698 16.3226699829102 4.78863859176636 15.6684904098511 4.29803848266602 4.41466903686523 13.3588628768921 10.1540517807007 6.82895660400391 13.0434160232544 18.3449153900146 25.2775402069092 15.7671613693237 17.973445892334 32.2063903808594 41.5344085693359 49.652717590332 48.5428695678711 19.1985530853271 17.5093307495117 19.0583801269531 17.0348281860352 7.87101650238037 4.84877920150757 2.30803227424622 14.127984046936 3.34092664718628 0.258332133293152 -2.14142298698425 10.2211437225342 0.641819715499878 3.20063734054565 26.0417823791504 9.76367664337158 -0.0670451074838638 5.18408346176147 1.36061918735504 12.8855676651001 10.6345243453979 6.6794548034668 3.02236723899841 5.09516620635986 -2.92697596549988 -2.53963232040405 2.37559843063354 -1.33449852466583 9.59265518188477 -0.70589417219162 -0.843396961688995 -0.116405300796032 -0.2005315721035 28.6966819763184 -0.226911261677742 -0.433286398649216 1.30541026592255 1.31833148002625 1.40235352516174 1.43660926818848 1.35043275356293 1.48259460926056 1.46636235713959 1.26711773872375 1.13911354541779 1.19355320930481 1.5470654964447 1.35487473011017 1.52421414852142 1.36287105083466 1.4013010263443 2.30690574645996 3.31614661216736 4.03186082839966 4.58192825317383 4.56733560562134 4.18649673461914 3.81559586524963 3.72732281684875 4.33717155456543 2.59603238105774 4.00267696380615 11.3146238327026 2.42200469970703 3.02288174629211 3.55718803405762 3.82422590255737 18.3208103179932 3.13915085792542 5.4236946105957 5.71950912475586 5.307541847229 2.52196669578552 2.27143573760986 3.02165293693542 2.99473094940186 2.88782906532288 2.99532341957092 3.16861319541931 3.37675166130066 3.33698463439941 2.54876112937927 3.22970867156982 3.47509360313416 5.29288387298584 3.89206671714783 5.32879495620728 6.16395664215088 2.95935201644897 2.19712591171265 1.83301508426666 32.3131256103516 7.3730936050415 13.7924966812134 7.21418237686157 4.62987899780273 5.01283693313599 2.28142380714417 1.87437832355499 1.8820264339447 1.87616956233978 1.85643863677979 2.65660429000854 1.86140668392181 1.89602768421173 1.92114686965942 1.94676411151886 2.04133629798889 2.01168966293335 2.84783625602722 2.37107110023499 2.54621028900146 2.71070790290833 2.66423082351685 2.96558022499084 3.17714071273804 3.11558127403259 3.70905685424805 3.76571106910706 4.46041059494019 6.43175554275513 6.21957588195801 6.33955001831055 6.56680679321289 6.45228290557861 6.33450412750244 5.97578048706055 5.78940725326538 5.18702840805054 4.92806196212769 4.62290048599243 4.02862215042114 3.66466426849365 3.31964087486267 2.60872197151184 2.41565275192261 2.49042534828186 2.53028297424316 16.9526348114014 1.63289821147919 33.630241394043 20.6049327850342 18.2084407806396
-2.51931405067444 -3.20101499557495 1.08335745334625 3.4801812171936 14.4034471511841 13.7106666564941 24.4055480957031 14.8303871154785 19.6525993347168 13.112494468689 1.50918579101562 8.63416385650635 -0.216472178697586 -2.88322114944458 -5.08494186401367 -4.83207035064697 6.94098711013794 1.72813105583191 5.66654109954834 16.2828750610352 4.81679391860962 8.61522483825684 20.5184745788574 -0.776531219482422 9.2696008682251 3.72622680664062 8.80435848236084 5.13942909240723 28.3190422058105 24.7447299957275 4.83645009994507 0.5068079829216 21.5674934387207 16.5876407623291 28.8669700622559 22.1206073760986 15.3833665847778 7.00409030914307 5.03026008605957 0.289659053087234 4.58865547180176 2.93279266357422 -1.3587943315506 -1.81230056285858 -0.632796704769135 -0.895615875720978 2.43234181404114 1.35088717937469 3.24030566215515 0.695245742797852 1.45716071128845 -3.03607034683228 -3.3363299369812 -3.58084321022034 8.32519245147705 11.8316650390625 -2.70754051208496 -2.46122431755066 -1.34166467189789 2.41532707214355 -1.36764287948608 6.30277109146118 0.454135298728943 2.27571320533752 0.20022177696228 -0.347775250673294 0.154836386442184 1.34101390838623 1.41766726970673 1.38563525676727 1.43747127056122 1.48311305046082 1.20704901218414 1.56406462192535 1.55207586288452 1.18341457843781 1.2389976978302 1.5580940246582 1.27009665966034 1.41457772254944 1.58380568027496 1.36121046543121 1.27255141735077 1.66752982139587 2.07964611053467 2.84539484977722 3.3504421710968 3.9679057598114 4.04838275909424 4.01750230789185 4.37812089920044 3.40774130821228 2.98580813407898 21.0814056396484 2.44083023071289 2.71082663536072 4.45839834213257 3.63200831413269 4.38085603713989 3.43591260910034 3.28282952308655 7.03237676620483 7.06939840316772 3.48040223121643 2.64171624183655 2.46357154846191 3.09171319007874 2.9782931804657 3.09033441543579 3.27365899085999 3.48503088951111 3.44827890396118 2.72189211845398 3.1148624420166 4.00647926330566 3.70852375030518 6.9625768661499 4.96495819091797 9.80980396270752 7.9010214805603 9.95069789886475 3.00640630722046 1.3365273475647 0.830757260322571 28.5776786804199 8.53317832946777 7.58914422988892 6.56775903701782 3.36569023132324 5.95631742477417 1.92680549621582 1.93620133399963 1.91922736167908 1.89950633049011 2.74387764930725 1.90969610214233 1.947625041008 1.97821485996246 2.01726078987122 2.10503673553467 2.92849779129028 2.44066190719604 2.65203738212585 2.79024362564087 2.73389673233032 3.04392647743225 3.26237416267395 3.14448547363281 3.1804404258728 4.17611885070801 4.17274284362793 5.37694835662842 6.58615207672119 6.47236013412476 6.77378129959106 6.71149587631226 6.24219083786011 6.48709201812744 6.12474250793457 5.84555292129517 5.03354644775391 5.0416202545166 4.72717571258545 4.12205457687378 3.60696339607239 3.38948464393616 2.66517424583435 3.09613609313965 2.574622631073 2.88456559181213 1.8194123506546 27.3448753356934 10.881950378418 36.7262763977051 43.260684967041
4.44012784957886 9.23544406890869 -3.07442355155945 9.07845115661621 4.78352165222168 6.84475994110107 7.94442415237427 29.0946083068848 28.4304485321045 22.0703105926514 5.53627061843872 0.147808939218521 3.01016044616699 -1.37955629825592 -2.55562496185303 -0.549372732639313 -4.59909296035767 0.119523257017136 -1.27971696853638 -1.29207456111908 2.26851296424866 12.2670583724976 5.30811262130737 4.15478992462158 -2.98372077941895 4.5088939666748 6.2835373878479 2.79145169258118 -2.71203184127808 7.0241551399231 -0.730560898780823 6.30577230453491 6.58785772323608 14.6400184631348 23.968864440918 25.8296928405762 18.2617568969727 6.48505020141602 5.97814989089966 23.046329498291 19.4373111724854 11.5229167938232 -2.20102882385254 -0.308702647686005 -0.00907061062753201 0.703222811222076 1.84741806983948 2.06282448768616 7.02341985702515 3.20172691345215 -2.53735589981079 -0.100423842668533 -3.00778198242188 8.44252777099609 12.857442855835 13.8683137893677 -0.586314499378204 -1.87380647659302 -1.11240041255951 5.98492908477783 5.32552909851074 -0.245715364813805 16.2396125793457 0.920411705970764 1.01013493537903 0.207376390695572 1.69669318199158 1.57745110988617 1.3217442035675 1.45233929157257 1.49060213565826 1.52804493904114 1.56533908843994 1.48807811737061 1.62943577766418 1.40902578830719 1.30501353740692 1.6397590637207 1.41010904312134 1.48192954063416 1.64203464984894 1.40526950359344 1.61152505874634 1.68654215335846 2.08946180343628 2.85370087623596 2.68555116653442 3.51219010353088 3.71651172637939 3.74077272415161 4.42728137969971 2.92142462730408 4.17022800445557 2.2597324848175 2.52192735671997 9.80469417572021 2.90309143066406 3.89890050888062 6.18347883224487 3.95557451248169 3.22453308105469 3.21178412437439 3.46914649009705 3.6032931804657 3.53148508071899 3.16583895683289 3.15886640548706 3.04909896850586 3.16490125656128 3.35159826278687 3.5706889629364 3.53118348121643 3.231529712677 4.11506605148315 3.81563305854797 4.56515884399414 13.2385053634644 14.0000381469727 7.4475884437561 5.84291410446167 2.68199443817139 3.5683708190918 1.9669007062912 11.3843231201172 2.52929210662842 13.9595861434937 13.5226430892944 12.0630445480347 4.04904174804688 1.99368107318878 1.98042213916779 1.98190605640411 1.96832644939423 2.86954045295715 2.10003042221069 1.98848378658295 2.0114049911499 2.037766456604 2.18591666221619 2.11732220649719 2.98496127128601 2.48619318008423 2.73760008811951 2.84726285934448 2.83899807929993 3.10477018356323 3.33143496513367 3.21451139450073 3.30612540245056 4.27205801010132 4.71689796447754 6.06800603866577 6.75450038909912 6.64330625534058 6.94246196746826 6.87964105606079 6.39626121520996 6.6516318321228 6.27924346923828 5.99437761306763 5.20569562911987 4.88129138946533 4.6971116065979 4.12850713729858 3.49452996253967 3.46507883071899 3.17872619628906 2.68601369857788 3.21218228340149 25.1109886169434 2.14089632034302 1.66153204441071 2.62865710258484 2.94006299972534 2.95155739784241
16.0201416015625 5.49441337585449 -2.55283212661743 -1.25624203681946 -4.70040798187256 -2.89790654182434 9.37173938751221 6.6156587600708 18.2836589813232 11.8001127243042 6.30845355987549 12.1007432937622 -0.383890628814697 0.048276849091053 -4.7449254989624 5.60785961151123 10.2951040267944 7.28875637054443 9.52287864685059 -3.34066557884216 -2.70190382003784 0.774381577968597 0.174754127860069 -1.53503692150116 -2.77957558631897 4.11621379852295 27.3980979919434 3.52997994422913 2.5398485660553 -3.4408872127533 0.858221232891083 10.7046012878418 6.9070200920105 -3.10331058502197 -5.43377351760864 5.95477628707886 4.92821598052979 3.61766767501831 5.44163846969604 5.73203802108765 6.1794285774231 -1.00711417198181 -0.0364011451601982 0.0361956804990768 0.0996302589774132 15.0252532958984 15.0741519927979 15.0523557662964 7.55877351760864 18.017463684082 -1.3360298871994 21.7932453155518 -2.89021968841553 -3.26904273033142 -3.30645203590393 -2.20556449890137 5.06805896759033 -0.708111524581909 6.37508583068848 12.4248790740967 8.94087696075439 5.27207660675049 0.0571937374770641 0.611863136291504 2.23110270500183 1.74450361728668 1.8297461271286 1.68895196914673 1.58521234989166 1.57912302017212 1.60640323162079 1.49346530437469 1.64028930664062 1.62089598178864 1.41310489177704 1.68162906169891 1.51982140541077 1.73248791694641 1.50358521938324 1.68067848682404 1.46129393577576 1.45108711719513 1.70792102813721 2.11820292472839 2.8909010887146 2.63912415504456 2.48757219314575 3.67037200927734 3.46078968048096 3.75944137573242 4.4823842048645 2.61109018325806 4.24472904205322 2.81336951255798 2.6167459487915 2.61925148963928 4.16271209716797 13.6139116287231 4.10854196548462 3.96056294441223 3.52524352073669 3.75516247749329 3.9131190776825 3.71574521064758 3.29219460487366 3.21780395507812 3.22680306434631 3.11587810516357 3.23649048805237 3.43096661567688 3.65967535972595 3.61954021453857 3.62498354911804 4.20274543762207 4.72856378555298 21.4010524749756 4.17552471160889 4.18938732147217 3.54124617576599 4.99672603607178 4.11210966110229 3.7762815952301 4.69381713867188 4.34128141403198 6.68181848526001 7.36940670013428 2.53407430648804 4.80501937866211 5.59693622589111 2.06101822853088 2.03881287574768 2.03375196456909 2.0134711265564 2.96009254455566 2.02831935882568 2.07093596458435 2.09666395187378 2.12920355796814 2.25989151000977 2.19423627853394 3.05042171478271 2.5410213470459 2.82493448257446 2.90364170074463 3.03430008888245 3.1828396320343 3.40209269523621 3.39537906646729 4.03042364120483 4.3693528175354 4.88284873962402 6.98549175262451 6.77272701263428 6.88876008987427 7.11524295806885 6.98905324935913 6.88061141967773 6.52233123779297 6.27189588546753 5.62372827529907 5.33263683319092 5.00038576126099 4.49165487289429 4.28596305847168 4.01473331451416 3.28591179847717 3.24138474464417 3.29011082649231 2.98999190330505 2.46369957923889 2.50045084953308 2.91543316841125 2.816401720047 3.23369789123535 11.6313333511353
-2.86156582832336 -2.97943019866943 12.5697755813599 0.315786510705948 -4.00592803955078 0.712903797626495 0.494911313056946 -3.5921573638916 -3.52566051483154 9.0893440246582 17.0979595184326 19.7381954193115 7.81299829483032 -1.8318213224411 -4.60824632644653 -4.53409910202026 6.2114052772522 10.1695528030396 -2.05452561378479 5.06393146514893 8.52885246276855 0.323501646518707 7.40995454788208 -0.261244714260101 21.5005779266357 -0.517285585403442 3.46900987625122 -1.23572218418121 -1.81585168838501 -0.338522106409073 5.93376159667969 -3.8494279384613 -5.03100061416626 -4.62673377990723 14.748215675354 4.18701028823853 1.28043639659882 6.57189655303955 9.99100971221924 -1.21615922451019 -3.7486584186554 -1.25189888477325 12.7432670593262 2.0764491558075 1.86323082447052 -2.05217099189758 19.5826892852783 25.470817565918 18.49587059021 2.19027638435364 1.02013742923737 2.96882677078247 16.1876850128174 8.78059959411621 -2.16241526603699 -2.02260422706604 -1.24602544307709 6.00373029708862 25.6011486053467 14.3998689651489 12.2881717681885 4.80539321899414 0.129143998026848 2.34278726577759 1.7252471446991 1.86232936382294 1.98043012619019 1.81097817420959 1.73715925216675 1.72461676597595 1.73913025856018 1.38216686248779 1.72366464138031 1.66457080841064 1.25244140625 1.35035479068756 1.8837788105011 1.50837481021881 1.5884622335434 1.75786900520325 1.49988448619843 1.36160695552826 1.77029061317444 2.21158695220947 3.0200731754303 2.76589298248291 2.56351590156555 3.7752583026886 3.54348206520081 4.53243589401245 2.88306999206543 2.60449838638306 4.31036520004272 2.83343005180359 2.86187529563904 2.98088955879211 3.79831314086914 3.9084849357605 4.15578317642212 3.80576872825623 3.58580827713013 4.00090074539185 3.77714776992798 3.65426802635193 3.59602522850037 3.31079816818237 3.2054488658905 3.3361713886261 3.53465986251831 3.77220869064331 3.73859930038452 3.39078378677368 3.71356081962585 4.29392862319946 6.12194108963013 4.15701818466187 4.3642315864563 3.77966904640198 3.52404570579529 6.38583993911743 5.078528881073 4.18237066268921 7.63674163818359 14.4668664932251 3.54568648338318 2.65504097938538 13.5788040161133 16.1419334411621 2.37364554405212 2.11839365959167 2.09695219993591 2.08987712860107 2.07795381546021 3.07307291030884 2.08179330825806 2.11798644065857 2.14964747428894 2.19253396987915 2.31874394416809 3.13437175750732 2.60926532745361 2.94838619232178 2.98656415939331 2.90691471099854 3.26269435882568 3.50100779533386 3.38091468811035 3.46575999259949 4.50919818878174 4.56793022155762 5.88592624664307 7.16996812820435 7.08265018463135 7.35783338546753 7.29966449737549 6.79812240600586 7.06368494033813 6.66267967224121 6.36204957962036 5.4820671081543 5.46591567993164 5.12545204162598 4.57021856307983 4.31458950042725 3.79923725128174 3.39025044441223 3.31072163581848 3.39795637130737 3.15003657341003 3.30653357505798 12.4578666687012 3.41657567024231 6.64039325714111 13.8885908126831 2.77292633056641
-2.41612219810486 -2.86743927001953 -4.08136367797852 -4.47175550460815 5.4749059677124 -0.812727093696594 4.89693880081177 0.726458251476288 13.7597579956055 10.2269172668457 27.1540946960449 11.2199401855469 4.10444736480713 -4.21544218063354 -4.35126113891602 -4.1092004776001 -4.44057893753052 -4.2130708694458 -1.29281949996948 2.82378149032593 -2.62366247177124 -3.05370473861694 -3.31166839599609 -4.14168167114258 -4.4396538734436 2.7620415687561 -2.90990495681763 14.630687713623 -2.27413487434387 3.13588333129883 -2.79422068595886 -2.88340139389038 -4.94997835159302 -1.82932794094086 -5.37749147415161 -5.10185432434082 -4.93218660354614 -4.5168080329895 -4.94132137298584 -3.97870850563049 -0.641063749790192 0.814808487892151 0.77582722902298 3.39433240890503 2.81420564651489 11.7296123504639 -2.90169668197632 -3.48064208030701 -3.16642808914185 5.25133848190308 -0.472687542438507 12.094033241272 -1.88495874404907 -2.10904455184937 -2.09882974624634 -1.96412968635559 -0.344958782196045 9.15493297576904 3.26243233680725 25.9736595153809 -0.0129703050479293 19.6058731079102 1.6527087688446 2.5748450756073 1.88925099372864 2.14593982696533 1.8826094865799 1.99323856830597 1.94503939151764 1.90707123279572 1.87625849246979 1.82696425914764 1.68477392196655 1.75390362739563 1.22423136234283 1.37417459487915 1.81315398216248 1.6873482465744 1.67721223831177 1.86024820804596 1.57105660438538 1.78658390045166 1.84181225299835 2.3084557056427 3.16338443756104 2.88889122009277 3.74336624145508 3.94496631622314 3.92790102958679 4.74094152450562 2.83952450752258 4.42557287216187 2.84423136711121 2.68404150009155 2.89979791641235 3.0554039478302 4.15138864517212 4.29126691818237 4.23220443725586 3.67759394645691 3.64660882949829 4.0703558921814 3.85241866111755 3.72327899932861 3.35069155693054 3.38651275634766 3.27697682380676 3.41601252555847 3.62240791320801 3.86163258552551 3.82705926895142 3.46030354499817 4.42053508758545 4.09600162506104 10.7685012817383 4.31904458999634 5.63159132003784 4.54505109786987 3.55930733680725 8.88659763336182 6.9907341003418 5.56325054168701 5.28342008590698 3.47607922554016 5.49458646774292 2.60887980461121 2.72191524505615 2.74814867973328 2.20244336128235 2.17680668830872 2.15871405601501 2.29679846763611 3.22284078598022 2.34108901023865 2.17538285255432 2.20178604125977 2.23351669311523 2.41381144523621 2.31327080726624 3.20006275177002 2.66470170021057 3.04683923721313 3.04602646827698 3.08391141891479 3.34788513183594 3.58072400093079 3.4589695930481 3.6419312953949 4.61632680892944 5.16018342971802 6.63557767868042 7.36465120315552 7.28770685195923 7.54889869689941 7.49267292022705 6.97304534912109 7.25337171554565 6.84358644485474 6.53325700759888 5.64972114562988 5.30090427398682 5.09029579162598 4.56239938735962 4.56442260742188 3.74444150924683 3.41407680511475 3.32499551773071 3.43604469299316 3.38301706314087 3.59477567672729 3.19580602645874 6.12472867965698 8.65817546844482 3.86304640769958 11.0826902389526
11.555046081543 13.9771747589111 -3.95962619781494 -4.27801132202148 -1.35842847824097 18.954475402832 3.47935914993286 0.659767091274261 -2.70240068435669 -2.0285849571228 -0.316183030605316 2.04618382453918 4.21129035949707 0.629452168941498 12.610954284668 -3.72662925720215 -3.95996904373169 -4.12599611282349 0.515911221504211 -2.63074231147766 5.00599145889282 -2.99096059799194 12.503885269165 5.8376145362854 -4.33090019226074 0.725520312786102 -2.97425365447998 -2.57868146896362 4.35869121551514 -4.64478826522827 -2.19283866882324 -4.85706996917725 -4.87254619598389 -5.03678560256958 -4.95451021194458 -4.78787994384766 -4.6076831817627 -4.67733716964722 -4.29816818237305 -2.73563838005066 0.632652044296265 0.713538408279419 3.51237058639526 3.47206544876099 11.6027402877808 -2.09592509269714 -2.82176971435547 -3.17124271392822 -2.83431792259216 -2.61350202560425 -2.14726114273071 -1.96023809909821 6.00454092025757 -1.27822148799896 -1.40759980678558 8.73513507843018 8.76663780212402 4.12859296798706 2.25142312049866 -0.362980604171753 38.697998046875 2.27511191368103 1.82408583164215 2.8241183757782 2.17127823829651 2.39464449882507 2.27992987632751 1.99506366252899 2.16137480735779 2.07545924186707 1.89821481704712 2.01041674613953 1.90525734424591 1.5671112537384 1.36494314670563 1.37597823143005 1.85630571842194 1.66272914409637 1.90476500988007 1.66971111297607 1.66310584545135 1.91659581661224 2.41710114479065 3.31235551834106 3.01111960411072 2.71628308296204 4.05819892883301 3.84309148788452 4.11261463165283 4.99524354934692 2.77505469322205 4.60486841201782 2.92312502861023 2.70948576927185 2.95736646652222 4.0195107460022 4.35313177108765 4.37369632720947 4.27679347991943 3.73753070831299 3.98607349395752 4.14976596832275 3.92243599891663 3.72697424888611 3.42585158348083 3.46806168556213 3.35835218429565 3.49373340606689 3.70836782455444 3.96614360809326 3.92570328712463 3.88250803947449 4.51657438278198 18.9403285980225 13.0232906341553 4.81992292404175 6.86816740036011 11.9416275024414 8.85296058654785 10.5571041107178 13.891152381897 14.0763416290283 8.86178112030029 3.91141653060913 9.0932788848877 5.56107473373413 3.07225036621094 2.93777132034302 2.27208948135376 2.24496579170227 2.94560122489929 2.80040144920349 3.34129476547241 2.21829962730408 2.25301790237427 2.28676438331604 2.32246613502502 2.49144434928894 2.39399695396423 3.2659957408905 2.71950793266296 3.1475875377655 3.09485912322998 3.25141286849976 4.07040596008301 3.98332285881042 3.64129400253296 4.40574169158936 4.72829961776733 5.38556575775146 7.6363844871521 7.42163944244385 7.53204488754272 7.77418565750122 7.61453294754028 7.52148008346558 7.1669602394104 6.83841514587402 6.13083219528198 5.80125284194946 5.43718004226685 4.80738735198975 4.68724012374878 4.31708145141602 3.56299209594727 3.49365758895874 3.54989099502563 4.13081932067871 3.57371544837952 3.91515684127808 3.28513789176941 10.9332599639893 6.91650581359863 26.5525360107422 11.9031925201416
-1.5761935710907 -3.8955671787262 -3.6741361618042 -4.12681484222412 -3.72705554962158 -4.97456550598145 -1.00990009307861 2.14678335189819 -4.00507307052612 3.92850208282471 2.87777709960938 -1.0959700345993 1.5690860748291 8.54876327514648 -3.73051047325134 -3.68910384178162 -1.97314286231995 -3.59488725662231 -3.18343997001648 -1.99047768115997 -2.78511571884155 -2.85208415985107 -3.27393579483032 -4.11345767974854 4.63921594619751 -2.69690561294556 -2.51060128211975 -1.33424925804138 -1.6559864282608 -4.80900859832764 -0.765675365924835 -1.2015585899353 -4.5004448890686 -4.71124744415283 -4.43437433242798 -4.29743432998657 -3.88525795936584 -3.28157925605774 0.838244795799255 2.93256258964539 3.47246813774109 3.36461877822876 4.64651679992676 32.7417221069336 -1.80143630504608 1.45006322860718 -2.28731918334961 -2.74256682395935 -2.294353723526 -1.97349536418915 -1.87940049171448 -1.42556214332581 -1.45271360874176 -0.578676462173462 -1.12074708938599 7.24221277236938 0.684704184532166 -0.750662505626678 -0.565107524394989 1.31875205039978 0.145748734474182 2.8226854801178 3.18528842926025 2.43024158477783 2.48165106773376 2.70694017410278 2.50999569892883 2.38840937614441 2.30371427536011 2.29271864891052 1.8145067691803 2.15434646606445 2.04529047012329 1.49039971828461 1.50403726100922 1.85325360298157 1.45390903949738 1.71323192119598 1.97821760177612 1.718794465065 1.56860864162445 2.01869225502014 2.5561830997467 3.51469421386719 3.20055198669434 2.87599515914917 4.29206991195679 4.05464649200439 5.153235912323 3.24691367149353 2.80222058296204 4.78139400482178 3.01082587242126 3.01053595542908 3.13317251205444 4.09049892425537 4.46318531036377 4.42516708374023 4.04563426971436 3.82266974449158 4.25045728683472 4.02292633056641 3.89117431640625 3.80092740058899 3.56632447242737 3.45753836631775 3.60389876365662 3.82396483421326 4.09537172317505 4.04984378814697 3.61841821670532 3.96754384040833 4.61190223693848 4.6869945526123 4.41567945480347 23.5606269836426 10.6716871261597 5.44696140289307 3.84638142585754 3.14767813682556 4.21929264068604 3.24629807472229 5.34212255477905 14.3321104049683 3.97396540641785 3.10978436470032 3.20358324050903 2.95676732063293 2.52014851570129 3.02438926696777 2.87179327011108 2.38130617141724 3.46162271499634 2.27908062934875 2.31442928314209 2.3469660282135 2.38986563682556 2.57172679901123 3.35601544380188 2.82115173339844 3.30039405822754 3.1992027759552 3.26805686950684 5.13413572311401 4.95258855819702 5.57270431518555 4.90664434432983 4.89441156387329 5.03430604934692 6.48523712158203 7.8561315536499 7.81301403045654 8.04492855072021 8.00078678131104 7.47500848770142 7.73798036575317 7.30502367019653 6.97571516036987 6.33785247802734 5.96001672744751 5.58723545074463 4.8941764831543 4.78416109085083 4.08144092559814 3.63560628890991 3.58843326568604 4.24036169052124 3.73042511940002 4.01423835754395 3.88317036628723 4.34025859832764 3.69952893257141 4.01761054992676 3.05501127243042 3.09240937232971
4.11049461364746 22.8979167938232 -2.94445157051086 -4.02688407897949 -4.37183475494385 7.16532039642334 -4.08947134017944 -4.24693536758423 -3.89629220962524 9.93656730651855 1.97769486904144 -0.889910459518433 -3.78129553794861 -3.64412212371826 -3.07773995399475 15.8933725357056 -1.39651894569397 1.66261315345764 -2.7593297958374 -2.38428616523743 -2.56267023086548 -2.08114099502563 16.2796077728271 -4.08091354370117 -3.25203108787537 1.92089092731476 9.24498844146729 3.90733480453491 -3.0184121131897 5.27812576293945 10.3535871505737 3.04083323478699 -3.7915198802948 -4.07605075836182 -3.74699234962463 -3.98758625984192 -3.59173130989075 0.331402599811554 0.0678768455982208 5.36625480651855 7.04173946380615 3.83019280433655 5.22934818267822 -1.54944264888763 12.9698905944824 -0.621554791927338 -1.81108975410461 -1.43273162841797 -1.72939312458038 -1.56349861621857 -1.56047177314758 -1.09955561161041 0.967585682868958 14.1472826004028 -0.906289637088776 -0.670327365398407 -0.317127585411072 3.58564424514771 0.237609878182411 2.99214959144592 3.61497259140015 2.64571690559387 3.69951248168945 2.88168334960938 2.9689416885376 2.47371363639832 2.7158350944519 2.65133833885193 2.48466753959656 2.45370531082153 2.31787133216858 2.10238599777222 2.19670104980469 1.48269104957581 1.64580714702606 2.01277685165405 1.6933012008667 1.79518926143646 2.0429253578186 1.77957475185394 2.04873633384705 2.11361384391785 2.70150518417358 3.72622013092041 3.40766668319702 4.33671092987061 4.53827667236328 4.39801406860352 5.37333917617798 3.09762763977051 4.95819854736328 3.0730721950531 2.87736201286316 3.06878876686096 3.20871424674988 4.40522241592407 4.54284048080444 4.50632333755493 3.90950298309326 3.90696883201599 4.34320306777954 4.10125494003296 3.96352005004883 3.59085273742676 3.65906167030334 3.54308342933655 3.69411039352417 3.92850685119629 4.19277238845825 4.15371608734131 3.68642091751099 4.7248706817627 5.1330680847168 4.72834968566895 14.0617561340332 12.4416131973267 17.7214679718018 4.42892122268677 3.91716551780701 3.76139950752258 8.92811012268066 6.5531210899353 4.27474546432495 4.12970638275146 14.2557811737061 4.6208028793335 3.9467077255249 2.66601061820984 3.22286367416382 3.08782887458801 3.26407384872437 3.65476250648499 3.05271887779236 2.43897676467896 2.40367436408997 2.44841337203979 2.68973922729492 2.55339503288269 3.43790507316589 2.92146849632263 3.41871213912964 3.2576789855957 3.62341833114624 7.47063732147217 9.52123355865479 8.7809009552002 5.35406351089478 5.02211332321167 5.69042539596558 7.31796360015869 8.08839893341064 8.06184959411621 8.27650451660156 8.23780345916748 7.68424272537231 7.96809864044189 7.52234172821045 7.18232440948486 7.42522001266479 5.79820585250854 5.54559755325317 4.88179016113281 4.88161849975586 4.04978275299072 3.89238667488098 3.95319509506226 4.32859897613525 3.9467785358429 4.1129322052002 3.90167284011841 4.45554208755493 3.74759268760681 4.06134700775146 3.54694366455078 37.3164825439453
21.577995300293 -3.01146030426025 -3.52157521247864 -3.85547161102295 -4.15201139450073 -3.78521752357483 2.66235876083374 -3.95105195045471 -3.75767779350281 -4.77903604507446 1.7257399559021 -4.15614938735962 3.98832488059998 -3.17730140686035 15.7258682250977 -3.6149046421051 -3.0298924446106 -2.35395359992981 -2.25025534629822 -2.13739132881165 -2.32532119750977 -1.23207914829254 -3.59858536720276 -3.64217710494995 -2.66557312011719 -2.67058444023132 1.87112879753113 -3.70441937446594 0.12538568675518 9.51566600799561 7.25725269317627 -4.27985143661499 -4.01054668426514 -3.70278453826904 -3.64113402366638 -3.55970478057861 -1.65058541297913 17.5238800048828 6.80800867080688 8.50014019012451 8.02827453613281 8.47520160675049 20.9051055908203 8.1869535446167 -1.46047830581665 9.39021873474121 2.09903168678284 1.77050876617432 7.02484750747681 9.29794502258301 0.651379883289337 19.5739974975586 -0.717534840106964 1.01528334617615 -0.767818629741669 -0.619621336460114 0.210483565926552 0.124105669558048 4.48708772659302 3.76372671127319 4.82110977172852 2.99649477005005 4.21693134307861 3.09230899810791 3.22801756858826 3.02014374732971 2.63440608978271 2.87460064888 2.63603281974792 2.59940958023071 2.4590368270874 2.33452582359314 1.9668881893158 1.78778541088104 1.74674010276794 2.19584274291992 1.85252749919891 2.069744348526 1.79982817173004 1.83771538734436 2.15923285484314 2.83667707443237 3.01104760169983 3.94467902183533 3.61796379089355 4.71058988571167 4.4225754737854 4.55309152603149 5.5724048614502 2.98363757133484 5.12492752075195 3.13273644447327 2.88418388366699 3.11797428131104 4.26329708099365 4.61457967758179 4.62804222106934 4.53845024108887 3.96637582778931 4.23944616317749 4.41935539245605 4.18165159225464 3.96297359466553 3.67479872703552 3.74695873260498 3.62896871566772 3.78386735916138 4.0247483253479 4.30077409744263 4.25768375396729 4.13388538360596 4.82940292358398 5.28300046920776 5.18499231338501 4.38647365570068 4.50261402130127 4.11290454864502 4.44773626327515 4.01354026794434 27.81982421875 6.08680963516235 9.23362064361572 4.6613507270813 4.68253183364868 3.43728470802307 4.12509679794312 3.1769745349884 3.44366574287415 3.92344689369202 4.01060247421265 4.04768705368042 4.07413053512573 3.96422219276428 3.409592628479 2.56277251243591 2.54475140571594 2.79181885719299 2.64757037162781 3.52026438713074 3.01125526428223 3.54970741271973 3.7111120223999 3.65040469169617 3.64725112915039 3.70921564102173 3.65505385398865 4.74105453491211 5.10347843170166 10.7728281021118 10.389331817627 8.21284103393555 8.32381439208984 8.56547927856445 8.36817646026611 11.7620286941528 9.37439250946045 7.51079702377319 9.67683696746826 6.36165285110474 5.96587467193604 5.20461893081665 5.02024841308594 4.63213968276978 4.00240325927734 4.37852001190186 3.86177825927734 4.42312288284302 4.03675556182861 4.20024919509888 4.2265477180481 4.69050598144531 5.09135866165161 33.8773384094238 3.64731526374817 3.45820593833923
5.76029348373413 1.9117876291275 27.8298740386963 8.76021671295166 -3.79203915596008 -3.20550775527954 -3.81809687614441 -3.34364032745361 8.15317153930664 -4.60613536834717 -4.3053936958313 1.55251574516296 -3.17671203613281 1.10334420204163 -3.19662475585938 3.7197003364563 -0.734236121177673 -2.06722569465637 -1.39171552658081 -1.47764754295349 -0.69845187664032 2.03439903259277 -2.27070069313049 2.23186683654785 4.74757719039917 -2.21815013885498 -3.09042096138 -3.62076902389526 -4.67854690551758 -4.93776082992554 -3.96015286445618 -3.48042321205139 -3.8358359336853 -0.452967286109924 1.141068816185 7.70709705352783 -0.540279805660248 4.99778032302856 17.4917964935303 12.7666921615601 8.47912406921387 8.6715669631958 3.6133508682251 8.94920825958252 25.9201622009277 5.45962810516357 6.41871881484985 13.3443641662598 17.513744354248 0.427515476942062 -0.627986252307892 -1.05710482597351 -0.426136642694473 -0.641770362854004 -0.518702924251556 0.100832223892212 1.63589382171631 2.65905714035034 5.65781831741333 4.82165718078613 6.33196926116943 5.0084400177002 4.0264310836792 3.4459867477417 3.64079117774963 3.32336568832397 3.15346002578735 2.87292194366455 2.84074544906616 2.52120566368103 2.62850427627563 2.52537894248962 1.87228584289551 1.95450627803802 2.35432076454163 1.74566757678986 1.99404525756836 2.19594955444336 1.85625052452087 1.68869423866272 2.22572684288025 2.95731377601624 4.19595670700073 3.81774544715881 3.2634220123291 4.94485759735107 4.56330251693726 5.73376655578613 3.4974684715271 2.98085498809814 5.25561761856079 3.17524600028992 3.16384506225586 3.31303334236145 4.34568071365356 4.73715543746948 4.69388294219971 4.26190376281738 4.03502559661865 4.49970579147339 4.26839590072632 4.13670969009399 4.02277851104736 3.85374879837036 3.72981190681458 3.88821411132812 4.15022897720337 4.43900632858276 4.40128803253174 3.85518264770508 4.21759510040283 4.90780544281006 5.45666551589966 5.29637908935547 5.37109136581421 5.46400690078735 4.84116220474243 4.58473491668701 4.43203449249268 3.49153137207031 20.9886512756348 9.53224754333496 6.13273000717163 4.95597648620605 3.55600643157959 4.28771638870239 3.54781794548035 4.03471374511719 4.12441682815552 4.15899085998535 4.18819761276245 4.05517959594727 4.11391639709473 4.26287412643433 3.24138641357422 2.66555309295654 2.91074538230896 3.63368678092957 3.17146134376526 3.74295353889465 3.47604036331177 3.78639316558838 3.84969258308411 4.07521724700928 3.97232484817505 3.71851301193237 5.20390033721924 5.48226690292358 6.84289026260376 8.33857822418213 9.2109203338623 8.79652881622314 8.78629875183105 8.23016452789307 9.21300983428955 15.5421504974365 17.0604724884033 12.5202350616455 6.54406642913818 6.13216304779053 5.35092449188232 5.12815713882446 4.36952638626099 4.49280452728271 4.44424629211426 4.55933666229248 4.01413059234619 4.32553625106812 4.17795658111572 4.76261949539185 4.95223426818848 5.28432273864746 3.74601912498474 4.12489938735962 3.65368032455444
-2.56004548072815 22.5313816070557 -2.73739886283875 -3.45044350624084 -2.60143995285034 -3.18025851249695 6.66482543945312 1.84475922584534 -4.4001350402832 -4.12610340118408 -3.67697668075562 -3.30043506622314 -1.34673082828522 -2.59912705421448 3.67252731323242 -0.168306306004524 1.42199850082397 0.561221420764923 -1.05208027362823 -0.671289801597595 12.1347608566284 -2.67220091819763 3.58341550827026 -1.66158211231232 8.56074714660645 -2.00932168960571 13.5091276168823 -3.57592129707336 -4.47597217559814 -4.49776697158813 17.1906757354736 0.79441887140274 0.01143136061728 9.06850910186768 13.0979385375977 -0.237496942281723 16.2177867889404 29.4407386779785 11.7086515426636 19.0948219299316 11.0358152389526 16.7066879272461 2.23482084274292 3.68638181686401 2.56907939910889 7.18953084945679 5.17912626266479 -1.27822875976562 -1.24407339096069 -0.745857059955597 -0.495305389165878 -0.360546886920929 1.47784566879272 -0.346102327108383 -0.109879918396473 0.744646489620209 1.33131086826324 7.23985576629639 6.18776893615723 9.21117305755615 4.80331325531006 5.82225656509399 4.71938276290894 4.32268381118774 3.38607239723206 3.6920313835144 3.44334697723389 3.10768103599548 3.07085084915161 2.41878437995911 2.8293468952179 2.72602367401123 1.93706095218658 2.12920045852661 2.53213000297546 2.10712838172913 2.12608551979065 2.33927702903748 1.95839846134186 2.22911334037781 2.29627251625061 3.08293509483337 4.44773054122925 4.0586576461792 4.71747493743896 5.08881711959839 4.74084377288818 5.87861919403076 3.21758151054382 5.39349889755249 3.20464968681335 2.98326182365417 3.21055102348328 3.39149069786072 4.69284963607788 4.82494688034058 4.78400659561157 4.10347747802734 4.10256862640381 4.57110071182251 4.33680582046509 4.20210790634155 3.8424756526947 3.92521166801453 3.81401562690735 3.98266243934631 4.24210405349731 4.54221153259277 4.50778245925903 3.92481231689453 5.05595684051514 4.67646741867065 5.57398986816406 5.40584230422974 5.46634292602539 5.55102586746216 4.68595170974731 4.58242130279541 4.53149461746216 3.94563055038452 3.29471445083618 14.2378530502319 9.65416717529297 8.95648097991943 3.84491062164307 4.44778156280518 3.9770176410675 4.20821666717529 4.21334314346313 4.27435445785522 4.4166579246521 4.23952102661133 4.39848375320435 4.69022369384766 4.14347553253174 3.10445523262024 2.85864901542664 3.72474241256714 3.27357006072998 3.97306966781616 3.62212729454041 3.9444739818573 3.93425965309143 4.1735372543335 4.04686307907104 4.69049596786499 5.48606300354004 6.33112907409668 7.92426156997681 16.4746036529541 8.78835391998291 9.02258205413818 9.01292324066162 12.7729978561401 8.11142253875732 7.78835344314575 8.4125509262085 14.4484643936157 6.38091611862183 6.08211708068848 5.35196304321289 5.23918771743774 4.39582633972168 4.58802461624146 4.45862579345703 4.65004873275757 4.25380182266235 4.42808961868286 4.21580123901367 4.90439462661743 5.10628414154053 5.46945905685425 5.03180646896362 4.32911014556885 4.11859369277954
12.8164377212524 2.70918989181519 6.3628568649292 2.71713209152222 4.85533285140991 -3.09790134429932 -3.55830645561218 -3.3734724521637 -3.95642805099487 -3.74920845031738 -3.49540257453918 -2.60297560691833 -1.28584289550781 -1.11379170417786 -3.35931754112244 10.081937789917 4.17608118057251 -0.883308589458466 -0.410123974084854 -0.445144534111023 -0.872664213180542 -2.23690319061279 -2.5890200138092 28.0456390380859 -1.90911889076233 -1.59604823589325 -3.53930497169495 -4.4056339263916 -4.30191946029663 -3.66567969322205 -3.6070990562439 -3.70341491699219 5.68039798736572 20.027774810791 -2.23188614845276 7.58287858963013 2.64058995246887 9.89862632751465 23.5643901824951 13.9259328842163 11.8887462615967 9.44064712524414 6.6970911026001 -1.43303227424622 11.3646211624146 -1.25684344768524 28.8460578918457 4.55043888092041 0.0999039709568024 0.787855625152588 1.86619138717651 6.41821765899658 7.46460628509521 1.04803466796875 0.738760411739349 3.77803230285645 9.81109237670898 9.65322208404541 8.79125022888184 13.0901384353638 6.02424144744873 6.65431118011475 4.61294507980347 4.94000768661499 4.34993982315063 3.6008574962616 3.84119701385498 3.3921799659729 3.31177544593811 3.09379005432129 2.84235620498657 2.93884038925171 2.01475024223328 2.30555248260498 2.69610071182251 2.22832441329956 2.45186376571655 2.08038544654846 2.06271004676819 2.36349248886108 2.32611703872681 3.23109579086304 4.68117094039917 4.19055223464966 5.18163013458252 5.25040769577026 4.86531019210815 6.07880544662476 3.04705548286438 5.5427074432373 3.23713397979736 2.96872210502625 3.24614477157593 4.50488758087158 4.90407848358154 4.90477991104126 4.80496883392334 4.1760106086731 4.45122957229614 4.65253114700317 4.40275621414185 4.18194913864136 3.9166522026062 4.03624153137207 3.87257790565491 4.08186054229736 4.3412184715271 4.65018129348755 4.61612176895142 4.40514659881592 5.15812826156616 5.75406408309937 5.56001138687134 5.48546886444092 5.68533277511597 5.08108568191528 4.70325708389282 4.50051879882812 5.01916790008545 4.48986005783081 8.07089424133301 4.52939796447754 5.07337522506714 5.00258255004883 4.67811489105225 4.01813745498657 4.33257961273193 4.20203304290771 4.51123476028442 4.59998607635498 4.66296911239624 4.45770692825317 4.83299589157104 4.59155082702637 4.5246787071228 3.25159859657288 2.96585536003113 3.81477618217468 3.46564793586731 4.11225366592407 3.98996734619141 4.04891014099121 4.20968008041382 4.31363391876221 4.26429891586304 5.3801736831665 5.81823348999023 6.7553391456604 9.3593692779541 8.3282585144043 8.8325777053833 9.31321811676025 9.0548849105835 8.65391254425049 8.28622627258301 7.74674081802368 22.0783405303955 6.54018878936768 6.5775899887085 5.73763990402222 5.40418434143066 5.00253963470459 4.29288625717163 4.70051193237305 4.54460763931274 4.76488637924194 4.3430061340332 4.53199052810669 4.67888355255127 5.213294506073 5.64342355728149 5.64143800735474 5.19772291183472 4.55700874328613 4.15884733200073
8.33854293823242 6.67004060745239 24.2672843933105 29.2392177581787 3.59594702720642 -2.7754213809967 -3.30627918243408 17.2868614196777 14.8654527664185 1.93084621429443 -3.18353271484375 -1.31077945232391 2.14316201210022 11.9044933319092 6.69275236129761 -2.37871670722961 9.62917423248291 -0.84327220916748 -0.0575977452099323 -0.0512223392724991 -1.13337814807892 -0.862837731838226 3.73198509216309 -2.11461067199707 -1.30730676651001 -1.64217257499695 -3.09927010536194 -3.45190596580505 -4.11970663070679 -2.91657567024231 -1.48299407958984 -0.621652960777283 -2.57148194313049 -2.72135996818542 7.83367776870728 3.69156742095947 15.5162982940674 -3.79371690750122 3.45194673538208 9.66522026062012 23.3720664978027 24.0067939758301 1.53960931301117 -1.35226762294769 -1.60621345043182 0.216166689991951 -1.24353194236755 0.926795959472656 6.93363046646118 3.74110174179077 17.0376529693604 6.38916158676147 14.0014886856079 2.10900330543518 6.44526338577271 17.8911037445068 20.3182353973389 14.6920518875122 23.983003616333 18.756856918335 8.24630451202393 6.92039728164673 5.17011737823486 5.6041431427002 4.93559837341309 4.47959423065186 3.74296617507935 3.76400279998779 3.23629331588745 3.35396599769592 3.1624321937561 2.64970993995667 2.48403167724609 2.34922409057617 2.86160969734192 2.35567736625671 2.57156276702881 2.14595055580139 1.89324378967285 2.46104335784912 3.38283705711365 4.98699855804443 4.40519857406616 3.50852966308594 5.47548294067383 5.00494623184204 4.98717498779297 6.30234622955322 3.09383177757263 5.70281839370728 3.24259424209595 3.24335122108459 3.42301034927368 4.5676965713501 5.00467443466187 4.96804904937744 4.48779344558716 4.25465202331543 4.73651838302612 4.48215389251709 4.35550928115845 4.24210548400879 4.14131259918213 4.00942897796631 4.19100427627563 4.49018430709839 4.81492710113525 4.76646184921265 4.08474445343018 4.48269605636597 5.26873254776001 5.86465501785278 5.67572021484375 5.72826766967773 5.78505659103394 5.0542778968811 4.73567962646484 4.54338407516479 4.16371250152588 4.44802284240723 8.28559494018555 6.61499547958374 5.34506893157959 5.13963747024536 4.85097742080688 4.20740699768066 4.42235469818115 4.63014793395996 4.80536508560181 5.03558588027954 4.92989492416382 5.35340929031372 5.39274883270264 5.18166208267212 5.0934419631958 3.568434715271 3.98333668708801 3.66157579421997 3.39944863319397 4.321457862854 4.09110450744629 4.22539138793945 4.44902515411377 4.32781887054443 4.38803720474243 5.90457582473755 6.34860372543335 8.16585445404053 9.67397117614746 9.54001140594482 9.18376636505127 9.61088466644287 9.07866382598877 8.87676239013672 8.15405750274658 30.9791774749756 5.93193674087524 7.23140525817871 6.76733493804932 5.90386486053467 5.52164268493652 4.72665739059448 4.82685470581055 4.77512311935425 4.9159197807312 4.30744218826294 4.67598724365234 4.51120185852051 5.27232217788696 5.49434423446655 5.88713312149048 5.4315972328186 5.3951244354248 4.75653123855591 4.56395626068115
-2.61052584648132 -2.96167016029358 -3.02423548698425 0.206789910793304 0.875274062156677 -1.86908507347107 -2.99366354942322 -3.91635298728943 7.55456590652466 16.17626953125 1.85167050361633 8.10960483551025 -2.38843107223511 7.13096141815186 -2.4395010471344 0.410656720399857 4.48132658004761 0.0551210343837738 1.86976861953735 3.09857416152954 -1.85443449020386 10.089898109436 4.6345853805542 2.04220819473267 -0.815786302089691 -2.65999174118042 14.9346885681152 7.71236658096313 -0.551310420036316 -0.684210360050201 -2.19535708427429 -2.34675908088684 -2.25374746322632 1.69610846042633 23.1490249633789 17.0852527618408 -0.231924638152122 7.04498434066772 2.22912263870239 18.6979942321777 16.5317687988281 15.0222721099854 -1.04872012138367 3.163898229599 -0.050876323133707 3.30275082588196 1.97108900547028 4.85570907592773 13.7249622344971 15.8555812835693 8.698166847229 1.690274477005 3.6257164478302 13.1378898620605 37.2575225830078 41.4154357910156 20.8879795074463 15.8751621246338 18.4422149658203 11.8031072616577 9.75037574768066 8.39187049865723 6.82062149047852 4.9948992729187 5.56690740585327 5.02705097198486 4.35375833511353 4.02106666564941 3.185387134552 3.61961388587952 3.40115308761597 2.48874402046204 2.64806795120239 3.07958722114563 2.19419741630554 2.48598217964172 2.68448686599731 2.22100639343262 2.51821637153625 2.56796979904175 3.56498908996582 5.27176761627197 4.66378259658813 3.6148943901062 5.69169569015503 5.1952052116394 6.57790613174438 3.73975157737732 3.39124512672424 5.88514137268066 3.01226711273193 3.25834202766418 3.45894312858582 4.92478656768799 5.06686496734619 5.03455448150635 4.30817365646362 4.3158221244812 4.80092096328735 4.53054141998291 4.40875625610352 4.0448431968689 4.21588706970215 4.08472490310669 4.2939133644104 4.58142232894897 4.93566751480103 4.8887300491333 4.14924144744873 5.4085636138916 4.99752330780029 5.98412322998047 5.7885799407959 5.84836959838867 5.88742113113403 4.91478872299194 4.74402141571045 4.61414766311646 4.46355819702148 4.09408712387085 8.47415924072266 6.86147451400757 6.37212514877319 4.93450117111206 5.06072521209717 4.3816237449646 4.50919628143311 4.92617416381836 5.16442203521729 5.2889518737793 5.55542707443237 5.5537371635437 5.40139293670654 5.33650684356689 4.9864616394043 4.10693645477295 4.08219861984253 3.8028359413147 4.67169237136841 4.21319532394409 4.51031064987183 4.55107021331787 4.58436584472656 4.55212116241455 4.58295345306396 6.05415821075439 7.12010622024536 9.15886497497559 10.0708284378052 10.0522861480713 9.4459810256958 9.96361446380615 9.18353271484375 9.68138408660889 8.99708271026611 7.21762561798096 7.57180023193359 7.12069988250732 6.75557374954224 5.95767641067505 5.67251348495483 4.84350156784058 4.96037101745605 4.77308750152588 5.06473779678345 4.58034992218018 4.77554988861084 4.57508516311646 5.44910764694214 5.68127965927124 6.07631874084473 5.61427116394043 5.57802677154541 4.9697413444519 4.60664558410645
-2.07090187072754 -2.50531339645386 -1.00586605072021 -2.54903268814087 19.7839450836182 -2.05700993537903 -2.79108476638794 -3.70177435874939 -3.59537053108215 -3.18705821037292 -0.676449537277222 -2.65890312194824 25.2228412628174 -2.72005438804626 1.01628017425537 -1.658482670784 -0.123067706823349 5.6463794708252 8.20014381408691 1.35884356498718 4.51406908035278 -2.17536449432373 -0.623254299163818 -1.25947237014771 3.12344598770142 -2.18654918670654 0.499836951494217 -4.00104999542236 -3.32417607307434 -2.5400698184967 -2.43590545654297 -2.20994687080383 0.910715341567993 2.91372513771057 -2.88652157783508 -3.52648067474365 -3.68986535072327 -3.87346959114075 -3.08768248558044 0.762870669364929 -1.96159565448761 2.7946457862854 0.184706702828407 1.35690760612488 1.2686505317688 7.21089601516724 9.55070304870605 16.8147201538086 2.22478199005127 3.66735458374023 0.936708748340607 12.8001623153687 26.0701675415039 43.0232620239258 2.02528667449951 1.48870408535004 8.33391571044922 6.78680086135864 1.25631737709045 15.1071643829346 12.1851119995117 7.74447059631348 8.02246189117432 6.69566106796265 5.31113529205322 5.64608478546143 4.86271238327026 4.39248418807983 3.92870402336121 3.65055441856384 3.6425769329071 2.49244046211243 2.86699318885803 3.28147101402283 2.69478607177734 2.6266987323761 2.82254219055176 2.31495952606201 2.6521167755127 2.6905210018158 3.75062370300293 5.63506412506104 4.97064590454102 6.00418329238892 5.94670057296753 5.40077686309814 6.87218999862671 3.19254207611084 6.11767339706421 3.33326840400696 2.98190236091614 3.26739549636841 4.65470123291016 5.11230564117432 5.11393404006958 5.01601982116699 4.3493971824646 4.6611270904541 4.82942485809326 4.57817125320435 4.33615493774414 4.08964872360229 4.27160358428955 4.14397287368774 4.36007308959961 4.69029855728149 5.03073024749756 4.99904632568359 4.66285848617554 5.50510692596436 6.14334869384766 5.94994211196899 5.8598837852478 6.07492685317993 5.41336584091187 5.00978565216064 4.77970695495605 4.7139368057251 4.5638632774353 8.94551372528076 6.28681230545044 7.00607490539551 5.65825891494751 5.27455186843872 4.30690908432007 4.6465482711792 4.52235126495361 5.02212524414062 5.41709852218628 5.69588470458984 5.61408948898315 5.67040681838989 5.49077939987183 5.46006202697754 5.65421390533447 4.31449174880981 4.23327112197876 4.0382661819458 4.99157667160034 4.43589353561401 4.73984718322754 4.79294681549072 4.74405717849731 4.81821346282959 6.11419200897217 6.71169996261597 7.77180480957031 10.5461931228638 18.2980194091797 10.6581420898438 10.6935968399048 9.9565896987915 14.7863349914551 11.6300039291382 9.00536918640137 8.20187568664551 7.8558406829834 7.33795309066772 6.41131401062012 5.86778497695923 5.48705720901489 4.66914224624634 5.06577682495117 4.89592313766479 5.19459247589111 4.70511531829834 4.89545488357544 5.21954727172852 5.83767557144165 6.30847311019897 6.27985191345215 5.79947090148926 5.76728439331055 5.09146928787231 4.96256113052368
-1.80633068084717 -2.22212243080139 -2.487628698349 -2.19871640205383 -2.07164788246155 -1.78920710086823 2.87443995475769 -3.05647659301758 -2.730060338974 -2.76337933540344 -2.5958685874939 6.44003486633301 -2.63585948944092 22.7637348175049 -1.40567421913147 -1.17941284179688 0.237424403429031 -0.0193031411617994 -0.132569149136543 -0.42602863907814 12.8442344665527 -0.207125306129456 3.64081621170044 8.81473159790039 -1.33339178562164 -2.03687620162964 -3.84465575218201 -3.68169808387756 -2.54290461540222 -1.99856448173523 -2.15350866317749 -1.77490544319153 1.05845236778259 -2.29333424568176 4.6491494178772 5.54928016662598 -3.52076029777527 -3.39137601852417 0.730774223804474 -2.66868090629578 3.93832850456238 5.54035377502441 14.1965675354004 0.727667689323425 29.5045108795166 0.552236199378967 -0.102745436131954 -0.0935674533247948 19.6578464508057 9.85672664642334 16.0383682250977 36.1839485168457 14.0843868255615 1.17121469974518 45.2568664550781 1.66056394577026 12.811936378479 21.7123546600342 38.9067153930664 21.2989120483398 16.4966506958008 9.42673492431641 9.76290512084961 7.84482383728027 6.73765659332275 5.09720230102539 5.45620489120483 4.29250001907349 4.24253034591675 3.91829967498779 3.23971199989319 3.10655283927917 2.91265177726746 3.52536034584045 2.85719966888428 3.06439304351807 2.50820159912109 2.44188952445984 2.7476954460144 3.98307991027832 6.20162630081177 5.47773122787476 3.97742486000061 6.425705909729 5.77722787857056 5.67016172409058 7.18790102005005 3.30005621910095 6.36451005935669 3.33624529838562 3.29906749725342 3.46762847900391 4.71578168869019 5.19079065322876 5.14497661590576 4.63384819030762 4.41020345687866 4.91753816604614 4.60887384414673 4.47789812088013 4.35675096511841 4.30630970001221 4.18627882003784 4.41899824142456 4.78268671035767 5.189208984375 5.14724063873291 4.27014112472534 4.73278903961182 5.58859062194824 6.25240516662598 6.04382467269897 6.11704111099243 6.17903804779053 5.41181039810181 5.1113748550415 4.91367864608765 4.45314407348633 4.6822247505188 9.64802837371826 7.40987110137939 7.38825035095215 5.60000371932983 5.37236166000366 4.49826860427856 4.74705076217651 4.98280572891235 5.13982152938843 5.54096412658691 6.0106372833252 5.7303900718689 5.8017144203186 5.91287851333618 6.09032249450684 5.5259165763855 5.01257610321045 4.1707592010498 4.26590633392334 5.34172821044922 4.69554853439331 5.00173854827881 5.04025793075562 5.2248740196228 5.00737047195435 6.58119535446167 7.29460048675537 9.38247871398926 10.9888696670532 10.335955619812 13.1326522827148 13.3612966537476 10.5089836120605 9.92977714538574 9.48486232757568 11.7843818664551 9.83250331878662 8.12359714508057 7.63478088378906 6.69088554382324 6.05164098739624 5.25045347213745 5.23949861526489 5.14320087432861 5.3761830329895 4.70666265487671 5.08638954162598 4.88276624679565 5.87337636947632 6.13335943222046 6.57457637786865 6.07725954055786 6.03715467453003 5.13784503936768 5.21863508224487 5.20231676101685
-1.51336479187012 -1.9375913143158 -0.593034684658051 -1.83571290969849 -1.97134804725647 -1.62176549434662 -2.46910762786865 -2.6506507396698 -2.68511486053467 -2.58825755119324 1.19072389602661 -2.00773763656616 -2.16921472549438 -2.43874096870422 -0.893779337406158 -0.0520369857549667 0.533234179019928 0.261777758598328 0.181685149669647 -1.38485670089722 -2.07778525352478 20.3001174926758 8.43261051177979 0.293216973543167 0.525696694850922 -1.74851953983307 -2.91411876678467 -3.26143550872803 -2.28558945655823 -1.73607838153839 -1.70157098770142 -1.35848164558411 -2.23736691474915 -1.90251052379608 -2.1287784576416 -2.04657936096191 -3.35723376274109 11.440465927124 -1.91814172267914 -1.96681416034698 10.7708377838135 13.860897064209 11.1889905929565 3.91948223114014 -1.3560037612915 2.87615370750427 4.05295562744141 4.09621381759644 1.35239708423615 16.8306465148926 37.683032989502 7.02352285385132 2.29685306549072 1.7283855676651 1.94600915908813 50.7171630859375 47.1298980712891 2.90719079971313 5.84255981445312 16.7522850036621 23.3776607513428 13.880425453186 8.3931188583374 9.45387935638428 7.85959196090698 6.49055004119873 5.55020141601562 4.28649616241455 4.63358879089355 4.25067806243896 3.10603618621826 3.34220170974731 3.84311771392822 2.70507454872131 3.05199265480042 3.24338984489441 2.63450217247009 2.21137404441833 2.97499775886536 4.18978309631348 6.6680760383606 5.88553047180176 4.13993692398071 6.82403945922852 6.13429403305054 7.68426322937012 4.11242818832397 3.56753325462341 6.64741516113281 3.08140444755554 3.33783149719238 3.54191565513611 5.14872074127197 5.27260112762451 5.21129608154297 4.39748954772949 4.43472814559937 4.96475648880005 4.66591215133667 4.51893377304077 4.11840486526489 4.31438112258911 4.18856000900269 4.58181667327881 4.83915758132935 5.27953147888184 5.24334621429443 4.34804964065552 5.72033023834229 5.29635000228882 6.36186456680298 6.15347862243652 6.23516130447388 6.29984617233276 5.25678634643555 5.11427402496338 5.01488542556763 4.85797691345215 4.481360912323 10.4507675170898 8.20361423492432 7.17616033554077 5.25921535491943 5.51981210708618 4.62209463119507 4.82724666595459 5.29323148727417 5.54512882232666 5.65674018859863 6.48184156417847 5.94335889816284 6.07193517684937 6.25763034820557 5.93376970291138 5.2315526008606 4.81878423690796 4.59162616729736 5.83932971954346 5.05790996551514 4.56806945800781 5.26928377151489 5.31744480133057 5.5433669090271 5.45014381408691 6.82347774505615 8.24977207183838 10.5644969940186 11.4498300552368 10.8327102661133 10.7788181304932 11.0946798324585 12.0215711593628 31.7411956787109 20.66579246521 10.2622442245483 13.5518989562988 8.02209663391113 7.60977745056152 6.72731781005859 6.23001623153687 5.4467625617981 5.38599395751953 5.17857885360718 5.52879333496094 5.00779628753662 5.23192548751831 5.0453200340271 6.0870189666748 6.3520040512085 6.81998872756958 6.30340576171875 6.25871324539185 5.38811731338501 5.25816011428833 5.33512020111084
-1.05679595470428 -1.76553666591644 -0.459071725606918 -1.15362179279327 -0.939402520656586 -0.913037419319153 -2.19562149047852 -2.03808808326721 -0.650779783725739 -1.96850109100342 -2.02108430862427 2.59703874588013 -1.57575011253357 -1.72924113273621 -0.359416931867599 0.774228394031525 0.84033864736557 0.854786574840546 0.21302042901516 -0.984189033508301 -1.59443199634552 -0.264844089746475 -0.747779369354248 16.4863014221191 -1.6246463060379 -2.68770337104797 -2.7113049030304 -2.12109375 -1.39629375934601 -1.50559628009796 3.00684189796448 1.5792533159256 -1.71602320671082 -1.35318410396576 -2.33924984931946 -2.52014398574829 -2.97576713562012 -2.82289481163025 -1.77653610706329 -1.13236451148987 -1.05145752429962 -1.28109955787659 5.97984552383423 1.31423914432526 1.91122472286224 7.09123373031616 9.4252815246582 8.39157772064209 8.69574546813965 42.4876823425293 2.95020413398743 1.84940040111542 5.33585071563721 5.07365083694458 42.4173164367676 0.317820906639099 1.01115918159485 45.6985702514648 2.30137038230896 30.8571872711182 17.9499397277832 18.12815284729 13.3294229507446 9.24603652954102 9.4230318069458 7.61805582046509 6.22025775909424 5.23790788650513 4.78713130950928 4.58034944534302 3.06563973426819 3.60637021064758 4.13342237472534 3.34716367721558 3.21034789085388 3.44535851478577 2.76834845542908 3.04307413101196 3.17244029045105 4.45667219161987 7.21244287490845 6.32982444763184 7.44295692443848 7.23463439941406 6.50197410583496 8.16009902954102 3.65703821182251 7.03421115875244 3.50579166412354 3.06189870834351 3.36633801460266 4.90524911880493 5.39083957672119 5.35140657424927 5.21938848495483 4.44007015228271 4.79661655426025 5.02201223373413 4.73702764511108 4.43555784225464 4.1520471572876 4.34001684188843 4.1843409538269 4.42525005340576 4.83013534545898 5.30840444564819 5.32211589813232 4.914306640625 5.85611915588379 6.55963039398193 6.32499170303345 6.22053003311157 6.44282293319702 5.75660133361816 5.34662055969238 5.15352964401245 5.11800909042358 4.95868396759033 11.7249774932861 8.19185924530029 9.10078811645508 6.60091733932495 4.75060844421387 5.70907688140869 4.86034440994263 4.89975595474243 5.39627170562744 5.82627010345459 7.29028606414795 6.03229904174805 6.08211326599121 6.19282341003418 6.39220190048218 6.05856847763062 5.28713083267212 4.75268840789795 4.86996030807495 6.27056455612183 5.35506534576416 5.66024446487427 5.72139310836792 5.30086421966553 5.88029289245605 7.25120258331299 7.24318742752075 8.63180828094482 12.1331996917725 11.8023748397827 11.3772258758545 11.4048662185669 11.2765111923218 11.4151859283447 9.83211231231689 10.9293937683105 8.77922534942627 15.4564962387085 8.34290599822998 7.31797313690186 6.45395278930664 6.05741214752197 5.09829092025757 5.52317047119141 5.31301975250244 5.68283939361572 5.14128017425537 5.37274599075317 5.93776226043701 6.5947003364563 7.12118434906006 7.05864906311035 6.53241109848022 6.50018167495728 5.52395582199097 5.38683176040649 5.46808671951294
5.54571294784546 -0.397975772619247 0.701484501361847 -0.475606232881546 -0.38829892873764 -1.8216141462326 -2.10333323478699 -1.9670467376709 -2.08834266662598 -1.94051325321198 -1.97571980953217 -1.4737069606781 -0.248461335897446 0.838781237602234 0.534399747848511 1.4061473608017 1.66138076782227 0.952553987503052 0.307560652494431 -0.71333259344101 0.362635731697083 0.263277262449265 5.91914939880371 -0.714244902133942 -1.61539506912231 -2.42673468589783 -2.50290608406067 -1.59516942501068 -1.03901255130768 -1.24443900585175 -1.46760141849518 -1.22638058662415 -0.757333338260651 -0.95266854763031 -1.45288991928101 -2.6265287399292 -2.56229496002197 -1.07589769363403 -1.13279604911804 -0.606598198413849 -0.807010412216187 -0.827232658863068 2.65619206428528 16.336877822876 0.396500378847122 21.988302230835 12.5355587005615 16.3530044555664 44.3295783996582 0.702803194522858 3.66490244865417 2.12964725494385 38.2469520568848 48.3491172790527 10.2769041061401 3.93464207649231 0.904798269271851 1.50620722770691 52.0981025695801 1.39341247081757 25.0022392272949 25.2235431671143 17.3912734985352 13.2258958816528 8.4130392074585 9.13583183288574 6.09499073028564 5.81355857849121 5.32237529754639 4.07097244262695 3.90791130065918 3.60142993927002 4.46675634384155 3.5869312286377 3.7707200050354 3.02187895774841 2.90961527824402 3.1902117729187 4.99809503555298 8.38224124908447 7.20638179779053 4.53363990783691 8.00412368774414 7.09179735183716 6.95262289047241 8.69117069244385 3.68560600280762 7.40464305877686 3.54888439178467 3.42022299766541 3.60405516624451 4.98575115203857 5.49717950820923 5.44901514053345 4.81659746170044 4.54040336608887 5.09982299804688 4.79954528808594 4.64380550384521 4.46568870544434 4.41792297363281 4.21651458740234 4.46653270721436 4.86422443389893 5.3320951461792 5.34168386459351 4.40976476669312 4.95798110961914 5.97504377365112 6.67426443099976 6.44674444198608 6.49651002883911 6.57842826843262 5.7204737663269 5.43870878219604 5.25601863861084 4.78841209411621 5.0568962097168 12.7735290527344 10.5163688659668 9.88811206817627 6.71910190582275 5.96128702163696 4.62494277954102 4.95307350158691 5.26756191253662 5.50467300415039 5.94468975067139 8.00380229949951 6.16902589797974 6.21809816360474 6.3282470703125 6.52738618850708 5.92005825042725 5.369957447052 4.66352653503418 5.17662906646729 6.77605772018433 5.6957483291626 6.00059366226196 6.05904579162598 6.44197702407837 5.60710096359253 7.81530237197876 8.39034938812256 9.70242404937744 12.695858001709 12.5884466171265 12.3294734954834 12.6943826675415 11.5727968215942 15.0835666656494 22.5610599517822 9.380202293396 8.24022769927979 8.5886926651001 14.6432638168335 7.6325364112854 6.63016605377197 5.88627624511719 5.70531606674194 5.5824728012085 5.88219881057739 5.14238739013672 5.58172225952148 5.55773830413818 6.67536735534668 6.94939231872559 7.42323541641235 6.86645889282227 6.82961654663086 5.59626150131226 5.65434074401855 5.65891933441162 5.40252923965454
1.21318638324738 0.542424619197845 3.16534161567688 0.0771462023258209 -0.154262244701385 -1.24883282184601 -1.70832908153534 -1.92323541641235 -1.6875501871109 -1.85813736915588 -1.81002986431122 -0.530495464801788 0.146380826830864 1.65046811103821 1.17953288555145 2.13887906074524 2.00764894485474 2.16102600097656 0.0952465534210205 0.998441874980927 1.96869707107544 0.598679721355438 0.427733927965164 -1.79822158813477 -1.13265585899353 3.17269563674927 -2.16542506217957 -1.29861629009247 -0.886317789554596 4.51392507553101 -0.948874473571777 -0.689046502113342 -1.16692912578583 -0.777513265609741 -1.17896926403046 -1.93734002113342 -0.840967416763306 0.769409716129303 -0.164907664060593 0.156828179955482 0.762283086776733 -0.571557760238647 -0.402327477931976 12.4730892181396 2.93212723731995 7.24552249908447 34.0932884216309 25.7535076141357 -0.114935763180256 8.10512733459473 35.2844467163086 47.5421752929688 6.89237499237061 1.81671738624573 1.38697421550751 1.43307435512543 1.79349613189697 3.45811867713928 0.0715759694576263 46.8757781982422 37.1435394287109 20.7348289489746 24.0680904388428 17.2884082794189 12.8137054443359 8.92234134674072 6.52387428283691 6.56146240234375 5.97157907485962 4.25883388519287 4.31552076339722 4.8437385559082 3.33103394508362 3.81986093521118 3.990473985672 3.1623477935791 2.56392121315002 3.70694088935852 5.32335948944092 9.41925811767578 8.08969974517822 4.77974033355713 8.66129493713379 7.5960898399353 9.51121807098389 4.77994918823242 3.82985377311707 7.86040687561035 3.19859457015991 3.46099472045898 3.68540549278259 5.49434375762939 5.59792327880859 5.55596971511841 4.59241580963135 4.60948991775513 5.18104553222656 4.85732841491699 4.67677927017212 4.24082183837891 4.46915721893311 4.24989891052246 4.50304460525513 4.92200899124146 5.4267954826355 5.44273662567139 4.4527473449707 6.06460952758789 5.61903190612793 6.81442356109619 6.56433629989624 6.66803407669067 6.70776414871216 5.60617876052856 5.40705919265747 5.33318328857422 5.18359899520874 4.88531684875488 13.9911956787109 11.9068489074707 9.38541507720947 6.28728818893433 6.2242374420166 4.80452394485474 5.04412937164307 5.59013175964355 5.92108345031738 6.17100381851196 8.75802516937256 6.41043519973755 6.49250411987305 6.7109842300415 6.37674522399902 5.60383939743042 5.15956974029541 5.66475772857666 7.59482383728027 6.22793436050415 5.23869848251343 6.3865385055542 6.44407320022583 6.91067457199097 6.63508129119873 8.40077972412109 9.08761501312256 11.6440200805664 13.3153638839722 13.9481868743896 13.9076843261719 13.279335975647 12.7734956741333 12.0543756484985 11.2032890319824 14.4028062820435 16.6217098236084 8.58352947235107 7.98895025253296 8.85968208312988 6.81996393203735 6.09922361373901 5.84632396697998 5.6151008605957 6.04574060440063 5.46559858322144 5.74169778823853 6.02254009246826 6.94644832611084 7.24155426025391 7.74533939361572 7.15337562561035 7.10722255706787 5.85160493850708 5.71095085144043 5.81032562255859 5.55417013168335
3.49519467353821 1.99146151542664 0.691798329353333 1.5804899930954 0.777534425258636 -0.823515295982361 -1.15222573280334 -1.47085845470428 -1.20486783981323 -1.63971054553986 -0.481571942567825 1.56639492511749 0.835817456245422 2.80880856513977 3.76644062995911 3.63560175895691 3.49983143806458 2.83649277687073 1.29333198070526 1.54197764396667 3.40936207771301 2.45536518096924 1.69012451171875 -0.268531411886215 -1.94692742824554 -2.02509498596191 16.1195583343506 -0.721609950065613 -0.984120666980743 -1.25428140163422 -0.630672335624695 -0.474661469459534 -0.456554293632507 -0.719195604324341 -0.976021289825439 -1.42082321643829 0.245821118354797 1.8630074262619 2.10965442657471 2.41476511955261 2.81009888648987 0.664281606674194 7.51153564453125 -0.680481970310211 43.7530632019043 41.2635154724121 2.61504721641541 12.2689218521118 47.9820251464844 46.6283111572266 24.262544631958 2.89871740341187 6.78294897079468 20.5962238311768 11.7232446670532 8.11338520050049 7.14526987075806 7.8491325378418 4.56812381744385 5.24118137359619 0.318448513746262 47.6176490783691 23.8678588867188 24.3065929412842 17.050952911377 11.05859375 8.04501152038574 7.22642374038696 6.4982705116272 4.26420259475708 4.8324613571167 5.31102561950684 4.13016128540039 3.86041498184204 4.17749261856079 3.26329779624939 3.54937100410461 3.91198682785034 5.67891693115234 10.6613712310791 9.22048187255859 9.99491596221924 9.24837398529053 8.23874473571777 10.2575626373291 4.12075424194336 8.62606430053711 3.83224320411682 3.21864676475525 3.52579665184021 5.22567176818848 5.77922534942627 5.72987842559814 5.55724048614502 4.67355728149414 5.03122854232788 5.25942659378052 4.9188551902771 4.5656623840332 4.28558683395386 4.53691053390503 4.30318021774292 4.56002473831177 4.98251676559448 5.50629806518555 5.53222036361694 5.04817056655884 6.16965484619141 6.97728586196899 6.77192878723145 6.64810943603516 6.85655212402344 6.10265302658081 5.65795803070068 5.46788120269775 5.41580390930176 5.2498664855957 15.9978380203247 11.1984958648682 13.5676021575928 8.50623989105225 5.37836980819702 6.48690843582153 5.09517621994019 5.09040498733521 5.67620515823364 6.18740606307983 10.063232421875 6.57787227630615 6.56426763534546 6.63951063156128 6.857581615448 6.51893138885498 5.66182279586792 5.29732608795166 6.08173322677612 8.34075260162354 6.69489622116089 6.96935701370239 7.03911781311035 6.23626232147217 7.4281530380249 9.29599094390869 9.14083194732666 10.2399120330811 13.0791645050049 14.2025089263916 14.7496843338013 14.7048864364624 14.2203922271729 13.8250846862793 13.7967233657837 12.7510414123535 11.68310546875 9.84758186340332 9.09455966949463 8.47262382507324 6.79057502746582 6.69527435302734 5.53901338577271 5.99529218673706 5.75910329818726 6.21321105957031 5.60815477371216 5.89210748672485 6.80318784713745 7.58161115646362 8.20142269134521 8.07797431945801 7.45969200134277 7.41586685180664 6.07336139678955 5.86513614654541 5.96899175643921 5.70385885238647
3.79945063591003 2.51640152931213 3.31910920143127 0.667922854423523 -0.325141549110413 -0.73373281955719 -0.527519881725311 -0.72266286611557 -0.741645157337189 -0.681277334690094 0.608272910118103 0.715376198291779 3.15292835235596 3.50859546661377 4.22201347351074 4.34622097015381 4.2197437286377 3.58365964889526 1.93660998344421 3.24302434921265 3.97889041900635 3.91030049324036 1.63161325454712 0.54259467124939 -1.28959143161774 -1.95687401294708 -1.14961183071136 0.0823322981595993 -0.137558475136757 -0.225422218441963 2.11757636070251 0.398420423269272 0.0565666630864143 5.24094867706299 0.342024326324463 1.46280193328857 2.0823700428009 1.25555109977722 5.98914384841919 1.89009189605713 18.5475387573242 49.277400970459 47.48486328125 36.9994850158691 -0.0557174533605576 0.76337206363678 13.4086561203003 50.4996490478516 5.03095865249634 9.02389335632324 2.41406106948853 17.2892227172852 10.3992729187012 4.52831554412842 12.5721817016602 9.36974334716797 19.9304847717285 17.9911403656006 1.19100165367126 0.22456394135952 11.3162269592285 0.358320236206055 47.7941780090332 22.5948448181152 24.1740417480469 11.1438703536987 9.81806564331055 8.53975677490234 6.10890674591064 5.79317140579224 4.90198802947998 5.90744304656982 4.46075391769409 4.5137038230896 3.44474172592163 3.32031440734863 3.61595034599304 6.53553247451782 13.5827379226685 11.5223798751831 5.46087980270386 11.1632709503174 9.42268085479736 9.18001365661621 11.1347618103027 4.33625316619873 9.27742099761963 3.96323609352112 3.67284989356995 3.85497307777405 5.36014747619629 5.91726493835449 5.87144660949707 5.1146559715271 4.82763862609863 5.40272426605225 5.03108215332031 4.84551286697388 4.60837459564209 4.3280668258667 4.5895414352417 4.35199546813965 4.61579990386963 5.04732131958008 5.59280872344971 5.59985828399658 5.08610486984253 6.2533392906189 7.09522390365601 6.90091419219971 6.98934745788574 7.05597257614136 6.00905323028564 5.76169538497925 5.51068544387817 5.01480340957642 5.31653642654419 17.8651580810547 16.9500770568848 14.5672798156738 8.5758810043335 6.85521173477173 4.80885028839111 5.16811561584473 5.49104499816895 5.75212812423706 6.27180290222168 11.2236661911011 7.11327075958252 6.71073961257935 6.78507900238037 7.01150751113892 6.86633443832397 5.98486375808716 5.99982833862305 6.56191253662109 9.24629688262939 7.22714567184448 7.48751068115234 7.55628824234009 8.3680248260498 6.65909004211426 10.3028879165649 10.3091259002686 11.8688669204712 15.0006608963013 15.015308380127 15.6418714523315 15.6000375747681 14.6872806549072 14.7581911087036 14.9434061050415 14.787956237793 13.1678552627563 11.1970500946045 11.3827428817749 10.8486948013306 7.32391548156738 6.67585468292236 6.22396421432495 6.06648254394531 6.47203397750854 5.61498069763184 6.11795902252197 6.75289440155029 7.62662792205811 7.94700813293457 8.55876064300537 7.89671468734741 7.86418342590332 6.46993112564087 6.16700887680054 6.19107866287231 5.92169523239136 5.75271701812744
2.79643797874451 2.59670662879944 1.79745936393738 2.03426504135132 0.33132666349411 0.156784355640411 0.100892379879951 0.0571171566843987 0.314572095870972 0.672100305557251 0.625670790672302 2.8485951423645 4.03831624984741 4.00596189498901 7.53568172454834 4.73320007324219 4.61948680877686 1.96229469776154 2.20553207397461 3.57602143287659 4.46616649627686 4.47071027755737 0.517143845558167 0.925498843193054 -0.651102304458618 -0.970687329769135 -0.435357809066772 0.25175529718399 1.81858789920807 3.36687564849854 1.12283563613892 1.58233094215393 7.48929214477539 4.5131630897522 6.95507431030273 46.4779624938965 47.976936340332 38.2004013061523 34.5048065185547 39.6309394836426 36.1766700744629 -0.761235415935516 -0.427005708217621 3.126460313797 13.2730731964111 49.0946044921875 -0.0181147232651711 -0.0708967298269272 6.21589517593384 -0.0225826557725668 13.0392589569092 4.02155542373657 3.20935797691345 2.89664673805237 16.0497589111328 20.5697689056396 5.92179012298584 0.29570484161377 2.66710638999939 2.640212059021 0.255475342273712 0.557397723197937 0.49941298365593 47.2134246826172 21.4402904510498 13.6446123123169 11.8855743408203 10.5384912490845 7.39298820495605 6.88733005523682 7.08614587783813 4.49881553649902 4.94825792312622 4.8814115524292 3.57286405563354 2.71584320068359 4.51725578308105 7.09657096862793 16.8494243621826 14.345703125 5.77757215499878 12.635479927063 10.5227518081665 12.808032989502 5.83593463897705 3.54475283622742 10.0721445083618 3.88505268096924 3.78181600570679 3.99240589141846 6.02968978881836 6.07205295562744 6.02003383636475 4.90811729431152 4.93740797042847 5.5242223739624 5.13854789733887 4.9329891204834 4.43772745132446 4.74079465866089 4.48350143432617 4.77143669128418 5.21572256088257 5.73881196975708 5.70574426651001 4.48050737380981 6.32021617889404 5.81646728515625 7.1855320930481 7.00475215911865 7.15021467208862 7.162109375 5.98379707336426 6.77448225021362 7.8890528678894 5.81160640716553 5.70561599731445 20.3087692260742 20.8503494262695 13.6667566299438 7.88661670684814 7.20022106170654 4.9919753074646 5.24451160430908 5.79862022399902 6.15281677246094 8.69656181335449 12.5901756286621 7.64160203933716 6.9438304901123 7.18990993499756 6.86502075195312 7.58735942840576 6.57641935348511 7.34917402267456 10.8252983093262 8.08816242218018 6.62472200393677 8.0746488571167 8.14908027648926 9.16796016693115 8.68885326385498 11.8859338760376 11.8815851211548 14.2325849533081 15.8584032058716 17.0208301544189 16.9810848236084 16.1304931640625 15.9969987869263 16.2686672210693 17.0326519012451 18.9793434143066 17.0328502655029 14.7517709732056 14.1364469528198 9.32308769226074 8.1778564453125 6.96627616882324 6.40910911560059 6.1450982093811 6.68045616149902 6.01232719421387 6.5832371711731 7.31822824478149 7.97671175003052 8.30486488342285 8.9585485458374 8.25323104858398 8.23399448394775 6.7882285118103 6.24706602096558 6.36957788467407 6.09223604202271 5.4044942855835
2.92280054092407 2.65477705001831 2.75102591514587 2.69065475463867 1.29423105716705 1.10543382167816 0.242687910795212 0.891952633857727 1.13483142852783 2.49518752098083 2.65172219276428 3.24685668945312 4.46884298324585 19.2657985687256 6.22012996673584 5.13454627990723 4.99709606170654 2.04369425773621 2.42742443084717 4.76872587203979 4.05957412719727 4.806556224823 1.1674861907959 3.06932210922241 0.567729353904724 1.10400307178497 1.45496594905853 1.01201605796814 3.13445734977722 3.8435845375061 1.98838937282562 1.25258123874664 9.72336483001709 7.62407827377319 9.15825653076172 0.880676507949829 2.29603719711304 2.45055413246155 3.48358106613159 2.85624527931213 7.99005746841431 0.326904743909836 10.0675668716431 50.3640670776367 0.218304440379143 2.91626739501953 2.71020150184631 0.118326440453529 -0.179173275828362 6.40417146682739 1.73033928871155 1.36033987998962 0.19203644990921 0.54509425163269 3.8633246421814 5.25680017471313 0.458319872617722 0.335865080356598 2.2800624370575 3.17579507827759 0.686603963375092 6.61412477493286 3.84429240226746 2.84755396842957 27.909366607666 19.5214252471924 14.5370578765869 11.5891990661621 7.77825307846069 8.3668384552002 8.38462448120117 6.10813617706299 5.27440118789673 5.46279954910278 3.88204479217529 4.00074863433838 4.80714464187622 7.88132381439209 22.2053470611572 19.0482501983643 15.9192543029785 13.4800996780396 12.0036039352417 14.3937015533447 5.29084825515747 11.4881324768066 4.33262777328491 3.57439208030701 3.88863492012024 5.80683374404907 6.3936185836792 6.32030344009399 6.06926965713501 5.03089094161987 5.43275690078735 5.65608215332031 5.25964260101318 4.85220623016357 4.55280876159668 4.87320041656494 4.59343910217285 4.90618848800659 5.36799716949463 5.91347646713257 5.84133052825928 5.1347975730896 6.43024206161499 7.32792377471924 7.10027170181274 7.01435899734497 7.29324769973755 6.44201517105103 5.83790349960327 5.62014818191528 5.52208280563354 8.05255889892578 24.8847694396973 16.4688301086426 26.8824062347412 11.8522291183472 6.19656038284302 7.57459354400635 5.29248380661011 5.25306177139282 5.86864519119263 6.40354299545288 15.0246696472168 9.6489839553833 6.95549058914185 7.06184816360474 7.33417367935181 8.72397994995117 7.67082452774048 7.09533596038818 8.02103519439697 12.3454933166504 8.87756729125977 9.02538108825684 9.08004760742188 7.73205280303955 10.1371288299561 13.359790802002 13.6161394119263 13.8948879241943 15.9885005950928 17.32155418396 18.2178001403809 18.178918838501 17.1031627655029 17.1292552947998 21.0357856750488 23.4877815246582 26.0299644470215 23.4683284759521 18.9708290100098 18.1997108459473 9.62972927093506 8.36327362060547 6.20403146743774 6.60818815231323 6.37448263168335 6.90874576568604 6.20781898498535 7.18362188339233 7.86396217346191 8.36191654205322 8.70252227783203 9.40381717681885 8.63708591461182 8.61709403991699 7.14026498794556 6.42495489120483 6.56176233291626 6.27187633514404 5.56109952926636
