NCOLS 172
NROWS 32
XLLCORNER 353904
YLLCORNER 6700432
CELLSIZE 16 
NODATA_value -3.4e+38 
3.63058304786682 3.2818500995636 2.50144147872925 3.37572073936462 3.37992715835571 1.89172554016113 0.29630583524704 7.59213972091675 7.25910234451294 5.92855596542358 13.913125038147 18.0398139953613 16.5571002960205 14.5266666412354 9.3816089630127 8.27168941497803 5.20459222793579 3.25064992904663 1.95350527763367 0.548804998397827 -0.0704807341098785 -0.2035301476717 -0.553763389587402 -0.695645689964294 -0.838590264320374 -0.740372776985168 -0.601969301700592 -0.482623398303986 2.35020589828491 6.61252880096436 6.0603461265564 5.27882289886475 6.07066106796265 6.02019166946411 2.70004224777222 1.04404485225677 0.578376352787018 0.43837234377861 0.821629106998444 1.64196491241455 2.07212686538696 2.33697748184204 3.31976819038391 3.89336514472961 2.20559883117676 1.12785542011261 0.73406982421875 0.78330671787262 0.843591451644897 0.648365437984467 0.662002921104431 0.676316380500793 0.651817619800568 0.649391055107117 0.67664760351181 0.683502316474915 0.709502696990967 0.985068380832672 1.09780168533325 1.23475468158722 1.33983731269836 1.34606647491455 1.27557420730591 1.06586503982544 0.844404280185699 0.600685656070709 0.375538945198059 0.336602061986923 0.302469491958618 0.260324984788895 0.190134018659592 0.212064951658249 0.211679667234421 0.169162034988403 0.146307229995728 0.192430034279823 0.087407149374485 0.177244111895561 0.149704366922379 0.17598694562912 -0.00419656792655587 -0.265575289726257 -0.275241911411285 10.3695907592773 11.521710395813 12.5570583343506 10.7136373519897 13.0591697692871 12.9108819961548 8.35052585601807 7.60325145721436 5.39957427978516 4.14437389373779 3.30804586410522 2.9427375793457 2.71159696578979 2.86820363998413 3.07976126670837 3.38888430595398 4.51044178009033 7.42650365829468 8.91775798797607 10.9244613647461 12.288125038147 12.7196168899536 11.8044185638428 10.6060848236084 9.28011322021484 7.25458955764771 6.39022016525269 5.4918098449707 5.01510953903198 4.66580152511597 4.31119918823242 4.05111455917358 3.89066123962402 3.90364980697632 4.03774976730347 4.49472951889038 5.08073902130127 6.02201223373413 6.48458433151245 6.59555625915527 6.56818819046021 6.52432107925415 6.43117046356201 6.16043281555176 5.10432529449463 3.66336107254028 2.72508430480957 2.14131832122803 1.82769763469696 1.89004862308502 2.2957592010498 2.30354785919189 2.27467012405396 2.10559463500977 2.09483051300049 1.90370261669159 1.63946485519409 1.24297022819519 0.960242033004761 1.10213887691498 1.82340407371521 2.38219428062439 2.66970419883728 2.59271049499512 2.49761414527893 2.92823791503906 5.03445625305176 7.46674346923828 8.06493473052979 8.19204616546631 7.42889451980591 8.01979827880859 7.79888486862183 6.70466899871826 5.49842262268066 6.16157007217407 8.47836685180664 4.67442798614502 3.27235984802246 8.48483467102051 9.62472534179688 14.3467416763306 10.5419797897339 8.75018787384033 12.2325372695923 8.987548828125 8.0766716003418 7.00857973098755 6.04665851593018
2.46162796020508 1.76086926460266 2.31137275695801 3.00654315948486 2.40619564056396 1.4625506401062 0.563499987125397 -0.650376319885254 0.940610110759735 1.60565757751465 -0.744982063770294 10.7849960327148 14.4728803634644 15.1721210479736 10.2590465545654 7.56988573074341 5.89786386489868 3.01827430725098 1.56705939769745 0.911872148513794 0.21341048181057 -0.120786026120186 -0.434561461210251 -0.519276916980743 -0.747793138027191 -0.615532398223877 -0.534662425518036 -0.548718929290771 -0.678162813186646 -0.845522522926331 1.208340883255 3.46627974510193 4.91711139678955 5.09594488143921 2.67911577224731 0.801924705505371 0.49599415063858 0.561546504497528 0.451233953237534 0.445080637931824 1.15525186061859 1.39043545722961 2.05602860450745 2.51799345016479 3.41797375679016 3.00734066963196 1.74253129959106 1.29397630691528 1.18049228191376 1.07021605968475 0.713228642940521 0.730295240879059 0.727262079715729 0.71133291721344 0.702229499816895 0.768143475055695 0.935293138027191 1.1617683172226 1.36937606334686 1.39219236373901 1.44915354251862 1.39821779727936 1.21576523780823 1.0488828420639 0.818930268287659 0.543643772602081 0.401683866977692 0.365378618240356 0.323847144842148 0.281359076499939 0.215040251612663 0.220877781510353 0.183059751987457 0.174464389681816 0.113007076084614 0.190029188990593 0.168983563780785 0.240497305989265 0.379996120929718 0.369516372680664 0.122998952865601 -0.047360323369503 -0.0368078388273716 -0.459435820579529 5.40489482879639 8.15290927886963 8.61897850036621 11.1977052688599 12.9287576675415 10.7648935317993 7.03438901901245 5.30415678024292 3.3769109249115 2.47479724884033 2.5623459815979 2.8998019695282 3.25982975959778 4.16656827926636 5.21265983581543 7.42102336883545 8.59835910797119 11.6201725006104 14.206446647644 15.3379335403442 14.5733013153076 13.6468381881714 12.1088514328003 9.44235038757324 7.83766460418701 6.48237895965576 5.69107437133789 5.1502628326416 4.88242197036743 4.52883529663086 4.28522109985352 4.12217283248901 4.25462532043457 4.45292377471924 4.9051251411438 6.33973979949951 6.71496248245239 7.0388126373291 6.93247985839844 6.90315055847168 7.04641771316528 6.71017646789551 6.28492212295532 5.06934690475464 3.35130715370178 2.48601365089417 2.0944561958313 2.52515125274658 2.41607666015625 2.57120251655579 2.68749451637268 3.11513185501099 2.53373718261719 2.23548316955566 2.16227197647095 2.08643674850464 1.62202310562134 1.43158090114594 2.12943768501282 2.46484613418579 2.88718247413635 3.32000184059143 2.85955619812012 2.54293870925903 3.1465175151825 7.06023502349854 8.52293682098389 8.86895370483398 7.74597501754761 7.2356972694397 7.04729318618774 6.04651927947998 6.274329662323 5.84020566940308 4.07238674163818 1.67167353630066 0.355264723300934 -0.427750468254089 0.00795448571443558 6.10046195983887 9.68386077880859 13.1787137985229 11.5602397918701 11.4110679626465 9.09048080444336 8.18010997772217 6.97854518890381 6.03947639465332
1.9595912694931 2.69665813446045 2.77523612976074 3.06127119064331 3.58290672302246 2.63139128684998 1.12947845458984 -0.545058310031891 -0.589479088783264 -0.622901678085327 -0.833115220069885 -0.94730532169342 6.27358102798462 10.9647636413574 12.9051475524902 7.57563257217407 4.37279796600342 2.99250388145447 1.78566336631775 1.19130885601044 0.550759732723236 -0.0779806673526764 -0.335276424884796 -0.327311843633652 -0.426599860191345 -0.433970540761948 -0.413078337907791 -0.408477306365967 -0.556387484073639 -0.769059360027313 -0.674241602420807 -0.392133712768555 2.80367279052734 4.17708969116211 2.18270182609558 1.11476826667786 0.469305008649826 0.448115646839142 0.439159244298935 0.514258444309235 0.429538011550903 0.487431526184082 0.886979460716248 1.06268286705017 1.95316898822784 2.59072685241699 4.21048307418823 3.62576675415039 1.9084997177124 1.55896472930908 1.09650981426239 0.771733343601227 0.751415431499481 0.753432631492615 0.737618386745453 0.913777649402618 1.27779221534729 1.40642702579498 1.51536166667938 1.60535514354706 1.5736608505249 1.47150719165802 1.2285590171814 0.982624769210815 0.788639307022095 0.548554301261902 0.437708407640457 0.392506033182144 0.339665830135345 0.297514647245407 0.236184298992157 0.22378209233284 0.187068492174149 0.161333113908768 0.161561504006386 0.174247264862061 0.223385706543922 0.352743059396744 0.631779909133911 0.510404765605927 0.2205700725317 0.15321646630764 0.204399034380913 -0.240115493535995 -0.984113574028015 -1.212641954422 4.46835374832153 6.55444002151489 8.23902702331543 10.4673566818237 7.90201425552368 5.18161964416504 3.69312858581543 2.92231249809265 2.97163414955139 3.10313439369202 3.26525783538818 3.40636658668518 5.3368124961853 7.03945684432983 9.05336952209473 13.0914583206177 16.5673217773438 15.8251647949219 15.6737976074219 13.8313074111938 12.2086267471313 9.8365364074707 8.38851928710938 6.96134662628174 5.9143648147583 5.41731405258179 5.09943389892578 4.63243865966797 4.55228137969971 4.51319885253906 4.62150859832764 5.02435350418091 5.91193532943726 6.89381647109985 7.60710573196411 7.59353828430176 7.57741975784302 7.67042779922485 7.41350936889648 7.10196971893311 5.81421852111816 4.6180567741394 3.32890391349792 2.64010167121887 3.10122060775757 3.49145841598511 6.94671869277954 7.71879196166992 6.70584154129028 5.93766450881958 2.9728467464447 2.72154188156128 2.75872039794922 3.02422046661377 2.54825377464294 2.63459753990173 3.3218252658844 3.72284555435181 2.88866209983826 3.25775861740112 3.37197589874268 3.6376793384552 9.28907775878906 10.413724899292 10.3467025756836 9.89638519287109 7.6019458770752 7.11025381088257 7.6352424621582 7.3349871635437 5.7885890007019 5.93838596343994 3.82475614547729 1.28558933734894 1.09262788295746 0.694922626018524 0.346185088157654 0.910854399204254 2.91226649284363 10.7315711975098 10.7748804092407 10.5263614654541 9.7277889251709 8.24490261077881 7.34435844421387 6.21279621124268
3.17133378982544 3.51964116096497 4.6922779083252 3.25585842132568 2.02991819381714 1.4749675989151 2.11422657966614 0.0684891641139984 -0.467609286308289 -0.539416611194611 -0.708973348140717 -0.958953738212585 -0.925002574920654 9.78406715393066 10.4255847930908 9.87161350250244 5.46186494827271 3.21865081787109 2.22492337226868 1.50015151500702 0.473310619592667 0.0850794315338135 -0.0775512754917145 -0.0658546090126038 -0.0742150098085403 -0.145033538341522 -0.180154070258141 -0.179991066455841 -0.285055249929428 -0.464723169803619 -0.534723401069641 -0.359008550643921 1.05831909179688 3.60628056526184 1.83586144447327 1.24491035938263 0.491470456123352 0.465672641992569 0.44879361987114 0.443572103977203 0.434590697288513 0.538073599338531 0.69777637720108 0.99159973859787 0.951148748397827 1.05021643638611 1.71005833148956 2.51335787773132 4.69381856918335 3.87590575218201 1.5198335647583 1.15240085124969 0.774576306343079 0.775526165962219 0.848976492881775 1.04337012767792 1.4782110452652 1.70796430110931 1.71923851966858 1.75358605384827 1.64041364192963 1.45053040981293 1.21349024772644 0.959175288677216 0.611321628093719 0.483443439006805 0.468035876750946 0.4140744805336 0.365383267402649 0.313480138778687 0.2645243704319 0.234172061085701 0.224761471152306 0.228791758418083 0.228106290102005 0.237534314393997 0.279248833656311 0.520078003406525 0.735541224479675 0.651217937469482 0.346790194511414 0.445294797420502 0.305512189865112 0.0512372329831123 -0.779474139213562 -1.30481040477753 -1.43598210811615 -0.368087500333786 5.64925813674927 8.10097217559814 8.00148487091064 5.0827260017395 3.22273993492126 3.08136463165283 3.37426543235779 3.67366480827332 3.72330689430237 5.1370005607605 6.40716934204102 7.43383741378784 13.6801013946533 16.1426410675049 14.9852352142334 19.56640625 17.0622444152832 15.7388467788696 10.8720321655273 9.1278600692749 8.9127311706543 7.08222007751465 6.21130752563477 5.55320644378662 5.1751856803894 4.83372211456299 4.80706691741943 4.88480520248413 5.11484861373901 5.62106037139893 7.32526922225952 7.82152271270752 8.22856616973877 8.25171089172363 8.30455112457275 8.21603775024414 7.81839275360107 7.21759033203125 5.72739553451538 4.18079948425293 3.04772615432739 2.33253455162048 1.8361781835556 2.58936715126038 2.54841685295105 2.65789079666138 4.24830675125122 4.24105405807495 3.19286966323853 3.57476615905762 3.7949538230896 4.17243242263794 3.90295815467834 3.79091024398804 4.21411943435669 4.72936773300171 4.46046209335327 4.34673404693604 4.11841201782227 7.75573205947876 14.8181791305542 15.2127332687378 13.5602512359619 10.9480285644531 8.58026313781738 7.2343921661377 8.09379005432129 7.80960369110107 7.52924776077271 5.59748888015747 4.1943998336792 2.83298707008362 1.83362829685211 1.74216508865356 1.54422509670258 1.62985491752625 3.16972494125366 6.77331399917603 9.14808368682861 9.73607921600342 10.9207201004028 8.65545558929443 7.35556745529175 6.6951322555542
5.62797784805298 3.93059897422791 6.18571281433105 4.01759004592896 2.83550357818604 1.2026515007019 0.961791515350342 -0.109856627881527 -0.351637482643127 -0.516460418701172 -0.558391273021698 -0.75313001871109 -0.955054461956024 -0.823980927467346 7.66491460800171 5.11236381530762 4.17327976226807 2.3683545589447 1.77118051052094 1.50255072116852 0.604162156581879 0.185779333114624 0.0892256945371628 0.164451837539673 0.177367135882378 0.112588427960873 0.0753233879804611 0.051943875849247 -0.00927212089300156 -0.177375048398972 -0.314627766609192 -0.223108306527138 0.127222955226898 3.66798973083496 2.92437386512756 0.823615849018097 0.51569801568985 0.478374779224396 0.461857169866562 0.452235758304596 0.453354328870773 0.621112406253815 0.948918879032135 0.99669349193573 1.05479454994202 0.968880236148834 0.917132794857025 0.800232172012329 0.76050728559494 1.12732744216919 3.47616076469421 2.45215153694153 0.811374008655548 0.972168624401093 1.23107492923737 1.42662572860718 1.68491065502167 1.92242217063904 1.96409440040588 1.88271415233612 1.72158002853394 1.45282924175262 1.1929703950882 0.920566320419312 0.647883117198944 0.527612328529358 0.495282262563705 0.44537028670311 0.402719736099243 0.366309612989426 0.327240437269211 0.305744826793671 0.311537951231003 0.316563695669174 0.309930503368378 0.313880831003189 0.410181134939194 0.715241968631744 0.786238431930542 0.736815214157104 0.608082592487335 0.634554088115692 0.494833379983902 0.107635341584682 -0.446485757827759 -1.02163743972778 -1.37819314002991 -1.55371081829071 1.06088030338287 4.32665967941284 6.21266603469849 5.09833908081055 3.19460844993591 3.49709272384644 3.67624425888062 3.84506440162659 3.97975611686707 3.47665572166443 2.78240466117859 3.32957053184509 9.69283866882324 11.7885627746582 12.4551916122437 11.9845399856567 16.4799861907959 14.3453598022461 10.5791797637939 7.75765514373779 7.83997058868408 7.84136772155762 6.71571350097656 6.05797815322876 5.14006519317627 5.06285047531128 4.9441032409668 5.0963921546936 5.6171760559082 6.70362997055054 7.87134313583374 8.88393211364746 8.67580032348633 8.76772117614746 9.21055889129639 8.82743072509766 8.48105716705322 6.76857471466064 5.2836217880249 3.8244457244873 2.90603852272034 2.42511749267578 2.61822986602783 3.06083273887634 5.95207023620605 7.75367879867554 7.09346008300781 4.5270037651062 5.06671333312988 4.80294370651245 5.16474676132202 5.42251348495483 5.85385227203369 6.29582929611206 5.81111335754395 5.89873743057251 5.92839622497559 5.40410041809082 7.15594959259033 19.482458114624 18.1428184509277 12.5382480621338 12.6546649932861 8.51553916931152 7.42620038986206 8.39477252960205 9.46466636657715 8.21706485748291 8.70615577697754 6.07692527770996 4.5237250328064 4.06138896942139 3.23991203308105 2.5523202419281 2.56646203994751 2.90452146530151 4.5443377494812 7.06980228424072 9.21018028259277 9.59496593475342 9.61460018157959 9.0731782913208 7.93241167068481 7.00105905532837
2.72589182853699 11.1979818344116 5.93382692337036 4.30316066741943 1.7595454454422 0.556210577487946 0.340948283672333 -0.188062250614166 -0.22661092877388 -0.341373860836029 -0.481543868780136 -0.506246209144592 -0.706539332866669 -0.812298774719238 -0.699915409088135 -0.52279257774353 0.496859550476074 1.477215051651 0.929565668106079 0.577181100845337 0.507931470870972 0.195273295044899 0.301552176475525 0.417680740356445 0.373929083347321 0.356894165277481 0.290919363498688 0.272777646780014 0.236661985516548 0.115738682448864 -0.0252002757042646 0.000457990274298936 0.173837661743164 2.55948042869568 3.03250551223755 1.23002624511719 0.56256514787674 0.50031989812851 0.480151027441025 0.473037451505661 0.569822072982788 0.737260699272156 1.03107893466949 0.984862089157104 1.08012616634369 0.941234707832336 0.858313381671906 0.807558655738831 0.763131260871887 0.742051184177399 0.77631276845932 0.801742136478424 2.63745713233948 2.23137307167053 1.61826598644257 2.04687809944153 2.09782934188843 2.21568059921265 2.22568964958191 2.003901720047 1.76386427879333 1.48762941360474 1.14082658290863 0.755026519298553 0.589309751987457 0.573575258255005 0.530876696109772 0.490126878023148 0.468547850847244 0.467809826135635 0.427812397480011 0.418797612190247 0.414327263832092 0.405943006277084 0.393102288246155 0.431673407554626 0.601639866828918 0.837687134742737 0.865529000759125 0.794031977653503 0.83953982591629 0.734051048755646 0.580415546894073 0.104263477027416 -0.235803857445717 -0.828613698482513 -1.25310790538788 -1.5433611869812 -0.492190390825272 0.922291100025177 3.48158931732178 3.88276672363281 3.33934545516968 3.84135174751282 4.27712440490723 4.40583372116089 4.29822683334351 3.5492992401123 2.51677918434143 1.81222414970398 2.07003951072693 5.87768220901489 7.37795448303223 7.21753644943237 7.82625865936279 10.7415256500244 9.68615245819092 6.76619338989258 7.08272838592529 8.00296401977539 6.58951950073242 5.76081132888794 5.39089393615723 5.55424928665161 5.56799697875977 5.72357940673828 6.36077880859375 8.48380374908447 9.11392688751221 9.7136754989624 9.77126884460449 9.72101306915283 10.083553314209 9.60051155090332 8.71488571166992 6.76796722412109 4.88505983352661 3.6328296661377 2.88909077644348 2.46833229064941 3.40449047088623 5.36718606948853 8.791748046875 6.59763383865356 7.01598978042603 6.60364580154419 6.17440938949585 6.02384471893311 6.0026912689209 6.78224945068359 7.82443332672119 7.77453851699829 7.87114572525024 7.19328641891479 5.93500757217407 5.87208604812622 8.84214401245117 7.37112903594971 8.09716415405273 9.46835613250732 7.85094785690308 6.70076656341553 8.09096813201904 10.5067262649536 10.9098014831543 12.2851638793945 8.67057323455811 7.28870344161987 6.00843191146851 5.13604688644409 4.50189876556396 4.13572978973389 3.40476441383362 4.04837656021118 6.43455743789673 8.09115695953369 9.79714298248291 9.41733360290527 8.51735305786133 9.11116027832031 8.42831802368164 8.19884300231934
4.56737422943115 2.20894932746887 5.77825927734375 4.19940996170044 2.46556639671326 0.826949238777161 -0.136152297258377 -0.113280110061169 -0.189133420586586 -0.217219278216362 -0.354836046695709 -0.374075770378113 -0.411261677742004 -0.515755116939545 -0.560756683349609 -0.478893846273422 -0.440218895673752 0.123984128236771 0.581438720226288 0.3730229139328 0.466447502374649 0.469034522771835 0.516579806804657 0.60819685459137 0.596942186355591 0.57367730140686 0.485191315412521 0.499653279781342 0.430538654327393 0.353963762521744 0.223409086465836 0.211695328354836 0.284628927707672 0.428597927093506 2.42807102203369 1.10740649700165 0.61736661195755 0.533544063568115 0.508457601070404 0.494520336389542 0.666617095470428 1.00313425064087 1.05630230903625 1.11468458175659 1.0118134021759 0.960865259170532 0.831598401069641 0.805115282535553 0.78415447473526 0.787276685237885 0.809069454669952 0.824169039726257 1.10688209533691 1.80196487903595 2.51460480690002 2.59046792984009 2.71342730522156 2.63647532463074 2.54890751838684 2.22882914543152 1.79440689086914 1.46607410907745 1.10755336284637 0.824289441108704 0.666420578956604 0.621168375015259 0.591793358325958 0.557856976985931 0.589878678321838 0.658247053623199 0.596054017543793 0.527222394943237 0.511061012744904 0.49406510591507 0.514599144458771 0.601555824279785 0.659979283809662 0.883143365383148 0.906865894794464 0.925767958164215 1.00746726989746 0.87890625 0.513822674751282 0.158629804849625 -0.18982957303524 -0.644833147525787 -0.487450122833252 -0.285475045442581 -0.208742767572403 0.974044322967529 2.14551424980164 3.37832546234131 3.89293527603149 4.31818866729736 4.57817363739014 4.95191383361816 4.63076782226562 3.88643789291382 2.67477893829346 1.62685835361481 -0.19548687338829 0.548884510993958 2.60831260681152 3.04666924476624 3.60903692245483 7.11338520050049 8.03228092193604 6.19829607009888 6.0329155921936 8.37983798980713 8.17068195343018 6.19045305252075 5.87090349197388 6.01047372817993 6.36519861221313 6.68115615844727 7.14960718154907 9.12993144989014 9.97618675231934 10.5409564971924 11.3659648895264 11.5944681167603 11.0775108337402 10.5094966888428 8.11473846435547 6.16165733337402 4.48117780685425 3.37289023399353 2.86094951629639 3.12949109077454 4.64863109588623 7.68642139434814 6.08393001556396 2.9296989440918 4.57060480117798 8.24118137359619 9.56903457641602 7.08923578262329 7.05460357666016 8.36520957946777 9.9333381652832 9.83067989349365 9.12674331665039 8.18503952026367 6.26421356201172 7.1003475189209 10.7601585388184 3.46719145774841 4.82908344268799 5.86218643188477 6.53640270233154 7.47200727462769 10.3433656692505 12.9643440246582 18.381067276001 15.3178834915161 11.0605611801147 8.57726097106934 7.4205470085144 6.62063884735107 6.54180526733398 5.31012582778931 5.97627544403076 7.56088209152222 7.96423006057739 9.82648086547852 9.32098484039307 9.18097591400146 10.5498447418213 9.67029571533203 9.06629180908203 9.64915943145752
-0.662371575832367 -0.760340392589569 -0.0174989439547062 2.68723726272583 1.69070494174957 1.93260359764099 0.501453220844269 0.00984805542975664 -0.0252853780984879 -0.141394659876823 -0.193285465240479 -0.247780740261078 -0.234446167945862 -0.347830146551132 -0.365854918956757 -0.356514811515808 -0.388818740844727 -0.40516921877861 0.374354630708694 0.665587782859802 0.83215457201004 0.656614720821381 0.773537993431091 0.724152088165283 0.777026116847992 0.733708262443542 0.716606795787811 0.681203246116638 0.646390080451965 0.557316184043884 0.429994821548462 0.377996057271957 0.389261424541473 0.444532841444016 0.604910433292389 0.750421464443207 0.679360866546631 0.577067315578461 0.528482139110565 0.517413794994354 0.686778903007507 1.09757912158966 1.0490825176239 1.14843440055847 1.00024235248566 0.916501820087433 0.861706495285034 0.821358561515808 0.802336454391479 0.850069761276245 0.848647594451904 0.99445766210556 2.13202881813049 2.33455634117126 2.891921043396 3.44844150543213 3.47846484184265 3.20562267303467 2.74007320404053 2.53116178512573 1.92585384845734 1.4445207118988 1.08084070682526 0.997790932655334 0.818285524845123 0.684579372406006 0.641992330551147 0.619189441204071 0.659320592880249 0.752348363399506 0.69140350818634 0.61026531457901 0.589193820953369 0.620521306991577 0.686078250408173 0.739832520484924 0.901479542255402 0.940925240516663 0.956261277198792 1.11150932312012 1.06943798065186 0.918821036815643 0.437954396009445 0.168474018573761 -0.171539351344109 2.84743309020996 1.29068720340729 1.16461169719696 1.27601408958435 1.29616868495941 2.38898897171021 3.51241827011108 4.31159782409668 5.05579471588135 5.2787036895752 5.42861557006836 4.93920946121216 3.69338846206665 2.91843175888062 1.85644221305847 0.520691990852356 -0.984843611717224 -1.55223989486694 0.867133736610413 1.78831827640533 5.27178382873535 6.65696001052856 6.08681344985962 5.60509252548218 8.49923896789551 7.29658317565918 6.1176815032959 6.11641597747803 6.4370698928833 6.73469018936157 7.42791891098022 8.98760890960693 10.4286861419678 11.9787225723267 13.2417593002319 12.745457649231 13.0608758926392 11.9765367507935 11.5269660949707 8.13088321685791 5.75172281265259 4.28331184387207 3.36690497398376 2.97608995437622 4.05520153045654 4.43865871429443 4.07067823410034 2.37953543663025 2.78231501579285 2.53414988517761 4.16243743896484 6.45041513442993 7.21793842315674 9.08646678924561 12.295877456665 15.187873840332 11.3749694824219 10.4116687774658 8.02748870849609 5.13004589080811 3.39952182769775 2.18426084518433 1.4681134223938 1.08383786678314 4.22639322280884 8.50650501251221 8.71104145050049 15.9564008712769 15.4042434692383 15.4710054397583 14.6301298141479 12.5785703659058 10.8115882873535 9.19981956481934 7.98777008056641 6.83571004867554 8.66553688049316 8.88044548034668 11.9579410552979 11.2591543197632 11.6395215988159 10.770167350769 8.6385440826416 7.6254825592041 8.61236000061035 7.46166229248047 10.3880815505981
0.0627924576401711 -0.609800159931183 -0.671176433563232 -0.673895597457886 1.34293806552887 -0.0810983404517174 0.00585390022024512 0.0559197068214417 0.0434987880289555 -0.0644442141056061 -0.113320179283619 -0.105430252850056 -0.113727480173111 -0.199553772807121 -0.259867906570435 -0.265305548906326 -0.308614730834961 -0.349084079265594 -0.29394319653511 0.748750627040863 1.01236915588379 1.01787781715393 0.9243283867836 0.914548635482788 0.90448534488678 0.895620167255402 0.91450709104538 0.87751305103302 0.840095043182373 0.772926092147827 0.646830916404724 0.599404752254486 0.548730850219727 0.573362410068512 0.669333696365356 0.773152053356171 0.745833575725555 0.622439861297607 0.567794620990753 0.641617655754089 0.818560719490051 1.13112485408783 1.18923902511597 1.08829069137573 1.03397440910339 0.89724588394165 0.868720173835754 0.84745055437088 0.871402204036713 0.890801429748535 1.17156934738159 2.71978569030762 2.70611476898193 3.5507390499115 3.47010684013367 3.90969705581665 4.07741832733154 3.85489630699158 3.53723573684692 2.68664717674255 2.2711775302887 1.62603974342346 1.09983372688293 1.03847181797028 0.890799462795258 0.760545372962952 0.701630711555481 0.681632697582245 0.73631352186203 0.796293020248413 0.776389002799988 0.757568299770355 0.708033561706543 0.7719846367836 0.825852155685425 0.848177850246429 1.08620774745941 1.07251977920532 0.952195644378662 1.25182950496674 1.25473463535309 0.892776906490326 0.468479305505753 0.146326184272766 2.84641551971436 4.47482347488403 4.42658233642578 2.88582324981689 2.59782838821411 2.65625524520874 2.90380024909973 3.77071094512939 4.56176233291626 5.39500427246094 5.85297012329102 5.8690071105957 5.29565858840942 3.89704990386963 3.03613471984863 2.24022531509399 -0.739678621292114 -1.84217011928558 -1.09911823272705 1.31364321708679 2.56006050109863 4.46645641326904 5.6085958480835 5.28945922851562 4.25351524353027 4.37088775634766 5.21774625778198 6.69178771972656 6.66649580001831 7.29606246948242 8.05683708190918 8.91011047363281 12.3063488006592 13.1327390670776 13.4851894378662 15.6354360580444 16.0031394958496 14.5963973999023 13.5003986358643 11.7767724990845 7.38871431350708 5.46631956100464 4.03939723968506 3.2675895690918 3.69881153106689 6.38272380828857 5.74239683151245 4.50832366943359 2.79823398590088 3.16838240623474 3.21521949768066 5.82774543762207 9.37100505828857 11.0842971801758 12.6105632781982 11.1284332275391 10.8313064575195 14.3033771514893 13.4468355178833 9.95170211791992 4.44805717468262 3.52411651611328 2.25493144989014 1.11036109924316 1.01231515407562 3.44037818908691 8.87559223175049 13.69384765625 14.0090866088867 6.27573871612549 1.49716448783875 7.76025009155273 14.5959787368774 12.3942985534668 10.9187049865723 10.6461782455444 6.44442939758301 4.33958292007446 9.98416805267334 11.1367483139038 14.1038856506348 10.8365831375122 9.72707366943359 7.65362167358398 6.66378259658813 6.99024057388306 7.08365488052368 9.24538612365723
1.98029375076294 -0.545756578445435 -0.587413549423218 -0.574074566364288 -0.472545236349106 -0.0966136753559113 0.0704309344291687 0.0329693108797073 0.0577704906463623 0.000845880946144462 -0.0558457970619202 -0.00160166714340448 -0.0709611177444458 -0.0831548199057579 -0.173097148537636 -0.217670798301697 -0.263095527887344 -0.305375576019287 -0.359485298395157 -0.0260623954236507 0.699665665626526 1.0180732011795 1.05603802204132 1.05395078659058 1.01878476142883 1.09050977230072 1.11462819576263 1.10260820388794 1.06632399559021 0.960626542568207 0.88159841299057 0.814153671264648 0.780586302280426 0.738453447818756 0.80697900056839 0.842143416404724 0.800838887691498 0.659902274608612 0.603001475334167 0.754134356975555 1.12049913406372 1.17439675331116 1.22990882396698 1.07859790325165 0.987170457839966 0.932190358638763 0.890177965164185 0.858587920665741 0.922417640686035 0.912662208080292 1.44834721088409 2.70332098007202 3.94201374053955 4.38070869445801 5.18242979049683 4.59571933746338 4.62173414230347 4.16901826858521 3.91530132293701 3.43838882446289 2.68061089515686 1.91861581802368 1.16843223571777 1.02170765399933 0.960001587867737 0.824474453926086 0.796589553356171 0.787396490573883 0.880375266075134 0.864869236946106 0.861901879310608 0.867687463760376 0.810656726360321 0.810268580913544 0.845493197441101 1.10666251182556 1.14744639396667 1.16673481464386 1.11947107315063 1.32279181480408 1.37282025814056 2.13586211204529 0.529507339000702 1.43842136859894 9.68792915344238 8.31578826904297 6.27513551712036 5.34290266036987 4.43483543395996 3.87818765640259 3.97298383712769 4.80451774597168 5.53293132781982 6.12419605255127 6.77692937850952 6.59922122955322 5.77156066894531 4.26895952224731 3.35078430175781 1.19685518741608 -0.316972196102142 -1.38169991970062 -1.02722024917603 1.82152497768402 3.42271780967712 4.32549905776978 5.1812047958374 4.53914976119995 3.76705837249756 4.3077654838562 6.72161912918091 6.76101160049438 8.55911827087402 7.55506706237793 8.84078598022461 11.5776824951172 14.8899459838867 17.5805740356445 20.623327255249 18.9528713226318 18.9439792633057 15.7063140869141 15.1844348907471 10.8873014450073 6.83897590637207 5.22232723236084 4.10577964782715 3.1895387172699 6.55704212188721 9.29380512237549 7.55570936203003 3.50165176391602 3.60862922668457 3.34086203575134 3.53175497055054 5.75951766967773 7.76899433135986 11.5943241119385 16.8138065338135 14.7292757034302 10.839524269104 10.4515352249146 9.52891254425049 7.95870018005371 4.55103635787964 3.99841928482056 3.58237218856812 1.73570454120636 0.991722822189331 3.42818260192871 7.85099840164185 4.93172121047974 1.11812388896942 2.57158660888672 -1.30714643001556 -1.75635623931885 7.54182863235474 10.6685266494751 10.0424823760986 9.1154727935791 7.57894134521484 4.5746808052063 3.3066840171814 14.5790910720825 16.3576278686523 14.228385925293 9.13959217071533 7.62089109420776 6.54431056976318 6.093430519104 6.99776983261108 9.68233489990234
-0.570360004901886 -0.560795068740845 -0.521176934242249 -0.290131330490112 -0.0987964868545532 0.0239772815257311 0.203651025891304 0.109011523425579 0.0432811975479126 0.087429516017437 -0.00433858158066869 0.0498757883906364 0.0186493638902903 -0.0410352312028408 -0.0843572467565536 -0.160915821790695 -0.220023661851883 -0.267396718263626 -0.332004368305206 0.26189386844635 0.656878113746643 1.06746971607208 1.06101822853088 1.17237710952759 1.19460666179657 1.28178226947784 1.33140301704407 1.34048533439636 1.30739998817444 1.17085564136505 1.12226665019989 1.04638123512268 0.973634302616119 0.915381073951721 0.934526085853577 0.940935492515564 0.851281583309174 0.722419679164886 0.734322905540466 0.923206210136414 1.24633455276489 1.19070971012115 1.28933227062225 1.12768399715424 0.98237818479538 0.948782742023468 0.929005920886993 0.933289408683777 0.955811083316803 0.932087421417236 1.47758865356445 2.56366586685181 4.04080247879028 5.12457418441772 6.20830106735229 6.17765712738037 5.3701605796814 4.77796316146851 3.94183754920959 3.55228161811829 2.96600103378296 2.18695974349976 1.65109407901764 1.07873344421387 0.953875362873077 0.913535594940186 0.877387702465057 1.00191605091095 0.969673097133636 0.936186492443085 0.933632254600525 0.932051181793213 0.88438093662262 0.883289575576782 0.958723068237305 1.23812353610992 1.25418174266815 1.15701174736023 1.31594634056091 1.41758418083191 1.39944803714752 1.63019931316376 6.3868522644043 17.2817649841309 13.2510061264038 11.7024631500244 9.25905227661133 7.13669490814209 6.31845426559448 5.83444404602051 5.12672901153564 5.51350975036621 6.76198673248291 8.09035396575928 7.79321098327637 7.61268472671509 5.83955574035645 4.94711875915527 3.71703410148621 1.45751702785492 -1.39111948013306 -0.89230477809906 -0.632491171360016 3.22802472114563 5.36665439605713 6.15002489089966 5.06043815612793 4.1428279876709 3.43838477134705 4.30606460571289 5.00330686569214 6.88728284835815 7.76784086227417 9.50178337097168 11.1885032653809 21.6270084381104 27.9477920532227 27.2128314971924 27.0370979309082 25.4924716949463 21.0097198486328 18.5554523468018 15.435546875 10.8180408477783 7.3216552734375 5.094153881073 3.98405957221985 4.75214624404907 7.83791399002075 6.55646228790283 4.33923673629761 3.82004189491272 4.39578294754028 5.65166616439819 7.25152111053467 7.04152917861938 9.99606609344482 12.3699798583984 12.860330581665 13.4650793075562 13.2031192779541 10.2828636169434 7.54897308349609 5.60308361053467 5.18097734451294 4.99301338195801 4.03934669494629 2.39853620529175 0.855563700199127 2.89806151390076 4.00116491317749 4.1388897895813 -0.405137002468109 -1.75431716442108 -1.72655379772186 -1.77129709720612 -1.86142790317535 0.623517036437988 1.68258726596832 6.16308116912842 6.84837484359741 5.16017913818359 8.2500114440918 7.29181861877441 11.0509634017944 13.6592960357666 9.97079086303711 7.1161584854126 5.98625516891479 5.15176105499268 5.86442136764526 8.47405052185059
-0.486618876457214 -0.463426887989044 -0.326336622238159 -0.168714985251427 0.0894403457641602 0.224540457129478 0.17388091981411 0.209438934922218 0.163906127214432 0.077429473400116 0.104994840919971 0.0855882316827774 0.0947240367531776 0.01984478905797 -0.0282089989632368 -0.0984708964824677 -0.195199996232986 -0.248802363872528 0.022855382412672 0.449040710926056 0.904485642910004 1.15964949131012 1.21228015422821 1.28676164150238 1.42834436893463 1.56296861171722 1.70912384986877 1.63553726673126 1.49648201465607 1.41097784042358 1.31281006336212 1.25364077091217 1.14515268802643 1.10988259315491 1.07733654975891 1.04762971401215 0.956786036491394 0.889155626296997 0.951474487781525 1.29270553588867 1.32423400878906 1.37933850288391 1.25511062145233 1.19431698322296 1.03509593009949 0.9869185090065 0.967357337474823 0.990359246730804 0.99013876914978 0.967861115932465 0.874906539916992 1.40614914894104 3.99858212471008 6.43282651901245 6.30973768234253 6.85393333435059 6.84487009048462 5.67956256866455 4.5443434715271 3.69788599014282 2.94620728492737 2.19426321983337 1.59342455863953 1.13901102542877 0.990738868713379 0.933621048927307 1.07005059719086 1.01899826526642 0.982330918312073 0.970859229564667 0.960482358932495 0.930479824542999 0.893255293369293 0.900503933429718 1.25017774105072 1.29579269886017 1.32716572284698 1.23590230941772 1.46293807029724 1.54459774494171 1.28941881656647 0.887217700481415 10.5437040328979 19.7439861297607 21.2211647033691 14.6246566772461 11.9530334472656 9.91460609436035 8.43674659729004 7.36361837387085 7.31680345535278 7.54573154449463 8.53097724914551 9.68629169464111 9.59356307983398 8.32835483551025 6.88872861862183 5.77496242523193 3.32008647918701 1.40459322929382 -0.681562602519989 -0.743983030319214 -0.462090045213699 3.50905537605286 4.31804800033569 6.02141189575195 4.99539089202881 3.53378486633301 2.85241460800171 3.50902676582336 4.00437307357788 5.64227771759033 5.28241062164307 7.48984050750732 14.1187543869019 11.8845996856689 16.830753326416 28.8067321777344 34.4756355285645 32.6288909912109 24.5188083648682 21.7611274719238 14.1207132339478 9.68002986907959 7.11313724517822 5.35017967224121 4.11389541625977 4.99505567550659 4.08032846450806 3.40394639968872 4.75180053710938 5.57348489761353 7.10104703903198 6.84861135482788 7.28550148010254 6.39794158935547 6.07698726654053 8.22622203826904 8.14177227020264 10.1610879898071 9.02054119110107 5.40413665771484 5.4111967086792 5.50873565673828 6.08278656005859 6.27145719528198 3.71190881729126 2.47259712219238 1.15471935272217 1.40231287479401 4.93722629547119 1.68184697628021 1.1013240814209 -1.77477812767029 -1.62402725219727 -1.55969321727753 -1.61908054351807 -1.69731163978577 0.815551459789276 3.49824190139771 5.89487791061401 5.39975023269653 1.68329381942749 2.02744626998901 4.82193803787231 9.20923328399658 8.83606719970703 7.84832811355591 6.3692455291748 4.00024318695068 3.45868492126465 5.04801321029663
-0.319118112325668 -0.283066630363464 -0.105153940618038 0.138628765940666 0.215708896517754 0.327301412820816 0.285527139902115 0.200840532779694 0.212752893567085 0.120582453906536 0.236072212457657 0.154149904847145 0.0924240872263908 0.0616055876016617 -0.00840081926435232 -0.0734410285949707 -0.169059187173843 -0.21187935769558 0.740678668022156 0.884701907634735 1.19121420383453 1.50614237785339 1.7718620300293 2.80055856704712 4.97853851318359 3.56016874313354 2.03357219696045 1.97803294658661 1.52496230602264 1.43069708347321 1.39391100406647 1.29768824577332 1.22888565063477 1.18521440029144 1.14617908000946 1.0910392999649 1.01639592647552 0.960934162139893 1.18190407752991 1.49487626552582 1.37458121776581 1.45110833644867 1.26214265823364 1.14848506450653 1.08379209041595 1.0338020324707 1.02641654014587 1.04104578495026 1.03283929824829 0.989184975624084 0.804764628410339 0.61610335111618 1.83891582489014 3.69256591796875 6.29605293273926 5.5807580947876 6.38259220123291 6.597092628479 5.41406059265137 4.15354204177856 3.09670543670654 2.12337756156921 1.42067635059357 1.03273332118988 1.06972324848175 1.10175383090973 1.19099128246307 0.995067477226257 0.990911543369293 0.98596453666687 0.979965031147003 0.925329923629761 0.939934432506561 1.07903861999512 1.39701855182648 1.42921721935272 1.31658959388733 1.44053173065186 1.5692458152771 1.60460293292999 1.25111544132233 0.854670345783234 7.03921508789062 3.6849479675293 9.95005893707275 13.509708404541 12.1206741333008 11.7689657211304 10.6640939712524 9.78487586975098 9.39975357055664 8.74337387084961 12.4474792480469 12.4510469436646 11.4360227584839 8.75472164154053 7.67924356460571 6.84163808822632 4.41799592971802 0.721526801586151 0.0902694463729858 -0.195923402905464 -0.421158492565155 -0.478219032287598 1.34524536132812 4.26723337173462 4.49594688415527 3.25490832328796 2.35238790512085 3.34863018989563 3.33910036087036 5.3428521156311 7.8792552947998 10.8231134414673 13.8805704116821 16.3490371704102 13.0506076812744 13.1449956893921 23.1773891448975 35.0661239624023 31.2729606628418 21.6362419128418 13.6824369430542 9.15275573730469 6.45362663269043 5.11204719543457 5.2815146446228 6.39730453491211 7.74509477615356 7.27480268478394 7.92490291595459 8.87980556488037 7.06870698928833 7.07476091384888 7.25638723373413 7.50471830368042 5.02792453765869 3.54707789421082 1.65490424633026 1.34852206707001 -0.529624104499817 0.774815618991852 3.57319450378418 5.61967086791992 6.91161632537842 5.91114950180054 3.70767045021057 2.16418123245239 0.570409834384918 -1.42040014266968 -2.14789199829102 -1.91849541664124 -1.63518488407135 -1.50624990463257 -1.40369284152985 -1.37831950187683 -1.41246402263641 -1.57007229328156 -1.16419577598572 3.59086656570435 5.14919185638428 3.24749684333801 -1.09439122676849 -0.979115903377533 0.39334699511528 4.31480598449707 7.00594282150269 6.419273853302 5.41320705413818 2.04193496704102 1.9375593662262 2.63189554214478
-0.223568350076675 -0.159229531884193 -0.0396570265293121 0.254325419664383 0.320078521966934 0.271447271108627 0.326693803071976 0.26685357093811 0.178402930498123 0.260367453098297 0.263818919658661 0.215855151414871 0.118410557508469 0.060728132724762 -0.00311834504827857 -0.107010588049889 -0.174760162830353 1.04774785041809 1.66396903991699 2.10155987739563 2.28141856193542 2.41201663017273 6.1677680015564 3.89354181289673 1.58155453205109 1.67938435077667 1.76584923267365 1.70194470882416 1.69933319091797 1.52262651920319 1.46866428852081 1.36964178085327 1.29769897460938 1.22999930381775 1.20229172706604 1.15852332115173 1.08959889411926 1.10788810253143 1.51441931724548 1.5220799446106 1.54613780975342 1.39267122745514 1.31887471675873 1.15114724636078 1.10372030735016 1.07282793521881 1.10159862041473 1.09414899349213 1.09223103523254 1.02706122398376 1.5105015039444 0.659436166286469 1.09904754161835 0.884616792201996 2.93091154098511 4.31180000305176 4.87850427627563 5.61050796508789 5.56387138366699 4.36244535446167 3.00932192802429 1.980841755867 1.25889348983765 1.08742260932922 1.28696143627167 1.38342547416687 1.17243790626526 1.09595513343811 1.93790054321289 1.02554643154144 0.982377290725708 0.949456691741943 0.96416974067688 1.4257390499115 1.46877360343933 1.50255787372589 1.3991756439209 1.5964902639389 1.71121466159821 1.47649312019348 1.25825142860413 0.831783413887024 1.32008290290833 -0.105731211602688 2.02204346656799 7.5273289680481 9.97836399078369 9.39079189300537 10.3284521102905 9.52206039428711 9.70646858215332 10.5560674667358 13.8793449401855 14.2234210968018 11.557014465332 10.2147741317749 9.09205913543701 6.72233581542969 4.49543285369873 1.24906969070435 0.384946376085281 0.175158604979515 -0.183670207858086 -0.449744820594788 -0.263534158468246 2.30052781105042 3.6043758392334 2.76935982704163 1.79862642288208 1.95476734638214 4.41143274307251 5.88806295394897 8.98250865936279 14.9165830612183 17.321985244751 19.6789989471436 11.7892436981201 8.59328556060791 11.2651767730713 26.597412109375 34.6096687316895 20.0895805358887 11.7623071670532 8.52929782867432 6.24046754837036 5.59054088592529 8.19586849212646 6.98923683166504 7.02301406860352 8.81538677215576 8.82699203491211 6.77297353744507 9.01585102081299 8.55118370056152 7.60537338256836 5.98809480667114 6.16366291046143 1.82847630977631 -0.163528427481651 -1.068354845047 -0.269947230815887 1.63185083866119 4.76894187927246 6.71089601516724 7.91940116882324 5.60066318511963 3.59724831581116 2.15096664428711 0.436148196458817 -1.37876999378204 -1.87575626373291 -1.78224062919617 -1.51175260543823 -1.29773414134979 -1.24690639972687 -1.2421247959137 -1.26586580276489 -1.38090944290161 0.754965424537659 3.17526936531067 2.6834774017334 -1.09884476661682 -0.967034995555878 -0.806901693344116 -0.47177654504776 0.0702962726354599 1.82164704799652 2.17645215988159 1.27708220481873 1.55623590946198 2.19256520271301 2.43926978111267
-0.0830392837524414 0.0613524354994297 0.347661465406418 0.368186831474304 0.384654670953751 0.344542324542999 0.259021192789078 0.229707986116409 0.255709052085876 0.338868916034698 0.342236220836639 0.244512766599655 0.151457414031029 0.0457526706159115 -0.0128481201827526 -0.0947388038039207 0.663822829723358 2.51306056976318 4.7560977935791 5.54825782775879 7.49060583114624 2.88765144348145 1.62575328350067 1.53668677806854 1.62902748584747 1.78069174289703 1.79588341712952 1.72442746162415 1.79646468162537 1.64669823646545 1.5381383895874 1.44524621963501 1.3704559803009 1.3188887834549 1.24602961540222 1.21413612365723 1.11264359951019 1.2839423418045 1.62361931800842 1.54386568069458 1.61625277996063 1.40739905834198 1.28574621677399 1.22450029850006 1.16293406486511 1.16379976272583 1.17265832424164 1.14995110034943 1.09710681438446 1.03068959712982 0.862298429012299 0.729471385478973 1.20948779582977 1.46214890480042 1.35814702510834 2.28099250793457 3.28338861465454 4.38508749008179 4.76511335372925 4.6641263961792 2.86052250862122 1.75837361812592 1.17709136009216 1.1390517950058 1.36787259578705 1.53516364097595 1.24237203598022 1.03752756118774 0.998479783535004 1.02567112445831 1.08993220329285 1.18729686737061 1.25928688049316 1.60929584503174 1.64512956142426 1.50327742099762 1.58005046844482 1.71596348285675 1.77301824092865 1.42831385135651 1.22139692306519 0.919416129589081 -0.0889771580696106 -0.740696012973785 0.873458862304688 2.82456088066101 6.27846670150757 8.78753185272217 9.79471969604492 10.2206087112427 12.5568761825562 20.0665588378906 17.0141983032227 15.1174087524414 12.2307462692261 11.4989023208618 10.2040166854858 7.99120998382568 4.0513858795166 1.0530914068222 0.944401204586029 0.383446604013443 -0.0238094311207533 -0.343297272920609 -0.318461388349533 0.278769969940186 0.548654317855835 1.55057692527771 2.08410620689392 2.83074760437012 5.95428657531738 6.9629921913147 8.71840953826904 19.1226596832275 13.5625057220459 8.88055229187012 14.1301364898682 9.37331962585449 8.54410362243652 18.2899837493896 28.4804019927979 18.5335807800293 11.7138385772705 7.47947835922241 6.51365232467651 9.33242321014404 9.62243175506592 7.85764694213867 4.99498319625854 5.45065402984619 7.11907148361206 8.72401523590088 6.8681902885437 6.76117324829102 5.71578121185303 4.41773366928101 3.13201546669006 1.11191284656525 0.516382694244385 -0.198215290904045 0.972397029399872 4.48904943466187 7.32408618927002 8.68213176727295 7.07248878479004 5.04130125045776 3.16717267036438 1.91536688804626 0.682383477687836 -0.733355164527893 -1.24880909919739 -1.36703264713287 -1.29275870323181 -1.14646780490875 -1.11024415493011 -1.12708759307861 -1.13933253288269 0.164525151252747 2.05475974082947 -0.476599603891373 -1.12148678302765 -0.92474353313446 -0.740055680274963 -0.511410295963287 -0.209303975105286 0.124249160289764 0.514453589916229 0.983402192592621 1.56487798690796 2.08743143081665 2.3340470790863 2.70593762397766
0.582110643386841 0.161585688591003 0.489078968763351 0.433457553386688 0.329056113958359 0.372381240129471 0.265979707241058 0.266541033983231 0.347380399703979 0.343123733997345 0.444302171468735 0.430818855762482 0.190298020839691 0.100856736302376 0.260805577039719 2.98551654815674 12.4379186630249 12.9168090820312 8.93864345550537 7.29050159454346 3.70833253860474 2.19743680953979 1.66656243801117 1.63698852062225 1.79931604862213 1.99155449867249 1.95775473117828 1.86361742019653 1.91971635818481 1.72400438785553 1.64432942867279 1.52305948734283 1.4600555896759 1.38130760192871 1.31933414936066 1.26164901256561 1.19441342353821 1.63796854019165 1.68213677406311 1.72649359703064 1.56261920928955 1.4877758026123 1.30408680438995 1.24260199069977 1.20718288421631 1.21906650066376 1.21879720687866 1.20934689044952 1.57606470584869 1.08165943622589 0.934527277946472 2.25993418693542 2.38140749931335 2.89198446273804 2.3966805934906 1.74258005619049 2.08122658729553 3.09267902374268 3.85650181770325 4.08307218551636 2.61071157455444 1.52693545818329 1.32754015922546 1.36384427547455 1.47230815887451 1.67893266677856 1.35218060016632 1.04914581775665 1.03491044044495 1.01486575603485 1.10907936096191 1.34120750427246 1.30806577205658 1.68599510192871 1.74475753307343 1.63714754581451 1.76525032520294 1.89695119857788 1.63439869880676 1.41192889213562 1.32817411422729 1.07908523082733 0.176579743623734 -0.617994129657745 -1.06432688236237 -0.61491197347641 1.37746572494507 6.5109691619873 9.63617992401123 12.9755973815918 13.8085298538208 8.70826625823975 10.9946546554565 12.7755899429321 13.0048904418945 13.7681941986084 10.381646156311 7.28711032867432 4.12322235107422 1.54920959472656 1.22203969955444 0.799458980560303 0.132282689213753 -0.128330335021019 0.0492333434522152 0.229855835437775 0.391881227493286 1.50895893573761 2.90836215019226 4.76921272277832 5.68039798736572 6.41518211364746 10.1464757919312 8.95985126495361 11.0186891555786 9.03370571136475 10.3862180709839 9.11557388305664 5.85095024108887 5.38835716247559 17.9627590179443 16.9994792938232 10.6727523803711 7.22472143173218 7.09999752044678 15.599889755249 12.9249458312988 10.0331583023071 7.5503396987915 4.18072700500488 2.3031280040741 3.97226333618164 6.14799928665161 7.12044334411621 7.90005683898926 5.59219169616699 2.32803559303284 2.05744385719299 2.31762981414795 0.914321303367615 2.42344164848328 6.36001348495483 10.5229835510254 12.8463869094849 8.39780521392822 4.88917207717896 3.18594098091125 1.00516867637634 0.10090197622776 -0.334722310304642 -0.514527559280396 -0.88374662399292 -1.03779757022858 -0.96693217754364 -0.947110533714294 -0.991620242595673 2.94433164596558 1.83156049251556 -1.31479299068451 -1.23835742473602 -0.886441230773926 -0.71695476770401 -0.540673613548279 -0.25621771812439 0.0667207613587379 0.373787671327591 0.750207901000977 1.28571712970734 1.94341683387756 2.50535893440247 2.79333591461182 2.96913623809814
1.08882939815521 0.381636381149292 0.556543946266174 0.629105091094971 0.483419507741928 0.287237167358398 0.302100896835327 0.314916700124741 0.388587117195129 0.397844284772873 0.496119111776352 0.601672053337097 0.614263713359833 4.24546766281128 6.21654891967773 5.6827244758606 1.87264883518219 1.17163753509521 0.993911385536194 2.21849727630615 2.14131355285645 1.91856575012207 1.87586998939514 1.94943821430206 2.13271808624268 2.06024074554443 2.00324177742004 2.00189828872681 2.03148484230042 1.89618563652039 1.70076882839203 1.608602643013 1.54529368877411 1.45744204521179 1.40100467205048 1.30944204330444 1.25843477249146 1.76844215393066 1.7204761505127 1.81488621234894 1.56988751888275 1.42395794391632 1.34262669086456 1.28297233581543 1.2870717048645 1.27778458595276 1.25807690620422 1.22254407405853 1.15453338623047 1.07941472530365 1.27880883216858 3.17654967308044 0.770330607891083 1.86607158184052 1.13978087902069 0.883856534957886 1.16082191467285 1.7346088886261 2.2150354385376 3.86850643157959 2.23704695701599 1.44734275341034 1.43308699131012 1.7046126127243 1.89870452880859 1.66476702690125 1.50562763214111 1.16382479667664 1.07418012619019 1.11497914791107 1.22666835784912 1.36247909069061 1.70798981189728 1.76012992858887 1.80790650844574 1.71696591377258 1.87420451641083 1.94891929626465 1.6349401473999 1.7791143655777 1.71309649944305 1.45619428157806 0.64730030298233 -0.325400829315186 -0.914224922657013 -1.26420533657074 -1.53630924224854 -1.00150430202484 5.90822887420654 9.02888202667236 8.50295352935791 6.2163462638855 4.2015700340271 8.81061172485352 16.7466144561768 14.7950639724731 13.3667364120483 7.80811452865601 4.73915195465088 1.2871949672699 1.36909937858582 1.02472937107086 0.480507642030716 0.36257067322731 0.656030654907227 0.456208884716034 0.412271410226822 0.268847435712814 0.878184258937836 3.19302773475647 3.37237191200256 5.70185327529907 7.38394641876221 1.47203361988068 3.05290675163269 5.46229553222656 6.14894437789917 7.05571031570435 6.1158299446106 5.61258363723755 17.9890785217285 14.8967475891113 9.63405990600586 7.0268087387085 11.1573181152344 11.931040763855 12.2481384277344 8.57191467285156 4.77292966842651 4.2460789680481 5.30268430709839 5.72395038604736 7.04325151443481 9.08142375946045 8.86252307891846 6.69971036911011 4.82523536682129 4.91751050949097 2.91435718536377 2.11759614944458 4.06279468536377 7.57474422454834 9.40353012084961 9.38029479980469 7.52830743789673 4.43119382858276 2.94644904136658 1.3743953704834 0.0738386958837509 0.185276344418526 -0.00441688438877463 -0.738800525665283 0.239902168512344 -0.791505694389343 -0.778817534446716 -0.871369183063507 -1.02080273628235 -1.08993685245514 -1.10445845127106 -0.914004981517792 -0.680263102054596 -0.489243566989899 -0.2648024559021 0.00152118934784085 0.305905222892761 0.665086984634399 1.13342690467834 1.79963552951813 2.31612348556519 2.68776488304138 2.94601631164551 3.18639063835144
0.199533343315125 0.638867378234863 0.709949195384979 0.715417623519897 0.574875354766846 0.322230756282806 0.353409945964813 0.383582264184952 0.391370892524719 0.516418159008026 0.552150189876556 2.2436351776123 4.3480110168457 2.28306579589844 1.35346436500549 -0.186945512890816 -0.340699106454849 -0.201107263565063 0.0495325177907944 1.4953625202179 1.96790993213654 2.06736493110657 1.97828924655914 2.38684058189392 2.5276575088501 2.29835438728333 2.26061320304871 2.09631752967834 2.10156106948853 2.16705918312073 1.77093696594238 1.74099898338318 1.63996851444244 1.58319115638733 1.48652827739716 1.42183542251587 1.50769102573395 1.87497866153717 1.92914271354675 1.76401937007904 1.62238430976868 1.40835285186768 1.34229040145874 1.31228566169739 1.33876216411591 1.3228508234024 1.31158471107483 1.27948582172394 1.26543867588043 1.10435032844543 0.938619911670685 0.616167902946472 0.326875567436218 0.318589925765991 0.536871135234833 0.826860308647156 0.969979822635651 1.43178045749664 2.24763917922974 3.39441537857056 2.00397753715515 1.63417077064514 1.78392398357391 2.07775163650513 2.10741186141968 1.76941454410553 1.52385973930359 1.28133642673492 1.10618150234222 1.155393242836 1.39718902111053 1.43959248065948 1.86935794353485 1.9350825548172 1.77628302574158 1.87423408031464 2.01626539230347 1.8493903875351 1.7111930847168 1.83705592155457 1.83379948139191 1.508997797966 1.06359827518463 0.218762814998627 -0.662159204483032 -1.11214637756348 -1.38133919239044 -0.385626643896103 -1.41309940814972 -1.48149824142456 -1.61893677711487 -1.76157915592194 -1.77514588832855 4.5810022354126 6.83048534393311 12.1491384506226 9.56508159637451 6.96883344650269 4.00302743911743 1.95327019691467 1.65720176696777 1.40010476112366 1.08559381961823 1.22852647304535 1.04691421985626 0.753588080406189 0.549894690513611 -0.106973484158516 -0.546862244606018 4.71589469909668 9.94398975372314 10.0962219238281 8.75599002838135 6.56910848617554 3.61089539527893 0.709784269332886 0.664110541343689 7.45511198043823 3.06072568893433 5.58617734909058 12.6186361312866 10.9070663452148 7.62747478485107 6.41588354110718 9.39640331268311 3.7504460811615 3.47462272644043 4.9205207824707 4.41705465316772 4.81419467926025 9.25732135772705 8.13049983978271 6.97187519073486 5.56932401657104 3.10390377044678 3.26955509185791 2.3995988368988 -0.0103818876668811 0.541372001171112 1.21086692810059 -0.618144333362579 -0.894728124141693 -0.750949501991272 3.46317100524902 6.34410715103149 4.83191013336182 3.49488234519958 1.77433586120605 1.23517394065857 0.605626165866852 0.307990700006485 -0.464117020368576 -0.776652812957764 -0.635871410369873 -0.578458607196808 -0.687789797782898 -0.844710886478424 -0.908722400665283 -0.765396893024445 -0.634070932865143 -0.431736469268799 -0.176106095314026 0.0272762160748243 0.238803267478943 0.571000993251801 1.37865090370178 2.00315999984741 2.11817359924316 2.55462026596069 2.94096946716309 3.19336986541748 3.49014520645142
0.264751940965652 0.676294147968292 0.770646333694458 0.646490097045898 0.589686393737793 0.522941768169403 0.417439818382263 0.447794109582901 0.443430036306381 0.691792190074921 1.41909658908844 2.16471314430237 0.705891668796539 0.372376680374146 0.501760184764862 -0.148981496691704 -0.31743860244751 -0.394757658243179 0.344196408987045 0.928073227405548 1.88800024986267 2.07347226142883 2.32935523986816 3.11477184295654 2.63695311546326 2.44308304786682 2.39235639572144 2.3434042930603 2.1832549571991 2.25537967681885 1.92887365818024 1.8373875617981 1.80683052539825 1.7334418296814 1.6361848115921 1.53082191944122 1.89738750457764 1.91870164871216 1.97811317443848 1.75998044013977 1.55050444602966 1.45829653739929 1.38464796543121 1.36621642112732 1.38356530666351 1.36541521549225 1.36158418655396 1.36330723762512 1.29928541183472 1.15678477287292 0.967583894729614 0.6937016248703 0.474909484386444 0.4867844581604 0.82072514295578 0.887544929981232 0.999866187572479 1.12092339992523 1.38418257236481 2.3551812171936 1.94678485393524 1.95279848575592 2.25310921669006 2.67094111442566 2.19311118125916 1.96324193477631 1.582843542099 1.25768899917603 1.17424976825714 1.28902816772461 1.4259307384491 1.93092894554138 1.95969557762146 2.03247785568237 1.8835301399231 1.93293249607086 2.08027243614197 2.00433778762817 1.88067221641541 1.87030231952667 1.86747348308563 1.55894148349762 1.18585014343262 0.658751428127289 -0.118559323251247 -0.801566541194916 -1.20039403438568 -1.28389525413513 -1.0798727273941 -1.15948224067688 -1.39775669574738 -1.55497622489929 -1.62485504150391 -1.6336977481842 -1.62790513038635 -1.52464270591736 0.899821877479553 1.29323709011078 2.11012077331543 2.21916842460632 2.2196261882782 1.70864832401276 1.52506160736084 1.62747442722321 1.30131459236145 0.929815411567688 0.562138974666595 0.62898051738739 1.10378265380859 1.33948385715485 10.0268001556396 14.138409614563 9.8773136138916 5.64866304397583 0.381774604320526 -2.70165801048279 -3.54661631584167 -3.68922424316406 -3.54219341278076 -0.488912165164948 7.25778198242188 7.24674415588379 5.7606782913208 4.15846967697144 1.00106728076935 -1.535315990448 -1.45419859886169 -1.54494547843933 1.62962603569031 6.38666296005249 4.01679754257202 4.31505966186523 2.0992066860199 -0.401171445846558 -0.955919206142426 -1.39420354366302 -1.93328022956848 -1.25914752483368 -0.875965476036072 -1.57769346237183 -0.501850306987762 -1.77400624752045 -0.362210243940353 2.71005415916443 3.86536836624146 4.62283277511597 4.79671478271484 2.85971522331238 1.5156090259552 1.14358699321747 0.234787955880165 -0.145133748650551 -0.538597881793976 -0.493010967969894 -0.392639696598053 -0.353763997554779 -0.392048388719559 -0.398316204547882 -0.389951080083847 -0.310203075408936 -0.131424143910408 0.0607868209481239 0.289364963769913 1.7740672826767 2.55117416381836 3.11304807662964 3.43004536628723 3.49610567092896 3.63454413414001 3.19981598854065 3.44572567939758 3.61607122421265
0.679069459438324 0.825274705886841 0.811397075653076 0.677073836326599 0.609631061553955 0.646317481994629 0.501937389373779 0.453666597604752 0.560654580593109 1.41724967956543 1.82958173751831 0.4200559258461 0.373537093400955 0.285030752420425 0.273041576147079 -0.0360224135220051 0.132314190268517 0.856783390045166 0.426127642393112 0.644046068191528 1.54728996753693 2.05092215538025 3.22071218490601 3.48854637145996 2.95499753952026 2.7579288482666 2.52505397796631 2.83188366889954 2.4461772441864 2.34671401977539 2.28233814239502 2.10628843307495 1.97391653060913 1.80198645591736 1.65411257743835 1.63067972660065 2.01322722434998 1.93464231491089 2.03948068618774 1.81026673316956 1.55836796760559 1.4553017616272 1.4369992017746 1.45375370979309 1.44439804553986 1.45272564888 1.42633616924286 1.42049181461334 1.29440188407898 1.20288932323456 1.0796023607254 0.85254430770874 0.776931047439575 0.796229362487793 0.919868588447571 0.995103240013123 1.03018414974213 1.0985119342804 1.20251905918121 2.25464773178101 2.55624675750732 2.94112682342529 3.24761390686035 3.26804614067078 2.76782703399658 2.01301002502441 1.65577077865601 1.19967460632324 1.28240215778351 1.46662259101868 1.63835251331329 2.12552571296692 2.19378018379211 1.98727583885193 1.98778200149536 2.11574745178223 2.14019584655762 2.17824864387512 2.05819034576416 1.9395706653595 1.79340875148773 1.57887995243073 1.33013367652893 0.893795490264893 0.319935500621796 -0.351780563592911 -0.850599646568298 -0.956229329109192 -0.654206514358521 -0.685220301151276 -0.893843114376068 -1.04702889919281 -1.23131012916565 -1.32883977890015 -1.38698196411133 -1.36836969852448 -0.967556536197662 1.07033324241638 2.27806568145752 2.53282499313354 2.67285490036011 2.16554975509644 1.8948689699173 1.84710288047791 1.51639521121979 1.03632926940918 0.182483851909637 -0.427121818065643 2.05793976783752 2.03126215934753 -0.02068848349154 2.03686022758484 0.707544326782227 -3.09472370147705 -3.42651534080505 -3.43919777870178 -3.41215872764587 -3.49547052383423 -3.36619710922241 -2.12465071678162 3.80810260772705 3.55761671066284 4.23828983306885 1.24720931053162 -1.1467901468277 -1.03651547431946 -0.999128043651581 -1.18004477024078 1.90740406513214 2.63996529579163 0.176245644688606 -1.13703143596649 -1.18150866031647 -1.0075546503067 -0.699002265930176 -0.559583485126495 -0.924490213394165 -1.74741649627686 -1.53748857975006 -0.633023500442505 -1.25217974185944 -0.0276986882090569 1.23207795619965 1.96112453937531 1.26727414131165 1.60095119476318 3.36014676094055 3.26896262168884 1.98022353649139 0.753417134284973 0.553162455558777 0.302801162004471 -0.397464334964752 -0.283238500356674 -0.162785708904266 -0.0884700939059258 -0.126372411847115 -0.107674218714237 -0.0703085511922836 0.00915009155869484 0.152617797255516 0.308831870555878 0.494496017694473 0.736042261123657 1.83833229541779 3.29906678199768 3.71950697898865 3.68787813186646 3.92845773696899 3.66360306739807 3.62826728820801 3.76184487342834
0.769267082214355 0.870563149452209 0.694470643997192 0.803962647914886 0.724317371845245 0.592533588409424 0.558712363243103 0.486603826284409 1.21822893619537 2.64321374893188 0.550108909606934 0.427072614431381 0.35729593038559 0.293885797262192 0.120413511991501 -0.0618738792836666 -0.260034143924713 -0.403748631477356 -0.360916078090668 0.575123608112335 1.31935930252075 2.33307695388794 2.34713745117188 2.97072911262512 2.96700644493103 2.92646980285645 3.72770309448242 2.96448159217834 2.88557696342468 2.41742873191833 2.67573571205139 2.25282073020935 1.99485039710999 1.84347939491272 1.69591903686523 2.05279302597046 2.08302974700928 2.13478589057922 1.93305158615112 1.86090385913849 1.6210355758667 1.50807332992554 1.50272619724274 1.51960456371307 1.51266944408417 1.52084147930145 1.50649273395538 1.42341351509094 1.31414377689362 1.23286819458008 1.1557719707489 0.981979787349701 1.0002110004425 1.19448864459991 1.14019906520844 1.16687142848969 1.17290854454041 1.13404607772827 1.15647721290588 2.00648522377014 3.22613501548767 3.98054552078247 4.72646474838257 3.73851418495178 2.95751070976257 2.40547609329224 1.62935638427734 1.25430023670197 1.39618647098541 1.49326145648956 2.25323629379272 2.25998878479004 2.32209825515747 2.12797713279724 2.07428979873657 2.30964207649231 2.48876452445984 2.32259058952332 1.96049606800079 1.96383428573608 1.6797821521759 1.5334404706955 1.40094447135925 1.07828724384308 0.592096745967865 0.0084294518455863 -0.30992528796196 -0.367591887712479 -0.18903186917305 -0.18476328253746 -0.273681819438934 -0.411294639110565 -0.571088194847107 -0.695909738540649 -0.862926244735718 -1.01192474365234 0.282979786396027 1.40468275547028 2.67329072952271 3.10088109970093 2.86569213867188 2.52817630767822 2.3395791053772 1.78418111801147 1.48718428611755 1.20727276802063 0.240232765674591 2.23277115821838 2.3926956653595 2.54934096336365 0.265601694583893 -1.9723072052002 -3.20040082931519 -3.25685501098633 -3.29624915122986 -3.29441976547241 -3.23001956939697 -3.15277743339539 -2.80405712127686 -1.89192390441895 1.31476664543152 2.00709533691406 2.93254470825195 -0.113116078078747 -0.601851642131805 -0.458381086587906 -0.532325983047485 -0.785122275352478 1.24027788639069 -0.908155620098114 -0.776644706726074 -0.40795487165451 -0.309197396039963 -0.370751827955246 -0.214691549539566 -0.139910206198692 -0.158134132623672 -0.800840795040131 -1.66350650787354 -2.35167694091797 -2.19910216331482 -0.0472722575068474 1.0609450340271 1.62505090236664 0.994939088821411 0.503743946552277 0.660963833332062 1.71009087562561 1.8139328956604 0.474764496088028 0.0839879438281059 -0.369639813899994 -0.250132501125336 -0.128710120916367 0.0131603945046663 0.128281235694885 0.14533357322216 0.169244974851608 0.268564224243164 0.378993511199951 0.505252778530121 0.600580751895905 0.727382063865662 1.00638771057129 1.39746999740601 2.48690843582153 3.23960542678833 3.11279225349426 3.49601435661316 3.89545798301697 3.72266626358032 3.85677909851074
0.892193377017975 0.862538158893585 1.61300718784332 0.999253869056702 0.783835053443909 0.571203231811523 0.559069633483887 0.564565300941467 0.796963393688202 2.69487619400024 0.483101546764374 0.443714767694473 0.352541476488113 0.281282395124435 0.137001439929008 -0.0229474380612373 -0.196018218994141 -0.358518570661545 0.297042280435562 0.421046257019043 1.01879286766052 1.01496922969818 1.14758276939392 2.69815564155579 3.18952822685242 2.9327335357666 2.39911246299744 2.56653833389282 2.71435141563416 2.6614727973938 2.51152205467224 2.44985389709473 2.14600038528442 1.94495987892151 1.82566344738007 2.19549536705017 2.10661649703979 2.2105917930603 1.94816112518311 1.78045678138733 1.68759095668793 1.6065731048584 1.62931036949158 1.61661279201508 1.62398171424866 1.59994053840637 1.57674098014832 1.41495513916016 1.33201038837433 1.30249059200287 1.25341737270355 1.16714191436768 1.13547897338867 1.33966422080994 1.32278490066528 1.31357514858246 1.2987220287323 1.27522277832031 1.14039170742035 2.09118509292603 4.84391212463379 6.92991924285889 5.31624126434326 4.50889730453491 3.52721810340881 2.50026202201843 1.58038246631622 1.33862352371216 1.53999841213226 1.8935718536377 2.47261691093445 2.55531811714172 2.27003479003906 2.25624990463257 2.81558465957642 2.7971568107605 2.67226314544678 2.31220984458923 1.97902381420135 1.85570454597473 1.67128324508667 1.49621558189392 1.36857509613037 1.19724786281586 0.780477643013 0.387648910284042 0.105439953505993 0.127167850732803 0.263910681009293 0.228935599327087 0.24988842010498 0.209891811013222 0.0915914997458458 -0.0831919983029366 -0.323814898729324 -0.313155800104141 1.71622204780579 2.76187467575073 3.02657032012939 3.51200985908508 3.33318829536438 3.15665531158447 2.72882127761841 2.04748344421387 1.53482496738434 1.05929672718048 0.338382512331009 3.95270109176636 5.07486867904663 4.23465776443481 0.313385903835297 -1.30202567577362 -3.04768085479736 -3.06883645057678 -3.11777710914612 -3.09190368652344 -3.00754904747009 -2.89018368721008 -2.07686448097229 -1.66735756397247 1.84585094451904 2.04189825057983 1.16462028026581 -0.344030231237411 -0.037291944026947 -0.0658455342054367 -0.231283456087112 -0.40617835521698 -0.63345205783844 -0.44670569896698 -0.0946623533964157 0.178266540169716 0.324446022510529 0.271210789680481 0.28474685549736 0.429210305213928 0.421050667762756 0.07490523904562 -0.437846422195435 -1.38543200492859 -2.12183618545532 -2.27829146385193 -1.62298762798309 0.563473641872406 1.23814761638641 -0.228919237852097 -0.365967184305191 0.802720785140991 0.726236164569855 -0.18720069527626 -0.32660698890686 -0.176005557179451 -0.0661974251270294 0.0552152320742607 0.19088052213192 0.309722751379013 0.394083827733994 0.47119078040123 0.576628088951111 0.700646996498108 0.822565197944641 0.889557838439941 1.1426830291748 1.59245383739471 1.9099235534668 2.14165258407593 2.59697508811951 2.95907044410706 3.26716923713684 3.60034584999084 3.84298920631409 3.96279978752136
0.907066345214844 0.818883895874023 0.954911589622498 1.15272450447083 0.682733714580536 0.604333162307739 0.517357051372528 0.566142678260803 0.671821117401123 2.29885911941528 1.11457586288452 0.434329777956009 0.374515801668167 0.234070912003517 0.121385835111141 -0.0086840009316802 -0.131196618080139 0.810648381710052 0.0975759848952293 0.203251913189888 0.513070106506348 1.18380379676819 1.80114209651947 2.24531269073486 2.66990208625793 2.97515225410461 2.54782104492188 2.4296555519104 2.89505863189697 3.47160124778748 2.63538026809692 2.57166266441345 2.34898924827576 2.07756304740906 2.258131980896 2.28077006340027 2.33901333808899 2.12203168869019 2.04005122184753 1.79126238822937 1.74669933319092 1.73967754840851 1.7031317949295 1.71209597587585 1.7206107378006 1.69552719593048 1.59582459926605 1.46066117286682 1.38968670368195 1.37565851211548 1.34653759002686 1.40168535709381 1.51904535293579 1.5428854227066 1.48114967346191 1.45062184333801 1.35437393188477 1.23214554786682 1.18201160430908 1.01390814781189 2.52100658416748 3.6065821647644 3.78606796264648 3.92754745483398 3.95302200317383 2.54927778244019 1.58320569992065 1.71274328231812 1.77827394008636 2.67765879631042 2.63367986679077 2.72244000434875 2.44537687301636 2.6179358959198 3.22188138961792 3.09179210662842 2.73331570625305 2.18211102485657 1.99863684177399 1.71732580661774 1.61351597309113 1.50950884819031 1.33457040786743 1.17638289928436 0.891251504421234 0.697776198387146 0.563159465789795 0.652502417564392 0.729925394058228 0.726617097854614 0.701423585414886 0.710577487945557 0.644552290439606 0.439955919981003 1.1635354757309 2.33018803596497 2.83888006210327 3.75342488288879 4.12834692001343 3.93978714942932 3.77384543418884 3.5704619884491 2.8297233581543 2.02412033081055 1.62852776050568 0.913146317005157 5.88993453979492 6.53087663650513 6.41303586959839 5.38210201263428 1.3737131357193 -2.51683020591736 -2.87849545478821 -2.86081123352051 -2.84219694137573 -2.85815334320068 -2.76734113693237 -2.03057074546814 -1.64296627044678 -0.957452297210693 1.25870108604431 1.87504613399506 0.0601013712584972 -0.315130293369293 0.303414434194565 0.441563338041306 0.175803601741791 -0.058376457542181 -0.198722615838051 0.0207398980855942 0.427240282297134 0.610341429710388 0.873422205448151 0.893377482891083 0.802158653736115 0.760706901550293 0.705702006816864 0.475492835044861 0.283289939165115 -0.111327089369297 -1.21768343448639 -1.93896567821503 -1.91367602348328 -1.75322985649109 -1.43824756145477 -1.02432489395142 0.21249820291996 1.83828341960907 0.570828258991241 -0.18015094101429 -0.0316828712821007 0.102752380073071 0.211496666073799 0.312331527471542 0.432102560997009 0.552596509456635 0.661632776260376 0.769509315490723 0.877001047134399 1.01813340187073 1.17144310474396 1.33078789710999 1.69382417201996 2.17898488044739 2.30294919013977 2.46274423599243 2.81194138526917 3.14450001716614 3.37749409675598 3.74921226501465 3.97225522994995 4.25458526611328
0.907183408737183 0.758301019668579 1.05254185199738 0.988453149795532 0.607467353343964 0.6209876537323 0.52715927362442 0.602334141731262 0.692448496818542 0.579603731632233 1.58949327468872 0.433606296777725 0.358193516731262 0.216577231884003 0.102927483618259 0.00100516900420189 -0.119873903691769 -0.291301339864731 -0.453013837337494 -0.584729850292206 0.0651736333966255 0.5470951795578 0.261334896087646 1.32304561138153 2.28116989135742 2.86159825325012 3.31310153007507 2.97114324569702 4.76388120651245 3.35643291473389 2.73894381523132 2.62946701049805 2.60256052017212 2.26964664459229 2.42121386528015 2.34273743629456 2.44473910331726 2.16037154197693 1.95634543895721 1.85169064998627 1.80999398231506 1.81907415390015 1.84024262428284 1.87895464897156 1.79743230342865 1.78716063499451 1.65236330032349 1.562331199646 1.51709198951721 1.48967218399048 1.45859885215759 1.57832336425781 1.92722320556641 1.82758796215057 1.69841361045837 1.63101172447205 1.49627482891083 1.27402412891388 1.08552050590515 1.01613485813141 0.902321636676788 0.86640602350235 1.43431329727173 2.24078297615051 3.22497200965881 2.54270529747009 1.69564819335938 1.93395829200745 2.23630928993225 2.90538167953491 2.94150853157043 3.12629508972168 3.74858260154724 4.10470008850098 3.94355320930481 3.50430083274841 3.12572026252747 2.05606079101562 1.91327118873596 1.70439541339874 1.54871344566345 1.44919514656067 1.36167418956757 1.16439473628998 0.940986156463623 0.877493619918823 1.04421031475067 1.10494649410248 1.19096386432648 1.21326339244843 1.16434168815613 1.11989641189575 1.04882645606995 0.881407558917999 2.83819389343262 4.65650844573975 5.23324680328369 4.91985750198364 5.04641771316528 4.71057605743408 4.55502510070801 4.03249597549438 3.10636973381042 2.00941348075867 1.39822196960449 4.29444026947021 8.00052165985107 10.3383817672729 10.2332706451416 6.65448188781738 2.99258303642273 -1.09354400634766 -2.63744735717773 -2.61494421958923 -2.55375075340271 -2.50085163116455 -2.13834381103516 -1.52638041973114 -1.5471955537796 -1.27282357215881 -1.31299412250519 1.9375706911087 1.12249028682709 0.115474104881287 0.460566103458405 0.789534151554108 0.697373509407043 0.395056068897247 0.210750177502632 0.322154402732849 0.623170793056488 0.95330810546875 1.19850838184357 1.37639677524567 1.22039687633514 1.09775054454803 1.07011353969574 0.913631677627563 0.895205914974213 0.532910585403442 0.012716387398541 -1.18342804908752 -1.41122364997864 -1.36865401268005 -1.05958938598633 -0.644049108028412 0.0972344800829887 0.943283081054688 0.396877884864807 0.157534092664719 0.286609441041946 0.375845491886139 0.501853227615356 0.612116694450378 0.727678120136261 0.851842224597931 0.929758548736572 1.02064955234528 1.16018629074097 1.42419099807739 1.59876751899719 1.83395338058472 2.16857075691223 2.48651671409607 2.63207077980042 2.68281626701355 2.93852496147156 3.30955672264099 3.62049078941345 3.85545921325684 4.03253936767578 4.44145441055298
0.851658403873444 0.856295347213745 0.766079127788544 0.655409872531891 0.632536292076111 0.56417441368103 0.628885805606842 0.62444806098938 0.741248190402985 0.506914913654327 1.10198974609375 0.468511134386063 0.304843008518219 0.197578385472298 0.073362685739994 -0.00289134262129664 -0.102999784052372 -0.246129542589188 -0.393410295248032 -0.473034501075745 -0.474468737840652 -0.104064650833607 0.29868146777153 0.728659927845001 1.73040759563446 2.3958215713501 2.98722767829895 3.35884380340576 2.26339745521545 2.82735562324524 2.93564605712891 2.7413535118103 2.87568998336792 2.47879219055176 2.5251522064209 2.6124312877655 2.35104918479919 2.23226809501648 1.93384456634521 1.90561151504517 1.91923379898071 1.91224920749664 1.90947127342224 1.99453818798065 1.96650409698486 1.84057831764221 1.73730719089508 1.66023826599121 1.61855554580688 1.59006261825562 1.64299511909485 1.90256297588348 2.06253290176392 2.05068683624268 1.95358788967133 1.79432797431946 1.66823971271515 1.3915137052536 1.15858590602875 1.03755247592926 0.959000587463379 0.895143330097198 1.01539301872253 1.13101530075073 2.17067503929138 1.8932101726532 2.24330234527588 2.11597871780396 2.4363169670105 3.05692911148071 2.94521641731262 2.53182196617126 3.16492938995361 4.85723400115967 5.23435211181641 4.31648731231689 3.06406736373901 2.14528799057007 1.78697788715363 1.64663124084473 1.54453754425049 1.3977997303009 1.27672815322876 1.1722127199173 1.07822108268738 1.08068120479584 1.32881653308868 1.43689215183258 1.48061180114746 1.52174425125122 1.46751165390015 1.42143714427948 1.37237012386322 3.43207359313965 4.29195880889893 6.1172924041748 6.7139687538147 6.42923831939697 5.92664527893066 5.33396625518799 5.15918302536011 4.36808443069458 3.17313385009766 2.22506737709045 2.36425232887268 16.4009456634521 17.6326656341553 17.0830707550049 12.8901071548462 9.53472328186035 2.29826045036316 -0.112077534198761 -2.23273730278015 -2.35071301460266 -1.7183541059494 -1.75350534915924 -0.837844789028168 -0.972162246704102 -1.42928493022919 -1.22794783115387 -1.49595046043396 -1.13830673694611 0.280356884002686 0.474551051855087 0.795403480529785 0.895539820194244 0.96436333656311 0.844840168952942 0.628917217254639 0.791106700897217 0.984374046325684 1.37573993206024 1.62474060058594 1.77829468250275 1.65248370170593 1.52993297576904 1.43278312683105 1.27402305603027 1.17869067192078 1.11220622062683 0.636736392974854 -0.359679996967316 -0.753614485263824 -0.761678099632263 -0.589537560939789 -0.356176882982254 -0.0150061622262001 0.397706031799316 0.504464507102966 0.520245254039764 0.585117399692535 0.658141016960144 0.767423331737518 0.879591524600983 1.02864038944244 1.12336730957031 1.21753621101379 1.30375325679779 1.5118225812912 1.7610502243042 2.07928824424744 2.37589335441589 2.54821872711182 2.73680114746094 2.74528622627258 2.78229951858521 3.17475485801697 3.45287251472473 3.84645676612854 4.04647541046143 4.52395820617676 4.44197368621826
0.904864728450775 0.702537536621094 0.732166528701782 0.636882781982422 0.668209314346313 0.557329893112183 0.664207875728607 0.773932635784149 0.611990213394165 0.545541942119598 0.607362985610962 0.480390757322311 0.286278307437897 0.170426666736603 0.0851588621735573 -0.0306160282343626 -0.110903903841972 -0.21672135591507 -0.352831274271011 -0.509083211421967 -0.488619893789291 -0.206202521920204 0.157462790608406 0.272965043783188 0.814486145973206 1.37771677970886 2.19530177116394 3.16419243812561 2.55526518821716 3.69703435897827 3.20619082450867 3.47895383834839 2.83223700523376 2.61570835113525 2.58203363418579 2.68048667907715 2.33085942268372 2.09072947502136 1.98879528045654 2.00750517845154 2.05580139160156 2.06437134742737 2.1077299118042 2.07859253883362 2.04079127311707 1.9053955078125 1.86566281318665 1.79330027103424 1.71643626689911 1.7359881401062 1.81234431266785 2.2328085899353 2.23282337188721 2.18050909042358 2.12452936172485 1.9143580198288 1.62870132923126 1.48313295841217 1.2461177110672 1.13357305526733 1.0519335269928 1.04601621627808 1.01084733009338 1.06335234642029 1.5561443567276 2.09875559806824 2.51653289794922 2.56015491485596 3.60621047019958 3.24514245986938 3.06035733222961 6.63013219833374 7.74970865249634 6.99698829650879 6.53408098220825 5.85394620895386 2.5975980758667 2.16464781761169 1.8155711889267 1.59620261192322 1.47181594371796 1.40529406070709 1.23607301712036 1.19840514659882 1.32776355743408 1.4758198261261 1.55261433124542 1.72543692588806 1.79128432273865 1.7749525308609 1.69441139698029 1.57138502597809 1.48746585845947 5.83549976348877 7.3883113861084 7.86159515380859 7.94882535934448 7.53117322921753 6.84128093719482 6.35582542419434 5.66824436187744 4.9034252166748 3.65985822677612 2.19618463516235 0.673186600208282 7.9511399269104 12.9766092300415 14.618824005127 12.5599212646484 9.02052402496338 4.80503797531128 -1.54047214984894 -2.29208588600159 -1.55487954616547 -0.820704638957977 -0.22590184211731 0.142486304044724 -0.119898214936256 -0.704672455787659 -1.24254631996155 -1.40487611293793 -0.789490163326263 0.166861653327942 1.214275598526 1.58841276168823 0.989646971225739 1.10845947265625 1.02676463127136 0.92855030298233 0.994372010231018 1.29415249824524 1.71887397766113 2.20537924766541 2.26988744735718 2.18042707443237 2.06971383094788 1.86851489543915 1.66071057319641 1.52132129669189 1.50008535385132 1.07948184013367 0.335083246231079 -0.0162155590951443 -0.143955647945404 -0.164245575666428 -0.0492458418011665 0.384803682565689 1.04239630699158 1.14436507225037 1.02323150634766 0.992465317249298 1.01551401615143 1.06950807571411 1.16147768497467 1.28573513031006 1.43163287639618 1.55973219871521 1.70844995975494 1.88029265403748 2.13793039321899 2.56944561004639 2.76415109634399 2.903892993927 2.92115545272827 2.86973786354065 3.04589200019836 3.45448327064514 3.76744532585144 4.02160596847534 4.19881868362427 4.99736070632935 5.0373797416687
0.979485511779785 0.747441709041595 0.663829684257507 0.748335242271423 0.971676349639893 0.683318197727203 0.672482073307037 0.807668268680573 0.55953973531723 0.57936680316925 0.543818533420563 0.590027213096619 0.27089661359787 0.125945091247559 0.0604457035660744 -0.0184185821563005 -0.124890871345997 -0.210428461432457 -0.341618001461029 -0.487846553325653 -0.484849900007248 -0.342365980148315 -0.0742031335830688 0.0979721397161484 0.309186041355133 1.05087459087372 1.81285870075226 2.6316921710968 3.03365087509155 3.70053839683533 4.95920515060425 3.89269113540649 2.77804493904114 2.7564651966095 2.81969714164734 2.51243925094604 2.39953875541687 2.2717170715332 2.17545437812805 2.13449692726135 2.2012882232666 2.20057725906372 2.2226197719574 2.16074919700623 2.12997984886169 1.98732483386993 1.9389476776123 1.94015634059906 1.9814738035202 1.92783510684967 2.17028617858887 2.33131194114685 2.33617210388184 2.30798482894897 2.15461611747742 1.98794484138489 1.78227305412292 1.46291089057922 1.63882791996002 1.20695412158966 1.18101263046265 1.13469481468201 1.05413687229156 1.10311663150787 1.92305362224579 2.944655418396 2.91347050666809 3.20496559143066 3.93934965133667 3.8025484085083 2.73027539253235 2.22171950340271 2.19355320930481 3.55675315856934 4.05922031402588 4.97346115112305 2.72512602806091 2.0345561504364 1.80437409877777 1.61979877948761 1.41854190826416 1.30042314529419 1.23615312576294 1.28946208953857 1.52756702899933 1.85049867630005 1.90512454509735 1.93854355812073 1.9537398815155 1.96913146972656 1.97977530956268 3.89201760292053 7.17488813400269 7.57706546783447 9.21458625793457 10.0604391098022 9.43132209777832 8.55887794494629 7.72597408294678 7.07012510299683 6.18942308425903 4.79998207092285 3.9426441192627 2.56678771972656 0.00883098505437374 -2.45418810844421 0.236623734235764 -1.30322122573853 3.8101544380188 3.71698403358459 3.34720325469971 -0.0471867322921753 -2.21000528335571 -2.12679958343506 -0.210677713155746 0.965826213359833 0.942896842956543 0.621707558631897 -0.100655570626259 -0.756562292575836 -1.13863742351532 -0.231378272175789 0.489202857017517 1.88005018234253 2.90460109710693 1.25765085220337 1.2052948474884 1.16475391387939 1.3606184720993 1.47594785690308 1.86200249195099 2.11401295661926 2.45558190345764 2.55768465995789 2.54221630096436 2.51709175109863 2.2606258392334 1.96736598014832 1.90011048316956 1.89424133300781 1.49758780002594 1.00850331783295 0.624323725700378 0.335474342107773 0.261873453855515 0.340751707553864 0.707329034805298 1.39767944812775 1.65107786655426 1.59390497207642 1.5246946811676 1.46051383018494 1.46888315677643 1.55126512050629 1.63436901569366 1.75607693195343 1.83741760253906 2.01192474365234 2.15863132476807 2.41873502731323 2.81871056556702 3.02220582962036 3.11946535110474 3.1024751663208 3.129319190979 3.44704651832581 3.6376895904541 4.01491689682007 4.21382713317871 4.51927328109741 5.51946544647217 5.50891017913818
1.02860641479492 0.867690026760101 0.654411137104034 1.54084694385529 0.719022452831268 0.739775955677032 0.828692734241486 0.642239451408386 0.577525556087494 0.560151636600494 0.556902587413788 0.885010898113251 0.256890773773193 0.138703897595406 0.0188160594552755 0.108121767640114 -0.0492319911718369 -0.225696921348572 -0.339086502790451 -0.481185764074326 -0.596011579036713 -0.452668190002441 -0.24916373193264 0.310934484004974 0.307217925786972 0.959824979305267 1.45594489574432 2.24191761016846 2.77726483345032 3.08243942260742 2.4363055229187 3.81335759162903 3.05129289627075 2.73337888717651 2.86036968231201 2.79751539230347 2.57219409942627 2.5031623840332 2.30478310585022 2.28045129776001 2.27459669113159 2.34364485740662 2.32074117660522 2.29759097099304 2.16349673271179 2.10337686538696 2.11754155158997 2.06873512268066 2.11502194404602 2.12154388427734 2.60687875747681 2.52267575263977 2.40682029724121 2.33259296417236 3.11846375465393 4.6697735786438 4.15973329544067 4.51106595993042 1.66185235977173 1.28154742717743 1.37167549133301 1.2073940038681 1.12907838821411 1.16795182228088 2.27780103683472 3.88359999656677 3.93722558021545 4.75607252120972 4.32441759109497 4.1143593788147 3.03625965118408 2.1959924697876 2.23721671104431 1.57473206520081 1.87511658668518 3.67087364196777 2.77889823913574 1.94715511798859 1.74427199363708 1.62007868289948 1.44217216968536 1.273118019104 1.26905751228333 1.42042589187622 1.68791794776917 1.96054422855377 2.05773830413818 2.10471153259277 2.08320713043213 2.03951716423035 5.60247468948364 8.39216709136963 10.0856828689575 11.9774560928345 12.1222276687622 11.6176776885986 10.7994947433472 9.8100061416626 8.57170677185059 7.82741737365723 6.91943120956421 5.39320802688599 3.53914427757263 1.66220879554749 -0.132358983159065 -2.33728528022766 -2.69615340232849 -2.75263977050781 -2.7657036781311 -2.51525020599365 -1.34060335159302 0.0706823319196701 -1.64407134056091 -0.583210706710815 0.0141988936811686 1.54957664012909 1.50397944450378 1.00221729278564 -0.165778949856758 -0.682861566543579 -0.677270472049713 0.220878571271896 2.26564884185791 1.09840571880341 1.11667668819427 1.27080452442169 1.30545401573181 1.37133049964905 1.50949096679688 1.75293493270874 2.13964200019836 2.65780258178711 2.72215747833252 2.82826113700867 2.87125158309937 2.73071527481079 2.62380337715149 2.48045015335083 2.43907356262207 2.37365913391113 1.9521723985672 1.48556065559387 1.02291226387024 0.746400594711304 0.651380360126495 0.688552737236023 1.23422491550446 1.53038930892944 1.82984113693237 1.95575892925262 1.99632108211517 1.98908126354218 1.87858819961548 1.92921388149261 1.96159684658051 1.99447512626648 2.03994059562683 2.19271516799927 2.34238004684448 2.77537131309509 3.00834155082703 3.19037389755249 3.25487422943115 3.23065376281738 3.43119621276855 3.79990148544312 4.0187292098999 4.22102928161621 4.75846576690674 5.96396255493164 5.81161022186279 6.07800197601318
1.07184660434723 0.947066724300385 0.6905357837677 0.6149942278862 0.770425260066986 0.772339701652527 0.888155996799469 0.594562709331512 0.597173452377319 0.544372081756592 0.522740602493286 0.897281110286713 0.231301099061966 0.123440399765968 0.0228686276823282 -0.0813522636890411 -0.146570384502411 -0.265111774206161 -0.355701118707657 -0.478505939245224 -0.592303872108459 -0.0585073791444302 0.0495325177907944 0.305306553840637 0.369453459978104 0.741621494293213 1.1116019487381 1.69065654277802 2.60017991065979 3.16129946708679 2.43704652786255 2.74796962738037 3.19826149940491 3.36481022834778 2.90780878067017 2.93645858764648 3.12620186805725 2.58427309989929 2.34162592887878 2.43068814277649 2.49103212356567 2.51923227310181 2.46368360519409 2.40800905227661 2.36960124969482 2.2929699420929 2.28493499755859 2.33152961730957 2.33494114875793 2.54697608947754 2.70236992835999 2.65278100967407 2.45722270011902 2.24417901039124 2.07233953475952 2.29802107810974 1.36307454109192 1.25749933719635 1.30144608020782 1.42682838439941 1.46015620231628 1.29203975200653 1.21080958843231 1.21874344348907 3.38874816894531 4.82298421859741 4.61368608474731 5.47593975067139 5.19780683517456 3.99967646598816 3.25218629837036 2.43251943588257 2.32156658172607 1.62901389598846 1.95034980773926 3.35886216163635 2.52714323997498 1.89457929134369 1.69459843635559 1.54754137992859 1.46570515632629 1.3342866897583 1.34713232517242 1.57297992706299 1.85370945930481 2.08919644355774 2.14230489730835 2.18119621276855 2.17666268348694 3.3289577960968 6.85724306106567 10.6219367980957 11.7684574127197 13.2059516906738 13.3706493377686 13.0817108154297 12.3920316696167 10.7351531982422 9.60786151885986 8.44536685943604 7.31746912002563 5.89721870422363 3.23285293579102 0.81414270401001 -0.387636244297028 -1.77363634109497 -2.21382570266724 -2.30850386619568 -2.40828061103821 -2.39565181732178 -2.18444204330444 -1.59042751789093 -0.901116728782654 0.750061810016632 1.40454089641571 2.03969573974609 1.88380014896393 0.940480351448059 -0.0472159013152122 -1.03876388072968 -0.143636137247086 0.560769617557526 0.678923904895782 0.937577724456787 1.21294009685516 1.30296277999878 1.39352178573608 1.80728673934937 2.0277624130249 2.32929229736328 2.57458829879761 2.93488264083862 3.02727007865906 3.08946585655212 3.11309552192688 2.98910284042358 3.03560709953308 3.00894975662231 2.96913313865662 2.88220405578613 2.43661785125732 1.93279325962067 1.37735629081726 1.09376525878906 1.01244187355042 1.0409677028656 1.59295463562012 1.82629549503326 1.96562683582306 2.14655685424805 2.23680949211121 2.31136226654053 2.2982873916626 2.27847218513489 2.22749423980713 2.1982958316803 2.22325491905212 2.33291602134705 2.605060338974 3.02707433700562 3.24638319015503 3.37125706672668 3.36010265350342 3.43514752388 3.70074033737183 3.9868540763855 4.29840135574341 4.44923543930054 5.58877897262573 6.93354845046997 6.84460687637329 6.82461977005005
1.12114214897156 0.81225860118866 0.781590223312378 0.638771295547485 0.798225104808807 0.909095048904419 0.804707288742065 0.694937944412231 0.591158092021942 0.567050278186798 0.449979543685913 0.619109928607941 0.266722589731216 0.103726774454117 0.0161633510142565 -0.0935551896691322 -0.169991597533226 -0.266930490732193 -0.393306821584702 -0.477060526609421 -0.585144817829132 -0.209344372153282 0.0986551567912102 0.137341186404228 0.592456817626953 0.671732008457184 0.948476374149323 1.35369110107422 2.18898797035217 2.63862943649292 2.66007542610168 3.11509466171265 4.72611093521118 3.49294686317444 3.11326432228088 3.05712890625 3.10809278488159 3.66075944900513 3.3883535861969 2.77784514427185 2.70299792289734 2.67217683792114 2.6454381942749 2.61926221847534 2.64790010452271 2.60342884063721 2.5259165763855 2.57897210121155 2.58979678153992 2.86791467666626 2.7949538230896 2.67175912857056 2.59448051452637 3.68550562858582 5.9103102684021 2.61499214172363 1.42222058773041 1.28371798992157 1.31558847427368 1.51055681705475 1.44135093688965 1.36528122425079 1.31264936923981 1.29330146312714 1.42250430583954 3.38127493858337 6.52585792541504 6.55279636383057 5.90837812423706 4.48087120056152 2.90134525299072 3.93392419815063 3.27453851699829 2.00367856025696 2.59743022918701 3.67042946815491 2.79315972328186 1.83701038360596 1.70423245429993 1.50031399726868 1.41481602191925 1.43792486190796 1.419921875 1.76172757148743 2.04460954666138 2.23184609413147 2.3034942150116 2.28649568557739 2.28773522377014 6.77693367004395 8.31305694580078 12.9415254592896 15.9732694625854 17.1223697662354 16.0372352600098 15.7043561935425 14.1752414703369 12.2918558120728 10.7187414169312 9.35033988952637 7.16432571411133 6.30575037002563 3.83504796028137 1.60539519786835 0.0644907578825951 -0.324163973331451 -0.699205219745636 -1.82137441635132 -1.96126389503479 -2.08537530899048 -2.07196140289307 -1.18234145641327 0.844725549221039 0.963082373142242 2.29167604446411 2.48140287399292 1.93870270252228 0.462592899799347 -0.125496625900269 -0.716674089431763 -0.136674851179123 0.711816787719727 1.0088472366333 1.0309180021286 1.28635537624359 1.3584189414978 1.52635025978088 1.96553158760071 2.42529201507568 2.78047251701355 3.23335123062134 3.33588123321533 3.41074109077454 3.53771924972534 3.48161172866821 3.48799729347229 3.40499758720398 3.37527275085449 3.40408253669739 3.30514216423035 2.80186319351196 2.31679368019104 1.75902736186981 1.42323124408722 1.31927990913391 1.43462836742401 1.74743819236755 2.06902837753296 2.17855620384216 2.33236241340637 2.43942165374756 2.54363751411438 2.5767707824707 2.54736948013306 2.47548055648804 2.42934370040894 2.44185590744019 2.52979207038879 3.01050806045532 3.23762345314026 3.41195940971375 3.49941158294678 3.44117665290833 3.71118640899658 4.02656888961792 4.17023658752441 4.44964456558228 6.36529111862183 8.01468467712402 7.77168083190918 7.82377433776855 7.93340921401978
1.14003145694733 0.853962600231171 0.89838171005249 0.845574140548706 0.808854103088379 0.952926516532898 0.628373920917511 0.654613971710205 0.588310539722443 0.546762347221375 0.430551260709763 0.654605090618134 0.301350206136703 0.134118214249611 0.00703637534752488 -0.0769669339060783 -0.204879283905029 -0.288692682981491 -0.386780619621277 -0.504850924015045 -0.62472128868103 -0.662307620048523 -0.365942895412445 -0.178554221987724 0.186162978410721 0.345056980848312 0.697478115558624 1.00172424316406 1.63513493537903 2.16588020324707 2.84168291091919 3.25989556312561 2.71796584129333 3.26775074005127 3.52124381065369 3.53375387191772 3.09626817703247 2.66819214820862 2.63264608383179 2.7097020149231 2.73718619346619 3.04316735267639 3.36344170570374 3.43170785903931 3.1087760925293 3.12323069572449 3.00369215011597 3.02913784980774 3.09901404380798 2.86534214019775 2.85230565071106 2.7746262550354 2.54671382904053 2.17938995361328 1.60941648483276 1.44142401218414 1.44764578342438 1.40486586093903 1.48200154304504 1.53596448898315 1.46536409854889 1.4270738363266 1.40500617027283 1.42407143115997 1.56028270721436 3.94352293014526 7.58756732940674 8.08721828460693 6.42930030822754 4.82294464111328 3.18329071998596 2.86826181411743 2.16100287437439 2.01269674301147 4.30451536178589 4.61321258544922 2.67476963996887 1.80088043212891 1.63259279727936 1.53536486625671 1.54788029193878 1.5539733171463 1.49780476093292 1.95489728450775 2.16559171676636 2.290034532547 2.37110114097595 2.37380647659302 4.85907554626465 19.5347080230713 26.6947002410889 21.1858062744141 20.7978801727295 19.5111904144287 19.1340713500977 19.3716678619385 16.1136360168457 13.9205541610718 12.3469877243042 9.71246147155762 7.69931030273438 5.5540189743042 4.20925855636597 2.55493903160095 1.47346687316895 1.18502223491669 0.497166991233826 -1.43671548366547 -1.75546038150787 -1.86535382270813 -1.13880610466003 -1.15587103366852 1.31184804439545 1.8011919260025 2.65355491638184 3.90349674224854 2.14995813369751 0.557440400123596 -0.65564352273941 -0.482588917016983 0.412212610244751 0.865359902381897 1.2752833366394 1.39387392997742 1.37795293331146 1.46078479290009 1.95796620845795 2.39211177825928 2.69718718528748 3.08748292922974 3.59163403511047 3.69764089584351 3.75812244415283 3.87998127937317 3.95245003700256 3.89531421661377 3.82038426399231 3.70282244682312 3.61586833000183 3.48116302490234 3.10410785675049 2.62426018714905 2.09780859947205 1.97292602062225 1.93249726295471 3.66780114173889 2.08595132827759 2.23207545280457 2.46581172943115 2.61882448196411 2.73959064483643 2.84133839607239 2.83605408668518 2.82492899894714 2.75755596160889 2.68573141098022 2.65893793106079 2.85554313659668 3.28383278846741 3.47970485687256 3.61142754554749 3.59690093994141 3.69883966445923 3.96931600570679 4.29025077819824 4.49891090393066 5.33645105361938 7.25395536422729 9.13704586029053 8.92581844329834 9.23093223571777 10.2616481781006
1.23448824882507 1.21920323371887 1.05965793132782 0.940185487270355 1.0058445930481 0.780413091182709 0.641410350799561 0.655352830886841 0.633279919624329 0.460889369249344 0.6444011926651 0.308757275342941 0.273903250694275 0.146585196256638 0.00860183499753475 -0.0840498879551888 -0.198329627513885 -0.334723830223083 -0.405785948038101 -0.496345043182373 -0.626228988170624 -0.697259783744812 -0.502388536930084 -0.364932060241699 -0.156656831502914 0.348021179437637 0.492758691310883 0.715944170951843 1.35625553131104 1.79194962978363 2.55883765220642 2.96696376800537 3.03993153572083 3.43135404586792 4.21287441253662 4.66021203994751 3.9005172252655 2.67137312889099 2.68999576568604 2.81290221214294 2.72977066040039 2.6989049911499 2.73144745826721 2.89270949363708 3.51447176933289 3.38227200508118 3.44144153594971 3.18002772331238 2.76671767234802 2.97672629356384 2.95015954971313 2.82093524932861 2.5985255241394 2.60137367248535 1.77669370174408 1.52650558948517 1.42631804943085 1.41762161254883 1.63753354549408 1.54168128967285 1.50454032421112 1.47858738899231 1.4463963508606 1.58822691440582 3.43791460990906 9.50643444061279 9.1352424621582 8.16072750091553 7.62123346328735 4.51827144622803 2.77645635604858 1.96022307872772 1.94430804252625 2.00873255729675 4.67841196060181 5.41355228424072 2.19835948944092 1.81328964233398 1.59312200546265 1.5850932598114 1.6280609369278 1.6462504863739 1.81031775474548 2.1564633846283 2.29396963119507 2.3903226852417 2.43303179740906 2.44322681427002 2.33836197853088 1.53154611587524 13.3791456222534 20.8953037261963 20.2014751434326 20.0976467132568 25.5606498718262 20.0279788970947 18.5060081481934 16.4158878326416 13.7822437286377 10.2658290863037 8.1530876159668 5.04160642623901 3.52587127685547 2.64977526664734 2.93825745582581 2.58399224281311 0.691013336181641 -0.648527324199677 -1.31852304935455 -1.54789710044861 1.01559376716614 2.0092179775238 1.5231968164444 2.51112341880798 3.50736784934998 2.39102697372437 2.25955176353455 1.19173014163971 -0.210024043917656 0.209694042801857 0.980181455612183 1.2487074136734 1.49875044822693 1.63479256629944 1.56766152381897 1.91273963451385 2.49259996414185 2.84761714935303 3.1810200214386 3.51788234710693 3.88997673988342 4.05680751800537 4.1683464050293 4.24982357025146 4.36404657363892 4.30850172042847 4.15345573425293 4.04200315475464 3.88063645362854 3.72785305976868 3.48464417457581 3.11498022079468 2.62318849563599 1.87982881069183 1.74180066585541 2.49487805366516 2.28276634216309 2.43488764762878 2.72108578681946 2.84201049804688 2.91104292869568 2.98796105384827 3.09051728248596 3.11856436729431 3.02515149116516 2.91842341423035 2.86124992370605 3.30484843254089 3.49814176559448 3.66002774238586 3.71183919906616 3.69419026374817 4.03957939147949 4.36081552505493 4.40598249435425 4.6762375831604 8.63245296478271 10.4206113815308 9.51366996765137 9.35694789886475 11.3301086425781 12.8144378662109
