NCOLS 171
NROWS 31
XLLCORNER 353824
YLLCORNER 6699968
CELLSIZE 16 
NODATA_value -3.4e+38 
0.670617401599884 1.68126738071442 2.24372315406799 2.42380142211914 1.95292055606842 1.10045945644379 1.06834173202515 2.38552236557007 3.34724569320679 2.31289029121399 2.0515034198761 1.76598215103149 1.69398283958435 1.54255604743958 1.52799761295319 1.52756655216217 1.51151657104492 1.31878173351288 1.17198646068573 1.18727803230286 1.10135769844055 1.05972063541412 0.940413892269135 1.01421213150024 0.861509382724762 0.719566643238068 0.495549112558365 0.376557946205139 0.493191361427307 0.399990171194077 0.505212664604187 0.470698207616806 0.569186151027679 0.914473950862885 1.38576996326447 1.57202231884003 1.57841980457306 0.977234125137329 1.07851374149323 1.0387442111969 1.00965178012848 0.948083877563477 0.940951108932495 0.959392249584198 0.946930050849915 0.989234447479248 1.02543067932129 1.10054159164429 1.14366984367371 1.20441734790802 1.27618157863617 1.36316502094269 1.47925651073456 1.58790373802185 1.56498265266418 1.29489088058472 0.867971420288086 0.597478628158569 0.375700265169144 0.213320150971413 0.23086242377758 0.209520906209946 0.23505887389183 0.456587642431259 0.196901842951775 0.266139626502991 0.195814594626427 0.23785924911499 0.225334033370018 0.154377773404121 0.175542607903481 0.548361122608185 1.45604872703552 0.734858810901642 0.809265553951263 0.598813652992249 0.411249399185181 0.321678310632706 0.300772905349731 3.87639760971069 6.80542421340942 4.39108800888062 3.13647770881653 2.18225789070129 1.18723559379578 0.954557955265045 0.172477900981903 0.188923448324203 0.241754248738289 0.214398100972176 -0.0532731264829636 -0.107573591172695 -0.132022589445114 -0.0645437240600586 -0.498649150133133 -0.833900988101959 -1.08917534351349 -1.23642981052399 -1.21483254432678 -1.13206517696381 -1.06933677196503 -1.01913058757782 -0.718094229698181 0.199162051081657 0.719910502433777 0.739029169082642 1.1267899274826 1.82900249958038 1.95171856880188 2.94997262954712 5.29454326629639 4.13227510452271 2.1938591003418 2.07276082038879 4.5059175491333 7.65105390548706 8.51738357543945 9.32405090332031 7.39112043380737 6.69059658050537 5.5340051651001 4.67370891571045 4.84195995330811 4.34994745254517 4.07232666015625 4.28609418869019 5.66464376449585 4.57601642608643 6.13044834136963 5.37076759338379 5.03609228134155 5.33913421630859 6.86219787597656 6.62802791595459 7.14424419403076 8.87636852264404 8.85239791870117 7.94544315338135 9.31328678131104 7.97870635986328 6.3398289680481 5.39701318740845 6.39379739761353 6.41173124313354 4.8123083114624 4.84348678588867 5.41288042068481 6.20340156555176 6.3390417098999 7.28417253494263 8.02779006958008 8.50090217590332 8.54391479492188 8.78814792633057 8.81377506256104 8.61289024353027 8.67610454559326 8.43536186218262 8.06088161468506 7.76116323471069 7.33930683135986 7.00318050384521 6.86858129501343 6.63152503967285 6.2777533531189 6.06747388839722 5.30563926696777 5.22486352920532 5.08582019805908 4.88160419464111 4.75997304916382
0.593956589698792 0.985107958316803 1.54702413082123 2.3047993183136 2.47036552429199 1.8984363079071 3.9793062210083 4.38647031784058 3.346186876297 2.22515916824341 2.02256035804749 1.46237826347351 1.77466404438019 1.6218808889389 1.38778066635132 1.36854887008667 1.41318166255951 1.39420223236084 1.07730078697205 1.02381300926208 1.05175924301147 0.977203667163849 0.862959742546082 0.83099353313446 0.907784402370453 0.768742084503174 0.602174937725067 0.443181037902832 0.346827656030655 0.453399926424026 0.376474052667618 0.479026645421982 0.489557653665543 0.748689532279968 1.14388823509216 1.29100847244263 1.31057190895081 0.925888895988464 0.94385176897049 1.63696002960205 1.07428276538849 0.965509235858917 0.888246536254883 0.880072176456451 0.900044560432434 0.884799361228943 0.891371130943298 0.904192447662354 0.938391149044037 1.01237654685974 1.11424827575684 1.18594539165497 1.25381076335907 1.29860174655914 1.4790997505188 1.41231906414032 1.00053107738495 0.647676825523376 0.453283220529556 0.266545027494431 1.93409967422485 1.24857711791992 0.162886679172516 0.084187388420105 0.0826882794499397 0.0949100852012634 0.116123981773853 0.116141587495804 0.123449884355068 0.0313682518899441 0.000990052474662662 0.107396110892296 0.368905544281006 0.402996808290482 0.456390410661697 0.319479465484619 0.184847190976143 0.217036634683609 0.285877674818039 4.84274911880493 6.23846340179443 3.55548405647278 2.67555570602417 2.19790601730347 1.65662968158722 1.45690035820007 0.775347530841827 0.1418287307024 0.217251017689705 0.353083580732346 0.0618544109165668 -0.0632634088397026 -0.109759494662285 -0.256163150072098 -0.936649739742279 -1.45210063457489 -1.56639969348907 -1.69024503231049 -1.65387654304504 -1.45043814182281 -1.3086599111557 -1.22644603252411 -1.14450895786285 -1.10032117366791 -0.576858282089233 -0.454865276813507 0.0484599508345127 0.900798380374908 1.66455543041229 1.72906732559204 1.92193949222565 2.28956198692322 2.17223429679871 2.28457617759705 2.54636120796204 4.33188629150391 6.8675971031189 7.45149183273315 7.45415592193604 6.92547512054443 5.89150524139404 5.08294916152954 4.3285493850708 4.11519861221313 4.46453332901001 4.90675926208496 6.94584846496582 5.70432710647583 5.18122577667236 4.63191652297974 5.86743116378784 7.27038717269897 8.76877689361572 8.25124549865723 7.55829572677612 7.95864105224609 8.59184551239014 9.1996488571167 9.4169979095459 8.45357704162598 7.13858938217163 5.64355707168579 5.66383075714111 5.18855047225952 5.47874164581299 5.7408971786499 4.78950691223145 4.66094446182251 4.75096130371094 5.5211181640625 6.91748094558716 7.58297252655029 7.85208415985107 8.03878021240234 8.10349655151367 8.19985294342041 8.19832420349121 8.38559818267822 8.16711807250977 7.83960723876953 7.52147340774536 7.05902099609375 6.74712800979614 6.3987979888916 6.24447298049927 5.9381046295166 5.72395372390747 5.11462354660034 4.87398242950439 4.83688974380493 4.59160470962524
0.734606444835663 1.36082315444946 2.25464153289795 3.19093632698059 3.12869572639465 3.26474046707153 4.14966726303101 3.0063271522522 2.22461438179016 1.86185777187347 2.00241041183472 1.88023865222931 3.11585998535156 1.99718022346497 1.50696897506714 1.29395735263824 1.29487133026123 1.28971803188324 1.08135378360748 0.948862195014954 0.900518000125885 0.918279647827148 0.819389820098877 0.747357606887817 0.73580414056778 0.624622583389282 0.652292132377625 0.542463421821594 0.41053032875061 0.314107626676559 0.42305201292038 0.413886845111847 0.359029680490494 0.573051750659943 0.918376684188843 0.955809414386749 0.872459650039673 0.761867940425873 0.810992479324341 0.852628707885742 1.17217409610748 0.998334884643555 0.927302658557892 0.899495482444763 0.841022491455078 0.818342626094818 0.822963893413544 0.803391396999359 0.833754539489746 0.855507075786591 0.925808727741241 1.02347540855408 1.08617532253265 1.11271464824677 1.19036436080933 1.33939969539642 1.16398358345032 0.753598868846893 0.481601864099503 0.329878896474838 0.236070469021797 0.192546099424362 0.762284576892853 0.127425387501717 0.198245838284492 0.0410850010812283 0.018433902412653 0.0285969153046608 0.0218115411698818 -0.124918609857559 -0.299268931150436 -0.197376489639282 -0.0280331559479237 0.167472928762436 0.170676037669182 -0.0162449218332767 -0.114640422165394 0.0729420259594917 0.23283725976944 3.63251614570618 6.54213714599609 3.85916900634766 2.51828789710999 1.89458322525024 1.66297972202301 1.47731578350067 1.21487545967102 0.673044562339783 0.266739994287491 0.303186029195786 0.14370422065258 0.00370914442464709 -0.0309678614139557 -0.207197025418282 -0.961003661155701 -1.75254881381989 -2.05626344680786 -2.14370107650757 -2.09644484519958 -2.04473209381104 -1.75164496898651 -1.59271454811096 -1.48968243598938 -1.32450366020203 -1.27096331119537 -1.28200006484985 -0.63767009973526 0.0284579806029797 0.758341670036316 1.04507851600647 1.48761892318726 1.66536223888397 1.82187867164612 1.82164967060089 1.70535230636597 1.67916202545166 3.69881963729858 4.40490627288818 5.15477514266968 5.33503293991089 6.05884599685669 5.59605169296265 5.65629625320435 5.04325485229492 5.60015726089478 6.00057649612427 6.20691680908203 5.64527368545532 5.46704530715942 5.11993312835693 6.19995737075806 7.19290161132812 5.96148920059204 6.67827463150024 7.95611763000488 8.23122882843018 7.76830291748047 7.02406120300293 7.26363229751587 7.67604637145996 7.07458639144897 6.33701992034912 5.54867172241211 5.09681749343872 5.17885732650757 5.51378965377808 4.50763845443726 4.07644462585449 3.45936632156372 3.63648724555969 6.32799482345581 7.67755126953125 6.92944097518921 7.44312572479248 7.7766900062561 7.71488380432129 7.84074640274048 7.87288188934326 7.7419171333313 7.7639217376709 7.38322114944458 7.06665372848511 6.61609601974487 6.30723190307617 5.99044799804688 5.87342548370361 5.60790109634399 5.41029787063599 5.1814112663269 4.57465076446533 4.44680833816528
0.877461791038513 0.854968369007111 2.32686400413513 3.2282543182373 3.02356243133545 2.86175179481506 2.6125853061676 2.25727033615112 1.75767838954926 1.81822776794434 2.43492937088013 1.95745146274567 1.7760819196701 1.58134388923645 1.50365376472473 1.38607394695282 1.67126893997192 1.08882164955139 0.997404992580414 0.897127270698547 0.835227608680725 0.732251465320587 0.665461361408234 0.687274932861328 0.655715584754944 0.562474846839905 0.540835916996002 0.591012895107269 0.506783545017242 0.460330367088318 0.334265023469925 0.274164021015167 0.393040835857391 0.353327929973602 0.555465340614319 0.508081078529358 0.55316835641861 0.590793132781982 0.604521632194519 0.617847859859467 0.700263381004333 1.13066720962524 0.930206477642059 0.914385497570038 0.817829012870789 0.739905118942261 0.732106447219849 0.740920841693878 0.721982657909393 0.745678961277008 0.773494243621826 0.829647064208984 0.849107921123505 0.883292078971863 0.867159843444824 0.959589183330536 1.06883800029755 0.859107553958893 0.531433403491974 0.347038507461548 0.2657410800457 0.167116388678551 0.110671788454056 0.520954251289368 0.246833398938179 0.0349091440439224 -0.0382650457322598 -0.0361023247241974 -0.0914158299565315 -0.304545193910599 -0.440955638885498 -0.42696750164032 0.126293361186981 1.7778879404068 1.95658469200134 -0.147490575909615 -0.362344950437546 -0.170294895768166 0.624249160289764 3.38489317893982 5.65198278427124 4.43741226196289 2.70101737976074 1.90108501911163 1.66309535503387 1.35173881053925 1.20946288108826 1.06278252601624 0.720952212810516 0.615672528743744 0.251461446285248 0.0791915059089661 -0.0249647386372089 -0.0910410508513451 -0.730558633804321 -1.78311955928802 -2.29693841934204 -2.46006345748901 -2.40556907653809 -2.32415103912354 -1.39898836612701 1.46879625320435 -1.73008620738983 -1.22335815429688 -0.321189045906067 -1.35821354389191 -1.32676184177399 -0.341656684875488 -0.0353441759943962 0.224805638194084 0.779315114021301 1.40974748134613 1.55131793022156 1.50081527233124 1.11152470111847 1.39570748806 1.5677752494812 1.54321229457855 2.87141489982605 4.57352352142334 5.33682060241699 6.40677356719971 8.39739227294922 7.05573797225952 5.75581502914429 6.25481605529785 6.01834583282471 6.39032506942749 6.97174549102783 6.99594593048096 7.99218654632568 8.48191738128662 6.49270343780518 7.16981506347656 7.66109085083008 8.15497493743896 7.44400548934937 7.01686716079712 6.59817409515381 6.51275682449341 6.32679462432861 6.07062435150146 5.85702180862427 5.490478515625 5.15693664550781 4.71648597717285 4.54772615432739 3.94826412200928 3.3668270111084 4.14034700393677 8.33777236938477 8.93303775787354 7.09417724609375 6.58424234390259 7.0300874710083 7.17642068862915 7.32141256332397 7.40094566345215 7.42474174499512 7.28845882415771 7.25099086761475 6.88763046264648 6.52847576141357 6.16763925552368 5.88778734207153 5.63321018218994 5.53687381744385 5.34066867828369 5.08930158615112 4.77749013900757 3.96106386184692
1.07012248039246 0.917071461677551 2.33124184608459 3.70864176750183 3.33911776542664 2.62504291534424 2.50517201423645 2.22788786888123 1.81075298786163 1.5667484998703 1.68548476696014 1.86270618438721 1.69711339473724 1.5912219285965 1.4337465763092 1.48051583766937 1.31514132022858 1.07883560657501 0.901185154914856 0.826280295848846 0.741185963153839 0.616224348545074 0.595362544059753 0.557945013046265 0.588511347770691 0.524704396724701 0.486072093248367 0.48707377910614 0.55091667175293 0.483701169490814 0.413306623697281 0.312553197145462 0.25268018245697 0.37661001086235 0.320112019777298 0.427169382572174 0.458565413951874 0.452417492866516 0.771716833114624 0.585827946662903 0.681121110916138 2.12183427810669 1.19826710224152 0.817900657653809 0.827415108680725 0.758287131786346 0.688761234283447 0.66528046131134 0.658587694168091 0.624848544597626 0.633373379707336 0.618951439857483 0.627020835876465 0.649450361728668 0.609020233154297 0.597792565822601 0.669966995716095 0.651198744773865 0.475760638713837 0.288124531507492 0.217831909656525 0.382650434970856 0.0802072212100029 0.252023458480835 0.422835022211075 0.36610347032547 0.0177235715091228 -0.0894036069512367 -0.168623015284538 -0.35673001408577 -0.464738845825195 -0.291217118501663 0.590522527694702 3.46601343154907 3.52730941772461 0.705022573471069 -0.328746467828751 0.917395293712616 2.42850780487061 4.0994873046875 4.78494596481323 4.59123992919922 2.87992024421692 2.01732993125916 1.79300928115845 1.36583852767944 1.16161227226257 1.06007325649261 0.987955927848816 0.922467529773712 0.561080694198608 0.155511230230331 0.0585547462105751 -0.0521935597062111 -0.412503242492676 -1.51828396320343 -2.19747424125671 -2.55079913139343 -2.60853505134583 -1.39113676548004 -0.0351029224693775 0.952175498008728 2.25128054618835 1.27450382709503 2.12477469444275 1.54223799705505 0.0728510618209839 -0.149703323841095 0.153326004743576 0.0454028733074665 0.0871524512767792 0.733493268489838 1.30262541770935 1.16096937656403 0.773959815502167 0.682286143302917 0.962266504764557 1.24718010425568 1.50927376747131 4.66847372055054 9.41234493255615 10.6300802230835 10.2094240188599 8.94564723968506 6.77324771881104 6.22234296798706 6.09278345108032 6.89466381072998 7.31554889678955 7.31970119476318 7.19868230819702 6.66426086425781 7.37099027633667 7.46665716171265 7.49269437789917 7.50874042510986 7.69618320465088 7.2935585975647 6.32683134078979 5.99368095397949 5.91499900817871 5.73140048980713 5.72845983505249 5.43295812606812 5.40066814422607 5.06817150115967 4.635178565979 4.29414844512939 3.75316452980042 5.71435022354126 7.20384502410889 6.85878133773804 7.47123098373413 6.25023746490479 6.07716369628906 6.5517749786377 6.92130613327026 7.0811882019043 7.06499624252319 6.98586368560791 6.81126022338867 6.75331497192383 6.36855506896973 5.95445346832275 5.68776893615723 5.53554391860962 5.35594129562378 5.1539478302002 5.02670669555664 4.63092136383057 3.7091691493988
1.16705095767975 1.07487750053406 2.4599494934082 3.74197244644165 3.82325911521912 2.77959609031677 2.38238930702209 2.23798513412476 1.94310975074768 1.60065770149231 1.5031760931015 1.47383522987366 1.44075763225555 1.36627495288849 1.46567237377167 1.21360182762146 1.08455801010132 1.04646980762482 0.946248829364777 0.803064405918121 0.655634045600891 0.578001797199249 0.476869255304337 0.488637059926987 0.407670944929123 0.394449293613434 0.433397203683853 0.417853802442551 0.412482231855392 0.359854876995087 0.437731772661209 0.385165959596634 0.297594606876373 0.241578415036201 0.346353203058243 0.345099925994873 0.41602286696434 0.421333372592926 0.461691856384277 1.22200870513916 1.02308118343353 1.0204244852066 0.619066715240479 0.647677421569824 0.739116370677948 0.749256610870361 0.676626980304718 0.60646390914917 0.568640410900116 0.502844035625458 0.459944307804108 0.402326285839081 0.399472326040268 0.418167769908905 0.367325842380524 0.349536865949631 0.380346745252609 0.400398641824722 0.31210133433342 0.252265244722366 0.13295416533947 0.974766671657562 0.432657063007355 0.103519096970558 0.0260124541819096 -0.0279038269072771 0.213505417108536 -0.059239823371172 -0.162113785743713 -0.298455715179443 -0.420000463724136 2.51259994506836 3.82399153709412 5.95071077346802 4.23390293121338 1.86764073371887 0.56242311000824 2.99246549606323 4.36167478561401 4.99019908905029 4.73589992523193 4.27916479110718 3.05870413780212 2.2122118473053 1.96708703041077 1.47921752929688 1.17050421237946 1.02797329425812 0.983329832553864 0.913651287555695 0.844725787639618 0.599456250667572 0.471970558166504 0.0526426136493683 -0.241682201623917 -1.18818056583405 -1.98377561569214 -2.37862610816956 -1.69477880001068 -0.158181056380272 -0.444013208150864 0.22614574432373 3.49174165725708 5.52334642410278 4.15618562698364 3.71521806716919 1.88816654682159 -1.58651745319366 -1.50526034832001 -0.956518054008484 0.0103732636198401 0.154456183314323 0.566169261932373 0.638988494873047 0.756040573120117 0.613851249217987 0.522296905517578 0.804313600063324 2.88194513320923 6.03027772903442 8.55044937133789 7.87134265899658 8.11754131317139 8.19539546966553 7.79591703414917 6.68731117248535 7.11035776138306 7.5645604133606 7.41125869750977 7.49893236160278 7.03660440444946 6.84120225906372 7.23689031600952 7.37495183944702 7.08310651779175 7.02270364761353 7.22263336181641 6.81574630737305 6.56743335723877 5.79599475860596 5.74727153778076 5.48812341690063 5.27842044830322 5.16288805007935 5.28367233276367 5.29128217697144 5.08660984039307 4.7485990524292 4.28199052810669 5.50732040405273 4.56070137023926 4.45407772064209 5.92309045791626 6.64024877548218 5.95340633392334 6.02193593978882 6.36385726928711 6.58647346496582 6.66718196868896 6.48431158065796 6.43977975845337 6.30512571334839 6.04793071746826 5.79243230819702 5.51127052307129 5.36846113204956 5.20763206481934 5.07555913925171 4.86127424240112 4.54803609848022 3.89297771453857
1.14364731311798 1.18145072460175 2.04305124282837 3.19094610214233 3.81765151023865 3.08359575271606 2.46899366378784 2.2591769695282 1.99454212188721 1.67201828956604 2.46316027641296 2.58129644393921 1.4280446767807 1.30560231208801 1.21551203727722 1.03649258613586 0.930337250232697 0.924411356449127 0.85914945602417 0.811073482036591 0.68420284986496 0.502400159835815 0.43248525261879 0.347871869802475 0.293541848659515 0.314410626888275 0.314042955636978 0.357776314020157 0.349733769893646 0.276544958353043 0.311602622270584 0.396925151348114 0.365404903888702 0.353207141160965 0.26516455411911 0.212141528725624 0.334468871355057 0.303412079811096 0.399650067090988 0.859871625900269 0.720482289791107 0.526891767978668 0.533550500869751 0.512920796871185 0.539442539215088 0.624522387981415 0.660076797008514 0.581076622009277 0.489339411258698 0.41405525803566 0.371067970991135 0.288595110177994 0.252658247947693 0.231110453605652 0.173309877514839 0.133306950330734 0.152432695031166 0.185673400759697 0.173579886555672 0.14494614303112 0.0895219668745995 0.608119964599609 1.68395459651947 0.300354599952698 -0.0918398052453995 -0.126398906111717 -0.0690980330109596 0.20893183350563 -0.0980718582868576 -0.246831774711609 -0.149497359991074 2.10632395744324 3.08867144584656 3.79628586769104 2.71566104888916 2.81648206710815 1.82863187789917 3.10215520858765 4.22671270370483 4.62362241744995 4.4088921546936 3.94411063194275 3.17721962928772 2.39539551734924 2.12211465835571 1.6186900138855 1.24280381202698 1.01099336147308 0.993272304534912 0.904939472675323 0.843917489051819 0.817889094352722 0.728699088096619 0.417764127254486 -0.0163273606449366 -0.824813187122345 -1.71973037719727 -2.19029641151428 -2.49104881286621 -0.624509930610657 -2.09723377227783 0.321865350008011 4.22556686401367 8.82612323760986 7.48452043533325 5.44267988204956 2.75195288658142 -0.296941071748734 -1.68116474151611 1.73644614219666 2.93913745880127 2.25710582733154 0.152574583888054 0.00465217838063836 0.193551585078239 0.396256297826767 -0.0503119379281998 0.234742254018784 6.33405351638794 9.38930988311768 9.10750389099121 6.8189845085144 6.46749639511108 6.57412624359131 6.48127937316895 6.24773645401001 6.25075054168701 5.98758268356323 6.37923955917358 6.62962913513184 6.32351922988892 6.410719871521 6.87679386138916 6.79293870925903 6.36939811706543 6.72945642471313 6.52042627334595 6.52079486846924 6.11894989013672 5.84263801574707 5.47134351730347 5.28679943084717 5.13801336288452 5.08582448959351 5.03788328170776 5.16198635101318 4.97077465057373 4.96063280105591 4.64832448959351 4.226393699646 3.79641580581665 4.10276412963867 4.95418167114258 5.65699338912964 6.35960388183594 6.42035436630249 5.50697231292725 5.8464503288269 5.98927116394043 5.99754905700684 6.04426097869873 6.05882930755615 5.92881155014038 5.64032793045044 5.43300533294678 5.23288726806641 5.13166284561157 4.95597982406616 4.81255340576172 4.5458664894104 4.15261030197144
2.02254128456116 1.68776249885559 2.24617266654968 2.72167420387268 3.23866772651672 3.11508989334106 2.64233994483948 2.46329283714294 1.9958553314209 1.7561103105545 3.22325158119202 1.5978809595108 1.25101578235626 1.28711378574371 1.09157156944275 0.944194138050079 0.885569512844086 0.80988073348999 0.781028807163239 0.73678994178772 0.643107712268829 0.499631196260452 0.381101191043854 0.295988798141479 0.240296915173531 0.201517477631569 0.229401186108589 0.242319211363792 0.286016494035721 0.230506643652916 0.222980111837387 0.275560468435287 0.369703441858292 0.36023360490799 0.312563121318817 0.235080763697624 0.192653745412827 0.302682369947433 0.320443481206894 0.31070002913475 0.475833505392075 0.396628201007843 0.452014625072479 0.436890780925751 0.424202382564545 0.456587433815002 0.526625335216522 0.545663595199585 0.431071013212204 0.3228679895401 0.261874139308929 0.21012170612812 0.1465864777565 0.0878393799066544 0.0365291982889175 -0.00268248934298754 -0.0110951857641339 0.0184480827301741 0.386615067720413 0.410292834043503 0.439358353614807 1.25804352760315 1.77691745758057 1.06093287467957 0.140947505831718 -0.0227341372519732 -0.153878554701805 0.120278000831604 0.0580057241022587 -0.159197419881821 -0.35447159409523 -0.393316686153412 1.72411704063416 2.14746427536011 1.97069919109344 2.35310244560242 2.88405442237854 3.85233020782471 4.50292491912842 3.50462651252747 3.11831593513489 3.20528650283813 2.86488509178162 2.46163749694824 2.19118714332581 1.78827822208405 1.40290677547455 1.10741472244263 1.05241024494171 0.901425182819366 0.841012716293335 0.816084623336792 0.740082144737244 0.644838273525238 0.313721626996994 -0.350146383047104 -1.47829830646515 -2.01618075370789 -2.3293023109436 1.16738295555115 -1.51346063613892 4.1152663230896 3.40824031829834 9.25248622894287 9.4229040145874 5.82455492019653 4.33230257034302 2.61734914779663 5.49113607406616 7.56372499465942 6.5584831237793 4.86022996902466 1.91678667068481 -0.246273934841156 -0.341125011444092 -0.218266397714615 -0.537066638469696 2.66982173919678 9.717360496521 11.4609489440918 10.0199928283691 7.15348768234253 5.4181604385376 4.96042776107788 5.56939172744751 5.59633588790894 5.62632608413696 5.91888332366943 5.77135038375854 5.84082698822021 5.97745990753174 6.08916473388672 6.10560274124146 5.97277927398682 5.87352895736694 5.78132438659668 5.96291589736938 5.98366022109985 5.71754264831543 5.44783067703247 5.32933902740479 5.17940044403076 5.08729028701782 5.00252342224121 4.88619327545166 4.85303020477295 4.77522850036621 4.85029363632202 4.83625459671021 4.53733348846436 4.1532998085022 3.94585275650024 4.55692958831787 4.51628494262695 5.47094392776489 5.68750524520874 5.67645597457886 4.90464544296265 5.21387815475464 5.53597593307495 5.67897748947144 5.72286319732666 5.74491167068481 5.61110830307007 5.37206172943115 5.27407789230347 5.11467313766479 4.96304178237915 4.80618047714233 4.57470750808716 4.40599298477173
2.43488764762878 2.07561922073364 2.9130163192749 2.15573072433472 2.48893904685974 2.69133496284485 2.60073852539062 2.50149273872375 2.0948212146759 1.86654376983643 3.02786564826965 1.56900584697723 1.32403683662415 1.2460161447525 1.11861550807953 0.978754103183746 0.858258068561554 0.789904534816742 0.706859350204468 0.627634465694427 0.54573529958725 0.432301104068756 0.361043989658356 0.277099162340164 0.158224910497665 0.118989512324333 0.12231820076704 0.155467420816422 0.114836297929287 0.134320020675659 0.17401397228241 0.186388462781906 0.232641756534576 0.225395813584328 0.303186297416687 0.283096641302109 0.285246759653091 0.218207061290741 0.183163017034531 0.28832995891571 0.250023633241653 0.354495137929916 0.328869223594666 0.37331685423851 0.359973818063736 0.323668748140335 0.303255647420883 0.351383775472641 0.293679237365723 0.165507316589355 0.150784850120544 0.0934043228626251 0.0358395464718342 0.0189785603433847 -0.0541756190359592 -0.0903120413422585 -0.107176743447781 0.59074467420578 1.32443225383759 1.73709309101105 1.63589680194855 1.97225797176361 1.84768784046173 1.18374192714691 0.667642295360565 0.292862623929977 1.36742651462555 -0.10569354146719 -0.232742935419083 -0.318218857049942 -0.385968178510666 -0.44124847650528 0.69723516702652 1.96425020694733 1.7216864824295 2.45087671279907 3.99505162239075 4.48412799835205 4.05050420761108 3.06427240371704 2.52324795722961 2.4197199344635 2.46519804000854 2.20957660675049 2.05606627464294 1.84504878520966 1.52536857128143 1.29138362407684 1.14614748954773 0.944860219955444 0.828856647014618 0.816346347332001 0.737715661525726 0.670064091682434 0.576695680618286 0.0970274806022644 -0.972068190574646 -1.76868522167206 -2.14112210273743 1.87963306903839 1.71516120433807 7.29799652099609 4.04235887527466 9.39367389678955 11.4278612136841 8.08293151855469 6.29838562011719 5.12790536880493 7.29697036743164 6.72857475280762 5.01818037033081 5.7700891494751 4.58090353012085 1.34541440010071 -0.617123365402222 -0.653705060482025 -0.999439895153046 3.27180743217468 9.6666784286499 11.0238971710205 9.83451080322266 7.53569889068604 5.50575828552246 4.70273494720459 4.66465663909912 4.79546403884888 5.42432117462158 5.7899284362793 6.76710891723633 6.39845991134644 5.57612037658691 5.51899337768555 5.48633670806885 5.46793794631958 5.45379543304443 5.32703447341919 5.19897651672363 5.21651124954224 5.40248918533325 5.11623334884644 5.01227521896362 4.93174362182617 4.95514631271362 4.85208988189697 4.7848916053772 4.75811672210693 4.73170328140259 4.65299034118652 4.70397472381592 4.70559167861938 4.52471971511841 4.2285475730896 3.92862749099731 3.9636561870575 4.66387748718262 5.03793716430664 5.07276010513306 5.05798387527466 4.55127573013306 4.93253135681152 5.25185203552246 5.39625692367554 5.45158624649048 5.30250978469849 5.30303335189819 5.18117475509644 5.01839160919189 4.94242286682129 4.81789970397949 4.67306327819824 4.4627480506897
2.35580062866211 1.88933801651001 1.68499708175659 1.7875851392746 1.9467521905899 2.01035118103027 2.21245193481445 2.24257206916809 2.20866656303406 2.48904705047607 2.62404751777649 1.65713679790497 1.32368063926697 1.1879061460495 1.09950530529022 0.994173645973206 0.864747881889343 0.760526657104492 0.678734719753265 0.593412637710571 0.478398591279984 0.398024201393127 0.31847095489502 0.251184344291687 0.139932259917259 0.0685877203941345 0.0384044907987118 0.000414682697737589 0.010991245508194 0.0605554096400738 0.0930499881505966 0.130179330706596 0.130628749728203 0.100612111389637 0.170617401599884 0.280205816030502 0.277420073747635 0.258302688598633 0.177086725831032 0.124249376356602 0.222784414887428 0.19982685148716 0.295248329639435 0.264144748449326 0.232832670211792 0.200439229607582 0.14797243475914 0.139851212501526 0.0798188373446465 0.0341381393373013 -0.00879355240613222 -0.0568219311535358 -0.0431828908622265 -0.0980776101350784 -0.156012028455734 -0.116030111908913 0.179856434464455 1.42656445503235 2.09732389450073 2.3056206703186 2.10790610313416 1.70150291919708 1.47528064250946 1.23846054077148 0.742397308349609 0.464636325836182 0.423338651657104 -0.14676459133625 -0.358169734477997 -0.457413613796234 -0.512671530246735 -0.518621385097504 0.602923810482025 2.28452801704407 2.65289664268494 3.22963547706604 4.49870109558105 3.8197603225708 3.33535146713257 2.74739599227905 2.20870923995972 1.93618476390839 1.72615385055542 1.79529023170471 1.85124814510345 1.78094172477722 1.58208978176117 1.37920439243317 1.26561462879181 1.03149819374084 0.892705857753754 0.872359275817871 0.746899008750916 0.675889134407043 0.607053399085999 0.535711407661438 -0.318039953708649 -1.31961810588837 -1.8034907579422 3.34637951850891 6.85369539260864 9.68413734436035 8.57383632659912 13.3490734100342 11.9311923980713 11.8381328582764 9.25612258911133 8.18643379211426 9.51293468475342 9.29156589508057 7.96216583251953 6.94938898086548 6.75419092178345 6.40955638885498 1.67149353027344 -1.06925475597382 -1.23967504501343 2.71423387527466 8.29915904998779 10.9511203765869 9.69431686401367 8.04611110687256 5.83166790008545 5.4631233215332 4.96402263641357 4.99745845794678 5.71005535125732 6.12014245986938 6.45006322860718 6.63206148147583 5.86278915405273 5.45205688476562 5.0434250831604 4.99845790863037 4.87470388412476 4.79407978057861 4.72906827926636 4.77571439743042 4.69770574569702 4.77270555496216 4.67584466934204 4.63188171386719 4.58667659759521 4.58673477172852 4.63342905044556 4.65509557723999 4.62350130081177 4.59608602523804 4.51402282714844 4.56229257583618 4.41137218475342 4.45257186889648 4.21384859085083 4.10551261901855 3.87614774703979 3.86609935760498 4.17405271530151 4.52001667022705 4.53668737411499 4.30903720855713 4.54707860946655 4.81528282165527 4.94613647460938 5.04840707778931 5.09573745727539 5.11450815200806 5.01081705093384 4.85352802276611 4.7967095375061 4.646812915802 4.55624914169312
2.18489480018616 1.98040568828583 1.95377242565155 1.86660003662109 1.7056405544281 1.86491441726685 2.00923299789429 2.09067702293396 2.02232003211975 1.99298810958862 1.93562233448029 1.60109388828278 1.33532059192657 1.243577003479 1.07662951946259 0.96679413318634 0.865853607654572 0.76398104429245 0.664747834205627 0.570452392101288 0.462118178606033 0.349315047264099 0.287394464015961 0.191811218857765 0.0937002748250961 0.0244544539600611 -0.0460997745394707 -0.0955865532159805 -0.082587257027626 -0.0593244545161724 -0.0222699027508497 -0.000688318104948848 0.0456820167601109 0.0184593107551336 0.0572026558220387 0.112758621573448 0.129705548286438 0.232673496007919 0.205928057432175 0.0982388257980347 0.056010153144598 0.169839084148407 0.139918640255928 0.0728809610009193 0.0688403025269508 0.0831116735935211 0.0573460422456264 0.00348442909307778 -0.0646161586046219 -0.106223739683628 -0.137719482183456 -0.148778989911079 -0.162814721465111 -0.197557583451271 -0.196230605244637 0.149501726031303 0.688581645488739 1.59286963939667 1.92142164707184 2.01921916007996 1.91196954250336 1.59354364871979 1.23299479484558 1.10308682918549 0.736846625804901 0.376828849315643 0.294720947742462 -0.391833573579788 -0.540192782878876 -0.671848714351654 -0.735163748264313 -0.614631175994873 0.614977300167084 3.1279079914093 3.58134984970093 2.85975480079651 2.55047750473022 2.29741835594177 2.34334349632263 2.4152615070343 2.35201287269592 1.99047482013702 1.65037071704865 1.46022343635559 1.5472366809845 1.5590238571167 1.53730249404907 1.45718598365784 1.30436086654663 1.13275074958801 1.00517356395721 0.923266768455505 0.796693980693817 0.683491945266724 0.608662366867065 0.568627297878265 0.121133558452129 -0.666275024414062 1.96090233325958 9.07802677154541 14.1208467483521 15.1798000335693 14.6613759994507 15.150465965271 13.9265480041504 13.1486167907715 11.8920288085938 11.7188568115234 11.4187602996826 11.2691869735718 8.78904151916504 11.8793096542358 14.5757827758789 12.4137649536133 3.96961164474487 0.240751981735229 -1.50942087173462 2.84633255004883 8.98155117034912 10.891318321228 10.2322511672974 7.74192667007446 6.43475484848022 6.22545433044434 5.44937372207642 6.17110633850098 5.94382333755493 6.22428226470947 6.13833332061768 6.39306640625 6.19617700576782 5.70198488235474 5.24889755249023 4.7744312286377 4.41505193710327 4.39480924606323 4.33321714401245 4.26121711730957 4.16711664199829 4.24199295043945 4.27261972427368 4.29190921783447 4.34144496917725 4.38944864273071 4.40974378585815 4.47677183151245 4.50188636779785 4.47614860534668 4.35090160369873 4.31321573257446 4.2473201751709 4.331458568573 4.36732482910156 4.12839317321777 3.84273791313171 3.74221801757812 3.56007027626038 3.75690937042236 4.07911491394043 3.88974165916443 3.91237854957581 4.09067487716675 4.43273973464966 4.72125291824341 4.83792972564697 4.86674070358276 4.757004737854 4.76107931137085 4.67134523391724 4.53777360916138 4.47261619567871
2.16875433921814 2.16335368156433 2.27037858963013 2.1978907585144 1.79499459266663 1.62346601486206 1.73585188388824 1.72549760341644 1.81511557102203 1.8434751033783 1.88953030109406 1.66753685474396 1.43271493911743 1.28017032146454 1.10959160327911 0.933003306388855 0.836812138557434 0.734419763088226 0.657364308834076 0.549059152603149 0.444325238466263 0.326606690883636 0.224396243691444 0.134780451655388 0.0711558982729912 -0.0152576956897974 -0.0969761908054352 -0.165703490376472 -0.181392624974251 -0.216274544596672 -0.189402163028717 -0.112475633621216 -0.121708117425442 -0.08183953166008 -0.0240751523524523 -0.000834151986055076 -0.0318791903555393 0.0873967856168747 0.185166597366333 0.12379514425993 0.0294382125139236 -0.0158159509301186 -0.0602910183370113 -0.058346513658762 -0.00068936130264774 -0.00865405984222889 -0.062919095158577 -0.107892148196697 -0.160719439387321 -0.215087816119194 -0.222719013690948 -0.224171221256256 -0.210919618606567 -0.211499020457268 0.156380534172058 0.802311539649963 1.42007648944855 1.84016919136047 1.75736260414124 1.60155427455902 1.54556906223297 1.43118155002594 1.19890344142914 1.04508996009827 0.727589666843414 0.26610741019249 -0.126824349164963 -0.435676604509354 -0.663547992706299 -0.862836539745331 -0.856335639953613 -0.771949112415314 2.83159708976746 4.73379468917847 3.94215059280396 2.82516360282898 2.08221411705017 1.79433023929596 1.68565356731415 1.88933289051056 2.09344005584717 2.06279850006104 1.93117606639862 1.48167145252228 1.23242819309235 1.33237266540527 1.37647140026093 1.29709148406982 1.30102372169495 1.1655580997467 1.0621554851532 0.975555539131165 0.845621705055237 0.735184073448181 0.621561050415039 0.587724208831787 0.386089473962784 -0.0972224399447441 5.53152275085449 12.7324619293213 15.201714515686 13.8074340820312 13.1314878463745 13.5432901382446 14.3652992248535 14.3754606246948 14.3839530944824 14.1234722137451 13.2425670623779 15.0699167251587 13.2210378646851 15.7790584564209 15.9537563323975 9.02362060546875 4.19821548461914 2.10079193115234 1.09013819694519 11.1525173187256 14.1873073577881 13.809365272522 10.5199060440063 7.42567348480225 6.29486608505249 6.37933111190796 6.19440221786499 6.41543102264404 6.53768110275269 6.10228252410889 6.25258350372314 6.28568601608276 6.11236906051636 5.41660118103027 5.43834924697876 5.00637197494507 4.84103441238403 4.40163946151733 4.06675863265991 4.11199474334717 3.98170232772827 3.91174721717834 3.92597913742065 3.9544575214386 4.04904794692993 4.15676259994507 4.2115592956543 4.24156856536865 4.30096578598022 4.25412559509277 4.22081470489502 4.20538473129272 4.20010709762573 4.13902807235718 4.20518922805786 4.23989534378052 4.10682344436646 3.88233661651611 3.65849709510803 3.47672200202942 3.46776008605957 3.45269584655762 3.6430184841156 3.61512732505798 3.85467386245728 4.07386302947998 4.28229522705078 4.37082004547119 4.47965335845947 4.53907489776611 4.55918979644775 4.47064113616943 4.34056234359741
3.21654367446899 2.1665050983429 2.40835452079773 1.92419719696045 1.76129722595215 1.58389902114868 1.48318839073181 1.49832618236542 1.56526064872742 1.63861000537872 1.70476138591766 1.6426362991333 1.48803067207336 1.2880163192749 1.16526103019714 0.969211041927338 0.788368582725525 0.688077092170715 0.616794764995575 0.527799069881439 0.42098343372345 0.332917153835297 0.235208630561829 0.12621383368969 0.021484000608325 -0.0574834533035755 -0.122095555067062 -0.206620573997498 -0.346100032329559 -0.408033400774002 -0.52952378988266 -0.368210732936859 -0.255730420351028 -0.179229766130447 -0.134352922439575 -0.108428299427032 -0.15461140871048 -0.0783629342913628 0.0348526798188686 0.0965669229626656 -0.07441595941782 -0.145628273487091 0.0486345887184143 -0.0535524152219296 -0.149354621767998 -0.171265259385109 -0.171101450920105 -0.174264326691628 -0.224997162818909 -0.285612851381302 -0.122175842523575 0.0838840901851654 0.0182051379233599 0.278957933187485 0.782234728336334 1.36302053928375 2.04458904266357 2.2314624786377 1.58509814739227 1.26795291900635 1.17892372608185 1.15661323070526 1.12475872039795 0.897365272045135 0.669466316699982 0.293430387973785 -0.28690704703331 -0.469397366046906 -0.774445295333862 -0.971006989479065 -0.992638826370239 -0.463432848453522 2.58274364471436 6.18528413772583 5.26787662506104 3.18742060661316 2.05935454368591 1.63211154937744 1.44496989250183 1.47825348377228 1.58474540710449 1.61797976493835 1.75646734237671 1.72255420684814 1.53072512149811 1.26102840900421 0.996480941772461 1.11152338981628 1.15193092823029 1.17070722579956 1.11967861652374 0.989136457443237 0.887594521045685 0.782449722290039 0.706751048564911 0.646271109580994 0.522801458835602 0.25886943936348 2.73453044891357 2.31696963310242 6.43790435791016 8.9838981628418 9.02577209472656 10.4278917312622 10.9021873474121 13.2219076156616 13.8839893341064 15.5089349746704 15.5785808563232 15.2993841171265 12.1092948913574 11.2733736038208 10.0529012680054 8.64735126495361 4.81625461578369 3.98401856422424 13.5590372085571 18.735143661499 14.5720100402832 11.2881574630737 10.0622119903564 8.05862522125244 6.6554799079895 6.50306367874146 6.32032871246338 6.39733791351318 6.66702508926392 6.33842658996582 6.12911701202393 5.94090604782104 5.65607833862305 5.2877984046936 5.12760877609253 5.1587233543396 5.00538063049316 4.6143536567688 4.18334293365479 3.83356547355652 3.74901390075684 3.79107308387756 3.73110723495483 3.66565227508545 3.78931427001953 3.88398098945618 3.99787998199463 3.97133851051331 3.95635032653809 3.99187684059143 4.05197668075562 4.07437372207642 4.07068872451782 4.06521558761597 4.00698041915894 4.07325649261475 3.95868945121765 3.99955940246582 3.79023766517639 3.57398962974548 3.53099822998047 3.39374661445618 3.30695915222168 3.39720678329468 3.37367582321167 3.43586730957031 3.64557814598083 3.94001126289368 4.19045972824097 4.27953338623047 4.35099267959595 4.36547899246216 4.28607416152954
5.46215534210205 3.25009775161743 2.08519625663757 2.00278115272522 1.71777379512787 1.55287158489227 1.40793490409851 1.27689492702484 1.34417462348938 1.42225205898285 1.49516153335571 1.56023526191711 1.4346832036972 1.33665859699249 1.2062451839447 0.993228256702423 0.816865980625153 0.697446227073669 0.543977737426758 0.477039724588394 0.406760424375534 0.327998250722885 0.239567205309868 0.132442399859428 0.0255855154246092 -0.0667609199881554 -0.162674620747566 -0.263069719076157 -0.334110766649246 -0.524100184440613 -0.835402190685272 -0.617879092693329 1.5467677116394 0.0330502651631832 -0.238173454999924 -0.26447468996048 -0.259478718042374 -0.201161429286003 -0.120030008256435 -0.0693236067891121 -0.127149030566216 -0.192305609583855 0.533902168273926 0.696684896945953 0.436468929052353 -0.281434834003448 -0.232143610715866 -0.237377688288689 -0.131388336420059 -0.24348309636116 -0.104243546724319 0.396040976047516 0.530487477779388 0.76257312297821 0.922700822353363 1.17616164684296 1.88600623607635 2.14776182174683 1.5796799659729 1.14459562301636 0.922826290130615 0.946796655654907 0.810168623924255 0.699341595172882 0.495337575674057 0.210668042302132 -0.302939146757126 -0.566558957099915 -0.903704643249512 -1.07959723472595 -1.03647935390472 1.20529890060425 3.39023327827454 7.28638315200806 8.39805603027344 4.56727504730225 2.27324843406677 1.72471404075623 1.42318892478943 1.21236276626587 1.22004961967468 1.24414944648743 1.43613350391388 1.55875265598297 1.53624033927917 1.44635605812073 1.1325181722641 0.899048507213593 1.0020204782486 1.03027212619781 0.996311187744141 1.00798726081848 0.906066238880157 0.828286170959473 0.79373425245285 0.726259768009186 0.588308930397034 0.463580429553986 0.140388920903206 -0.169171437621117 2.35224485397339 5.08285617828369 6.67905330657959 8.85093975067139 10.8950805664062 12.4231615066528 12.8699913024902 14.6747369766235 13.2906932830811 12.2827415466309 11.1597471237183 9.86280536651611 8.9707145690918 7.99815607070923 7.27373695373535 16.7338218688965 18.2613582611084 11.338849067688 7.64146614074707 9.43442916870117 8.9560546875 8.86758804321289 7.6204080581665 6.85137701034546 6.58950185775757 6.68903398513794 6.52180957794189 6.56023168563843 6.10069179534912 5.84895467758179 5.57335186004639 5.18576192855835 4.66954183578491 4.66681623458862 4.73977041244507 4.76615571975708 4.42505025863647 4.27578067779541 3.87725925445557 3.57103252410889 3.61438274383545 3.51012372970581 3.48428416252136 3.64610481262207 3.6583936214447 3.65341901779175 3.75160050392151 3.81070160865784 3.84987735748291 3.90611052513123 3.92685627937317 3.90055298805237 3.82995867729187 3.82370114326477 3.77089476585388 3.84241700172424 3.90281653404236 3.80326652526855 3.63524007797241 3.46637058258057 3.31291222572327 3.19649863243103 3.14701175689697 3.18271040916443 3.26313710212708 3.47583317756653 3.75469326972961 3.9903769493103 4.08752584457397 4.11079216003418 4.05321216583252
7.22219657897949 4.73861789703369 2.66568493843079 2.01909327507019 1.84696912765503 1.60445308685303 1.45756912231445 1.27441990375519 1.22434604167938 1.23552823066711 1.32350695133209 1.39865875244141 1.40896904468536 1.25740253925323 1.12319266796112 1.02760863304138 0.857099294662476 0.698896825313568 0.55096834897995 0.476570427417755 0.397745579481125 0.316804885864258 0.247763901948929 0.162806749343872 0.0876141637563705 -0.0668970867991447 -0.176623165607452 -0.253362417221069 -0.347201734781265 -0.55242121219635 -0.94356244802475 -0.843756496906281 4.19476652145386 2.47806692123413 -0.430750757455826 -0.371286481618881 -0.347116738557816 -0.306557357311249 -0.241207882761955 -0.175295174121857 -0.174471542239189 -0.212780132889748 1.3214635848999 1.19601988792419 0.196242898702621 0.0888019055128098 -0.0790327191352844 0.209684148430824 -0.349814385175705 -0.378247499465942 0.00922475103288889 0.244973689317703 0.520811438560486 0.603954493999481 0.832924127578735 1.01327300071716 1.85884368419647 2.42322206497192 1.58482336997986 1.14544773101807 0.929987251758575 0.73026031255722 0.522226750850677 0.422468274831772 0.304437786340714 0.0520416125655174 -0.384799599647522 -0.684380769729614 -1.04171061515808 -1.17928838729858 1.95696592330933 3.89809083938599 4.80846500396729 6.83467388153076 9.76659774780273 6.91498994827271 3.02675533294678 2.44279003143311 1.58207261562347 1.20173275470734 1.03294193744659 1.00151216983795 1.1164653301239 1.16344106197357 1.21291840076447 1.33727622032166 1.32212388515472 1.0461620092392 0.857884228229523 0.775679051876068 0.886556208133698 0.907755732536316 0.935141265392303 0.841765224933624 0.826441884040833 0.781269490718842 0.664507448673248 0.550786733627319 0.393755853176117 0.0941362231969833 2.1528947353363 3.53606939315796 6.24018383026123 9.74606418609619 10.4188375473022 10.8572044372559 10.3907680511475 10.8188028335571 11.0470685958862 10.7461748123169 10.5838785171509 9.62928485870361 8.96664810180664 7.65192317962646 6.9223256111145 6.50256538391113 6.14083051681519 4.98014688491821 4.1856517791748 8.72953319549561 8.98642730712891 8.3781099319458 8.12601470947266 7.04600620269775 7.06956958770752 6.85972261428833 6.60708045959473 6.29146194458008 6.11612129211426 5.79159307479858 5.4825496673584 5.01519298553467 4.56824588775635 4.34681224822998 4.42935466766357 4.52356052398682 4.54213714599609 4.41325759887695 4.08583116531372 3.70875358581543 3.39581966400146 3.32746815681458 3.35942792892456 3.33526420593262 3.32836604118347 3.4133505821228 3.51557016372681 3.604660987854 3.66659784317017 3.68661999702454 3.72932267189026 3.66296243667603 3.68257856369019 3.68532848358154 3.67506122589111 3.61891722679138 3.6830530166626 3.5936906337738 3.65599822998047 3.48554921150208 3.32574152946472 3.17149806022644 3.07687306404114 2.89320278167725 3.04336977005005 3.12655782699585 3.24644184112549 3.43003439903259 3.60626363754272 3.7317636013031 3.8276379108429
6.92630815505981 6.858811378479 3.73401474952698 2.892338514328 1.88705778121948 1.76382720470428 1.65370178222656 1.33689939975739 1.17399299144745 1.15172612667084 1.369309425354 1.4330747127533 1.36447978019714 1.19515705108643 1.1052371263504 1.00566709041595 0.882453382015228 0.742552280426025 0.604027509689331 0.533484220504761 0.468185245990753 0.310816794633865 0.254053890705109 0.179819568991661 0.0814604535698891 -0.0286285821348429 -0.161341086030006 -0.260837584733963 -0.356203556060791 -0.513032793998718 -0.860338926315308 -0.992668747901917 3.82890558242798 4.99648857116699 0.61328113079071 -0.472429543733597 -0.37428742647171 -0.379997760057449 -0.320554852485657 -0.260265678167343 0.0423055589199066 0.39717110991478 1.13467991352081 0.972891747951508 0.547705352306366 -0.0121331475675106 0.168616980314255 -0.42652240395546 -0.390429437160492 0.47699648141861 1.0584956407547 0.549411773681641 -0.0757956430315971 0.428961247205734 0.960854113101959 1.38682019710541 1.9145165681839 2.05749320983887 1.32207345962524 0.968363881111145 0.772857010364532 0.522323250770569 0.326053023338318 0.162379115819931 -0.0170536749064922 -0.250708043575287 -0.431408435106277 -0.755742430686951 -1.14213621616364 -1.27248215675354 4.59584856033325 5.80291128158569 4.60627460479736 5.59609508514404 8.44228172302246 8.1568546295166 4.63685989379883 3.35004878044128 2.1151282787323 1.34278118610382 1.02622723579407 0.885697424411774 0.828002691268921 0.892285704612732 0.951034128665924 1.12110865116119 1.24310290813446 1.22397804260254 1.14690709114075 0.945624113082886 0.709408700466156 0.8193439245224 0.839915812015533 0.871718287467957 0.848325431346893 0.77167421579361 0.70365583896637 0.612013220787048 0.546228647232056 0.505228638648987 3.43046855926514 5.97971963882446 9.61419773101807 9.6185827255249 8.07952404022217 7.69845676422119 8.23710060119629 8.90533924102783 8.94595336914062 9.18917083740234 9.29515075683594 9.33048725128174 8.70889854431152 8.07673263549805 7.17569494247437 6.60926961898804 5.69910717010498 5.31128692626953 5.77982425689697 11.5982007980347 7.52332019805908 7.895583152771 7.02409267425537 7.12711620330811 7.43097686767578 6.88429927825928 6.49379205703735 6.34027767181396 6.10022497177124 5.88438892364502 5.78076601028442 5.16732358932495 4.64842844009399 4.25691366195679 4.06991291046143 4.06793975830078 4.12110137939453 4.20201539993286 4.21312570571899 3.91700792312622 3.55413842201233 3.273770570755 3.17679953575134 3.20279169082642 3.17153716087341 3.1193528175354 3.26725816726685 3.36617851257324 3.4579930305481 3.4184422492981 3.43703365325928 3.47586965560913 3.51901340484619 3.53547739982605 3.51310086250305 3.45943689346313 3.45178318023682 3.40289306640625 3.46811842918396 3.54622507095337 3.39323306083679 3.2347047328949 2.88166451454163 2.66446542739868 2.71941924095154 2.88933300971985 2.8644540309906 2.91599535942078 3.07430291175842 3.33387351036072 3.52843594551086
4.98488426208496 6.98671388626099 5.40049171447754 4.22286224365234 2.89090800285339 2.30746102333069 1.74137091636658 1.54060137271881 1.25937235355377 1.15139675140381 1.1484534740448 1.17295575141907 1.18645024299622 1.220703125 1.09453642368317 0.996423661708832 0.899444103240967 0.771344780921936 0.647456169128418 0.598411440849304 0.510237991809845 0.43029597401619 0.278907090425491 0.158268570899963 0.0658601224422455 -0.00105892191641033 -0.119993597269058 -0.247193768620491 -0.361270904541016 -0.450841903686523 -0.679991960525513 -0.897766709327698 3.7921314239502 5.61839199066162 2.36480236053467 0.230241701006889 0.214591026306152 0.0848126709461212 0.346978783607483 0.329258918762207 1.51948380470276 1.34107661247253 0.932020902633667 0.301063060760498 0.192242071032524 -0.200987055897713 -0.278750032186508 -0.139293447136879 0.520440936088562 0.695235967636108 0.467293560504913 -0.00962331611663103 0.203513339161873 0.702115058898926 1.3321133852005 1.53484523296356 1.64012813568115 1.43490016460419 0.896872878074646 0.686081230640411 0.481393188238144 0.310197472572327 0.0982972532510757 -0.0840926095843315 -0.271971523761749 -0.365280419588089 -0.524263143539429 -0.730352342128754 -1.04035925865173 0.873040735721588 8.59622764587402 8.45390796661377 5.7927041053772 6.75536251068115 8.89466381072998 8.5517635345459 5.80612945556641 4.49204969406128 3.23349785804749 1.78423750400543 1.13998568058014 0.998838186264038 0.822081625461578 0.722092807292938 0.710571885108948 0.877913117408752 1.04556608200073 1.14993059635162 1.15149879455566 1.11055839061737 0.890389382839203 0.658322095870972 0.760689496994019 0.780100107192993 0.762995779514313 0.791323840618134 0.715350270271301 0.651093125343323 0.618553459644318 0.552600145339966 0.617585003376007 3.72231531143188 6.26857948303223 5.16101026535034 5.82658338546753 5.47796249389648 6.18715858459473 7.23950815200806 7.83883094787598 7.87262105941772 8.00539493560791 8.16908264160156 7.7389817237854 7.83028268814087 7.33562994003296 6.96146774291992 6.07884883880615 5.2697639465332 4.82858371734619 4.69341945648193 5.53046178817749 5.07734775543213 5.71115636825562 6.49208927154541 6.80181455612183 6.89050054550171 6.65349149703979 6.32869243621826 6.08587074279785 5.83172559738159 5.73441791534424 5.41138076782227 4.83116579055786 4.32139348983765 4.06100988388062 3.82813096046448 3.67929339408875 3.9480574131012 4.0267972946167 4.02912425994873 3.77559900283813 3.64187121391296 3.29515051841736 3.02591943740845 3.05181837081909 2.96595358848572 2.97778058052063 3.12610554695129 3.13355040550232 3.13119220733643 3.20273637771606 3.27026057243347 3.2819607257843 3.32176947593689 3.28709840774536 3.29115843772888 3.31264233589172 3.31507968902588 3.27511811256409 3.35199642181396 3.43989062309265 3.28477096557617 2.85714745521545 2.4232771396637 2.51391553878784 2.55378699302673 2.61792778968811 2.64518475532532 2.72973418235779 2.83315229415894 2.91671776771545
2.98898792266846 5.87332773208618 6.70027875900269 4.86371326446533 3.9478702545166 2.72241854667664 1.77316415309906 1.65522909164429 1.44221985340118 1.18695735931396 1.16066193580627 1.07839274406433 1.07738554477692 1.1709588766098 1.05955481529236 0.929785072803497 0.879542946815491 0.79571396112442 0.694161295890808 0.639654994010925 0.571952402591705 0.460292547941208 0.320197194814682 0.237516149878502 0.0964602082967758 0.00789769273251295 -0.0827282443642616 -0.1976498067379 -0.322699636220932 -0.426701784133911 -0.596769034862518 -0.74038290977478 3.58706641197205 3.59236788749695 3.53380870819092 2.07808589935303 1.99164044857025 1.55216419696808 1.27376127243042 1.54521727561951 1.99148607254028 1.21400332450867 0.904717326164246 0.622039616107941 0.0450136698782444 -0.59927099943161 -0.754323124885559 -0.755914568901062 -0.249842569231987 -0.19235061109066 -0.287117213010788 -0.284218907356262 -0.148933306336403 0.607686758041382 1.33821308612823 1.27197587490082 1.08651494979858 0.653120815753937 0.447603940963745 0.283872544765472 0.180119976401329 0.0912826657295227 -0.117710322141647 -0.254810094833374 -0.34746715426445 -0.440260231494904 -0.602458715438843 -0.724080801010132 -0.86023336648941 2.01053047180176 6.08839988708496 7.30998659133911 7.70541048049927 8.17563533782959 9.07943058013916 8.17163944244385 5.73845624923706 4.8521466255188 4.04934930801392 2.71014547348022 1.76557385921478 1.43556308746338 0.923975706100464 0.71547532081604 0.664527714252472 0.62194550037384 0.806639194488525 0.864672482013702 0.947324335575104 1.05412626266479 1.04557979106903 0.841403067111969 0.708784997463226 0.591241240501404 0.681806027889252 0.716516375541687 0.739871561527252 0.668714344501495 0.649793803691864 0.598204612731934 0.518189013004303 0.461181879043579 0.427767366170883 2.0912561416626 3.61014986038208 4.2262978553772 4.28443145751953 5.41600704193115 6.11859512329102 6.07988691329956 6.57653522491455 6.634361743927 7.00339698791504 7.02740287780762 7.10895729064941 6.74241828918457 6.40406274795532 5.63237571716309 5.2557897567749 4.68376493453979 4.24236679077148 4.10001039505005 3.94049549102783 5.45799112319946 6.16533088684082 6.43329668045044 6.48090648651123 6.05538654327393 6.04739856719971 5.80628538131714 5.62191247940063 5.34726810455322 5.04341173171997 4.52142143249512 4.34951066970825 3.86948823928833 3.58461713790894 3.45808959007263 3.77420377731323 3.8347065448761 3.83743119239807 3.73544383049011 3.48370862007141 3.14764404296875 2.89061617851257 2.82601451873779 2.82498693466187 2.83204102516174 2.79395079612732 2.86198425292969 2.93950819969177 3.01184320449829 2.98558616638184 3.02879190444946 3.08226203918457 3.10636281967163 3.12517118453979 3.16156244277954 3.15516304969788 3.13786816596985 3.22695207595825 3.10185289382935 2.64816188812256 2.16285538673401 2.27920246124268 2.37167549133301 2.36485981941223 2.2433705329895 2.3744204044342 2.16382694244385 1.8477418422699
2.85851168632507 4.30306959152222 6.05975103378296 5.45445489883423 4.49798774719238 3.49680542945862 2.61744427680969 2.16229391098022 1.53308880329132 1.34946131706238 1.25979864597321 1.12413227558136 1.19858467578888 1.73438310623169 1.02953612804413 0.89599883556366 0.827301561832428 0.796989262104034 0.731679260730743 0.673401594161987 0.584847569465637 0.462485253810883 0.367853432893753 0.273999482393265 0.181554168462753 0.0799042657017708 -0.0191231705248356 -0.148165181279182 -0.269772171974182 -0.383707404136658 -0.577560424804688 -0.669518172740936 0.681058049201965 2.04529905319214 2.61794257164001 3.2920970916748 2.54611349105835 1.92466270923615 1.30445754528046 1.20997190475464 0.921478092670441 0.843956828117371 0.957730114459991 0.774261355400085 0.230042263865471 -0.667255640029907 -1.00619101524353 -1.06891906261444 0.923836827278137 1.94583296775818 -0.114759422838688 -0.501953542232513 -0.00618241634219885 0.807454407215118 0.701601982116699 0.136294692754745 0.192162558436394 0.0955697149038315 0.0357995666563511 -0.000847160059493035 -0.0283009633421898 -0.180624663829803 -0.300078481435776 -0.355117529630661 -0.366890221834183 -0.440626591444016 -0.619290292263031 -0.711435198783875 -0.76035863161087 -0.508435308933258 4.44366025924683 7.54839468002319 7.93905735015869 8.57706546783447 8.66345024108887 7.54069948196411 5.78442287445068 4.64878702163696 4.06680488586426 3.38534903526306 2.37726902961731 1.98038601875305 1.27653241157532 0.817801296710968 0.745153903961182 0.604205787181854 0.567195892333984 0.659864068031311 0.736421644687653 0.896467506885529 0.992888808250427 0.982061922550201 0.928223013877869 0.769620180130005 0.547134757041931 0.639337241649628 0.67747837305069 0.700867056846619 0.674918711185455 0.608224630355835 0.560549437999725 0.532509326934814 0.473999381065369 0.399380028247833 1.63440310955048 2.79651951789856 3.28697466850281 3.01637315750122 3.820472240448 4.5408787727356 5.51055526733398 5.97103548049927 5.99033880233765 6.09833526611328 6.22197198867798 6.2271876335144 6.209312915802 5.93892002105713 5.479820728302 5.04367733001709 4.4130687713623 3.98779153823853 3.83530020713806 3.84253978729248 5.13803911209106 5.73949384689331 5.3734073638916 5.58283758163452 5.75853204727173 5.71295022964478 5.47836351394653 5.21504163742065 4.98310518264771 4.71616792678833 4.52233362197876 4.06593179702759 3.62250256538391 3.363116979599 3.23891234397888 3.20330905914307 3.49381232261658 3.55714821815491 3.56552529335022 3.32243680953979 2.99978089332581 2.79070973396301 2.67057013511658 2.6360867023468 2.5945041179657 2.54290795326233 2.64993333816528 2.63261485099792 2.67534279823303 2.76172375679016 2.85202431678772 2.87310028076172 2.90858221054077 2.94642281532288 2.88618779182434 2.84527707099915 2.81312394142151 2.74493551254272 2.44452428817749 2.00964093208313 1.86398208141327 2.02449369430542 1.98903274536133 1.82894253730774 1.68021178245544 1.46728885173798 1.16764807701111
2.12360024452209 3.00058245658875 4.64070653915405 5.76843070983887 4.41083240509033 3.8230299949646 3.50380849838257 2.95688843727112 1.97486639022827 1.42875695228577 1.30601632595062 1.23521268367767 1.55877864360809 2.78508591651917 0.999354302883148 0.849928975105286 0.824833035469055 0.767375707626343 0.749430775642395 0.649767577648163 0.565177142620087 0.478899896144867 0.395428359508514 0.31015157699585 0.217434272170067 0.142139762639999 0.0724604278802872 -0.0719040334224701 -0.212991282343864 -0.335921078920364 -0.481167048215866 -0.637087762355804 -0.187303707003593 1.61866879463196 2.4738621711731 3.75171852111816 3.16684174537659 2.81118297576904 1.82657241821289 1.30035674571991 0.861063539981842 0.775157332420349 0.912006735801697 0.848668158054352 0.420804142951965 -0.561356663703918 -1.03908205032349 -1.12938058376312 -1.03317010402679 3.9238486289978 2.39791417121887 0.444715738296509 0.0156148765236139 0.54144012928009 -0.457472890615463 -0.597010910511017 -0.48388347029686 -0.303569227457047 -0.233687028288841 -0.127375960350037 -0.257236123085022 -0.358397573232651 -0.420793324708939 -0.423879146575928 -0.446477711200714 -0.471960723400116 -0.570560455322266 -0.654331684112549 -0.138736918568611 -0.765341460704803 3.65273833274841 6.12037372589111 7.40581083297729 8.39799022674561 7.9544939994812 7.12340545654297 5.60976076126099 4.7476954460144 4.03399276733398 3.48917198181152 2.99963879585266 2.64734506607056 1.89384639263153 1.34991037845612 1.09403026103973 0.689515054225922 0.566826522350311 0.540911674499512 0.546372592449188 0.696966052055359 0.847079515457153 0.938218533992767 0.923202693462372 0.893617868423462 0.729921817779541 0.622057318687439 0.608143210411072 0.628537952899933 0.618810057640076 0.641271710395813 0.57023549079895 0.559588074684143 0.512427926063538 0.442890167236328 0.374361962080002 0.83604496717453 1.4551237821579 2.07445025444031 2.59546279907227 3.01634955406189 4.11176300048828 4.65192794799805 4.80669593811035 5.20920133590698 5.35755443572998 5.66165542602539 5.80191516876221 5.75786066055298 5.53229141235352 5.31652164459229 4.73651075363159 4.15870714187622 3.91211080551147 3.5713963508606 3.46262669563293 3.46886658668518 4.31694173812866 4.84602308273315 5.24859857559204 5.38057136535645 5.10474586486816 5.0973539352417 4.8386812210083 4.63215065002441 4.45207166671753 4.24093198776245 3.8046703338623 3.38200855255127 3.23220062255859 3.0093240737915 2.89094090461731 3.30961775779724 3.36373233795166 3.36545348167419 3.18647885322571 3.04829835891724 2.7227520942688 2.46753740310669 2.40534234046936 2.31562614440918 2.31277418136597 2.24627304077148 2.34472036361694 2.46476316452026 2.56752991676331 2.63214254379272 2.60899639129639 2.63850045204163 2.60950374603271 2.54179787635803 2.40397429466248 2.28316831588745 2.08378577232361 1.71346926689148 1.47225522994995 1.33215022087097 1.22489321231842 1.16031396389008 1.02337491512299 0.750819385051727 0.445117741823196
2.06441926956177 3.11903810501099 3.64725470542908 4.90357542037964 4.78653526306152 3.78810715675354 3.55961132049561 3.2693498134613 2.678302526474 2.05116987228394 1.63331353664398 1.29405248165131 2.79361414909363 1.57121658325195 1.04516470432281 0.830292284488678 0.762764990329742 0.76340115070343 0.688075125217438 0.610126316547394 0.575774371623993 0.512770235538483 0.424650520086288 0.347117274999619 0.257246613502502 0.194609880447388 0.120257742702961 0.0263134930282831 -0.124316476285458 -0.271899074316025 -0.393851041793823 -0.525377571582794 2.71992969512939 3.53843665122986 3.14012908935547 3.35898017883301 2.70108890533447 2.55464315414429 2.61672949790955 1.76037383079529 1.27633488178253 0.946520507335663 1.18532240390778 0.948779821395874 0.655492544174194 -0.0256507471203804 -0.874962389469147 1.24918055534363 0.589382827281952 1.68834161758423 4.69950532913208 2.79073405265808 0.650891244411469 0.354354232549667 -0.567738473415375 -0.69233763217926 -0.193234488368034 1.63791227340698 0.993882536888123 -0.389995783567429 -0.423365384340286 -0.466250240802765 -0.44989275932312 -0.461860239505768 -0.476686656475067 -0.506333708763123 -0.535915911197662 -0.403638064861298 -0.70415985584259 -0.725947976112366 3.08505988121033 5.27898025512695 6.96657752990723 8.48196220397949 7.30328559875488 6.35553121566772 5.9490966796875 4.72289896011353 3.97201585769653 3.4555287361145 3.19022393226624 2.85867857933044 2.37715721130371 1.82768559455872 1.50845503807068 0.999406039714813 0.633298277854919 0.527335107326508 0.505996465682983 0.489269584417343 0.656033933162689 0.702764987945557 0.777222633361816 0.856863975524902 0.847626626491547 0.820026099681854 0.683892071247101 0.491218268871307 0.558587193489075 0.593775629997253 0.607267498970032 0.589085221290588 0.52429586648941 0.476623147726059 0.409262448549271 0.378529250621796 0.345129251480103 1.00741469860077 1.81654930114746 2.26607847213745 2.38529825210571 2.90086555480957 3.59072303771973 4.44797658920288 4.82019090652466 4.98823213577271 5.27221059799194 5.28798389434814 5.35547208786011 5.14814281463623 4.98124885559082 4.45795965194702 4.25455617904663 3.79894042015076 3.42972040176392 3.20163297653198 3.25330352783203 3.91399812698364 4.39861059188843 4.21780824661255 4.59651756286621 4.72885370254517 4.71775722503662 4.506422996521 4.37657260894775 4.13256549835205 3.93372941017151 3.54296541213989 3.41186118125916 2.99675488471985 2.74749326705933 2.69334602355957 3.09763836860657 3.1320424079895 3.13397550582886 3.05499696731567 2.81638932228088 2.48673963546753 2.27915024757385 2.13739657402039 2.07590055465698 2.01129555702209 1.99393141269684 2.11932682991028 2.24722099304199 2.32675242424011 2.31737494468689 2.26292085647583 2.28808045387268 2.16638493537903 2.04272484779358 1.85341036319733 1.62041342258453 1.25374257564545 0.853014349937439 0.455020397901535 0.273022621870041 0.204175710678101 0.360524982213974 0.0310031305998564 -0.142319589853287
1.78179049491882 2.45355725288391 3.08594584465027 3.9949357509613 4.58377361297607 3.69003677368164 3.46116089820862 3.18688941001892 3.03842759132385 2.87227320671082 2.42304587364197 2.33986306190491 2.22862911224365 1.1729599237442 1.10685360431671 0.93979424238205 0.768188059329987 0.683835446834564 0.623670637607574 0.615915596485138 0.553693294525146 0.513148725032806 0.449705630540848 0.383123606443405 0.295094937086105 0.231124818325043 0.162809491157532 0.0703314989805222 -0.0244049448519945 -0.174182996153831 -0.312335729598999 -0.409079492092133 2.21992945671082 1.74712383747101 1.78607189655304 1.95741629600525 1.87245488166809 2.12104463577271 2.36278605461121 2.38357448577881 1.69948530197144 1.49487030506134 1.16677463054657 0.760358393192291 0.641291201114655 0.328319489955902 -0.244504258036613 -0.0959365367889404 0.76823902130127 3.73442506790161 4.06968545913696 5.26009893417358 2.85682058334351 0.652167856693268 -0.467352122068405 -0.703266561031342 0.334190279245377 1.00496113300323 1.22788298130035 -0.357573539018631 -0.510099112987518 -0.523121953010559 -0.51770681142807 -0.509844720363617 -0.505804419517517 -0.244660094380379 0.526371240615845 0.0972263440489769 -0.704887270927429 -0.775200247764587 2.57777810096741 5.68709278106689 7.57887363433838 8.19203758239746 6.76412010192871 5.81831121444702 5.31625461578369 5.14975595474243 4.13173007965088 3.85581302642822 3.223477602005 2.86368036270142 2.56342101097107 2.30633234977722 2.01784420013428 1.43421137332916 0.90558397769928 0.581177234649658 0.559851706027985 0.474263906478882 0.453321129083633 0.531486034393311 0.608054876327515 0.735167145729065 0.807269990444183 0.802811324596405 0.796822726726532 0.652786910533905 0.465127438306808 0.532190024852753 0.539177060127258 0.540452301502228 0.555402219295502 0.503009080886841 0.457159817218781 0.436450898647308 0.382514923810959 0.326820522546768 0.86855673789978 1.5370546579361 1.81662833690643 1.93139564990997 2.28789734840393 3.31923747062683 4.13792133331299 4.48451137542725 4.50453996658325 4.58400678634644 4.75109815597534 4.92374658584595 4.82504749298096 4.68954229354858 4.42485761642456 4.0694465637207 3.60040163993835 3.42750191688538 3.05935454368591 3.06997776031494 3.06480169296265 3.40768313407898 3.83590340614319 4.23825883865356 4.32460880279541 4.33894872665405 4.14932298660278 3.93239808082581 3.81922054290771 3.63317370414734 3.4687077999115 3.10535955429077 2.69744277000427 2.55925226211548 2.43513631820679 2.50656509399414 2.7787868976593 2.82029438018799 2.79578351974487 2.61662697792053 2.45831513404846 2.14114260673523 1.91417098045349 1.81257700920105 1.74644577503204 1.75984299182892 1.86390042304993 1.83956062793732 1.88771307468414 1.76205456256866 1.52402985095978 1.23189640045166 1.14009010791779 1.22798144817352 1.01181471347809 0.57341080904007 0.163786813616753 -0.202410340309143 -0.374627500772476 -0.495567798614502 -0.508393406867981 -0.675754010677338 -0.663343131542206
1.71096360683441 1.777299284935 3.16046810150146 3.67601823806763 4.33810091018677 3.86386632919312 3.40517377853394 3.25069427490234 3.12644410133362 2.93699598312378 2.69849252700806 2.254967212677 1.39136385917664 1.0995112657547 1.07281851768494 0.983571231365204 0.834033787250519 0.784283995628357 0.612647473812103 0.580215632915497 0.538478553295135 0.485899180173874 0.442126780748367 0.37169474363327 0.320101380348206 0.248852163553238 0.194582566618919 0.111839897930622 0.024713022634387 -0.0578429475426674 -0.211744666099548 -0.329237282276154 1.06793916225433 1.71324074268341 1.5539139509201 1.48416590690613 1.49455714225769 1.55093038082123 1.94425678253174 2.12475919723511 2.13653182983398 1.9726185798645 1.34306275844574 1.0390852689743 0.664311289787292 0.524416863918304 0.194005489349365 -0.190733417868614 1.58092057704926 4.24415826797485 5.13548469543457 4.03869962692261 3.5299928188324 1.98127782344818 0.487161070108414 -0.495150864124298 -0.213383629918098 -0.0089192958548665 1.36710524559021 0.819877803325653 -0.518048942089081 -0.526974022388458 -0.547200977802277 -0.557318568229675 -0.530720055103302 1.02822363376617 0.942941009998322 0.118204943835735 -0.647169291973114 -0.788164019584656 3.51359033584595 7.13894939422607 8.3693733215332 7.83838176727295 6.294837474823 5.20586395263672 4.63970470428467 4.58080673217773 4.51706790924072 4.22369432449341 3.45671439170837 2.89391469955444 2.66213655471802 2.44858908653259 2.1611499786377 1.81579303741455 1.29301619529724 0.998923122882843 0.809593558311462 0.52455472946167 0.441151261329651 0.428035616874695 0.434704780578613 0.575899541378021 0.605466067790985 0.676368713378906 0.760467946529388 0.76027774810791 0.619564056396484 0.532139718532562 0.412178844213486 0.480061322450638 0.515401601791382 0.532625377178192 0.479830354452133 0.469020843505859 0.422667562961578 0.364935010671616 0.313872188329697 0.431892871856689 0.786487638950348 1.36364650726318 1.70934677124023 2.00158309936523 3.07816624641418 3.48117399215698 3.72187161445618 4.03622531890869 4.22207403182983 4.46428442001343 4.64156246185303 4.52836227416992 4.41821002960205 4.27111482620239 3.88990592956543 3.73132133483887 3.33228588104248 3.00517416000366 2.75843262672424 2.81794786453247 3.1445574760437 3.48990631103516 3.83776426315308 3.89231729507446 3.70011305809021 3.79049468040466 3.64193868637085 3.45357728004456 3.26946616172791 3.10040426254272 2.7653169631958 2.63245558738708 2.28644037246704 2.07266712188721 2.20132446289062 2.56017994880676 2.58497738838196 2.54121732711792 2.42936611175537 2.22865509986877 1.92146444320679 1.69633603096008 1.55203258991241 1.4753075838089 1.39818143844604 1.23633301258087 0.912446796894073 0.59382963180542 0.525479435920715 0.446500271558762 0.347704708576202 0.33972030878067 0.163071990013123 -0.118083775043488 -0.531204521656036 -0.724551856517792 -0.976980865001678 -1.13152766227722 -1.07733142375946 -1.08531844615936 -1.19004857540131
1.6631395816803 2.33508968353271 3.87683033943176 3.55786395072937 3.44350409507751 3.47700572013855 3.30822277069092 3.02702116966248 2.81014180183411 2.79640650749207 2.65975451469421 2.31251764297485 1.83177423477173 1.41562008857727 1.12189531326294 0.972668409347534 0.9112229347229 0.842957556247711 0.712575614452362 0.550494253635406 0.522699594497681 0.486636996269226 0.425859242677689 0.352808982133865 0.314154267311096 0.267491519451141 0.214463591575623 0.145038291811943 0.0695635005831718 -0.00226835161447525 -0.0880283564329147 -0.232059389352798 0.6311354637146 0.938118815422058 0.476532846689224 1.07885932922363 1.23758697509766 1.33817887306213 1.46562612056732 1.55040383338928 1.9048957824707 1.76510429382324 1.77415692806244 1.28706133365631 1.13521862030029 0.631787955760956 0.385572105646133 0.0466274283826351 -0.295946598052979 -0.252030044794083 1.233771443367 2.3157901763916 2.75749754905701 2.21818614006042 2.05115151405334 0.624621331691742 -0.453931480646133 0.246939659118652 0.969261527061462 1.2840963602066 -0.0574746690690517 -0.259142011404037 -0.548255383968353 -0.527346789836884 1.43271362781525 2.13893747329712 1.57161939144135 0.548034965991974 -0.263659834861755 0.0136486561968923 7.13323163986206 9.69255638122559 9.66022682189941 7.09768104553223 5.6924524307251 4.73454427719116 4.21135807037354 3.97442770004272 4.00649690628052 3.75258016586304 3.78011560440063 3.1281955242157 2.96293139457703 2.47890639305115 2.22632884979248 1.96827495098114 1.6761326789856 1.35429835319519 1.12928509712219 0.761328160762787 0.491620033979416 0.414901614189148 0.406476497650146 0.396072208881378 0.466069966554642 0.528029263019562 0.652582883834839 0.733199298381805 0.725778639316559 0.704254925251007 0.577630877494812 0.409270405769348 0.464724570512772 0.494764745235443 0.507426619529724 0.494819849729538 0.441196948289871 0.399229198694229 0.346951872110367 0.321747303009033 0.293566763401031 0.649629712104797 1.15155959129333 1.36623322963715 1.60498464107513 2.15838098526001 2.73905539512634 3.43157911300659 3.77995777130127 3.97037315368652 4.20134401321411 4.214280128479 4.26635885238647 4.12987089157104 4.04989528656006 3.86511993408203 3.56426978111267 3.16809844970703 2.85554695129395 2.60920810699463 2.66408681869507 2.82741189002991 3.09869003295898 2.88917136192322 3.22562527656555 3.27819991111755 3.35236501693726 3.19537925720215 3.03095006942749 2.86880922317505 2.73548889160156 2.61488580703735 2.34124898910522 2.02512454986572 1.81226778030396 1.93031656742096 1.98858761787415 2.24903082847595 2.24024891853333 2.19841885566711 2.00623488426208 1.68990790843964 1.44921886920929 1.2250964641571 1.06769216060638 0.833376109600067 0.185059577226639 -0.258109927177429 -0.386062532663345 -0.271447151899338 -0.412162065505981 -0.418259501457214 -0.460027933120728 -0.703108012676239 -1.15255844593048 -1.26103460788727 -1.36161470413208 -1.44892120361328 -1.43517923355103 -1.42400360107422 -1.39345681667328
1.61383509635925 2.32858991622925 3.42804312705994 2.92451000213623 3.07727551460266 3.03385257720947 2.94007778167725 2.95074057579041 2.71582818031311 2.69584774971008 2.40222787857056 2.27943539619446 2.01679968833923 1.92329657077789 1.54881715774536 1.0254123210907 0.885292887687683 0.832686185836792 0.76757538318634 0.651886880397797 0.512064039707184 0.443713903427124 0.409203678369522 0.355881452560425 0.295478165149689 0.259765177965164 0.212367475032806 0.166853651404381 0.102209523320198 0.0404300764203072 -0.0424020774662495 -0.13750097155571 -0.0744445398449898 0.44177109003067 0.326318174600601 0.408834517002106 0.92272561788559 0.751408219337463 0.95145320892334 1.21575796604156 1.31641435623169 1.47188496589661 1.58881187438965 1.61448061466217 1.50228798389435 1.01626682281494 0.508787751197815 0.243171170353889 -0.026394784450531 0.729849696159363 1.8087682723999 0.754296720027924 1.49066925048828 2.03509378433228 1.92906212806702 1.73878955841064 0.583972990512848 0.285981893539429 0.561856508255005 0.817685127258301 0.497861504554749 0.190537169575691 -0.338608831167221 0.290589272975922 1.29005813598633 0.932979762554169 0.959536790847778 1.09199678897858 0.668860018253326 1.79925358295441 6.18389892578125 8.24580764770508 8.30960369110107 7.00122928619385 5.37035751342773 4.4093918800354 3.9776918888092 3.54716229438782 3.45267176628113 3.24347710609436 3.36034631729126 3.40680742263794 3.24001288414001 2.71799635887146 2.26527452468872 2.05675315856934 1.84712839126587 1.72996819019318 1.5209664106369 1.07991349697113 0.71202552318573 0.458641231060028 0.449171900749207 0.382926106452942 0.374179601669312 0.376950651407242 0.50336366891861 0.624312222003937 0.702497065067291 0.694055438041687 0.675772130489349 0.552416503429413 0.39340478181839 0.44511878490448 0.456919014453888 0.46388840675354 0.475604116916656 0.426478266716003 0.384415805339813 0.370447933673859 0.329817831516266 0.284592926502228 0.318938314914703 0.576503157615662 1.08413648605347 1.43560671806335 1.41157484054565 2.29784202575684 3.27602791786194 3.55917596817017 3.57885980606079 3.64459228515625 3.85438060760498 4.04046964645386 3.92695450782776 3.84734725952148 3.7421510219574 3.38847208023071 3.05564904212952 2.91467785835266 2.57372760772705 2.31687664985657 2.29984760284424 2.281245470047 2.51842260360718 2.8404335975647 2.84990692138672 2.89211249351501 2.7194926738739 2.66967821121216 2.55888605117798 2.41775035858154 2.32519674301147 2.07341647148132 1.7933794260025 1.65785181522369 1.45361053943634 1.7215211391449 2.03026866912842 2.00396060943604 1.93208885192871 1.71424126625061 1.36736571788788 1.02570021152496 0.789849758148193 0.552611589431763 0.132197961211205 -0.644033133983612 -0.948738932609558 -0.968062281608582 -1.00165045261383 -0.946923136711121 -0.987571716308594 -1.14922881126404 -1.45898950099945 -1.56322979927063 -1.64660310745239 -1.69955945014954 -1.67859303951263 -1.62123608589172 -1.14186084270477
1.54246115684509 1.69008839130402 2.40417098999023 2.29836392402649 2.52870941162109 2.74997997283936 2.68860006332397 2.63581037521362 2.71161198616028 2.62832045555115 2.24525427818298 1.95781993865967 2.06725645065308 1.93222165107727 1.73632740974426 1.39775478839874 0.899173974990845 0.772092163562775 0.748292446136475 0.701426863670349 0.588605880737305 0.51147735118866 0.379739671945572 0.344814896583557 0.288597643375397 0.23217636346817 0.191963821649551 0.163165375590324 0.121276870369911 0.0717711001634598 0.0039176675491035 -0.0774101316928864 -0.168131321668625 0.0446937866508961 0.188694640994072 0.323603987693787 0.60635244846344 0.674509942531586 0.789978206157684 0.926446676254272 1.0928807258606 1.16628205776215 1.20570039749146 1.4273362159729 1.32441067695618 1.33776593208313 0.900564908981323 0.671708166599274 0.220392972230911 0.405791997909546 0.576643466949463 0.135559692978859 0.572519540786743 1.27262818813324 1.4077045917511 1.70168626308441 1.47338676452637 1.07117342948914 0.391033232212067 0.433522492647171 0.347670257091522 0.194361850619316 0.0253601465374231 -0.339477449655533 -0.154908239841461 0.0824156925082207 0.583505153656006 0.798730671405792 0.991475105285645 1.37068951129913 3.84509897232056 6.13749551773071 6.73852205276489 6.12132549285889 5.07396650314331 4.30014896392822 3.49070405960083 2.91822266578674 2.69755268096924 2.63954138755798 2.75294017791748 2.9501428604126 2.84388184547424 2.95885419845581 2.49689936637878 2.07922840118408 1.9887889623642 1.83576571941376 1.64708530902863 1.42918634414673 1.01203644275665 0.793385803699493 0.646519243717194 0.422655493021011 0.364025741815567 0.355958580970764 0.341031789779663 0.483429282903671 0.522238552570343 0.591129779815674 0.658088684082031 0.649193942546844 0.530435860157013 0.458717942237854 0.351359635591507 0.417672902345657 0.444192469120026 0.454167038202286 0.409405708312988 0.398790597915649 0.36343640089035 0.31853836774826 0.293535500764847 0.269373595714569 0.515331566333771 0.960802793502808 0.785878717899323 1.15195119380951 4.1354079246521 3.00709509849548 3.01594305038452 3.27640509605408 3.46285438537598 3.6630916595459 3.67259073257446 3.74696922302246 3.65059423446655 3.56363248825073 3.30789589881897 3.16949510574341 2.760249376297 2.38571166992188 2.09131908416748 2.04327535629272 1.97164559364319 2.12200450897217 2.4001727104187 2.39281439781189 2.30763363838196 2.3946213722229 2.31318378448486 2.2696750164032 2.16235995292664 2.05668640136719 1.80811369419098 1.70162165164948 1.42491579055786 1.23046100139618 1.53222513198853 1.80952310562134 1.74313688278198 1.59926879405975 1.20956885814667 0.749070227146149 0.419157177209854 0.11895777285099 -0.210650146007538 -0.745890200138092 -1.20541954040527 -1.36765229701996 -1.44509422779083 -1.36719536781311 -1.3592175245285 -1.49412357807159 -1.65224552154541 -1.74886918067932 -1.79401767253876 -1.82495307922363 0.727970898151398 2.95014142990112 4.74000930786133
1.41759788990021 1.52941191196442 1.96189606189728 1.97085106372833 2.12766623497009 2.28556847572327 2.46734237670898 2.43190598487854 2.54316782951355 2.50991082191467 2.13058042526245 1.93755316734314 1.78351759910583 1.73069417476654 1.74010455608368 1.58084654808044 1.24838268756866 0.987568557262421 0.729836285114288 0.673847436904907 0.633584141731262 0.575109362602234 0.434998333454132 0.316846340894699 0.259447932243347 0.216940090060234 0.185658067464828 0.14756353199482 0.115774735808372 0.0900790691375732 0.0299186240881681 -0.0545527152717113 -0.150124132633209 -0.206725299358368 -0.258153945207596 -0.0564588606357574 0.0992593392729759 0.274742603302002 0.418676912784576 0.6439408659935 0.86191600561142 0.989615023136139 0.969822347164154 0.918823838233948 1.04421210289001 1.17195737361908 1.20141756534576 0.858116567134857 0.68102753162384 0.156982943415642 -0.0728672593832016 -0.199131935834885 0.00850768387317657 0.33847838640213 0.432686388492584 0.972302854061127 1.20624220371246 1.09738254547119 1.15544021129608 0.31451815366745 0.00172791641671211 -0.0237851943820715 -0.0767686367034912 -0.172105222940445 -0.364461869001389 -0.341152936220169 -0.107028938829899 0.34028148651123 0.538894057273865 0.78289783000946 2.00399899482727 4.17100095748901 5.07398557662964 4.89526605606079 4.53882789611816 3.93813967704773 2.76609420776367 1.94957089424133 1.74608683586121 1.7934718132019 1.92235720157623 2.14632678031921 2.133540391922 2.3632378578186 2.67524099349976 2.3155632019043 2.22023439407349 1.86262500286102 1.72658741474152 1.54494249820709 1.33557116985321 1.09398460388184 0.898415088653564 0.605813503265381 0.40400105714798 0.392257452011108 0.337919890880585 0.335086137056351 0.395028203725815 0.453619658946991 0.566787958145142 0.631400287151337 0.623297691345215 0.609308898448944 0.500995516777039 0.354881703853607 0.39785373210907 0.428291857242584 0.438861280679703 0.428408622741699 0.388792663812637 0.353067100048065 0.341832011938095 0.303352802991867 0.258828401565552 0.265945851802826 0.246395513415337 0.542034447193146 6.93411207199097 4.67810869216919 2.23817944526672 2.86322546005249 3.1068811416626 3.11617827415466 3.20913076400757 3.39462399482727 3.57968688011169 3.49266672134399 3.4084210395813 3.27250862121582 2.92089056968689 2.4873161315918 2.1331627368927 1.85558187961578 1.77946734428406 1.69798338413239 1.73230135440826 1.59047937393188 1.91144132614136 2.01429557800293 2.08485150337219 2.03874206542969 2.02402448654175 1.91800343990326 1.83272087574005 1.7105278968811 1.47938907146454 1.20980155467987 1.03030490875244 1.2367240190506 1.19453167915344 1.08618605136871 0.904541075229645 0.478146910667419 0.0143735585734248 -0.2374277561903 -0.618195354938507 -0.997597098350525 -1.35484933853149 -1.56103491783142 -1.61519575119019 -1.58805358409882 -1.58346128463745 -1.67882370948792 -1.76175129413605 -1.74691641330719 -1.80677592754364 0.622462391853333 5.68562936782837 7.45325374603271 11.0373163223267
1.51009023189545 1.55312263965607 1.93923056125641 1.8723121881485 1.7160325050354 1.92690658569336 2.0852382183075 2.17795395851135 3.19997835159302 2.27062177658081 1.99504005908966 1.77510440349579 1.60031855106354 1.52336525917053 1.47634994983673 1.57567012310028 1.4396516084671 1.34965014457703 1.05300772190094 0.648804724216461 0.597843050956726 0.560420334339142 0.492534071207047 0.360074490308762 0.240464940667152 0.203201904892921 0.181523978710175 0.1414515376091 0.106671445071697 0.0912468135356903 0.0540731698274612 -0.0303197391331196 -0.118212848901749 -0.165368393063545 -0.259778022766113 -0.189380452036858 -0.212195545434952 0.0813799351453781 0.195050418376923 0.271974712610245 0.622622787952423 0.560288965702057 0.716043710708618 0.76131945848465 0.802871704101562 0.806096732616425 1.0407829284668 1.07176458835602 0.963189780712128 0.54401957988739 0.0676604062318802 -0.137125730514526 -0.207591205835342 -0.13894759118557 0.176070481538773 0.19354359805584 0.159672021865845 0.158295422792435 0.643283069133759 0.831185281276703 0.6428382396698 -0.0289443247020245 -0.361197292804718 -0.386428475379944 -0.462261527776718 -0.606387317180634 -0.656469225883484 -0.583586633205414 -0.246748805046082 0.0236415322870016 1.54831826686859 3.64526510238647 4.05844306945801 3.17172312736511 3.37835383415222 2.6812150478363 2.16520023345947 1.38529944419861 1.03395223617554 1.09841156005859 1.18000340461731 1.41241276264191 1.50699937343597 1.75216829776764 2.24238610267639 2.53385925292969 2.43329477310181 2.06852650642395 1.74856507778168 1.61704242229462 1.44526255130768 1.39358997344971 1.21822941303253 0.862986981868744 0.700266361236572 0.558331310749054 0.374630868434906 0.32918906211853 0.324920356273651 0.322444915771484 0.43526616692543 0.541244685649872 0.605482220649719 0.598825216293335 0.586583435535431 0.479930102825165 0.416520953178406 0.383647203445435 0.392314314842224 0.403022348880768 0.413720279932022 0.375277906656265 0.370440065860748 0.333679556846619 0.270958065986633 0.0606635548174381 -0.0671215355396271 3.73946499824524 5.85056972503662 3.80302405357361 2.80530571937561 2.11532974243164 2.40405082702637 2.65187883377075 2.90003490447998 3.06474637985229 3.24270033836365 3.42068839073181 3.318603515625 3.20690441131592 2.99734807014465 2.64174675941467 2.30903005599976 2.10176873207092 1.75032126903534 1.51139152050018 1.41466975212097 1.35386979579926 1.31320345401764 1.66641879081726 1.74609315395355 1.71969676017761 1.81094551086426 1.79930365085602 1.72126650810242 1.61858284473419 1.48227214813232 1.25466907024384 1.01831746101379 0.821118652820587 0.571139454841614 0.535849630832672 0.476075500249863 0.185978725552559 -0.288504809141159 -0.761926770210266 -0.976437509059906 -1.23226988315582 -1.50324749946594 -1.63098978996277 -1.63882625102997 -1.07026624679565 -1.30409562587738 -1.68714094161987 -0.800012350082397 1.69501042366028 4.54616928100586 8.38483047485352 12.5335884094238 13.7206001281738 17.7130241394043
2.87271928787231 1.92756927013397 2.14115500450134 2.00490498542786 1.75835132598877 1.69058132171631 1.89307391643524 2.49612379074097 2.5155177116394 2.01660132408142 1.76476919651031 1.62781429290771 1.50499284267426 1.3976639509201 1.29505062103271 1.3392516374588 1.43578386306763 1.35010933876038 1.23473525047302 0.945021390914917 0.749003887176514 0.518648445606232 0.496237605810165 0.415051102638245 0.302582591772079 0.230786606669426 0.166052833199501 0.14265812933445 0.110418640077114 0.0685216709971428 0.0142360916361213 -0.0449624359607697 -0.116907350718975 -0.162691935896873 -0.159069702029228 -0.0703393220901489 -0.188366234302521 -0.06340391933918 -0.138224974274635 -0.0232936758548021 0.208017036318779 0.261844098567963 0.402683883905411 0.57878053188324 0.631053924560547 0.587762713432312 0.610664784908295 0.913319051265717 0.811861276626587 0.799115478992462 0.384649723768234 0.21021568775177 -0.104161754250526 -0.261434465646744 -0.330079644918442 -0.341737300157547 -0.5011106133461 -1.0181257724762 -0.304760158061981 1.88819706439972 0.613564848899841 0.635510206222534 -0.0480904914438725 -0.651207804679871 -0.818426549434662 -0.943166494369507 -0.95826780796051 -0.794128656387329 -0.342900067567825 -0.363609164953232 1.72126662731171 4.08750343322754 3.58216524124146 1.94623208045959 1.59351921081543 1.03418791294098 0.828291773796082 0.913500010967255 0.73594057559967 0.817288398742676 0.700572311878204 0.850149512290955 1.01435887813568 1.42820882797241 5.25427865982056 3.96097445487976 2.15702676773071 2.2660436630249 1.9562314748764 1.65582263469696 1.60535931587219 1.48477864265442 1.32606291770935 1.15915262699127 0.952686846256256 0.785477936267853 0.539985001087189 0.354555904865265 0.312384307384491 0.309704810380936 0.298960387706757 0.416589319705963 0.447163760662079 0.518523275852203 0.572703659534454 0.56471586227417 0.552385330200195 0.449752420186996 0.317571848630905 0.359126657247543 0.388168960809708 0.397460073232651 0.382028043270111 0.323714375495911 0.191626623272896 -0.0145175289362669 -0.106172516942024 2.23555397987366 4.04416418075562 2.65558695793152 2.15905594825745 1.87157356739044 1.46009206771851 1.9532585144043 2.52373862266541 2.7745463848114 2.9233820438385 3.06175756454468 3.0433611869812 3.10284852981567 2.93865156173706 2.70844030380249 2.45912432670593 2.24905776977539 1.86410677433014 1.56239199638367 1.31265783309937 1.22074377536774 1.17797386646271 1.11209118366241 1.03671514987946 1.40262055397034 1.49570953845978 1.59110939502716 1.52567291259766 1.51143336296082 1.39317011833191 1.24998342990875 1.02508413791656 0.840157926082611 0.482677429914474 0.227710291743279 0.149560377001762 -0.153319135308266 -0.599672079086304 -1.06009697914124 -1.27064394950867 -1.4280925989151 -1.60019218921661 -1.62602877616882 0.894170343875885 2.32912993431091 3.9987621307373 5.18756818771362 8.29666233062744 12.0460405349731 13.5760974884033 15.5593090057373 16.6144123077393 17.0026245117188 14.8736219406128
4.25139474868774 2.54768037796021 1.93951117992401 1.96012997627258 1.81097841262817 1.63046956062317 1.61499416828156 1.86042416095734 1.91188788414001 1.74949824810028 1.66184794902802 1.44878494739532 1.34937131404877 1.2442991733551 1.21029889583588 1.14568734169006 1.20024275779724 1.1891678571701 1.23169052600861 1.11520028114319 1.06777560710907 0.784539878368378 0.423629373311996 0.427387744188309 0.398083180189133 0.339235335588455 0.828607857227325 0.328259617090225 0.0760606452822685 0.018062885850668 -0.0276447739452124 -0.0868328288197517 -0.12418121099472 -0.164715796709061 -0.229987576603889 -0.264685660600662 -0.278298050165176 -0.320733696222305 -0.340609043836594 -0.39659258723259 -0.127911940217018 -0.0384336672723293 0.0113499443978071 0.295197248458862 0.234443575143814 0.390148013830185 0.449503779411316 0.503761947154999 0.55544912815094 0.620625972747803 0.588792204856873 0.309954524040222 0.174697056412697 -0.182112216949463 -0.34228241443634 -0.502311527729034 -0.715079963207245 -1.0075478553772 -0.290000081062317 1.17947745323181 2.1068811416626 0.432976186275482 0.350085586309433 -0.423663437366486 -1.09156727790833 -1.37875390052795 -1.30996537208557 -1.12558448314667 1.86256623268127 2.67969799041748 2.40462851524353 3.74699687957764 3.51523470878601 0.98375928401947 0.408196657896042 -0.182619899511337 -0.441615790128708 -0.157384887337685 0.307745575904846 0.489583939313889 0.579190015792847 0.557222068309784 1.20545434951782 4.71367454528809 6.95109224319458 4.54735136032104 2.54875016212463 2.0323657989502 2.1528148651123 1.85485947132111 1.79793584346771 1.52414906024933 1.40641260147095 1.25692141056061 1.21298885345459 1.0659853219986 0.754991173744202 0.507970154285431 0.337622612714767 0.336960136890411 0.296307355165482 0.290561199188232 0.345544248819351 0.40310201048851 0.500079393386841 0.551157414913177 0.538478314876556 0.527774572372437 0.432142496109009 0.30884063243866 0.320061475038528 0.239380151033401 0.166344866156578 0.120861016213894 -0.00587137090042233 -0.179959461092949 -0.247794613242149 -0.289481818675995 1.93508720397949 0.870820343494415 1.29615426063538 0.746177852153778 1.28833067417145 1.30472648143768 1.86108601093292 2.39474582672119 2.56881904602051 2.53363442420959 2.62285113334656 2.74802112579346 2.84304118156433 2.66478586196899 2.47987055778503 2.28096199035645 2.01520562171936 1.75369954109192 1.57902121543884 1.28772485256195 1.09852004051208 1.02266764640808 0.940389573574066 0.836978375911713 1.1778804063797 1.26622021198273 1.3339204788208 1.31266617774963 1.27749669551849 1.15824127197266 1.00915563106537 0.817495942115784 0.512705981731415 0.201365411281586 -0.0509813465178013 -0.422258257865906 -0.983801305294037 -1.27764987945557 -1.4171656370163 -1.54309058189392 -1.59221601486206 2.15649271011353 3.03706455230713 6.82764196395874 9.81012535095215 11.6658191680908 13.9587211608887 15.9195232391357 14.1260614395142 13.4902172088623 12.575553894043 12.1750288009644 11.6929559707642
6.14878082275391 3.84931349754333 2.4300274848938 2.0260112285614 2.0472309589386 1.75995647907257 1.63801038265228 1.85716032981873 1.87217175960541 1.52894222736359 1.46731531620026 1.24710690975189 1.20855116844177 1.11953032016754 1.07381021976471 1.04592251777649 0.99268913269043 1.00690996646881 1.0093742609024 1.09954392910004 1.0376136302948 0.946329832077026 0.678653836250305 0.346886515617371 0.332095801830292 0.28048112988472 0.229543969035149 0.148044183850288 0.0831319987773895 -0.0189374666661024 -0.0767190381884575 -0.135288491845131 -0.161709204316139 -0.19073386490345 -0.24398697912693 -0.279060333967209 -0.29650604724884 -0.330334395170212 -0.343171060085297 -0.407576680183411 -0.452187389135361 -0.301834344863892 -0.260291665792465 -0.0651900321245193 -0.0044259624555707 0.132371157407761 0.292892068624496 0.329250484704971 0.321719706058502 0.19095566868782 0.388999253511429 0.408265739679337 0.296976268291473 0.0363427177071571 -0.0630104690790176 -0.396583288908005 -0.781831681728363 -1.11644160747528 -0.860505759716034 1.49549698829651 1.74784123897552 1.72080266475677 0.0279588252305984 -0.288460165262222 -0.900802373886108 -1.44964373111725 -1.44689905643463 4.06273698806763 6.37853765487671 7.37002658843994 5.75916004180908 3.79945373535156 3.38908267021179 0.170691385865211 -0.688410639762878 -0.928007364273071 -0.773984313011169 -0.568243801593781 -0.404135704040527 -0.217927724123001 0.685470163822174 1.93546545505524 2.89252376556396 6.79364347457886 8.16727638244629 4.47774028778076 2.83954811096191 1.83349823951721 1.91322350502014 2.033447265625 1.96749556064606 1.70378255844116 1.44815874099731 1.41069579124451 1.29328835010529 1.15488791465759 1.00866794586182 0.710855782032013 0.587705194950104 0.481778651475906 0.321809023618698 0.280419945716858 0.277985274791718 0.282553166151047 0.386925399303436 0.41287899017334 0.464669078588486 0.509762644767761 0.513519644737244 0.385918647050858 0.0757250413298607 -0.151491120457649 -0.211354166269302 -0.19606252014637 -0.270744323730469 -0.414038449525833 -0.486515611410141 -0.483943849802017 -0.611865043640137 -0.688271582126617 -0.616450428962708 -0.385551810264587 0.077466256916523 0.582374513149261 0.991020500659943 1.6685037612915 1.89499616622925 2.10224080085754 2.31738758087158 2.41931486129761 2.49795389175415 2.56059265136719 2.38154983520508 2.2364239692688 2.05610299110413 1.89974665641785 1.72142314910889 1.41696059703827 1.13841569423676 0.928163468837738 0.768276214599609 0.709274530410767 0.589391946792603 0.932929635047913 0.975010693073273 1.00078332424164 1.06413507461548 0.998332142829895 0.863350570201874 0.735865652561188 0.480784714221954 0.181213453412056 -0.126403540372849 -0.634770929813385 -1.06196296215057 -1.39001727104187 -1.53112411499023 -1.51244592666626 2.61661553382874 5.34008884429932 7.15684461593628 12.3516731262207 14.9058294296265 13.7313566207886 13.097505569458 11.688551902771 9.81522560119629 9.26501083374023 9.23210048675537 9.36249923706055 8.86660385131836
