NCOLS 175
NROWS 32
XLLCORNER 353744
YLLCORNER 6699920
CELLSIZE 16 
NODATA_value -3.4e+38 
8.80104923248291 9.13315486907959 6.22668933868408 5.93745613098145 5.26468658447266 2.36019349098206 2.16129565238953 0.458999395370483 2.23186206817627 3.37637162208557 2.79658913612366 2.95345830917358 2.10491514205933 2.193523645401 2.42787075042725 3.43711566925049 3.40930652618408 3.60540246963501 3.5116446018219 3.48827409744263 3.75950217247009 3.8386709690094 3.53846120834351 3.9041919708252 4.88121271133423 5.06565475463867 4.19188404083252 3.51979231834412 3.09409642219543 2.95544147491455 2.72899556159973 2.1812539100647 2.38007068634033 9.40974903106689 9.81229209899902 8.67856121063232 5.15921974182129 5.29469871520996 10.7800016403198 12.8964500427246 12.7293033599854 13.9292888641357 15.4759864807129 12.694483757019 10.5790224075317 9.97032356262207 7.89060640335083 8.42535209655762 7.49302959442139 8.30059909820557 6.4633412361145 7.52662324905396 5.63587188720703 5.16374778747559 5.40517139434814 4.98017358779907 4.06065368652344 4.85564947128296 4.52523708343506 4.8180775642395 4.73916244506836 4.56916618347168 4.25886964797974 4.67478704452515 4.41824293136597 4.70327854156494 5.44460296630859 7.91833353042603 11.4840888977051 3.59017753601074 9.35568618774414 17.7707538604736 9.54896068572998 13.5742053985596 7.34555339813232 6.49849081039429 6.88483381271362 5.88415670394897 5.57043123245239 5.29879856109619 5.93287038803101 5.15851449966431 3.71959114074707 4.69848585128784 2.94344973564148 5.76153087615967 8.70231056213379 2.75337433815002 2.57793521881104 2.0126850605011 2.33955907821655 7.03000593185425 3.10368418693542 2.6132116317749 4.29463577270508 3.77211332321167 2.0986533164978 8.01761722564697 1.32508051395416 0.710890710353851 -0.306171089410782 1.6170334815979 6.42902231216431 9.85414886474609 14.5249547958374 5.81317377090454 31.798999786377 43.0708808898926 18.3839797973633 25.2921123504639 13.2831411361694 6.56574726104736 4.31714057922363 3.83509039878845 3.23304319381714 5.36676359176636 3.87008190155029 5.67852640151978 9.03669929504395 9.6205530166626 7.81293249130249 26.6282424926758 20.0253925323486 34.6914825439453 26.5717906951904 4.14681577682495 30.6775302886963 5.80337047576904 4.36238527297974 4.19713306427002 3.19324445724487 3.36245965957642 3.24662137031555 3.54988718032837 2.89143085479736 3.2210705280304 4.18650817871094 4.16879367828369 4.36867618560791 4.45971345901489 4.55696773529053 4.61026048660278 3.98313069343567 3.92286014556885 4.50098562240601 4.38131237030029 4.11923170089722 4.61036825180054 5.12838935852051 5.3210973739624 5.1777811050415 25.7888164520264 10.9404449462891 4.37610530853271 2.9909188747406 3.56679749488831 5.89125204086304 5.96075916290283 6.33586025238037 5.81995391845703 6.98558282852173 7.31128597259521 7.20459842681885 7.86156511306763 7.76623296737671 8.29734325408936 9.50342273712158 9.26713180541992 8.87550735473633 9.70772266387939 8.59390068054199 8.93967247009277 8.05416297912598 8.86734485626221 45.5231132507324
11.4831743240356 10.0343503952026 6.81409120559692 6.40200662612915 5.67325019836426 2.50159072875977 2.23038768768311 0.749420285224915 0.263748168945312 3.72455620765686 0.856276512145996 3.23014092445374 2.28767251968384 2.33640193939209 2.60324597358704 3.64893341064453 3.61390471458435 3.78319716453552 3.70997595787048 3.64742970466614 4.01681756973267 4.08024644851685 3.60287261009216 4.10453748703003 5.13609600067139 5.3401050567627 4.4290566444397 3.70255136489868 3.21611976623535 3.07154417037964 2.85473489761353 2.34115099906921 2.47239923477173 10.4744005203247 10.7899150848389 9.59364891052246 5.56544208526611 5.74724197387695 9.533935546875 14.9979228973389 14.2938470840454 16.0694465637207 21.4119758605957 17.1128616333008 11.4312925338745 10.3592901229858 8.32594108581543 9.00716590881348 8.08338069915771 8.87888145446777 6.65005874633789 7.82783126831055 7.7053370475769 5.2528223991394 5.49865818023682 5.0340428352356 4.25830554962158 4.9130973815918 4.55963897705078 4.77959585189819 4.84431028366089 4.61529493331909 4.31231498718262 4.76900339126587 4.54340410232544 4.89286470413208 5.63838005065918 5.99476623535156 15.143214225769 6.20930862426758 11.3475589752197 7.04243946075439 10.5500974655151 25.0425987243652 9.93755340576172 6.87554883956909 6.98228454589844 5.32581329345703 11.704665184021 6.96308898925781 6.62303447723389 5.82855558395386 3.79661226272583 3.58944511413574 7.16345453262329 11.3029556274414 13.3699340820312 2.97450709342957 5.47560977935791 2.14529323577881 2.36795711517334 2.75485801696777 3.12104272842407 2.67955756187439 2.67779970169067 11.8428401947021 4.99652194976807 1.65136408805847 3.30268526077271 3.76499724388123 0.568198323249817 0.3951775431633 1.88798749446869 13.6293153762817 24.3685665130615 22.1930465698242 5.80172538757324 5.87751722335815 1.84282493591309 8.25728416442871 4.66449546813965 8.25397968292236 11.2718639373779 3.9514696598053 3.35632014274597 3.86006093025208 4.27230024337769 5.7850456237793 9.85844326019287 10.6897306442261 10.5707836151123 15.4611787796021 7.36404037475586 6.04101800918579 3.77508044242859 4.59602212905884 4.29396867752075 7.03129148483276 4.71000480651855 5.29673480987549 4.18376493453979 3.61070322990417 3.50487494468689 3.87472414970398 4.18639469146729 4.77380037307739 4.49462032318115 4.43391084671021 4.57411193847656 4.67046689987183 4.69382858276367 4.91227960586548 4.80642652511597 4.12180948257446 4.51560258865356 5.19275999069214 5.17609977722168 4.8174147605896 5.47578859329224 10.558895111084 5.52833890914917 4.11335706710815 3.42035698890686 15.0378570556641 4.28574275970459 4.59572172164917 6.18028116226196 6.26268625259399 6.70256900787354 6.14609432220459 7.14498424530029 7.81772613525391 7.6780800819397 8.2876558303833 8.18141746520996 8.73998641967773 9.98308944702148 9.71490097045898 9.27724170684814 10.1734533309937 8.97453022003174 9.40274810791016 8.49496936798096 9.34383773803711 5.68333435058594
13.0268955230713 11.2212972640991 7.49606800079346 6.97904825210571 6.18344497680664 4.0688009262085 -0.470194935798645 2.63909244537354 0.391104221343994 4.10798645019531 2.80596375465393 3.52854609489441 2.50025415420532 2.45378804206848 2.75290608406067 3.59604525566101 3.89862036705017 3.7971715927124 4.00438165664673 3.89230895042419 4.32979917526245 4.32036638259888 3.77191138267517 4.25314331054688 5.38929176330566 5.62461376190186 4.66940546035767 3.88777661323547 3.70694708824158 3.18296813964844 2.97194337844849 2.46320509910583 2.58738040924072 11.8488941192627 11.9757661819458 10.7472810745239 6.03589773178101 6.32226896286011 8.60538101196289 17.4039134979248 18.6582279205322 20.264741897583 36.7195281982422 22.3100738525391 18.0857028961182 11.4381561279297 8.94026470184326 9.52063941955566 8.65318202972412 9.67931747436523 6.98063135147095 7.42702579498291 8.28255176544189 6.07652759552002 5.60074758529663 4.48970079421997 5.10634613037109 4.88903999328613 4.93522977828979 4.8161940574646 4.89035940170288 4.64461851119995 4.36254119873047 4.86962795257568 4.30793333053589 4.97472238540649 5.85933494567871 7.28045225143433 22.2146015167236 7.33909749984741 4.13625764846802 7.54044628143311 15.4535083770752 14.5934200286865 12.7155828475952 7.93450927734375 7.90068054199219 5.55373287200928 10.9584884643555 7.34872913360596 7.63752508163452 7.26783990859985 4.22644186019897 5.49111032485962 9.61802959442139 22.5003929138184 2.75030827522278 3.20296049118042 3.48182821273804 2.7953987121582 2.76466464996338 3.05661344528198 3.24466776847839 3.01512503623962 2.74671769142151 8.38337230682373 6.29023504257202 4.48308515548706 7.86368227005005 1.18554353713989 0.744671642780304 0.195274651050568 3.40399694442749 1.87029361724854 4.33574342727661 2.57964444160461 8.19968318939209 15.2118453979492 8.40153980255127 12.6332406997681 7.11386060714722 10.4920072555542 20.8934555053711 3.97510766983032 5.21309041976929 4.41957759857178 5.0574836730957 7.18295526504517 12.0191659927368 22.9901466369629 7.53122234344482 3.6670560836792 5.01495742797852 5.56873369216919 40.4697761535645 10.1191396713257 20.8895053863525 8.61749839782715 6.12460565567017 6.63951921463013 5.39694547653198 4.05564308166504 3.77249002456665 4.15118789672852 4.25582504272461 5.15113735198975 4.87449026107788 4.75595045089722 4.83572626113892 4.91635608673096 4.88433790206909 5.12618970870972 5.16056823730469 4.31266975402832 4.63110303878784 5.43616437911987 5.99409866333008 5.86893939971924 5.81908702850342 5.54479837417603 5.9390811920166 5.52800703048706 5.33389806747437 4.24500703811646 4.70507287979126 4.87414312362671 6.45240592956543 6.54951810836792 6.67639255523682 7.29141187667847 7.64242458343506 8.38326549530029 8.18554592132568 8.72537708282471 8.61728858947754 9.19027709960938 10.5007400512695 10.1890592575073 9.65140724182129 10.6312580108643 9.38279438018799 9.90180397033691 8.98926544189453 9.88646125793457 6.98668432235718
15.0515260696411 12.7941083908081 8.52845859527588 7.66663646697998 6.77778148651123 4.42634963989258 2.47050070762634 2.81892943382263 0.776745855808258 4.54665422439575 3.05002236366272 3.88735103607178 2.68653059005737 2.64292025566101 2.45805430412292 3.60220551490784 4.08107042312622 3.98672819137573 4.16836786270142 4.11863470077515 4.4976224899292 4.49415969848633 3.88652515411377 4.57318305969238 5.68260383605957 5.88459396362305 4.9263014793396 4.08493709564209 3.88069081306458 3.29845356941223 3.0755603313446 2.55782723426819 2.69225764274597 13.5747451782227 13.4733552932739 12.2632751464844 6.61143398284912 7.09165191650391 9.58837509155273 24.8124408721924 23.8135871887207 28.3973865509033 13.3570308685303 36.6973686218262 23.3714160919189 16.7779769897461 9.72631454467773 10.1860933303833 9.40728855133057 10.5440053939819 7.2314600944519 3.52414226531982 8.71876335144043 6.34519004821777 5.73946380615234 4.54587936401367 5.17379283905029 4.93587493896484 4.98286151885986 4.87505769729614 4.95125293731689 4.6915454864502 4.43854904174805 4.99583435058594 4.44602346420288 5.07243824005127 6.07799673080444 10.7715625762939 38.9924697875977 6.34608697891235 4.40045738220215 8.61526107788086 17.2496280670166 22.5749740600586 11.484260559082 9.83278560638428 9.78794288635254 7.03706455230713 30.2233963012695 16.0019950866699 8.98937129974365 9.80989360809326 10.2625122070312 8.78007411956787 15.5550270080566 40.4551010131836 3.19050884246826 3.21391582489014 3.49759769439697 3.1354444026947 2.92130517959595 3.08118391036987 3.25901198387146 3.6021409034729 2.75269985198975 2.52017784118652 13.8465852737427 8.8868465423584 3.30481362342834 2.32453989982605 0.806445121765137 0.410804241895676 7.22124576568604 4.58956956863403 6.22321510314941 6.51192903518677 18.0376529693604 3.24356961250305 14.5407934188843 19.2699546813965 8.04825210571289 15.1457529067993 3.8534631729126 11.7242774963379 4.24221611022949 4.63241529464722 6.01206636428833 15.400749206543 11.1582098007202 8.2200345993042 28.4772777557373 3.99874782562256 5.86781978607178 7.03893518447876 3.97542595863342 37.6684341430664 9.04044437408447 13.9919633865356 7.54610204696655 8.03957843780518 6.94225978851318 5.32832479476929 4.21625089645386 4.42973327636719 4.56561088562012 5.54822206497192 5.27172183990479 5.10916042327881 5.20091104507446 5.22201204299927 5.09997844696045 5.32635593414307 5.35656690597534 4.69064569473267 4.59893035888672 5.66110229492188 6.22331857681274 6.10987091064453 6.08608198165894 6.36841297149658 6.08377599716187 6.2122163772583 5.57952642440796 5.28678131103516 5.20367288589478 5.25435829162598 6.76144313812256 6.80940961837769 6.9503812789917 7.70221614837646 8.17641067504883 8.90887832641602 8.6550235748291 9.18337440490723 9.0793514251709 9.69147491455078 11.072603225708 10.7559728622437 10.133412361145 11.1118574142456 9.78826522827148 10.4648218154907 9.54145812988281 10.486891746521 7.38504838943481
18.2770977020264 14.7428197860718 9.66672229766846 8.35849380493164 7.46431732177734 4.85843086242676 3.28739809989929 3.1151807308197 0.806945502758026 5.01107311248779 3.33089470863342 4.29729509353638 2.97243070602417 2.96851992607117 2.78464031219482 3.39682698249817 4.40503787994385 4.25817728042603 4.40847587585449 4.26891851425171 4.65173864364624 4.73485946655273 4.11125230789185 4.8444299697876 6.06721591949463 6.28077936172485 5.16152811050415 4.28836727142334 4.05987024307251 3.41250324249268 3.17242026329041 2.63113641738892 2.77570843696594 15.7929563522339 15.3670282363892 14.2269248962402 7.32437658309937 8.0345630645752 10.8467350006104 42.5401306152344 33.24658203125 46.5111045837402 22.8182353973389 23.00217628479 31.8535995483398 20.926607131958 16.0044956207275 10.9545230865479 10.3945579528809 11.5881700515747 6.59709310531616 7.56869220733643 9.1943416595459 6.66712713241577 5.91008234024048 4.64500427246094 5.28977727890015 4.89768218994141 5.07080078125 4.95752906799316 5.02136516571045 4.73949909210205 4.5044584274292 5.13292360305786 4.6000599861145 5.03700685501099 5.70037603378296 21.0324668884277 4.43002653121948 7.30529117584229 5.3483943939209 10.1228284835815 19.9047508239746 22.6855792999268 23.5008869171143 9.62661266326904 11.984185218811 5.75237703323364 4.01623296737671 4.09597158432007 16.13987159729 13.4380693435669 14.5282983779907 15.1270093917847 32.0643653869629 2.24977087974548 3.31288123130798 3.28371143341064 19.8440113067627 3.51279854774475 4.30816221237183 3.68390679359436 3.84205651283264 3.65934777259827 3.37759232521057 2.7219569683075 15.8997611999512 2.08007025718689 2.25872325897217 2.40259432792664 1.47217667102814 4.33885669708252 -0.166383042931557 -1.12499272823334 -1.48950743675232 5.71563005447388 -0.277684330940247 15.5059633255005 25.3273143768311 28.3614463806152 9.87502479553223 4.27479028701782 4.26050710678101 11.9556503295898 5.73573684692383 9.68912506103516 11.5326299667358 30.810188293457 15.0863552093506 6.20253896713257 3.77816295623779 16.8238697052002 3.4774158000946 3.80270862579346 4.31813430786133 4.96696996688843 41.7343559265137 24.7995300292969 10.3261795043945 8.78603363037109 7.67638874053955 6.12093353271484 5.08990001678467 4.68177890777588 4.83427667617798 5.93499326705933 5.66584062576294 5.54081249237061 5.6034951210022 5.58286571502686 5.36127853393555 5.53214931488037 5.54516983032227 4.9008617401123 4.77644968032837 5.89726543426514 6.49230623245239 6.37134981155396 6.35912895202637 6.46164608001709 6.73872327804565 6.57217931747437 6.7305908203125 6.20419073104858 5.69027662277222 5.68215179443359 5.93309879302979 7.3798131942749 7.42656707763672 8.1325798034668 8.7166051864624 9.44857120513916 9.16396236419678 9.6776819229126 9.60288238525391 10.2454357147217 11.7150764465332 11.4529705047607 10.8762445449829 11.8271379470825 10.5750894546509 11.1033782958984 10.9455051422119 11.2139892578125 10.2055358886719
23.4616260528564 22.0958919525146 11.0724925994873 9.26482009887695 8.43877601623535 5.47386121749878 3.6553168296814 3.54553985595703 0.881979167461395 5.55889415740967 3.61524844169617 4.78021907806396 3.22814798355103 3.19771385192871 2.96021580696106 3.54467058181763 4.64513540267944 4.36877012252808 4.66125583648682 4.44114303588867 4.92851161956787 5.05147981643677 4.36223840713501 5.13452863693237 6.44065713882446 6.66517448425293 5.51638269424438 4.71072149276733 4.23190689086914 3.58693623542786 3.26872110366821 2.70073795318604 2.58362436294556 18.6413383483887 17.7670421600342 16.9055881500244 8.32435321807861 9.26687049865723 12.5236396789551 4.59719228744507 34.6730880737305 10.4142847061157 23.1570606231689 23.0369281768799 50.0556602478027 28.7795658111572 20.0904674530029 11.8940849304199 11.7924489974976 13.129919052124 6.80756855010986 7.87167835235596 9.74260520935059 7.02872610092163 6.10617446899414 4.76475477218628 5.43927240371704 4.99772167205811 5.20370388031006 5.11661672592163 5.17981100082397 4.85181474685669 4.59411478042603 4.64231204986572 5.36861753463745 5.29409503936768 6.08212089538574 5.68918752670288 5.31109428405762 10.4254140853882 17.5427379608154 15.6006851196289 22.3826770782471 21.9879302978516 34.9416885375977 20.9572525024414 14.6681003570557 11.0318202972412 6.07610321044922 6.49875545501709 21.4857769012451 20.4450359344482 22.3229312896729 30.9942569732666 3.01592302322388 3.04035115242004 3.53899145126343 4.82658290863037 3.61261796951294 3.54758715629578 6.00013542175293 3.91379547119141 3.94395756721497 4.2159628868103 3.49459671974182 2.87044835090637 2.51519989967346 12.8882989883423 2.54109120368958 2.70039677619934 2.03867292404175 0.738009631633759 0.095036618411541 -0.560349583625793 3.64631366729736 -1.18004906177521 10.3828506469727 0.700083315372467 33.0430641174316 4.20359182357788 18.8630409240723 9.36414337158203 11.3329610824585 20.4384365081787 20.4736309051514 28.5954685211182 17.953784942627 5.07737922668457 24.9945793151855 15.4328746795654 7.9567699432373 3.80988311767578 10.6349277496338 4.44527673721313 5.27360153198242 5.05454540252686 4.71852493286133 15.1359548568726 16.1095676422119 11.6354951858521 8.54366874694824 6.5948634147644 5.5786190032959 4.8319034576416 5.07702732086182 6.26962900161743 6.02653694152832 5.95863151550293 5.94765138626099 6.01162147521973 5.93766784667969 5.78034114837646 5.73810195922852 5.10225343704224 4.95664548873901 5.56381320953369 6.83434629440308 6.57018423080444 6.67885065078735 6.69249963760376 7.08633279800415 6.92786884307861 7.15881681442261 6.63142108917236 6.13598203659058 6.19530010223389 6.40245151519775 7.8873987197876 7.81784105300903 8.51735496520996 9.22241497039795 10.0182323455811 9.7279224395752 10.25244140625 10.1971549987793 10.8721723556519 12.4159154891968 12.1922273635864 11.7058048248291 12.8473377227783 11.0901174545288 14.4678688049316 13.6238126754761 14.1995620727539 9.65602684020996
32.9965171813965 28.7856063842773 22.1627655029297 14.7404537200928 9.62945556640625 6.18021583557129 4.1677360534668 4.14103984832764 1.03946578502655 6.32971382141113 3.89629149436951 5.30530261993408 3.47902083396912 3.44152975082397 3.15299034118652 3.70843386650085 4.87153625488281 4.74798059463501 4.88022756576538 4.73318862915039 5.26490259170532 4.56176042556763 5.40568447113037 5.46166849136353 6.84041452407837 7.09167814254761 5.97175598144531 5.08611488342285 4.47001075744629 3.72336649894714 3.37340402603149 2.77423405647278 2.60106325149536 15.9277954101562 22.8679428100586 20.7858123779297 20.9496154785156 11.0657663345337 14.7277812957764 6.56021308898926 3.82527470588684 6.04372787475586 0.927921235561371 1.31205689907074 4.48663949966431 46.1966133117676 27.580738067627 14.9274425506592 3.42360806465149 14.1955976486206 15.8979043960571 8.22770595550537 10.36448097229 7.42478466033936 6.30402851104736 4.88083696365356 5.60634899139404 4.32823371887207 5.4032187461853 5.36861515045166 5.45269298553467 5.13756990432739 4.64305448532104 4.88948154449463 5.63921308517456 5.628089427948 6.43735551834106 7.14277648925781 6.99250078201294 20.1976642608643 32.6314353942871 16.267728805542 22.6133346557617 24.0587997436523 50.3167343139648 27.1800098419189 18.0601921081543 18.6737022399902 15.7545118331909 19.4433517456055 31.9425315856934 38.5345191955566 40.8810424804688 3.82115054130554 4.10182237625122 4.82060575485229 19.7921562194824 5.51435089111328 6.00380086898804 4.73527526855469 7.10772180557251 4.05523633956909 4.19402122497559 4.44996738433838 3.82245421409607 3.34754991531372 2.86405444145203 2.37903451919556 4.44220447540283 11.2336378097534 2.20247101783752 1.27573180198669 0.248284712433815 -0.0993295609951019 -0.967771053314209 -0.959387362003326 -0.197724491357803 6.83930349349976 1.35672008991241 8.55683135986328 6.10279178619385 9.12748146057129 7.37050580978394 35.0216407775879 10.5518264770508 4.82486057281494 17.2885608673096 33.9815902709961 12.9330015182495 4.37599468231201 14.062479019165 3.8900580406189 32.0292015075684 4.37818431854248 10.7812471389771 5.12809085845947 7.04947280883789 44.5212593078613 20.9975204467773 15.3225250244141 10.2717771530151 7.83221483230591 6.41756677627563 5.26543474197388 5.25333452224731 5.74901962280273 6.64500665664673 6.38793992996216 6.20599794387817 6.33591318130493 6.28416538238525 6.00985479354858 5.93952608108521 5.32597160339355 5.19156122207642 5.75694227218628 6.43065452575684 7.08227396011353 7.04188871383667 7.05642795562744 7.44408655166626 7.29424428939819 7.56870746612549 7.05579614639282 6.54076957702637 6.6592378616333 6.93655347824097 8.50435352325439 8.34342670440674 9.01556301116943 9.79089546203613 10.6371192932129 10.3629636764526 10.8698282241821 10.8498001098633 11.5622863769531 13.2037553787231 12.9979076385498 12.5697193145752 13.9466342926025 16.2345714569092 20.5661029815674 18.8696575164795 19.7504844665527 10.0144834518433
52.5073432922363 39.7231941223145 28.8361930847168 19.2219295501709 10.9900922775269 6.99688863754272 4.55446863174438 4.60985231399536 1.24163937568665 7.31653261184692 4.19414663314819 5.87870836257935 3.74549961090088 3.79749059677124 3.39708948135376 3.92989253997803 5.19777297973633 5.06650590896606 5.16550827026367 5.0580677986145 5.63711261749268 4.83045482635498 5.81390571594238 5.01513051986694 6.77404832839966 7.21472883224487 7.4489574432373 6.1618971824646 5.01586723327637 3.94425201416016 3.53143835067749 2.95523548126221 2.66253638267517 14.9620208740234 29.2238216400146 26.8806762695312 27.051248550415 2.83875870704651 13.4897832870483 13.095458984375 6.11237478256226 13.7498579025269 0.953912675380707 3.3781852722168 6.69073390960693 13.1484050750732 44.5116119384766 18.7463474273682 3.46246337890625 18.1422786712646 20.3098068237305 8.69882392883301 11.1648063659668 7.85162544250488 6.46603918075562 4.98381042480469 5.78727674484253 4.45670080184937 5.63154983520508 5.64923143386841 5.76144361495972 5.52298974990845 5.35099601745605 5.14656400680542 5.9480094909668 5.98884153366089 6.46450424194336 7.32077693939209 8.90657997131348 7.3873291015625 5.48908996582031 13.6988925933838 12.6923122406006 51.0250434875488 40.9593124389648 36.4896850585938 23.1595840454102 24.2805118560791 24.6111698150635 36.5754127502441 52.9748802185059 7.51341104507446 3.66782712936401 4.25445508956909 5.06978940963745 11.6726417541504 3.60769438743591 6.13061475753784 5.2262921333313 8.4532356262207 6.70970821380615 8.58191776275635 4.29570341110229 4.73346948623657 4.4018669128418 3.63447976112366 3.13749980926514 2.40910005569458 5.83909320831299 2.70466089248657 3.43926501274109 1.89002168178558 5.36988353729248 -0.0101862363517284 -0.562881529331207 -0.0803544670343399 0.125497862696648 0.953631103038788 1.57058525085449 2.46539998054504 12.7895984649658 20.148998260498 14.1964426040649 3.61810636520386 4.40763378143311 4.97080373764038 4.87494230270386 4.65404224395752 4.59579944610596 4.4263129234314 3.84180569648743 3.96141195297241 3.89734673500061 4.78656005859375 4.59254598617554 5.35190963745117 5.09556579589844 4.98067903518677 34.7343673706055 22.8954105377197 16.37255859375 14.7551965713501 7.66473245620728 5.95661020278931 5.42348003387451 5.96603298187256 6.90172338485718 6.63407564163208 6.44191932678223 6.57795286178589 6.51756811141968 6.21694231033325 6.13517475128174 5.56428289413452 5.4395112991333 5.94980955123901 6.67221164703369 7.36613130569458 7.36618661880493 7.40800285339355 7.80274295806885 7.66440296173096 7.97411584854126 7.48508262634277 6.9408917427063 7.1155366897583 7.60944223403931 9.26813411712646 9.02145195007324 9.62827014923096 10.3420438766479 11.241849899292 11.0986175537109 11.5638513565063 11.5814075469971 12.3402128219604 14.1048278808594 13.9098787307739 13.5234870910645 20.3081283569336 32.6430702209473 39.1558380126953 31.2272052764893 35.6435966491699 29.2771835327148
5.48689603805542 58.399845123291 39.3536796569824 28.3137187957764 17.2282867431641 7.78740310668945 5.13813018798828 5.32040596008301 1.50704264640808 8.83370113372803 4.80772113800049 6.87210655212402 4.10822248458862 4.14763689041138 3.46513366699219 4.0677056312561 5.39449405670166 5.40477561950684 5.48507976531982 5.41469812393188 5.18738746643066 6.00415802001953 6.27556276321411 5.32217121124268 6.19412422180176 7.74606132507324 8.02297401428223 6.63083505630493 5.38135671615601 4.1072678565979 3.85917592048645 3.0582070350647 2.70365738868713 14.5925407409668 39.4955596923828 36.5603675842285 36.8274536132812 13.8648433685303 17.3884925842285 23.284948348999 14.173677444458 23.6176738739014 7.98013877868652 6.47374391555786 19.1310863494873 10.0159730911255 12.6110515594482 25.5702571868896 13.417763710022 25.4360942840576 28.5750045776367 9.36511421203613 12.2414789199829 8.37672138214111 6.69126653671265 5.12457847595215 5.97843503952026 4.57250118255615 5.83329725265503 5.91256046295166 6.07551002502441 5.73878860473633 6.11046266555786 5.42323780059814 6.25776147842407 6.33682441711426 6.82806062698364 7.80350208282471 9.68592548370361 10.1393432617188 29.8560886383057 10.1513710021973 32.5248680114746 26.4381675720215 0.736585915088654 52.699405670166 30.7869739532471 33.6753730773926 43.1813850402832 20.5730934143066 3.40111494064331 4.01720952987671 4.80777740478516 4.34407711029053 4.15412473678589 13.2910823822021 4.92099571228027 4.43495321273804 9.15061950683594 10.6104755401611 8.56879711151123 10.0361213684082 6.24552917480469 6.22344446182251 4.50512027740479 3.9605085849762 4.1838116645813 2.64217281341553 5.61590957641602 2.86230325698853 23.5233936309814 2.41574144363403 0.963996112346649 0.679789245128632 0.243171587586403 0.807558834552765 0.375774413347244 1.25486123561859 1.5830739736557 3.128577709198 2.99335074424744 10.1989812850952 16.274169921875 4.27266597747803 4.7630352973938 5.23393201828003 5.24458789825439 4.71763515472412 5.1047534942627 4.85380983352661 4.08051490783691 4.04065704345703 4.36990642547607 4.94148588180542 5.21167469024658 5.00083875656128 5.71243762969971 5.6514368057251 24.553316116333 41.0558662414551 22.1324558258057 19.88991355896 14.0536737442017 6.92099046707153 5.59777641296387 6.18755578994751 7.17656755447388 6.87820434570312 6.66665697097778 6.81330680847168 6.74985074996948 6.42540740966797 6.32214069366455 5.78582382202148 5.67297601699829 6.13388442993164 6.90419960021973 7.61957168579102 7.64174127578735 7.72046136856079 8.14657115936279 8.02226448059082 8.39174938201904 7.9120774269104 7.66045713424683 7.56841468811035 8.23536777496338 9.97547054290771 9.69081878662109 10.2858419418335 10.3082313537598 11.3363008499146 12.1692800521851 12.3154306411743 12.2467794418335 12.5571851730347 13.4165849685669 15.301646232605 21.0455379486084 32.4359588623047 13.5916662216187 18.9743175506592 25.7334251403809 22.259069442749 49.0280876159668
1.61908602714539 -0.486705273389816 56.7032890319824 46.1194839477539 22.4805564880371 8.97856521606445 5.80883741378784 6.30834531784058 1.90306091308594 8.85847282409668 11.71790599823 8.13919830322266 4.47488594055176 4.55640268325806 3.64706611633301 4.24530744552612 5.74569892883301 5.50379371643066 5.83578014373779 5.63632965087891 5.76022911071777 6.4572319984436 6.81644201278687 5.69997215270996 6.66083145141602 8.35397243499756 8.65376949310303 7.15754318237305 5.81207656860352 4.29665184020996 4.01581764221191 3.65195679664612 2.76971817016602 12.3376321792603 57.7180595397949 54.7799339294434 55.5864486694336 17.7598094940186 24.6983242034912 32.4200248718262 7.0701961517334 20.0797672271729 13.6848764419556 12.2018918991089 3.98212218284607 10.724928855896 17.485595703125 42.0943069458008 20.7291812896729 42.3654251098633 46.4438438415527 10.1449680328369 13.8080472946167 9.12815952301025 6.6381630897522 7.08813905715942 6.19605827331543 4.70128059387207 6.08990430831909 5.62198638916016 6.42701101303101 6.02073764801025 6.64126825332642 5.71914434432983 6.58160400390625 6.70360517501831 7.20038223266602 8.44017601013184 10.5096054077148 11.1364660263062 6.6711311340332 11.2986030578613 50.3902549743652 18.3712139129639 0.80491715669632 2.64513874053955 47.0888442993164 51.698314666748 8.67066287994385 3.87933802604675 5.22948408126831 5.59842586517334 5.2331223487854 4.62256956100464 13.0201253890991 3.15773606300354 5.10471296310425 4.77118921279907 10.2482624053955 14.5748672485352 16.7567501068115 14.502911567688 6.21032524108887 4.84693670272827 4.83315753936768 4.2679295539856 3.987300157547 3.44895148277283 2.64046144485474 20.5951251983643 2.77083420753479 11.7631330490112 2.16969966888428 1.37512648105621 2.16535687446594 1.44414961338043 1.51164507865906 1.93904078006744 2.55509400367737 3.28383159637451 6.27881765365601 3.8892195224762 4.04788637161255 4.42013216018677 5.14032649993896 5.74679803848267 9.10937786102295 9.24927139282227 5.67779016494751 5.46407222747803 4.42691802978516 4.61271810531616 5.10725831985474 5.70282316207886 5.35604667663574 5.00607109069824 5.80561065673828 12.1559915542603 4.47902679443359 4.62669515609741 32.2413597106934 29.5791797637939 19.144401550293 13.8361682891846 5.79322624206543 6.38846445083618 7.44475793838501 7.12564516067505 6.90246915817261 7.06131076812744 6.98867321014404 6.65511274337769 6.516526222229 6.01844072341919 5.90352487564087 6.3253755569458 7.14730978012085 7.87924909591675 7.91032981872559 8.01760196685791 8.47470569610596 8.38052654266357 8.8111743927002 7.79479694366455 8.32077407836914 7.68273591995239 8.8231143951416 10.6643981933594 10.3760757446289 11.1113014221191 10.7998933792114 12.279691696167 12.9942827224731 12.731972694397 13.3255214691162 13.6321563720703 23.7127876281738 16.0343399047852 14.5817737579346 12.4842262268066 13.9060544967651 10.1286535263062 11.4428176879883 9.79249286651611 11.385232925415
6.611083984375 5.75352668762207 -2.64596819877625 11.2330169677734 31.1753520965576 19.862340927124 6.63151502609253 7.50859117507935 2.22589612007141 7.64827489852905 15.3636102676392 8.57857894897461 10.4825162887573 5.01421642303467 3.81886458396912 4.45918273925781 6.18814516067505 5.85797595977783 6.27282857894897 6.23579025268555 6.20999050140381 6.97881078720093 7.47931671142578 6.1646089553833 7.20147800445557 9.04243469238281 9.39600944519043 7.80508232116699 6.34215545654297 4.51933670043945 4.18544054031372 3.82131004333496 2.98946928977966 2.9831178188324 0.413508683443069 22.0327243804932 3.39550280570984 24.4406852722168 41.5646095275879 51.0956954956055 51.6089286804199 2.00662636756897 24.1660118103027 13.4749441146851 6.01734685897827 0.568147957324982 1.1841287612915 8.65551948547363 26.0977210998535 1.77463114261627 2.57891917228699 11.0278539657593 16.0921993255615 10.4275722503662 7.00719261169434 7.47641515731812 6.49196195602417 4.90630388259888 6.42038917541504 6.00523042678833 6.87392425537109 7.11525201797485 7.20274496078491 6.00921392440796 6.9078049659729 7.07854700088501 7.67642498016357 9.19255065917969 11.4864530563354 12.2954444885254 10.4376707077026 15.3120946884155 3.40323758125305 22.2941493988037 0.918704807758331 5.5892767906189 3.01857328414917 3.32187390327454 4.05503177642822 8.44367790222168 5.66281175613403 5.67571926116943 5.46180963516235 12.5649738311768 14.0075950622559 5.69216871261597 5.3675217628479 5.07912921905518 15.4269409179688 23.901065826416 3.55803871154785 19.629186630249 10.6172399520874 4.9373984336853 5.10009431838989 4.88676881790161 4.23952674865723 3.83844566345215 3.26572918891907 2.74999618530273 3.14962673187256 14.4924716949463 2.40583944320679 2.01988124847412 16.7824935913086 1.71013259887695 2.31046485900879 2.49815845489502 2.93555307388306 3.68422603607178 3.27339744567871 3.94203639030457 4.44435977935791 5.74424695968628 5.29439067840576 5.85994243621826 6.36952972412109 6.3846287727356 6.35637331008911 5.82659721374512 5.86440896987915 5.4743013381958 6.08056783676147 6.65223360061646 6.58120441436768 6.02119970321655 6.22753095626831 6.09090518951416 5.22286033630371 4.89152526855469 35.8544654846191 49.9124603271484 28.6366100311279 18.950870513916 6.02924776077271 6.50111627578735 7.7099084854126 7.38113164901733 7.1506667137146 7.3240008354187 7.23852968215942 6.89406633377075 6.84234666824341 6.62375020980835 6.15172672271729 6.49514389038086 7.4095253944397 8.15357112884521 8.19809532165527 8.34201049804688 8.83111190795898 8.71179008483887 8.49544715881348 9.21320247650146 8.74658393859863 8.14310836791992 9.41646671295166 11.37890625 11.7001781463623 13.4275741577148 12.0251169204712 13.5491037368774 14.0676918029785 13.6772146224976 14.2198705673218 14.6198673248291 13.4446935653687 16.0686283111572 15.9240922927856 13.7440729141235 15.7303762435913 12.3547630310059 13.5067043304443 13.9567394256592 13.8704013824463
-2.42392778396606 -2.62174892425537 3.43462133407593 5.5592098236084 48.942512512207 25.5952072143555 7.67802000045776 8.90241050720215 2.68146586418152 -0.196916207671165 22.4742832183838 2.4485342502594 13.4370622634888 5.54636859893799 3.98990774154663 4.68343067169189 6.11087322235107 6.62977743148804 6.81184244155884 6.72234392166138 6.71029329299927 7.61023283004761 8.25590515136719 6.700767993927 7.82740545272827 9.86110687255859 10.2698154449463 8.54868030548096 6.97545003890991 5.87760162353516 4.41193628311157 3.95921635627747 3.07692241668701 3.11433887481689 0.737172365188599 0.18467703461647 6.66958522796631 39.7712707519531 1.42215347290039 1.04775643348694 0.831843435764313 23.8383617401123 9.00597190856934 0.99931126832962 7.69978857040405 2.95997071266174 0.926765382289886 10.0642709732056 40.195369720459 3.68969774246216 10.6307306289673 12.3532018661499 17.7688446044922 20.025390625 7.53884744644165 8.00063514709473 5.92000913619995 7.00493812561035 6.52688217163086 6.97131824493408 7.32088947296143 7.56557703018188 7.79475259780884 6.31547594070435 7.67601299285889 7.37456512451172 8.37090015411377 10.0219898223877 12.682692527771 13.6933469772339 11.5383720397949 26.8822994232178 3.58909511566162 -0.0993321612477303 0.957654654979706 3.16180491447449 3.82961773872375 5.39243125915527 5.44068908691406 5.34178829193115 6.19041919708252 5.7715802192688 5.88982439041138 26.3110485076904 4.48896074295044 6.57774353027344 5.89317798614502 5.74860811233521 23.4500560760498 3.8544065952301 3.57188963890076 3.78356909751892 8.29106521606445 5.04697227478027 5.24029064178467 5.09947204589844 4.57086133956909 3.93575882911682 3.52365779876709 3.08011817932129 3.40041565895081 2.77820515632629 2.75851607322693 2.09627318382263 1.55884528160095 1.8313056230545 2.50113153457642 2.77952361106873 3.3673779964447 3.97559142112732 3.84453368186951 4.87291431427002 5.19508361816406 5.45447683334351 6.64969301223755 9.28482627868652 12.2878437042236 6.69865703582764 6.44540691375732 6.86853790283203 6.786292552948 14.4311571121216 7.07177257537842 12.4666061401367 13.7322473526001 9.64725303649902 6.55248403549194 6.52062892913818 5.48207092285156 7.80273580551147 3.16987872123718 3.20706820487976 48.8251953125 28.1053276062012 14.7218532562256 7.49976587295532 7.9942364692688 7.64925909042358 7.41171598434448 7.60245609283447 7.50666522979736 7.15479564666748 7.30917501449585 6.94487571716309 6.41051626205444 6.76392459869385 7.68235158920288 8.44871044158936 8.51697063446045 8.67036914825439 9.19271373748779 9.0836181640625 8.90385627746582 9.64215469360352 9.18733310699463 8.53122425079346 10.0107707977295 12.104510307312 11.8391437530518 14.8749876022339 17.1029605865479 15.1166791915894 15.6380453109741 16.6862163543701 15.3440494537354 15.7904891967773 23.6386947631836 17.6733303070068 17.4992942810059 16.2557544708252 16.7690277099609 13.3971738815308 14.5973033905029 15.5201787948608 15.8475999832153
-2.004070520401 -2.29832291603088 4.51964139938354 10.516001701355 9.476975440979 34.905200958252 16.4609432220459 1.24175250530243 11.7355251312256 0.724987268447876 39.9179420471191 9.80807685852051 19.4071521759033 6.23572826385498 4.17266082763672 4.02719068527222 6.01027202606201 7.20925140380859 7.43442487716675 7.27647972106934 7.32044649124146 8.33872985839844 9.19789123535156 7.34367370605469 8.60458755493164 10.9369382858276 11.3805513381958 9.46673393249512 7.77778577804565 6.40240287780762 4.76189994812012 4.1451358795166 3.23743319511414 3.23150062561035 1.07991528511047 1.643226146698 0.620524942874908 7.614089012146 3.28026390075684 3.7311327457428 1.52043652534485 0.327268928289413 0.51497894525528 1.13766288757324 20.6423320770264 14.5982637405396 1.86739432811737 17.8625450134277 31.0213584899902 3.7474672794342 12.2719783782959 14.2915382385254 16.9454650878906 25.3784732818604 14.8959169387817 8.66274356842041 6.30471801757812 7.45277500152588 6.8577094078064 7.42213296890259 7.8914475440979 8.09809875488281 8.47783470153809 6.64422130584717 9.00754451751709 8.01714611053467 9.08459949493408 11.0235300064087 14.1774129867554 15.4949169158936 12.9335985183716 8.59993839263916 5.73775863647461 2.65510416030884 1.60654783248901 14.1531400680542 6.32108545303345 6.00842142105103 6.69422769546509 7.23573637008667 7.78197526931763 6.12470149993896 6.58567810058594 4.983642578125 7.78827047348022 7.41052103042603 6.31673288345337 6.30032968521118 3.54273223876953 10.470067024231 3.636390209198 3.98469376564026 4.71606111526489 5.18578100204468 5.32523488998413 5.17059183120728 4.98652601242065 4.53518676757812 4.05473709106445 3.61219239234924 18.8058547973633 2.85369825363159 3.22307825088501 3.10959577560425 2.61648559570312 1.76915192604065 2.80671358108521 2.90234756469727 3.60841464996338 4.11557769775391 4.45689964294434 5.5741400718689 5.95940113067627 13.016263961792 15.7776746749878 26.6466636657715 7.0393590927124 6.88996315002441 7.14910888671875 7.95709896087646 7.53891181945801 7.07806634902954 7.82052326202393 6.55121660232544 7.24021196365356 6.93281936645508 6.69968938827515 6.33093118667603 7.26108121871948 19.2233180999756 4.17303133010864 9.81811428070068 4.43222379684448 47.8625869750977 19.7209987640381 8.83728408813477 8.29985046386719 7.94079160690308 8.07091808319092 8.02515697479248 7.80095911026001 7.68094253540039 7.88036298751831 7.16717386245728 6.52662134170532 7.04938316345215 7.98629522323608 8.7612247467041 8.82424163818359 9.02802276611328 9.53160858154297 9.62112903594971 9.49856567382812 10.0913286209106 9.64766120910645 9.04284763336182 10.6701259613037 12.8804016113281 12.5909976959229 19.5363845825195 22.2151679992676 16.6504440307617 20.4335060119629 21.4876155853271 16.604621887207 17.2169570922852 32.9650993347168 21.4283294677734 18.2126388549805 21.2119789123535 16.6282024383545 16.4581165313721 18.1542510986328 18.3310680389404 19.2005634307861
1.0833328962326 -2.21722221374512 7.25295114517212 3.32957601547241 9.40058040618896 53.0814552307129 21.3671970367432 11.6259641647339 15.4174137115479 4.31736278533936 -1.01464688777924 13.3395290374756 35.3107757568359 7.29061603546143 2.19736766815186 4.58494424819946 5.62482929229736 7.81313467025757 8.20437812805176 8.00173187255859 8.04940986633301 9.22533512115479 10.4355735778809 8.19812202453613 9.67266941070557 12.3203840255737 12.8099460601807 10.8682374954224 8.74868488311768 6.89087677001953 5.16399145126343 4.40008592605591 3.39732313156128 3.36342239379883 1.11657893657684 0.589415967464447 3.92059421539307 1.22758209705353 4.08481311798096 3.02834057807922 20.2538909912109 18.9674682617188 2.28004121780396 1.38488876819611 0.72868549823761 0.583905577659607 5.40596055984497 0.931938409805298 0.7366903424263 3.8874135017395 14.2124109268188 16.7604503631592 7.41363954544067 35.1035308837891 19.795431137085 9.43371486663818 6.67874431610107 7.90826034545898 6.79143095016479 7.96354866027832 8.60437393188477 8.73874759674072 9.20620155334473 6.91960144042969 8.03823661804199 10.9398612976074 9.92116451263428 12.2114601135254 16.0073776245117 17.8178024291992 14.654899597168 13.6765298843384 8.85702705383301 6.03490447998047 4.1795072555542 7.45757913589478 7.10749530792236 6.55030822753906 7.28169679641724 7.50718069076538 15.4817295074463 6.39468622207642 11.6565132141113 6.78383159637451 10.6898174285889 8.18948554992676 6.76286506652832 6.69291543960571 3.97687602043152 4.04914951324463 4.07167196273804 4.60318660736084 5.10646104812622 5.23922157287598 5.43753433227539 5.3260440826416 5.11055850982666 4.8448281288147 4.36906814575195 3.89864706993103 3.93812656402588 3.74430084228516 9.03359317779541 3.29223561286926 2.77533650398254 2.75769996643066 2.90731811523438 3.68753552436829 4.1151123046875 4.23580980300903 4.55145740509033 6.45047044754028 9.02186584472656 13.5894908905029 9.33779811859131 6.95564222335815 7.20211219787598 7.58956384658813 7.38699674606323 9.48247241973877 7.75451278686523 7.23424434661865 8.01807594299316 7.68345022201538 10.7595949172974 7.29684019088745 6.86589097976685 6.39543628692627 7.58425521850586 5.64118146896362 4.90500402450562 3.70299983024597 23.7771778106689 4.23781633377075 28.8841781616211 11.0575294494629 8.78540515899658 8.25741004943848 9.10893726348877 8.75818729400635 8.29118824005127 8.3351526260376 8.54545116424561 7.68770551681519 7.12797927856445 7.03905153274536 8.28324890136719 9.07948684692383 9.16681098937988 9.21779537200928 9.72673511505127 10.020001411438 9.89855480194092 10.5694255828857 10.1113443374634 9.81791591644287 9.75532531738281 11.4189052581787 13.7772359848022 35.3324928283691 31.5108623504639 22.834846496582 29.3094863891602 30.7693576812744 18.8573589324951 19.4638061523438 16.6777515411377 21.7333393096924 18.248987197876 16.9489078521729 22.7265892028809 19.4733982086182 20.496561050415 22.5279293060303 42.8880462646484
26.2020587921143 -1.64958918094635 31.6242141723633 -2.4674859046936 -0.430461853742599 -2.25642967224121 29.3434295654297 15.3814115524292 22.8222103118896 6.32323360443115 -1.19340837001801 20.3284587860107 2.72929358482361 9.56152629852295 9.40976524353027 4.81398868560791 6.01164627075195 8.37036228179932 9.23748779296875 9.05521965026855 8.927978515625 10.3569269180298 12.0861473083496 9.367995262146 11.0726766586304 14.0016479492188 14.6789512634277 12.9404153823853 9.86937808990479 7.49766159057617 5.72863149642944 4.74038743972778 3.59850096702576 3.49848484992981 1.35937678813934 0.878821134567261 0.779764533042908 2.92652249336243 2.93613004684448 3.07393217086792 35.6821517944336 1.46586418151855 3.28072381019592 2.09407353401184 1.03423643112183 1.09261429309845 7.7949800491333 5.46988964080811 9.38322353363037 3.99107956886292 4.0135760307312 17.2719802856445 20.5457973480225 54.7993392944336 28.0992622375488 10.318263053894 7.18285369873047 8.49273681640625 7.15799903869629 8.5778751373291 9.43490028381348 9.45197296142578 10.0788269042969 7.20880937576294 7.73237562179565 13.5114097595215 10.8756713867188 13.6370220184326 18.2574043273926 17.5923900604248 20.7958393096924 16.4190673828125 15.8464765548706 15.4990339279175 4.7072582244873 27.2381076812744 8.49382591247559 7.84132766723633 8.48366641998291 8.33642959594727 5.65097904205322 7.47019338607788 8.12646865844727 16.0577697753906 15.9720163345337 9.43224716186523 7.47783994674683 7.59703922271729 4.14476251602173 4.59546613693237 5.51295900344849 4.79063129425049 5.29164981842041 5.35509490966797 5.56934928894043 5.37026643753052 5.4397497177124 5.21598720550537 4.7854471206665 4.41487598419189 4.75871324539185 4.40686893463135 3.7441520690918 18.3994541168213 7.38109827041626 13.8571062088013 3.80363249778748 3.93828678131104 4.47607946395874 4.99159860610962 5.884446144104 6.34229803085327 7.16999006271362 6.67262125015259 14.0294675827026 15.3820676803589 26.2224884033203 10.2421274185181 18.5646572113037 16.9240531921387 8.02663707733154 8.13824558258057 8.44676113128662 7.99435567855835 8.99293231964111 8.99180030822754 8.4803991317749 8.22656631469727 8.53980255126953 6.69999647140503 9.53036975860596 4.08814859390259 3.46419095993042 8.02940940856934 48.0599708557129 16.6175727844238 14.0016756057739 11.3698682785034 10.405065536499 9.64743900299072 9.04898643493652 9.09771919250488 9.33431339263916 8.3569860458374 7.4374852180481 7.34271717071533 8.61604404449463 9.4162073135376 9.52107715606689 9.61254119873047 9.81810665130615 10.4545221328735 10.327184677124 11.0560884475708 10.5782146453857 10.9261131286621 10.335618019104 12.1754951477051 14.7352685928345 19.3110427856445 50.2635307312012 39.4848327636719 48.030460357666 49.8750686645508 23.4822158813477 22.3230133056641 14.7159395217896 17.5036354064941 19.3659000396729 20.7573051452637 30.2875156402588 31.4518566131592 34.006893157959 22.9622478485107 21.54323387146
1.26262927055359 11.9243478775024 -2.65200161933899 3.7845311164856 17.391508102417 1.43120336532593 46.6285743713379 21.8473720550537 40.7839508056641 10.0606021881104 -0.988757431507111 37.3827247619629 -0.398388624191284 15.5145301818848 12.4812431335449 5.11913871765137 6.50690460205078 9.00701999664307 10.2349987030029 10.3789415359497 10.0114889144897 11.7826137542725 14.3957233428955 10.9633331298828 12.8467702865601 16.2181835174561 16.8955020904541 16.0203189849854 15.5036554336548 8.22411727905273 6.16912841796875 5.15665245056152 3.85126543045044 3.35348653793335 3.52637147903442 3.17886209487915 3.10278940200806 3.17494821548462 2.9368588924408 3.15502309799194 2.15676045417786 3.79952883720398 4.0265326499939 2.90322494506836 1.61626994609833 1.7639217376709 1.59758007526398 1.62878310680389 1.78554463386536 4.14255905151367 3.90969753265381 19.175407409668 24.0261688232422 10.530553817749 45.8016014099121 11.3015213012695 7.69217777252197 9.19883441925049 6.94304847717285 9.28461456298828 10.3653841018677 10.2229290008545 11.0422334671021 6.91062307357788 8.20962142944336 18.2152423858643 12.0692710876465 15.4169149398804 17.1684303283691 21.0218544006348 25.5227642059326 19.9328804016113 17.3348693847656 22.5112247467041 19.813362121582 3.54489779472351 10.6739740371704 10.0821590423584 10.39772605896 13.3588104248047 6.50877523422241 9.04343223571777 9.35891723632812 5.70257520675659 28.6134662628174 11.1443653106689 8.39638710021973 8.6546049118042 6.57772207260132 4.59926319122314 4.69549226760864 6.16746950149536 5.42243623733521 5.49278211593628 5.75659084320068 5.72445821762085 5.57680654525757 5.33187770843506 4.94000482559204 4.63958501815796 4.89343023300171 4.44875431060791 4.35051155090332 3.30486869812012 3.35532855987549 16.6320037841797 5.60945606231689 7.86859369277954 5.49045705795288 5.92656087875366 6.08551931381226 6.58074426651001 7.21690464019775 6.71520709991455 7.00331497192383 7.43567419052124 7.53081369400024 7.46100664138794 7.49348163604736 7.9632043838501 8.34258937835693 8.78379726409912 8.67750358581543 9.41574478149414 9.99667167663574 9.85091400146484 8.52803802490234 8.44897937774658 9.12748718261719 7.53164005279541 6.00000524520874 8.96604061126709 4.98790979385376 4.52692127227783 4.49727535247803 30.5646648406982 18.4617710113525 15.0828723907471 12.1215600967407 10.7302370071411 9.92723751068115 9.98755645751953 10.2401781082153 9.08141803741455 7.7715539932251 7.68670129776001 8.04650974273682 9.78768730163574 9.82987022399902 10.0302295684814 10.253023147583 10.9267292022705 10.7693653106689 11.5501251220703 11.3042583465576 12.1898040771484 11.0498485565186 12.9356546401978 15.6906156539917 11.7527656555176 11.2719736099243 17.0918636322021 15.3784103393555 13.9497737884521 36.356201171875 25.9145088195801 23.3206520080566 25.7543544769287 24.0461769104004 30.1603927612305 23.7326583862305 22.6632709503174 23.1180953979492 25.3705654144287 18.3887367248535
18.8654880523682 -1.42166805267334 -1.91333985328674 -2.29214215278625 -2.39758539199829 -1.96216356754303 -1.7908548116684 36.1613426208496 -1.22925269603729 13.518138885498 0.74521815776825 -0.193630918860435 1.59928035736084 11.9074945449829 18.9446868896484 5.58685493469238 7.21551561355591 9.92035961151123 11.6056089401245 12.006275177002 11.3422679901123 13.651460647583 10.7209959030151 17.8830585479736 15.3266649246216 19.0404472351074 19.6282806396484 20.8580474853516 20.2102355957031 9.08817386627197 6.74411821365356 5.66667604446411 4.65023612976074 3.60391926765442 3.71957325935364 3.33170771598816 6.21114587783813 5.23530626296997 3.09377813339233 3.28308296203613 3.07489371299744 4.02960109710693 4.28107309341431 3.91301012039185 2.52178168296814 1.77000439167023 2.00737309455872 8.96086120605469 2.51341986656189 4.34535455703735 3.93592524528503 24.4660263061523 29.3043422698975 2.07305574417114 3.94157457351685 12.519172668457 8.31573677062988 10.0434370040894 7.5302734375 9.99756908416748 11.1471033096313 10.919734954834 12.024377822876 8.0723991394043 8.84463691711426 31.0365600585938 13.4327898025513 14.8807039260864 17.47336769104 26.2692680358887 34.5244102478027 27.5160789489746 24.6162567138672 32.9117126464844 35.0975341796875 21.6883068084717 17.1135902404785 15.8665828704834 15.6414022445679 18.4727020263672 10.3865737915039 10.7534141540527 13.4147033691406 8.67890930175781 7.64302778244019 15.0148019790649 14.1821603775024 10.0854377746582 8.31181716918945 9.17581081390381 8.62896728515625 8.27946090698242 5.10593461990356 5.58355522155762 5.95108842849731 5.86048126220703 5.71076393127441 5.46401214599609 5.04948377609253 4.70431423187256 5.02684020996094 4.66321229934692 4.5076470375061 4.34626722335815 3.54995918273926 3.17646074295044 17.1092433929443 28.7715187072754 17.1651973724365 13.7153568267822 9.60311031341553 6.95408344268799 7.75757360458374 7.38422107696533 8.87658500671387 8.13350868225098 8.33778095245361 7.99918460845947 7.74624967575073 8.80891227722168 9.08411026000977 10.0066232681274 10.4261074066162 10.4149780273438 11.909218788147 11.9570837020874 10.7260074615479 10.2155666351318 10.0386028289795 9.13522338867188 8.2103385925293 5.05880832672119 5.77965784072876 5.42039394378662 5.4908299446106 11.2661924362183 26.5056667327881 22.1049652099609 15.8767347335815 12.0011425018311 11.0098056793213 11.0554075241089 11.328911781311 9.93336391448975 8.13250255584717 8.05392169952393 8.43179321289062 9.3547477722168 10.2546453475952 10.473614692688 10.7008190155029 11.4028396606445 11.1995038986206 12.0456008911133 12.315089225769 13.7905673980713 11.6576528549194 14.8614101409912 16.6931953430176 12.7621192932129 12.9885854721069 17.307731628418 21.8429946899414 22.7371292114258 28.281135559082 25.5030345916748 23.558614730835 28.094518661499 26.4915161132812 22.4367771148682 26.3577899932861 24.1202163696289 23.0681667327881 22.7006988525391 22.7218894958496
-0.0951524376869202 -0.45520880818367 -1.52829313278198 -1.47202944755554 -0.344834059476852 -1.19821500778198 32.7798194885254 10.0161790847778 3.47969937324524 -0.482884973287582 1.14655375480652 12.752516746521 0.499670684337616 28.5208721160889 35.7378005981445 6.26117658615112 8.28346347808838 11.1532459259033 13.6203145980835 13.9707889556885 13.1290073394775 16.255651473999 14.0557641983032 23.6144180297852 16.207878112793 18.691068649292 23.0888481140137 29.7044448852539 28.8086185455322 16.4534912109375 7.45925283432007 6.23979663848877 5.07852077484131 3.90383076667786 3.95632576942444 3.5903697013855 13.5462341308594 12.6079406738281 3.39490413665771 3.54580330848694 4.67533111572266 4.28847742080688 4.55039739608765 3.75967574119568 2.90934443473816 24.2790412902832 3.32704758644104 3.15711688995361 3.32977056503296 4.58374118804932 4.20310926437378 42.6119232177734 47.262866973877 2.50889801979065 12.0622215270996 13.9731540679932 9.10395240783691 10.9751720428467 8.13759899139404 10.5877962112427 11.5837879180908 11.411169052124 13.4104900360107 12.2063894271851 9.72487354278564 7.05309009552002 10.9732303619385 14.7512454986572 21.4305648803711 34.9873809814453 52.6225509643555 46.1201858520508 43.012077331543 52.4778709411621 26.5658569335938 18.9224166870117 22.8251914978027 21.5129013061523 21.5594100952148 35.3166427612305 11.5756969451904 12.2150421142578 14.2934646606445 20.0753555297852 18.3463764190674 26.3188419342041 18.5843276977539 12.1479244232178 11.2781934738159 11.7978391647339 13.7531118392944 12.5837383270264 5.27085113525391 5.72606897354126 6.15800714492798 6.00391817092896 5.86385011672974 5.60080575942993 5.28667020797729 5.18025732040405 5.17467498779297 4.84834289550781 4.67840242385864 4.58772754669189 4.39436483383179 3.91228485107422 3.40401649475098 3.83035612106323 4.63605642318726 5.09483289718628 15.6037244796753 13.0114517211914 7.76437854766846 8.32786560058594 9.99176025390625 8.93964004516602 8.96705150604248 9.13344860076904 8.84511661529541 10.3610572814941 10.4597358703613 14.8470907211304 13.0722999572754 12.0423154830933 13.053370475769 13.2426462173462 12.5409088134766 11.9264268875122 12.2387628555298 10.7845993041992 9.4129638671875 9.07643127441406 13.8649702072144 26.4189872741699 17.566291809082 18.613842010498 26.0048809051514 38.3126373291016 22.9594268798828 18.046968460083 12.7108879089355 12.4264059066772 12.6311445236206 10.9687938690186 8.52776336669922 8.44023418426514 8.80264759063721 9.70044136047363 10.6446924209595 10.903094291687 11.1137943267822 11.8616008758545 11.6569309234619 12.5520582199097 13.4342632293701 12.4126100540161 15.8615865707397 19.0516700744629 17.6986026763916 26.8020801544189 27.1669044494629 27.4348449707031 36.6102447509766 17.6780910491943 18.4381275177002 25.9723148345947 28.8313808441162 28.7630252838135 25.6343669891357 24.5387916564941 24.5924015045166 31.5391979217529 28.1255474090576 25.575870513916 21.7013263702393
1.77491271495819 2.00998330116272 0.836960971355438 0.461471557617188 0.45431587100029 -0.0668416246771812 -0.215825408697128 -0.278184652328491 1.33957946300507 2.3383412361145 0.882349729537964 0.60846996307373 1.03464639186859 0.0910464748740196 -0.106906943023205 7.18436813354492 9.8639440536499 12.9717559814453 15.7957324981689 14.2304735183716 17.0582122802734 14.6808042526245 20.1893558502197 33.1455383300781 21.2413234710693 24.4397354125977 29.7874145507812 48.9747772216797 47.8287925720215 21.4766292572021 8.37390422821045 6.76700448989868 6.0063738822937 4.22038602828979 4.25971221923828 3.6120457649231 3.12013912200928 3.30973172187805 3.8337414264679 3.93493700027466 5.01135063171387 4.56541538238525 4.85515165328979 3.98783993721008 4.4459662437439 3.63417506217957 3.65528035163879 4.94247436523438 4.9109034538269 4.93407535552979 4.62333345413208 2.49528932571411 2.39200568199158 3.91628813743591 12.8112916946411 15.291576385498 9.99515151977539 12.2229824066162 8.95205593109131 11.6908197402954 13.1205883026123 12.6780033111572 9.02715492248535 14.3194398880005 10.8082399368286 10.7366952896118 13.8576469421387 18.7968845367432 29.5842933654785 53.46142578125 5.23336267471313 9.80078220367432 17.0800037384033 6.29162311553955 5.01618623733521 20.8728179931641 32.9018402099609 31.3062400817871 31.3771877288818 18.6995754241943 13.5880298614502 16.9104499816895 14.4551725387573 44.3018646240234 43.7383422851562 15.903977394104 26.5894546508789 17.886043548584 16.3388118743896 23.8095874786377 24.1681289672852 15.5361976623535 5.453941822052 5.86365985870361 6.37738132476807 6.16125726699829 6.00354909896851 5.75547170639038 5.41304492950439 5.29875898361206 4.89595794677734 5.5094633102417 5.04368305206299 4.87167882919312 4.65212535858154 3.95167708396912 4.1241569519043 4.75933742523193 5.44837856292725 6.12617206573486 5.8805365562439 6.74361419677734 19.589183807373 27.311487197876 20.3296070098877 10.4980096817017 9.74896144866943 10.1218585968018 10.4870691299438 12.1945762634277 18.2767372131348 20.7705497741699 18.6865978240967 13.4202489852905 13.8237543106079 14.1262359619141 14.0462760925293 13.2382659912109 12.9970178604126 11.509654045105 9.70077514648438 14.6601514816284 21.8947925567627 5.81855344772339 6.66786289215088 6.00218868255615 6.62605905532837 8.5770149230957 39.6294288635254 23.4407215118408 17.0961647033691 14.2623777389526 14.2204904556274 12.1688508987427 8.92377185821533 8.82328414916992 9.17206192016602 10.0310115814209 10.9997758865356 11.2764091491699 11.5193452835083 12.3096990585327 12.1348829269409 13.0859861373901 14.8454875946045 13.8635005950928 19.2785606384277 30.2270278930664 23.5283164978027 17.5509204864502 36.1766014099121 19.7176380157471 19.0313034057617 21.6833801269531 27.2840938568115 30.1634616851807 32.3732795715332 31.2176685333252 29.6047420501709 25.9448986053467 25.3061447143555 28.3891983032227 28.1162166595459 27.6198139190674 18.6643314361572
2.35680985450745 2.66031980514526 1.45740401744843 0.861100137233734 0.540347635746002 0.543341517448425 0.625819325447083 0.735226273536682 0.75789475440979 0.872539937496185 0.893552720546722 1.17208027839661 1.31347262859344 1.26740753650665 1.43650579452515 8.50664329528809 12.4645662307739 15.2928829193115 15.6898431777954 19.3026561737061 22.2588481903076 19.1631164550781 26.3511142730713 52.160285949707 30.5083084106445 34.5168342590332 40.8267402648926 17.6071605682373 9.97908782958984 30.6659660339355 9.5775899887085 7.51820087432861 6.47870540618896 5.00239562988281 4.58619546890259 3.92454528808594 4.44012069702148 4.66093349456787 4.20329093933105 4.32142400741577 5.40598344802856 4.85288000106812 5.14414262771606 4.20788192749023 4.69003868103027 5.26981735229492 5.61312484741211 5.3431544303894 5.2738208770752 5.28450632095337 5.04180860519409 4.12102603912354 3.07510924339294 4.12429141998291 6.4885835647583 17.4863262176514 20.024995803833 13.8395433425903 10.0659370422363 13.3039665222168 12.4843502044678 16.6566486358643 12.8076686859131 20.9120674133301 9.07394981384277 12.3454923629761 17.5307197570801 25.8721809387207 47.4007682800293 6.0794677734375 5.51185941696167 13.8258447647095 6.45337200164795 4.31134605407715 7.13985967636108 7.02972602844238 53.0831069946289 51.6288032531738 51.1034774780273 9.10171222686768 14.1596670150757 9.09670734405518 13.4607152938843 6.30609607696533 5.44281530380249 32.537166595459 31.7696781158447 19.3508224487305 16.4906978607178 8.80376148223877 9.21348667144775 4.62045478820801 5.64758682250977 6.01830053329468 6.62648010253906 6.31440019607544 6.17723703384399 6.04301023483276 5.62438201904297 5.42317295074463 5.0461540222168 5.61993455886841 5.18765497207642 5.02181196212769 4.88894176483154 4.15449523925781 4.15349960327148 4.78715324401855 5.29438734054565 6.24819278717041 7.22238254547119 7.205002784729 7.973952293396 8.23743438720703 11.2179851531982 10.7048397064209 10.3671751022339 21.9085750579834 12.135404586792 18.943359375 35.8462753295898 40.4484634399414 32.0675506591797 19.5321292877197 14.9142408370972 15.0102729797363 14.8418865203857 14.527624130249 13.7642650604248 12.6524820327759 10.265287399292 7.15177011489868 6.26966333389282 6.03619241714478 5.4963550567627 6.02156543731689 6.94841861724854 8.58136463165283 8.84782218933105 31.5848388671875 21.4273300170898 18.3224258422852 16.1911697387695 13.5103130340576 9.29200744628906 9.19229888916016 9.5629768371582 10.3912305831909 11.4131050109863 11.6731548309326 11.9524574279785 12.767861366272 12.4900989532471 12.55739402771 16.6883277893066 13.9195547103882 25.8257026672363 13.2100048065186 18.1721878051758 19.7509918212891 33.5155181884766 15.884669303894 29.7750549316406 26.2626705169678 22.1993637084961 25.8152542114258 32.4959373474121 27.9530601501465 27.8617992401123 27.5315418243408 23.8559093475342 29.1772842407227 13.5142583847046 40.2077598571777 1.43194878101349
3.01479172706604 3.22993969917297 1.83474695682526 1.24404072761536 0.611264646053314 0.604224503040314 0.67721164226532 0.862777709960938 1.02307367324829 1.17775475978851 1.21574723720551 1.46202480792999 2.4398250579834 1.33148789405823 1.77235984802246 9.8042049407959 12.0626382827759 17.4273109436035 18.2301235198975 24.8761253356934 31.2651538848877 27.3344993591309 44.5797080993652 2.28018736839294 49.5943069458008 53.958683013916 60.0350952148438 20.057258605957 26.1988620758057 50.0469627380371 13.2970066070557 8.44899654388428 7.02306461334229 5.42201280593872 4.93491506576538 4.32098627090454 4.86494922637939 5.10670566558838 4.61966514587402 4.72095584869385 5.8569860458374 5.19602584838867 5.46042108535767 4.47078227996826 4.95294618606567 5.94890594482422 6.00081157684326 5.72454690933228 5.66491508483887 5.68402242660522 5.47813987731934 4.88208150863647 4.53347492218018 4.42311143875122 7.78276348114014 24.0710945129395 25.8341865539551 16.0529613494873 11.5431289672852 15.5145397186279 15.9679431915283 21.4705410003662 18.1488361358643 28.9526748657227 11.3848705291748 17.9669075012207 26.3270168304443 43.5640640258789 7.45262384414673 6.82989549636841 5.68278646469116 4.18274736404419 4.13342475891113 2.76725125312805 19.1436443328857 7.87085103988647 4.41072940826416 5.05429410934448 6.24887275695801 12.8468189239502 8.57464790344238 7.5868968963623 7.28763580322266 9.88266849517822 12.8269891738892 4.66955661773682 4.72774362564087 11.8224906921387 13.7446632385254 12.7203226089478 14.2460908889771 5.56323432922363 6.31088447570801 6.17234516143799 6.88193559646606 6.47981071472168 6.51434803009033 6.25159454345703 5.82309246063232 5.70508146286011 5.30920553207397 5.7438817024231 5.31391954421997 5.17979288101196 5.07235431671143 4.36985063552856 4.38280916213989 5.0184965133667 5.51347923278809 6.49041938781738 7.44037914276123 8.18173599243164 8.64264869689941 9.22641372680664 10.029239654541 13.3516721725464 12.7086877822876 10.8798503875732 20.9473438262939 38.285228729248 11.018404006958 11.0038509368896 11.920241355896 20.571117401123 19.3420009613037 17.8194961547852 16.8107395172119 15.2883577346802 14.3008594512939 23.257194519043 13.4039287567139 8.48842906951904 7.25045728683472 6.85773468017578 6.77506113052368 10.2646045684814 7.0658917427063 10.6411952972412 10.1737098693848 50.8177909851074 30.3600273132324 23.0465469360352 19.9063892364502 15.0226879119873 9.6197395324707 9.56416130065918 9.9564905166626 10.7753448486328 11.8689575195312 12.1545934677124 12.3589057922363 13.3020534515381 13.2655754089355 13.1161966323853 14.2492589950562 19.4219837188721 41.7206726074219 14.0759468078613 18.9906101226807 21.56614112854 12.4445896148682 28.5938873291016 25.7500381469727 28.0612869262695 17.7791957855225 16.3853187561035 15.967303276062 19.6185989379883 27.9292640686035 26.1479110717773 18.0269050598145 33.7586669921875 23.8924942016602 0.101681880652905 12.1912269592285
3.78679370880127 4.35806131362915 2.70322203636169 1.58805871009827 0.762876093387604 0.686579167842865 0.765105009078979 1.03851687908173 1.17792284488678 1.19560551643372 1.35295307636261 1.62030529975891 1.90030002593994 1.78352570533752 2.16852378845215 11.2357635498047 13.8050193786621 19.4527416229248 23.6671485900879 34.5598258972168 50.5338325500488 46.0906677246094 24.8154315948486 9.50100517272949 4.10356664657593 2.96654057502747 0.390620827674866 0.506731450557709 1.69236183166504 4.53995990753174 19.6119918823242 9.65153217315674 7.67154932022095 5.89842176437378 5.27129459381104 4.70288419723511 5.32897758483887 5.58543252944946 5.02266120910645 5.10012817382812 6.34986639022827 5.66864347457886 5.87819528579712 4.75738954544067 5.19844245910645 6.30692672729492 6.41426372528076 6.46957540512085 6.17476463317871 6.10332059860229 6.01040887832642 5.34914064407349 4.94258594512939 4.69499492645264 4.71823406219482 34.0839538574219 36.0575408935547 17.5595283508301 19.7795124053955 14.3349704742432 20.9422016143799 30.7237682342529 23.6270141601562 46.8064308166504 11.8725700378418 32.5854454040527 24.3092575073242 6.35697317123413 7.96298265457153 7.64686727523804 9.91726970672607 10.102313041687 8.78252601623535 3.014399766922 2.66209363937378 2.63429999351501 4.48061370849609 20.4818592071533 6.78425312042236 6.74840497970581 8.20099353790283 7.45744895935059 10.5395336151123 10.9488925933838 10.4627523422241 5.45272541046143 7.70838642120361 9.42238426208496 16.1638069152832 18.7665672302246 16.0857772827148 4.78546524047852 8.81229496002197 6.40995454788208 7.2782735824585 7.12432384490967 6.95239496231079 6.53396511077881 6.06204128265381 5.88296699523926 5.63736963272095 5.93799686431885 5.42667961120605 5.34882640838623 5.24240112304688 4.52837944030762 4.43070220947266 5.20589685440063 5.73741626739502 6.87944793701172 7.76709127426147 8.39832496643066 9.71770763397217 9.90691089630127 11.8958196640015 14.129714012146 14.0329122543335 16.4516048431396 11.0791435241699 10.1867456436157 11.3290748596191 14.6073894500732 12.3459672927856 13.2525196075439 15.6141386032104 19.6359119415283 19.1141033172607 16.9322929382324 15.2277612686157 13.9537315368652 13.4288396835327 11.6471586227417 12.8491230010986 7.64886140823364 10.7618036270142 20.0395202636719 27.790319442749 8.78132343292236 18.2917175292969 7.50206756591797 47.6188697814941 31.0899505615234 24.5064754486084 21.6394577026367 9.91901683807373 9.73053741455078 10.1701955795288 11.1887187957764 12.36803150177 12.6955032348633 12.8927974700928 13.5569648742676 13.948034286499 13.8179006576538 14.9758033752441 23.799768447876 9.34616374969482 15.5232496261597 23.2989940643311 25.0566387176514 17.1553897857666 11.8249673843384 9.42558860778809 16.8051052093506 22.1718788146973 19.2652950286865 19.4924812316895 22.1206951141357 39.6077537536621 20.8938751220703 26.215518951416 -1.26539206504822 16.9938659667969 17.4607257843018 0.862399220466614
3.80613780021667 5.77960252761841 5.08985042572021 2.11307716369629 1.02889037132263 0.805382370948792 0.852818667888641 1.24560797214508 1.24261665344238 1.2357040643692 1.37817454338074 1.67949068546295 1.93778169155121 1.91379833221436 1.84455800056458 13.2466897964478 14.5619735717773 27.6612777709961 33.5110549926758 54.0513305664062 7.70381450653076 18.7994079589844 1.71242010593414 17.2881126403809 3.76222991943359 5.51637506484985 0.420228689908981 0.526432454586029 4.00583839416504 18.1371822357178 25.4987335205078 16.354606628418 8.45970058441162 6.45039701461792 5.61430358886719 5.0648136138916 5.76122665405273 6.0903172492981 5.48108911514282 5.54610300064087 5.49449825286865 6.87774991989136 6.16029357910156 6.41944646835327 5.48458528518677 6.46139860153198 6.92393398284912 6.98647928237915 6.67110681533813 6.58986949920654 6.53129053115845 6.11880874633789 5.37384176254272 4.88054513931274 4.88944149017334 54.061595916748 55.5319061279297 25.0737171173096 25.5408134460449 18.5913619995117 29.8579883575439 50.1969528198242 41.2604789733887 4.80328702926636 27.4674167633057 12.7907962799072 5.18637323379517 9.7464656829834 10.8382339477539 14.1115493774414 11.9750547409058 25.3035869598389 9.26634407043457 6.13329792022705 4.31808614730835 3.24479675292969 3.33018112182617 5.47427463531494 7.70820426940918 21.3411140441895 13.5515880584717 9.74795722961426 17.3733081817627 19.1922855377197 19.934965133667 10.9302968978882 18.1598472595215 12.6235933303833 5.59344244003296 4.11314344406128 4.43125057220459 4.71026086807251 13.6401081085205 6.65109729766846 6.80679035186768 7.49487018585205 7.16880035400391 7.19703197479248 6.62347888946533 6.04489946365356 5.83983516693115 6.15851211547852 5.68220853805542 5.53775691986084 5.42373895645142 4.67016553878784 4.54930686950684 5.38173723220825 6.04499673843384 7.24940156936646 8.19718837738037 9.28682518005371 10.2374486923218 10.8960819244385 13.1693000793457 20.3403091430664 23.4177074432373 11.4963474273682 15.6774034500122 10.6485214233398 13.9631910324097 11.4810028076172 13.6934185028076 13.7301273345947 26.8591861724854 21.6297149658203 20.2113628387451 19.1284484863281 17.3247833251953 16.0594692230225 18.0906562805176 20.6692676544189 23.7092456817627 9.95871925354004 22.3590202331543 38.9955749511719 6.92886781692505 18.8527240753174 8.29597282409668 8.06355953216553 13.103798866272 48.2750625610352 32.7067604064941 26.5936737060547 19.7483596801758 10.2816743850708 10.265453338623 11.6334819793701 12.8976917266846 12.877872467041 13.233006477356 13.7550096511841 14.8567476272583 14.6879901885986 16.8899612426758 34.8915138244629 39.2709541320801 15.7243976593018 26.5173988342285 38.9389114379883 19.6060924530029 13.6276340484619 2.9861946105957 5.11367082595825 4.15540409088135 14.9198532104492 7.21047401428223 3.78070664405823 -1.23636102676392 -1.48757755756378 -1.32306468486786 28.5900630950928 10.3232164382935 18.1120471954346 0.807855606079102
4.08630132675171 6.69861221313477 6.39867448806763 3.68322348594666 1.46116602420807 0.876486480236053 0.931037068367004 1.4086697101593 1.42270565032959 1.29134893417358 1.41464591026306 1.71437036991119 1.97123038768768 1.96662926673889 1.89636695384979 6.97015571594238 20.9315433502197 46.6394004821777 52.8651008605957 4.0542140007019 12.9450721740723 4.40531396865845 10.2622365951538 7.05331802368164 7.29248523712158 3.99962878227234 12.8080310821533 0.647333204746246 1.10952520370483 2.12298059463501 43.7700271606445 21.3974914550781 9.59880638122559 7.11270093917847 6.04903936386108 5.43651533126831 6.1966609954834 6.03284454345703 6.56679821014404 5.92540073394775 6.00883150100708 7.52399969100952 6.77450609207153 7.0262451171875 5.82414197921753 6.26975965499878 7.49961853027344 7.5670919418335 7.22329807281494 7.13512659072876 7.03989601135254 6.73394870758057 6.17515659332275 5.16564655303955 5.07314968109131 3.35521411895752 3.06046366691589 43.6444892883301 35.8556861877441 26.9279804229736 48.8914642333984 4.53062915802002 23.9747943878174 9.00362014770508 13.7026338577271 9.51339530944824 7.99130439758301 13.5063676834106 12.1266889572144 10.6389379501343 34.6987266540527 14.8628730773926 6.05955982208252 8.4893741607666 5.49295997619629 5.37947797775269 7.214524269104 10.0633745193481 8.79892921447754 7.75225019454956 23.8904666900635 20.5920810699463 8.2160816192627 25.0502967834473 20.3433380126953 8.99368667602539 4.38023281097412 5.42202138900757 5.91593742370605 4.18078851699829 14.100625038147 4.89859962463379 19.0181503295898 6.65607309341431 6.95320701599121 7.82409334182739 7.60066175460815 7.47182559967041 7.14249753952026 6.4024338722229 6.04477500915527 6.44145727157593 5.86637783050537 5.68224906921387 5.54852628707886 4.80123090744019 4.64649105072021 5.52576208114624 6.12108278274536 7.4068455696106 8.51536846160889 10.9647903442383 10.8164796829224 12.3363971710205 14.9405002593994 14.7919597625732 13.6613054275513 20.6302261352539 14.0644226074219 12.2435474395752 13.0247688293457 12.9816541671753 15.4671449661255 15.2904767990112 15.9932403564453 34.098201751709 22.1273536682129 21.1562175750732 21.7775268554688 17.6280956268311 14.2376585006714 12.1408100128174 8.41082572937012 11.8675498962402 25.458423614502 6.35696935653687 7.93125581741333 9.7584114074707 12.0730791091919 13.1146030426025 16.1781101226807 11.1080179214478 49.9493789672852 35.4948997497559 24.4128036499023 10.9813222885132 10.7755823135376 12.0329265594482 13.0132369995117 13.4592809677124 13.910213470459 14.6123790740967 16.1458053588867 15.7206954956055 22.9389324188232 26.5564002990723 10.2702112197876 15.1286125183105 22.3603210449219 22.6527214050293 22.7964935302734 17.7903709411621 3.59725093841553 21.6060276031494 20.1820735931396 1.71506536006927 0.339665412902832 7.34775543212891 4.11615467071533 33.5648765563965 1.80395424365997 -1.41497111320496 -1.04906344413757 -0.195173799991608 3.81805682182312
4.60700750350952 8.81185150146484 7.66168069839478 4.62290048599243 2.5650360584259 0.922067642211914 1.00743269920349 1.5055695772171 1.47636306285858 1.42085719108582 1.70826089382172 1.75828385353088 2.02065873146057 2.02586460113525 1.92771112918854 7.90361356735229 37.9824333190918 4.50938653945923 13.9705982208252 5.55713939666748 5.87453269958496 7.85312175750732 21.1519622802734 2.98807954788208 7.94534349441528 4.55406951904297 4.83366918563843 12.9311332702637 1.87576007843018 3.86773872375488 25.4632129669189 30.5278015136719 16.4669647216797 7.92234468460083 6.66800212860107 6.38761138916016 5.84790897369385 6.63953924179077 7.1189341545105 6.44845390319824 6.56079959869385 8.21977043151855 7.41785907745361 7.71708154678345 6.23621225357056 6.87440776824951 8.19395160675049 8.267165184021 7.84541368484497 7.75335025787354 7.66966485977173 7.25155305862427 6.66961288452148 5.46243000030518 5.25388240814209 4.24580764770508 3.37661838531494 14.0152082443237 55.4013137817383 45.3552169799805 14.4144105911255 5.78784990310669 4.47437238693237 9.83078193664551 8.70738792419434 28.550724029541 14.6176767349243 16.8102226257324 24.3800888061523 13.2815599441528 10.6487588882446 10.3893451690674 9.34064865112305 11.340106010437 4.31335735321045 4.12584638595581 9.08141899108887 13.8159961700439 20.1979999542236 12.5432109832764 10.0152053833008 7.35479927062988 6.92315196990967 7.64225482940674 5.38141584396362 9.38244152069092 9.45092105865479 6.83819103240967 16.8251037597656 7.69034147262573 4.64254188537598 5.02018213272095 5.46887922286987 6.92472982406616 7.25931024551392 8.16753387451172 7.87867784500122 7.70454072952271 7.28956079483032 6.54185628890991 6.23378419876099 6.70545482635498 6.11925554275513 5.88335609436035 5.74788093566895 4.97630548477173 4.80694723129272 5.02554750442505 6.13314628601074 7.48562955856323 8.49617671966553 11.7839488983154 13.9590473175049 15.7224760055542 26.5351333618164 15.5874500274658 15.8409271240234 17.6922302246094 11.2186841964722 13.6099510192871 14.3526697158813 15.90198802948 18.0387210845947 19.2203197479248 18.7352027893066 22.3387870788574 22.2222175598145 34.882926940918 34.0772705078125 19.0974788665771 20.0760688781738 17.4923706054688 8.59812355041504 14.2633409500122 6.8900203704834 6.98373317718506 8.20472717285156 13.622368812561 18.3469352722168 17.6997375488281 7.5843243598938 17.8447322845459 11.6973543167114 53.4855918884277 32.860466003418 11.9743404388428 11.4173727035522 11.9849891662598 13.5711898803711 14.173152923584 14.7747993469238 15.6529054641724 17.7621765136719 16.9211654663086 37.5833015441895 10.753381729126 12.8540439605713 20.764612197876 31.4000339508057 28.4709281921387 32.1236305236816 32.6228942871094 7.35049295425415 -0.202213600277901 6.80314540863037 6.72955179214478 21.9792251586914 11.2129688262939 11.7010164260864 -1.0854389667511 4.83094835281372 -0.834019243717194 0.307011336088181 -0.17564645409584 4.30010747909546
1.0085324048996 3.34680581092834 9.24704837799072 5.41300487518311 3.2909996509552 1.6848087310791 1.03237473964691 1.55006146430969 1.55134737491608 1.79033863544464 1.83833694458008 1.81506967544556 2.09266543388367 2.11393237113953 1.96906590461731 8.79244422912598 10.4873094558716 22.792293548584 0.10739578306675 6.13722848892212 0.941477179527283 2.64493274688721 3.6077196598053 7.07987833023071 5.74629974365234 5.17906761169434 9.67372989654541 7.87948179244995 1.1781120300293 2.96085453033447 2.69272208213806 49.8410301208496 21.5739879608154 8.93678092956543 7.46388387680054 6.9316554069519 6.36377906799316 7.16705274581909 7.75587224960327 7.03364515304565 7.16248655319214 9.02287673950195 8.14429473876953 8.47147178649902 6.80628395080566 7.64694023132324 9.04645347595215 9.10263347625732 8.62821388244629 8.50795555114746 8.4091911315918 7.83552122116089 7.22282648086548 5.73634195327759 5.54973697662354 4.33339023590088 3.67321014404297 3.5572190284729 3.19391298294067 4.78999948501587 4.33572435379028 6.96330165863037 6.62228679656982 13.6845989227295 8.23271369934082 23.549732208252 18.0693664550781 3.27185821533203 4.08340072631836 21.1914520263672 18.0015449523926 14.0446424484253 11.7947750091553 20.6407260894775 19.4632740020752 23.5766315460205 9.64966106414795 27.2047748565674 9.33519077301025 16.1063022613525 12.5765314102173 7.65245342254639 9.10110092163086 13.819561958313 5.42708778381348 14.7812471389771 13.6990547180176 2.79024195671082 20.7126750946045 10.4090757369995 15.1446352005005 7.55325174331665 5.5848822593689 7.26854372024536 7.60415124893188 8.7540111541748 8.28328704833984 8.097580909729 7.5805835723877 6.76994323730469 6.37011289596558 6.9413161277771 6.32367181777954 6.1432032585144 5.97343349456787 5.11213064193726 4.92176055908203 5.21744012832642 6.38028526306152 7.77370452880859 8.49778079986572 11.1759262084961 18.2522029876709 25.0130195617676 16.470287322998 19.6306819915771 14.6247606277466 14.1165962219238 12.8522367477417 15.5027370452881 16.0107688903809 18.1872596740723 19.4869709014893 20.169490814209 21.4035625457764 25.6481246948242 23.3551979064941 19.5866451263428 19.3160209655762 19.5354995727539 14.7148628234863 10.9830207824707 9.36700248718262 7.81132459640503 6.88085699081421 7.65479707717896 8.51742649078369 10.8968067169189 9.34993171691895 8.65986442565918 7.72688007354736 8.22611141204834 7.96900939941406 7.04285430908203 50.907398223877 13.4438152313232 12.2348585128784 14.7578964233398 13.6984071731567 15.041353225708 16.0415706634521 16.9449577331543 19.8550910949707 18.3769378662109 15.3914747238159 16.1354637145996 13.9837923049927 27.3043193817139 16.0220165252686 19.7717628479004 11.8702630996704 2.3255090713501 10.4244165420532 27.7841567993164 -0.405423611402512 18.1751022338867 1.15277767181396 28.9776668548584 35.0666160583496 29.0324802398682 19.4555988311768 8.13665771484375 -0.197167411446571 2.51102781295776 4.01327419281006
1.22693336009979 0.474091142416 4.38144779205322 6.54703807830811 3.96707010269165 2.40201592445374 1.05768322944641 1.58932054042816 1.59437334537506 1.84876620769501 1.90040481090546 1.88913679122925 2.11968469619751 2.23108720779419 2.1171703338623 1.90152728557587 43.771614074707 1.29217767715454 0.147959485650063 1.26790833473206 1.14649081230164 1.54229760169983 0.99560958147049 10.0486783981323 3.94073033332825 2.1147837638855 4.91765165328979 8.36198997497559 1.21460807323456 11.263445854187 3.77415084838867 6.26369380950928 30.8603363037109 16.4550170898438 8.45268058776855 7.53994560241699 6.98937129974365 7.81125736236572 8.52326393127441 7.73574495315552 7.87713861465454 9.97843742370605 8.99919700622559 9.32284927368164 7.5092887878418 8.46954727172852 9.98127555847168 10.0270967483521 9.55103302001953 9.39819812774658 9.28658294677734 8.53910350799561 7.84045648574829 6.93771648406982 5.86164712905884 5.99310255050659 4.20345115661621 3.80012893676758 3.65650010108948 8.36455154418945 25.822338104248 5.50428056716919 12.2605800628662 20.7508449554443 21.6124649047852 10.0811157226562 11.3720846176147 3.6488835811615 17.0346374511719 26.3249702453613 14.265941619873 15.3355093002319 9.98035430908203 4.98534822463989 7.95950698852539 3.78590488433838 9.70821094512939 6.44740056991577 12.2824020385742 25.6260738372803 19.6270904541016 10.3029670715332 10.649022102356 15.7675228118896 8.33492088317871 5.40488958358765 6.29759693145752 6.0290412902832 2.71590375900269 4.9425106048584 26.5127792358398 10.5608472824097 5.70176649093628 7.59179878234863 8.13418579101562 9.16683387756348 8.72958946228027 8.51929664611816 7.97446632385254 7.11428546905518 6.62964105606079 7.10807466506958 6.44343185424805 6.24792861938477 6.40095520019531 6.06358957290649 5.14192581176758 5.36403512954712 6.58009672164917 8.18996620178223 9.84745311737061 21.9728412628174 16.2386455535889 23.4499988555908 14.8800888061523 16.6348915100098 15.9341077804565 27.3986968994141 21.210391998291 23.5501861572266 26.5068969726562 15.814510345459 21.1640644073486 21.2596950531006 23.9492816925049 26.9754409790039 27.741756439209 24.510669708252 22.7357292175293 20.0106735229492 17.8813343048096 12.5522603988647 9.48748588562012 8.07302379608154 7.22637033462524 8.01658058166504 7.72028875350952 7.83386611938477 10.1102294921875 9.47487354278564 8.92636966705322 10.0458059310913 8.13323593139648 16.6914539337158 7.37384939193726 16.5925445556641 13.1849279403687 20.1358985900879 14.9200315475464 16.0497989654541 17.9987907409668 18.9647598266602 22.6546173095703 27.6273975372314 18.0898303985596 16.2035255432129 23.2871246337891 44.7789421081543 27.9934978485107 32.1449203491211 11.7352705001831 18.2055644989014 13.0298643112183 -0.154438033699989 7.07068157196045 -0.852095186710358 3.09073543548584 -0.911090850830078 -0.968139290809631 -0.786554157733917 -0.580613553524017 -0.524871289730072 0.490369617938995 4.69527769088745 0.990822851657867
3.25603413581848 0.899469792842865 0.47271454334259 0.796826779842377 4.46512222290039 2.80640482902527 1.33364045619965 1.61502850055695 1.62979304790497 1.89688432216644 1.95290684700012 1.91585123538971 2.11043167114258 2.28208875656128 2.16644334793091 2.13662314414978 0.50047767162323 9.88121128082275 0.165456801652908 3.26504182815552 1.32074916362762 2.55599188804626 1.71078848838806 1.06826722621918 1.5402729511261 1.95945703983307 3.66439723968506 0.641161024570465 1.9794157743454 3.66627740859985 1.41485905647278 19.9268093109131 50.9620933532715 21.504545211792 9.54683113098145 8.16509628295898 7.65352630615234 8.50948047637939 9.35138416290283 8.45935249328613 8.60952949523926 11.0429620742798 9.92524909973145 10.2644309997559 8.25958824157715 9.43350219726562 11.1362504959106 11.1552715301514 10.6405410766602 10.4711742401123 10.3492164611816 9.42347812652588 8.55905342102051 7.40934467315674 6.2008752822876 6.08972024917603 5.33371591567993 3.95941090583801 4.092360496521 4.03200483322144 3.49198508262634 4.39503908157349 25.1924095153809 25.5685596466064 25.3304786682129 33.4675064086914 20.9440937042236 5.08261346817017 3.13837337493896 2.68869709968567 15.3585557937622 3.09552097320557 10.3043241500854 12.8566112518311 8.13087463378906 5.8300895690918 25.4270076751709 9.50451564788818 7.63546657562256 11.2041673660278 28.2838096618652 19.1851406097412 15.7256956100464 5.91273546218872 10.1213264465332 7.61048269271851 15.0936193466187 6.05767297744751 3.90131664276123 6.36763763427734 4.61022329330444 15.0604486465454 6.22786426544189 9.73362159729004 8.71799182891846 9.75851345062256 9.18319892883301 9.38147830963135 8.53042793273926 7.64236068725586 6.77744197845459 7.28649663925171 6.68318605422974 6.34140872955322 6.70707416534424 6.48165893554688 5.32907724380493 5.5912013053894 6.22986936569214 8.48578834533691 11.5623350143433 10.2769546508789 21.6977348327637 12.0695066452026 14.8402271270752 22.2988147735596 15.6554765701294 11.7933692932129 13.0452852249146 14.3710403442383 16.6236972808838 18.9319114685059 21.3803462982178 22.0321979522705 24.4430332183838 31.1009826660156 36.9514045715332 31.8959522247314 22.4184474945068 19.8288059234619 19.031888961792 18.5221710205078 9.9156494140625 8.10730838775635 8.74061679840088 8.380446434021 11.4024906158447 8.24489974975586 10.393928527832 12.1466808319092 11.2370567321777 10.6019506454468 8.13059711456299 7.96417093276978 8.07973289489746 27.7244777679443 18.0259704589844 33.7168426513672 17.6747550964355 17.7950000762939 23.8626346588135 22.43434715271 29.2550373077393 21.0192718505859 18.9217872619629 19.0233058929443 37.2166938781738 10.0200338363647 6.6030330657959 -0.103733882308006 3.7987859249115 8.73623466491699 5.27220392227173 16.9162883758545 0.180458471179008 -0.643220365047455 -0.633537650108337 -0.354112654924393 0.0662773549556732 0.156378269195557 0.757234871387482 4.84156608581543 7.56069946289062 6.77186346054077 11.4755973815918
3.35334038734436 0.99516749382019 0.757696390151978 0.700264811515808 3.62474632263184 3.26344132423401 1.59379589557648 1.65001010894775 1.66382884979248 1.94524192810059 2.00660729408264 1.99749171733856 2.19177079200745 2.34740447998047 2.2315890789032 2.1993305683136 4.99897718429565 1.10407257080078 1.33149123191833 3.27146148681641 1.19452488422394 4.1055645942688 8.04422855377197 9.27164745330811 7.43078279495239 5.03579139709473 7.54968070983887 0.649812996387482 2.76706957817078 1.86074280738831 2.08386206626892 4.2953462600708 6.6116247177124 30.4330101013184 14.1388921737671 8.94670677185059 8.43686866760254 9.27260684967041 10.2827072143555 9.31319427490234 9.48212718963623 12.2848682403564 11.0632543563843 11.4431791305542 9.20041847229004 10.6537389755249 12.6096725463867 12.6212129592896 11.992015838623 11.825231552124 11.6679792404175 10.4771366119385 9.41055297851562 7.92697525024414 6.57761716842651 6.43885183334351 11.5572881698608 4.49073553085327 4.4763445854187 4.08114862442017 13.0798692703247 4.76573038101196 33.8677711486816 35.6017379760742 35.0644760131836 50.8410453796387 2.92545413970947 4.3411865234375 10.8643493652344 3.27840924263 2.8101282119751 3.18485164642334 3.30677604675293 3.41186261177063 10.6292037963867 3.81789398193359 3.55927324295044 7.44989347457886 19.7762641906738 14.3933429718018 7.1805214881897 8.64767169952393 7.11115837097168 7.82587909698486 9.12057304382324 10.3749809265137 6.61147499084473 7.09493541717529 23.0674858093262 9.49782943725586 5.91429853439331 20.4117107391357 6.37272644042969 14.4121055603027 9.11459159851074 10.3271017074585 9.75643539428711 9.91258430480957 8.99123859405518 8.05536842346191 7.06476736068726 7.18177318572998 7.61661958694458 6.91016149520874 6.79049587249756 6.80619049072266 5.79280853271484 5.77058029174805 6.46079874038696 9.14568996429443 18.3086967468262 14.6386032104492 8.91672897338867 13.3463449478149 16.5607852935791 17.8528327941895 18.510139465332 13.6709690093994 15.1438665390015 15.7144107818604 19.5211544036865 18.4695262908936 23.288272857666 28.3609523773193 30.8589706420898 45.2872734069824 50.769889831543 45.428409576416 30.5404262542725 25.2694244384766 22.59006690979 14.0347995758057 13.6504497528076 20.5261211395264 11.2295417785645 10.2913846969604 8.32240295410156 8.78047370910645 11.7527141571045 10.6223878860474 9.99958896636963 11.6627426147461 8.94970989227295 9.51060104370117 8.98334503173828 11.8507604598999 23.4134311676025 11.9596071243286 29.0100173950195 23.6949291229248 39.0109939575195 19.9712009429932 20.3645915985107 25.7467098236084 25.2134647369385 45.9246292114258 18.6462135314941 19.7339267730713 14.0827989578247 14.0111980438232 16.9414577484131 8.72526168823242 -0.0707808062434196 0.494757503271103 1.63492202758789 -0.442966967821121 11.8335494995117 2.60043859481812 1.14351689815521 2.08447694778442 6.75441598892212 10.2348260879517 11.1396007537842 9.30887603759766 26.531286239624
0.992431223392487 1.03415393829346 0.832318365573883 0.71042400598526 0.668249070644379 2.85914587974548 1.98089408874512 1.48887073993683 1.74834406375885 1.99098885059357 2.06190824508667 2.04901075363159 2.23901176452637 2.41269326210022 2.30575680732727 2.2656557559967 1.23990905284882 0.786649167537689 0.333165913820267 2.86760640144348 3.8451201915741 1.8798041343689 2.23873114585876 0.830038547515869 2.01757121086121 8.19563674926758 11.7930183410645 0.689565896987915 4.37303876876831 2.25318908691406 1.45705676078796 8.63065147399902 20.8736362457275 49.552547454834 18.5218257904053 9.89650630950928 9.43216896057129 10.2321643829346 11.4538431167603 10.379150390625 10.5657730102539 13.8767156600952 12.4924268722534 12.9179716110229 10.3580322265625 12.2115869522095 14.4493608474731 14.504358291626 13.7461109161377 13.5485420227051 13.3503952026367 11.7687225341797 10.430230140686 8.5376501083374 7.10354661941528 6.89442777633667 13.3884868621826 6.45994663238525 8.89153480529785 15.321870803833 3.35120105743408 5.8283805847168 53.6715278625488 54.4107437133789 53.8355598449707 3.82372307777405 3.25893521308899 6.51336240768433 3.39873361587524 3.46698808670044 3.47777986526489 3.83757066726685 3.65951108932495 3.7993745803833 3.66493320465088 3.85669112205505 4.65459489822388 8.10589599609375 8.37744998931885 7.22789144515991 8.609787940979 13.4332151412964 11.5593566894531 8.25194072723389 13.1069774627686 5.68720436096191 4.21676683425903 11.9881572723389 7.15138673782349 9.35631465911865 6.34889793395996 5.88233757019043 7.58031988143921 28.2721767425537 9.48185539245605 10.9475297927856 10.8837909698486 10.5087566375732 9.50124454498291 8.22672367095947 7.45484828948975 7.52186298370361 7.95125341415405 7.20984220504761 7.10476016998291 6.87026739120483 5.76594972610474 5.99658346176147 7.23439741134644 10.1452302932739 9.01991081237793 13.2618398666382 9.21273803710938 12.4918203353882 27.7964572906494 19.3040008544922 29.4129981994629 16.0618381500244 15.1638345718384 15.5128183364868 17.6919269561768 21.363130569458 26.8626308441162 31.7959156036377 38.2034187316895 40.5770034790039 44.7411499023438 42.3502426147461 33.5153350830078 30.7029361724854 27.359395980835 37.3833961486816 20.815315246582 11.8504467010498 16.2893981933594 11.7197036743164 9.51107501983643 10.8054122924805 14.1757478713989 13.4675960540771 24.945728302002 12.5662612915039 10.9040842056274 11.2738351821899 12.1347694396973 12.2470874786377 20.3948497772217 13.6323890686035 15.7765741348267 18.0124015808105 17.3154067993164 21.439811706543 21.346471786499 36.6146583557129 43.7241554260254 18.7455139160156 23.7790927886963 12.9837493896484 17.0025577545166 19.8516540527344 6.64007616043091 19.60400390625 0.141589462757111 5.33906602859497 -0.0510461628437042 24.1483669281006 26.5149822235107 4.85586452484131 0.506743907928467 2.88825368881226 5.84212160110474 18.2305107116699 21.0204315185547 0.682268023490906 1.13315439224243
1.44804060459137 1.36349153518677 0.884840428829193 0.755191028118134 0.655641078948975 1.34956061840057 1.6490079164505 1.68346548080444 1.79277300834656 1.92327046394348 2.10214352607727 2.1623649597168 2.28799080848694 2.48314309120178 2.38377904891968 2.22270488739014 2.28957843780518 0.813052892684937 2.70088791847229 9.46463680267334 10.7487802505493 2.67206883430481 3.62967157363892 1.70652198791504 9.79958724975586 6.85364484786987 -0.0453006364405155 1.85648119449615 6.73715877532959 9.89576816558838 1.49126505851746 1.86657929420471 7.84456872940063 8.71406841278076 26.5821952819824 16.1289443969727 10.6712579727173 11.4430522918701 12.8833570480347 11.6902284622192 11.8852853775024 15.8810005187988 14.2929697036743 14.7707757949829 11.839656829834 14.2645883560181 16.8511428833008 16.9514904022217 16.0915260314941 15.8178901672363 15.6071815490723 13.4238891601562 11.6920919418335 9.29551219940186 7.97109317779541 7.65031719207764 7.6667218208313 23.0948886871338 10.5205459594727 5.67315053939819 17.719087600708 3.60591626167297 2.87830352783203 2.83231401443481 2.849205493927 15.1363773345947 3.33428382873535 13.2782545089722 3.40306973457336 32.1065216064453 28.4559745788574 29.3239650726318 3.72469091415405 3.96030163764954 3.8556489944458 3.90538644790649 6.22225475311279 9.10823631286621 8.65055656433105 6.47175693511963 6.63158512115479 7.92962265014648 6.15453910827637 10.6492862701416 10.1250438690186 12.9608926773071 9.19283008575439 2.66592717170715 7.68169069290161 12.6001586914062 6.36561012268066 7.45001077651978 6.27364873886108 7.68019866943359 9.89308071136475 11.5974569320679 11.9568481445312 11.7111730575562 10.1275806427002 9.45869636535645 7.94165086746216 7.9065580368042 8.31416893005371 7.54318857192993 7.46285057067871 7.44155263900757 6.17635011672974 6.227219581604 8.36092376708984 11.9804773330688 9.10078430175781 15.3263998031616 12.3012161254883 11.8009233474731 13.6959466934204 23.0150890350342 18.7508296966553 20.1284580230713 32.5390625 16.3947582244873 18.8207626342773 21.5416431427002 27.2858238220215 31.9107112884521 24.9797859191895 16.1694068908691 16.3865165710449 26.3328285217285 36.3804206848145 34.3042297363281 28.3916435241699 29.1964511871338 28.3968353271484 20.0347480773926 35.8741912841797 13.0859689712524 13.8529138565063 15.7507123947144 15.3068323135376 13.5654458999634 11.3073492050171 13.5236949920654 23.8409385681152 29.2220230102539 19.4869022369385 14.9196119308472 34.401927947998 14.8307781219482 15.7139511108398 25.5970287322998 18.5412845611572 31.4217128753662 37.4247627258301 40.2983055114746 18.8158111572266 18.9141616821289 33.4209022521973 18.470853805542 18.9120426177979 6.19510126113892 11.6619958877563 -0.608110845088959 0.674472808837891 16.4974803924561 6.65921926498413 -0.0697526261210442 0.155019998550415 5.49728012084961 9.97982692718506 4.67066097259521 21.0999660491943 15.6163425445557 11.2469282150269 1.8979560136795 3.28894567489624
1.74430084228516 1.61559665203094 0.96819406747818 0.857873320579529 0.737560391426086 1.3727867603302 1.51653289794922 1.97367644309998 1.83894109725952 1.97713625431061 2.16192770004272 2.21937894821167 2.34293818473816 2.55594205856323 2.47068524360657 2.394282579422 2.35039710998535 30.0777072906494 8.31641674041748 0.181678086519241 5.47083425521851 2.86018681526184 13.1445016860962 4.69372892379761 0.708600878715515 1.05643272399902 0.401674509048462 0.749707460403442 0.909859836101532 5.17178106307983 1.58420312404633 2.07634520530701 1.92673718929291 29.9459247589111 44.9293670654297 20.9681205749512 12.2768058776855 13.1121959686279 14.7555627822876 13.3881425857544 13.6111373901367 18.5741348266602 16.7377700805664 17.294677734375 13.8859453201294 13.7563781738281 17.59619140625 20.67897605896 20.7533893585205 19.6790504455566 19.3866271972656 19.1536655426025 13.3423957824707 10.2387199401855 9.0839147567749 8.56063842773438 8.48469638824463 40.2019691467285 12.9604482650757 9.47787475585938 20.431734085083 8.14409065246582 3.06055307388306 2.95763826370239 11.9297647476196 4.58151912689209 3.32157397270203 3.28462862968445 3.58238363265991 3.85590672492981 3.85540223121643 3.97392416000366 10.9092798233032 3.98380470275879 4.23912620544434 5.65226125717163 6.76746273040771 18.5163135528564 11.7295169830322 5.3249363899231 11.2992353439331 6.08179187774658 8.00093746185303 8.5490198135376 7.11289596557617 7.52168750762939 5.97758913040161 16.3264293670654 2.8432240486145 5.29327630996704 23.3702983856201 8.8600606918335 6.69368410110474 8.52493858337402 10.5067138671875 11.3969841003418 12.9135942459106 12.5763635635376 12.0310945510864 10.6989479064941 9.09359169006348 8.33049201965332 8.7157621383667 7.90772151947021 7.85790014266968 7.82567262649536 6.69197177886963 6.48852348327637 9.93509387969971 10.1924381256104 10.0419855117798 10.7686891555786 9.01930809020996 11.2631521224976 17.76513671875 11.8592844009399 21.2548522949219 24.0200099945068 17.2877616882324 13.9164724349976 19.7864837646484 23.7192630767822 19.7561779022217 22.5650463104248 19.9661426544189 16.9072113037109 20.0641193389893 21.2436676025391 30.4535179138184 43.1899833679199 36.5782737731934 35.5643424987793 39.3673133850098 25.553747177124 11.5724544525146 13.4384956359863 13.8724918365479 17.5429878234863 18.4673290252686 19.4150409698486 21.889627456665 13.967809677124 13.1492576599121 12.8483266830444 11.4110317230225 20.7569942474365 9.36091613769531 18.5763034820557 16.2166118621826 18.0237369537354 35.492431640625 38.6145324707031 42.2417411804199 14.2790689468384 23.542272567749 23.5744323730469 12.8020095825195 8.51108837127686 23.0267601013184 7.82994794845581 -0.740490913391113 0.149687051773071 19.8307437896729 0.0492114499211311 2.03835535049438 1.65576684474945 0.695876777172089 22.9442749023438 0.783444344997406 0.853334605693817 0.6704061627388 0.571240782737732 0.316381603479385 2.3074049949646 3.6751127243042
