NCOLS 172
NROWS 32
XLLCORNER 353744
YLLCORNER 6699456
CELLSIZE 16 
NODATA_value -3.4e+38 
0.431536853313446 0.159326031804085 0.222618281841278 0.24257330596447 0.323451459407806 0.524114727973938 0.709690392017365 0.844079554080963 0.949987232685089 1.0401326417923 1.11604702472687 1.23120808601379 1.36758494377136 1.77514147758484 1.8215594291687 2.4409704208374 1.9983549118042 2.28974866867065 2.06407761573792 2.03923416137695 1.44612205028534 1.37117671966553 1.39607310295105 1.42796862125397 1.45912706851959 1.47093117237091 1.53329181671143 1.56485760211945 1.60513198375702 1.73521161079407 1.65638864040375 1.69198787212372 1.66138076782227 1.70736956596375 1.62070989608765 1.62743997573853 1.63738739490509 1.65007960796356 1.66835737228394 1.66884684562683 1.6998485326767 1.73504340648651 1.7654949426651 1.80532264709473 1.8506418466568 1.91723644733429 1.99838578701019 2.29549431800842 2.45370316505432 2.59030079841614 2.72888398170471 2.9175066947937 3.12019014358521 3.46493220329285 3.1980721950531 3.259526014328 3.42068886756897 3.54603576660156 3.80207252502441 4.30396699905396 4.82196664810181 6.57602453231812 2.65434646606445 2.98888969421387 3.84164667129517 4.8066029548645 5.10103464126587 6.55228281021118 6.30024337768555 6.66055059432983 2.19502258300781 -1.57717382907867 -1.38983416557312 -1.15176439285278 -0.240356966853142 3.63623976707458 6.71900987625122 11.7121534347534 15.6035900115967 2.80335664749146 -1.11154270172119 -0.992839276790619 -0.886427223682404 -0.796173334121704 -0.753442168235779 -0.696098744869232 -0.558717668056488 -0.286969214677811 0.161162033677101 0.442025065422058 0.493175685405731 0.505566656589508 0.530048012733459 0.554572999477386 0.572696805000305 0.598915636539459 0.670375347137451 0.973424851894379 1.03731906414032 1.07290458679199 1.10948884487152 1.15928995609283 1.2753586769104 1.63709235191345 1.77692031860352 2.02976250648499 2.46999382972717 2.67132878303528 2.89471220970154 3.16421866416931 3.47746157646179 5.94620180130005 8.53339290618896 11.3435697555542 13.5470523834229 10.3786582946777 6.90168905258179 4.67225694656372 6.94862127304077 8.94017601013184 7.30829572677612 5.90668153762817 7.8473072052002 13.4860334396362 17.7364521026611 3.2592613697052 1.80048632621765 2.12318682670593 2.88711810112 3.68096780776978 4.09416723251343 4.35316944122314 4.53834342956543 4.67094659805298 4.80756759643555 4.86571550369263 4.87898969650269 5.13952732086182 5.24689769744873 5.31604194641113 5.42992734909058 5.56410980224609 5.71751070022583 5.89483165740967 6.06726980209351 6.12593841552734 6.61598300933838 7.21316003799438 7.73866558074951 8.36083793640137 8.93646430969238 9.61585521697998 10.2915267944336 11.0687761306763 11.8726568222046 13.5156230926514 15.1873226165771 15.4707260131836 15.3365488052368 14.2456684112549 5.22300958633423 -1.83536887168884 -1.72435367107391 -1.42693281173706 -0.78148365020752 0.0499195642769337 0.912550687789917 1.6176985502243 2.12382364273071 2.49361896514893 2.61730909347534 2.66273164749146
3.00962924957275 1.47743856906891 0.256011992692947 0.2668816447258 0.311681926250458 0.461843132972717 0.659767806529999 0.822899162769318 0.937928736209869 1.0396683216095 1.14639484882355 1.25819218158722 1.37738132476807 1.85321962833405 1.98382759094238 2.1958863735199 2.26388931274414 2.30877423286438 2.18532419204712 2.26725816726685 2.10103487968445 1.52778804302216 1.53301823139191 1.55110800266266 1.55736005306244 1.56855666637421 1.58158147335052 1.58239853382111 1.59088885784149 1.58425951004028 1.59680223464966 1.60051155090332 1.60335755348206 1.70922577381134 1.59019911289215 1.59982228279114 1.63918054103851 1.86210906505585 1.87644302845001 1.90232872962952 1.92882990837097 1.96066296100616 1.98902666568756 2.02294516563416 2.06411123275757 2.11144828796387 2.16672015190125 2.3704981803894 2.43797874450684 2.51028895378113 2.59486603736877 2.71567749977112 2.90201330184937 3.3069634437561 4.2386646270752 4.82458925247192 5.8329029083252 5.86896324157715 4.03798913955688 1.94273793697357 3.51792168617249 5.24910068511963 2.00249648094177 2.12839889526367 2.75104165077209 3.5113217830658 3.93814873695374 5.1734504699707 2.40776705741882 1.45456552505493 1.55472946166992 -0.708383142948151 -0.567888975143433 0.00208641868084669 1.26600968837738 5.01414203643799 8.67910861968994 13.0860023498535 15.8381452560425 4.25744962692261 -1.27367877960205 -1.21233642101288 -1.08877038955688 -0.954610764980316 -0.846642732620239 -0.748352527618408 -0.610898196697235 -0.129888892173767 0.315307706594467 0.685697019100189 0.75747013092041 0.776534855365753 0.806862115859985 0.844232380390167 1.00680315494537 1.06864714622498 1.23884689807892 1.50452864170074 1.58685541152954 1.64434266090393 1.70213401317596 1.78894340991974 2.38387751579285 2.88186526298523 3.11011958122253 3.3738739490509 3.70909667015076 4.23550748825073 4.57005834579468 5.06214666366577 5.75714778900146 10.9120531082153 14.2423238754272 17.722843170166 20.3990077972412 11.7268419265747 3.66968393325806 5.45038986206055 9.16489505767822 10.8374710083008 11.2503290176392 10.8253536224365 11.954628944397 16.2091197967529 19.0590305328369 10.4974870681763 0.574857532978058 0.946784496307373 2.0873064994812 3.07049894332886 3.68107676506042 4.19433975219727 4.5604887008667 4.77246284484863 4.97537040710449 5.06718158721924 5.07312154769897 5.19885540008545 5.36960077285767 5.43898582458496 5.55039644241333 5.68551206588745 5.81922435760498 5.97151517868042 6.13758754730225 6.27336072921753 6.59902000427246 7.04234743118286 7.50692415237427 8.07672214508057 8.65204048156738 9.18240356445312 9.82229995727539 10.4646778106689 11.649959564209 13.2891473770142 15.3958377838135 14.7367630004883 12.8536825180054 8.90993976593018 0.137368500232697 -1.42856585979462 -1.32041811943054 -0.917985022068024 -0.143654689192772 0.577390789985657 1.2764265537262 1.70993959903717 2.38427114486694 2.9932861328125 3.28867149353027 3.62779402732849
3.76752972602844 2.12713146209717 1.00378477573395 0.314113080501556 0.343122035264969 0.461910456418991 0.630639910697937 0.795132040977478 0.953243255615234 1.06292641162872 1.17160296440125 1.27314651012421 1.46738696098328 1.91590487957001 2.14012026786804 2.26342558860779 2.28523087501526 2.48336219787598 2.37117981910706 2.51752996444702 2.50476837158203 1.74580228328705 1.49356508255005 1.50210011005402 1.51664590835571 1.5306476354599 1.5389701128006 1.54280507564545 1.76132297515869 1.77090096473694 1.78905057907104 1.79396975040436 1.80871415138245 1.80883860588074 1.82471120357513 1.83091485500336 1.96533977985382 1.92295634746552 1.93774890899658 1.96547818183899 1.99390506744385 2.02460360527039 2.0569589138031 2.09350728988647 2.14078259468079 2.18982076644897 2.23948001861572 2.28587985038757 2.42520618438721 2.56793022155762 2.77147364616394 3.02776741981506 3.34362626075745 3.71758484840393 5.00787544250488 6.14556503295898 7.66284132003784 8.38905143737793 6.38214349746704 2.04216718673706 0.646298229694366 1.78843677043915 0.965373456478119 1.1128386259079 1.36859846115112 1.74443817138672 2.11427664756775 1.64664053916931 1.02479386329651 1.07118487358093 1.13795876502991 1.16388845443726 1.309415102005 1.7272766828537 2.56571984291077 6.55156803131104 10.0387344360352 13.0321674346924 14.2386741638184 3.51893544197083 0.127232551574707 -1.26979720592499 -1.25019407272339 -1.12561881542206 -0.998056292533875 -0.77791953086853 -0.419804006814957 0.112119309604168 0.584387362003326 0.994439840316772 1.15730321407318 1.19785177707672 1.23879313468933 1.46395599842072 1.76871454715729 1.85202610492706 1.94110536575317 2.26792597770691 2.58926391601562 2.6941659450531 2.79588484764099 3.09162735939026 3.93482494354248 4.23933506011963 4.59042930603027 5.0281925201416 5.52709245681763 6.13570117950439 6.90187978744507 7.86212587356567 9.16367340087891 16.3289031982422 19.2807426452637 22.469898223877 27.9308605194092 10.2037525177002 5.78128576278687 6.52915287017822 11.9659509658813 14.0887727737427 15.3148851394653 18.4214820861816 8.42806053161621 7.91098356246948 12.982006072998 8.23585605621338 1.3443169593811 0.0176746621727943 0.982686579227448 2.43128871917725 3.41012120246887 3.94794154167175 4.37759447097778 4.71825265884399 4.94758319854736 5.12192535400391 5.14602327346802 5.22604179382324 5.26109552383423 5.31619691848755 5.42855548858643 5.50906991958618 5.60400104522705 5.77745294570923 5.98301887512207 6.09536504745483 6.41431140899658 6.85988473892212 7.27225208282471 7.55420207977295 7.90428924560547 8.23677825927734 8.95251274108887 11.0320472717285 12.779182434082 10.523211479187 11.1705713272095 11.4034385681152 8.1716480255127 1.79324042797089 -1.34220385551453 -1.22341847419739 -1.05073535442352 -0.633849084377289 0.180233716964722 1.04523909091949 1.56236672401428 2.09302592277527 3.42567110061646 4.38937902450562 5.61589622497559 7.20938730239868
4.78998184204102 3.24083828926086 2.25940227508545 0.405853062868118 0.41120246052742 0.503392517566681 0.626771569252014 0.776350438594818 0.948537349700928 1.0830739736557 1.19106066226959 1.32018148899078 1.56529402732849 1.99482941627502 2.30803084373474 2.44316124916077 2.48083972930908 2.74161982536316 2.46091461181641 2.52389025688171 2.59194016456604 1.92091274261475 1.57717287540436 1.68189764022827 1.69202923774719 1.70999646186829 1.72544360160828 1.73418414592743 1.80844473838806 1.81836211681366 1.83772754669189 1.85319221019745 1.86730444431305 1.87393379211426 1.88733339309692 1.89732694625854 1.90360534191132 1.87294173240662 1.79408931732178 1.81012618541718 1.83612287044525 1.86054658889771 1.88473093509674 1.89966428279877 2.01138496398926 2.40714073181152 2.51718878746033 2.64003658294678 2.78973007202148 2.96541786193848 3.21007013320923 3.54049229621887 3.92560935020447 4.4361720085144 5.05029296875 6.77337789535522 8.14594841003418 8.7880859375 10.2141389846802 1.65338921546936 0.39436087012291 0.540264308452606 0.676449120044708 0.786199331283569 0.855782866477966 1.18552231788635 1.4300103187561 1.53999471664429 1.77176713943481 2.02526235580444 2.20046210289001 2.34364104270935 2.4480288028717 2.99679446220398 4.39317560195923 7.57214021682739 9.9948558807373 11.806921005249 11.966682434082 4.29245710372925 1.87192571163177 0.375545740127563 -1.16526627540588 -1.15907156467438 -1.00279915332794 -0.667304575443268 -0.241379275918007 0.539176464080811 1.20850884914398 1.64485037326813 1.8996022939682 1.96771228313446 2.50396180152893 2.60431909561157 2.69224786758423 2.7756667137146 2.87186908721924 3.03295350074768 3.52761173248291 3.84216284751892 3.99877047538757 4.74316024780273 5.47659492492676 5.88735771179199 6.3686671257019 6.96277523040771 7.650221824646 8.4801082611084 9.51223087310791 10.9336605072021 13.5676212310791 20.9995460510254 23.1817359924316 26.9124889373779 31.2686252593994 5.51594829559326 5.86489105224609 9.47245407104492 13.3366146087646 17.382719039917 16.2505264282227 13.5152492523193 10.5257205963135 8.48993873596191 10.6809539794922 13.3476591110229 2.33239507675171 -0.606810808181763 -0.151371568441391 0.615820348262787 2.10507655143738 3.43087458610535 3.98483800888062 4.44409370422363 4.7437596321106 5.9958233833313 4.85035562515259 5.04051303863525 5.0439190864563 5.06147766113281 5.13822412490845 5.18340826034546 5.27746963500977 5.51689767837524 5.74790859222412 6.07887983322144 6.30335092544556 6.57988262176514 6.8929328918457 7.12334728240967 9.97925853729248 11.5848770141602 15.0661354064941 18.0812644958496 10.5543985366821 5.21079921722412 5.71718788146973 5.29174041748047 2.89882445335388 -1.21332859992981 -1.15070939064026 -0.809526324272156 -0.366448998451233 0.112103886902332 0.831610679626465 1.6582590341568 2.36126494407654 2.94070267677307 3.54685235023499 4.5046648979187 5.55236339569092 6.72482585906982
7.77332592010498 4.8944034576416 3.5477991104126 1.36674845218658 0.490510046482086 0.54992151260376 0.641568839550018 0.780684292316437 0.948976814746857 1.09554708003998 1.2261791229248 1.40146064758301 1.65545439720154 2.06407237052917 2.53093552589417 2.87380766868591 2.69524502754211 3.2889301776886 2.35438799858093 2.41081476211548 2.42402124404907 2.21298670768738 2.01325726509094 1.72203946113586 1.73010420799255 1.74119675159454 1.76324927806854 1.77624940872192 1.76981782913208 1.70872914791107 1.71312701702118 1.72795784473419 1.7403724193573 1.7488020658493 1.7564218044281 1.84074449539185 1.92376959323883 1.93414151668549 1.94925391674042 1.98124611377716 2.01520919799805 2.04884219169617 2.09260773658752 2.12914252281189 2.18626308441162 2.50705170631409 2.62126326560974 2.77097415924072 2.92582702636719 3.09425854682922 3.37218880653381 3.73731970787048 4.17052745819092 4.69706726074219 5.41570472717285 5.45386743545532 5.66241598129272 6.07786560058594 6.40386390686035 3.41276049613953 0.971614241600037 1.04254972934723 1.15326142311096 1.28819274902344 1.38088369369507 1.57968509197235 1.8194020986557 1.98996651172638 2.42832064628601 2.72815418243408 2.9411952495575 3.12088060379028 3.25777792930603 3.81737160682678 5.67273855209351 8.52089786529541 10.280909538269 12.06662940979 10.3387107849121 3.87814927101135 1.43518698215485 1.29390954971313 0.572214245796204 -0.102095484733582 0.126662030816078 0.426453471183777 0.776557981967926 1.28174996376038 1.83975338935852 2.46499371528625 2.75765919685364 3.16970062255859 3.75922250747681 4.08702230453491 4.220778465271 4.35279130935669 4.49556493759155 4.65186834335327 4.81711339950562 5.13215684890747 5.4793119430542 6.35903644561768 6.82954454421997 7.38177537918091 8.04888439178467 8.839919090271 9.80275058746338 10.9914264678955 12.4890041351318 14.4741382598877 18.0269012451172 23.2329769134521 24.2877902984619 31.0186939239502 26.1067371368408 8.54399681091309 6.24078512191772 9.43727111816406 14.2879333496094 18.8028697967529 17.5845890045166 13.0027189254761 15.5371417999268 7.32262182235718 5.82896184921265 6.2079758644104 1.08554232120514 -0.902126491069794 -0.739836990833282 -0.429820388555527 0.263690650463104 2.08209538459778 3.59269547462463 4.09073495864868 4.43388795852661 7.23017263412476 4.49965810775757 4.53482818603516 5.52752161026001 4.75572776794434 4.58774375915527 4.87403106689453 5.07459783554077 5.39570617675781 5.77501201629639 6.09481763839722 6.42775344848633 6.85449314117432 7.24428796768188 9.86734962463379 13.8738241195679 16.1936855316162 19.7824478149414 21.3705825805664 2.70153069496155 2.70974063873291 3.50440096855164 -0.6811563372612 -1.22164118289948 -1.11173224449158 -0.936260879039764 -0.564027667045593 -0.172063007950783 0.394423842430115 1.25238049030304 2.02544593811035 2.59289884567261 3.14512157440186 3.79433941841125 3.82498550415039 4.05186700820923 4.79780864715576
11.8449172973633 6.01346874237061 4.59651613235474 2.24356698989868 0.600129067897797 0.630192637443542 0.691103994846344 0.806751072406769 0.946069836616516 1.10377430915833 1.2465158700943 1.5018116235733 1.75620234012604 2.10268402099609 2.68928527832031 3.07455110549927 2.77353858947754 3.57589888572693 2.5172164440155 2.45060396194458 2.55905795097351 2.1499400138855 1.91736495494843 1.62873888015747 1.62832427024841 1.63530397415161 1.71117556095123 1.74380683898926 1.78497040271759 2.22657203674316 1.76899921894073 1.78898072242737 1.82601511478424 1.84333837032318 1.87199532985687 1.90444898605347 2.03438591957092 2.04633951187134 2.06128430366516 2.10712885856628 2.13519763946533 2.13954877853394 2.19338870048523 2.23159432411194 2.27016687393188 2.29797554016113 2.07285094261169 2.1548068523407 2.26403665542603 2.35067200660706 2.50562977790833 2.75276160240173 3.07783079147339 3.38890719413757 3.84917020797729 4.22894716262817 4.31758165359497 4.77648401260376 5.7522554397583 3.87208461761475 1.40436470508575 1.44205892086029 1.53927326202393 1.70231068134308 1.8443375825882 2.10041904449463 2.31836199760437 2.52767372131348 2.88949799537659 3.15549159049988 3.44215750694275 3.74858999252319 3.94613480567932 4.71534490585327 7.19928979873657 9.66504955291748 13.0350456237793 10.0412378311157 10.0639915466309 3.9353654384613 0.657554447650909 0.872393608093262 0.334382742643356 0.811171293258667 1.17873954772949 1.39335536956787 1.71992921829224 2.44247198104858 3.01433300971985 3.44558882713318 3.816974401474 3.94441819190979 4.29528379440308 4.55028963088989 4.69190454483032 4.83865356445312 4.99828052520752 5.1709508895874 5.36582565307617 5.95399522781372 6.39715099334717 7.24831962585449 7.85138702392578 8.43749809265137 9.16576290130615 10.071346282959 11.1536464691162 12.4824028015137 14.1586484909058 16.3417739868164 19.3349628448486 23.7818069458008 23.8069858551025 26.0690536499023 29.6087951660156 15.1404581069946 6.45740032196045 7.48511171340942 11.3265428543091 14.4548168182373 17.4089908599854 15.1801891326904 14.9613828659058 16.3903846740723 2.23644709587097 2.32928586006165 2.14438796043396 -1.25620210170746 -1.17378401756287 -1.10075390338898 -0.541551411151886 0.386597037315369 2.6263210773468 3.48626589775085 5.86210107803345 9.96123123168945 7.33587169647217 3.87636184692383 3.95179533958435 4.05590438842773 5.27136087417603 5.53730154037476 5.98189449310303 6.34411144256592 6.8015661239624 7.23564386367798 7.75187015533447 8.67695140838623 9.63629722595215 12.1997833251953 13.1542119979858 14.9644813537598 17.5621662139893 15.1011962890625 4.10283422470093 -1.81374025344849 -1.80476999282837 -1.79749989509583 -1.73637056350708 -1.60731601715088 -1.37336266040802 -0.912954688072205 -0.474050432443619 0.24873186647892 0.992327690124512 1.4943995475769 1.88208770751953 2.34239721298218 2.83425974845886 2.77854681015015 1.6769335269928 1.65793430805206
7.40638113021851 9.96494102478027 4.43854999542236 3.44668030738831 0.726964294910431 0.740524351596832 0.760559678077698 0.817747354507446 0.919250547885895 1.06632590293884 1.28228843212128 1.53262424468994 1.79456424713135 2.18109178543091 2.63525819778442 3.04783964157104 2.92938995361328 3.10025358200073 3.4656400680542 2.42166209220886 2.3156750202179 2.0343770980835 2.09411835670471 1.67330753803253 1.67500686645508 1.68924856185913 1.7778377532959 1.80654680728912 1.84394657611847 2.3619339466095 1.95881772041321 1.84445154666901 1.88774025440216 1.92194473743439 1.95964217185974 1.98983764648438 1.99019753932953 1.80926215648651 1.79552674293518 1.95646405220032 2.30690574645996 1.8085412979126 1.82027232646942 1.82337915897369 1.8460488319397 1.87083804607391 1.77337074279785 1.75297164916992 1.80861949920654 1.83870279788971 1.90322518348694 2.23104548454285 2.49704170227051 2.74941611289978 3.09879016876221 3.45383930206299 3.2485146522522 3.43392658233643 3.61469841003418 4.35484266281128 1.92680728435516 1.72534167766571 1.79343342781067 1.94472110271454 2.16005778312683 2.59386563301086 2.85620045661926 3.09059619903564 3.37744975090027 3.69337558746338 4.07175254821777 4.54775953292847 5.03383684158325 5.98812580108643 8.04765224456787 11.7105684280396 16.0874824523926 7.16192054748535 5.33721876144409 4.9351110458374 4.07967567443848 2.26133894920349 0.913992166519165 1.12162220478058 1.36777484416962 1.51431667804718 1.88426184654236 2.83451557159424 3.43169403076172 3.97654366493225 4.4576416015625 4.60238265991211 4.82943916320801 5.23999309539795 5.40190029144287 5.57356023788452 5.75286293029785 5.95014190673828 6.16428375244141 6.48913192749023 7.15935468673706 7.4896674156189 8.5722017288208 9.21436405181885 9.94644927978516 10.8291683197021 11.8744955062866 13.1154918670654 14.6771984100342 16.8887062072754 19.8763046264648 22.2218685150146 22.8335227966309 24.1051235198975 23.6693572998047 20.6906108856201 8.15210151672363 8.44637775421143 10.0235290527344 11.6744194030762 13.8231887817383 16.1174373626709 19.1645259857178 25.9154224395752 6.29617404937744 0.40875256061554 0.602946817874908 -1.40761518478394 -1.32615149021149 -1.17320775985718 -0.973760783672333 -0.155828386545181 2.05748581886292 3.30855202674866 7.11691570281982 10.180004119873 12.3601522445679 10.2082509994507 3.37100505828857 3.72403645515442 5.10766172409058 5.60385751724243 6.14696073532104 6.54404211044312 6.97240877151489 7.2647819519043 7.9344596862793 8.81689739227295 11.8612337112427 13.013970375061 14.192590713501 14.3388500213623 10.1360445022583 10.2804250717163 -2.25083518028259 -2.24266910552979 -1.28889882564545 -0.541153430938721 -2.18879842758179 -2.21818375587463 -2.11870455741882 -1.61855483055115 -0.993657469749451 -0.286578238010406 0.215958029031754 0.552307426929474 0.736407339572906 0.965309798717499 1.21219384670258 1.1782054901123 1.13890695571899 0.109200932085514
5.13181066513062 7.14523792266846 7.36150932312012 3.01458787918091 1.43338489532471 1.0068027973175 0.864343047142029 0.874162077903748 0.9234299659729 1.05161130428314 1.26618468761444 1.52018702030182 1.82342600822449 2.2026481628418 2.84354376792908 3.23612689971924 3.21391272544861 3.2832932472229 4.15459680557251 2.30158686637878 2.30829691886902 1.89086580276489 1.80926191806793 1.74274325370789 1.7481027841568 1.75076484680176 1.77008891105652 1.66771495342255 1.7598934173584 2.0241174697876 2.03868842124939 1.8109405040741 1.6554012298584 1.68318665027618 1.72681546211243 1.77390253543854 2.1530909538269 1.65418696403503 1.72094261646271 1.98034834861755 2.23576521873474 2.22032499313354 2.37430262565613 2.43816161155701 3.22534203529358 1.97963893413544 1.45904183387756 1.54677224159241 1.56428158283234 1.59518027305603 1.60165727138519 1.68376767635345 1.93035280704498 2.15751695632935 2.38157963752747 2.63965845108032 2.75501298904419 2.4114351272583 2.68517231941223 3.28175473213196 2.41343951225281 2.12611865997314 2.20647740364075 2.32414555549622 2.51914310455322 2.68868589401245 2.82602095603943 3.14502954483032 3.38759112358093 3.67972302436829 4.04142141342163 4.45399188995361 4.99236011505127 5.95992183685303 7.36351585388184 10.4964036941528 14.5928440093994 6.85426712036133 4.38087749481201 4.28191566467285 3.87795901298523 3.88987040519714 2.84423828125 1.52677524089813 1.87106788158417 2.15020608901978 2.58335852622986 3.48113179206848 4.10743522644043 4.58574533462524 4.98786735534668 5.22166872024536 5.38748407363892 5.57397985458374 5.74939441680908 5.93486928939819 6.13734149932861 6.3630223274231 6.67269372940063 7.05853509902954 7.47717809677124 8.09517478942871 8.6233081817627 9.26563549041748 10.0086832046509 10.8937845230103 11.9409923553467 13.2011938095093 14.7869167327881 16.7627735137939 19.0509471893311 20.9438819885254 22.5185031890869 24.5331897735596 26.1169376373291 17.419412612915 10.8056907653809 8.31045913696289 9.55724239349365 10.7962474822998 11.6900959014893 14.476957321167 18.7307376861572 26.9958934783936 8.2975549697876 -1.23586583137512 -1.10531532764435 0.42097795009613 -1.16732549667358 -1.11809909343719 -0.79487681388855 0.123730681836605 1.91187024116516 3.01563429832458 9.2020435333252 14.1151485443115 19.2445259094238 22.1940765380859 2.51058745384216 2.80876970291138 4.22293186187744 4.99390125274658 5.63485383987427 6.18083810806274 6.63060140609741 6.99883604049683 7.34750604629517 10.2101106643677 12.136926651001 14.895318031311 19.0086135864258 9.03010749816895 7.17372798919678 -2.21509408950806 -1.35573756694794 0.0932365506887436 2.32931303977966 0.32710787653923 -2.60094523429871 -2.55330038070679 -2.41182637214661 -2.05157709121704 -1.35894858837128 -0.498769879341125 -0.0846942886710167 0.126152694225311 0.330935746431351 0.448448181152344 0.694222867488861 0.905853509902954 0.902002215385437 0.412645578384399
4.06906890869141 4.19198417663574 5.07036399841309 6.10975408554077 4.32607555389404 2.00900030136108 2.21563291549683 0.966757595539093 0.999803483486176 1.1037825345993 1.26103460788727 1.48705863952637 1.79699075222015 2.25145840644836 2.95545148849487 3.35694813728333 3.11906766891479 3.20507264137268 4.03146457672119 2.82829475402832 2.40358066558838 1.83516311645508 1.60027849674225 1.65588700771332 1.76336669921875 1.60185086727142 1.61169445514679 1.56441736221313 1.78009831905365 2.05393671989441 2.18537878990173 2.29100346565247 1.62925910949707 1.67581248283386 1.74935376644135 1.80620539188385 2.15154957771301 1.83381271362305 1.90864586830139 2.09278464317322 2.27878761291504 2.84436774253845 3.15948534011841 3.35719323158264 5.1469874382019 1.90184128284454 1.95227527618408 2.05735182762146 1.58162939548492 1.65733575820923 1.69207966327667 1.75235509872437 1.86734199523926 1.95834362506866 2.02999305725098 2.08307242393494 2.14998936653137 2.13035297393799 2.22503471374512 2.23103666305542 3.10478901863098 2.23361897468567 2.30285596847534 2.42756843566895 2.56125259399414 2.73627018928528 2.90773773193359 3.05076098442078 3.10566735267639 3.35922479629517 3.61923718452454 3.90915584564209 4.27611875534058 5.3015193939209 6.3757209777832 6.99047470092773 9.49953746795654 7.29394197463989 4.9560866355896 4.45338201522827 5.72960329055786 7.03684663772583 4.01693344116211 2.06765127182007 2.34411311149597 2.7509491443634 3.21672654151917 3.87285923957825 4.4313793182373 4.88941764831543 5.15156269073486 5.66319370269775 5.83671092987061 6.02382040023804 6.22200775146484 6.43152379989624 6.65716361999512 6.89689779281616 7.15637636184692 7.43568086624146 7.73592758178711 8.08984088897705 8.43832015991211 9.0838623046875 9.75912094116211 10.5403699874878 11.5136337280273 12.7487592697144 14.3173799514771 16.1115379333496 17.4447917938232 19.1355590820312 20.2472019195557 21.4930305480957 22.5835781097412 17.6933898925781 8.26626014709473 8.28992462158203 9.42797565460205 10.5256547927856 11.2641658782959 13.3480386734009 17.0578937530518 23.5454406738281 8.27449417114258 -0.590253174304962 0.599941909313202 1.09917044639587 -1.00308835506439 -1.08611106872559 -0.898973524570465 0.288825988769531 1.49613666534424 2.51080656051636 8.53010272979736 13.2476081848145 19.4791088104248 26.0861148834229 6.62615585327148 2.1140604019165 2.86386656761169 3.65217065811157 4.53180694580078 5.17405366897583 5.5754508972168 6.07606506347656 6.53214025497437 9.60240459442139 11.1333932876587 14.1241502761841 17.1621704101562 8.85884189605713 -1.42178082466125 -1.74004602432251 -0.247005432844162 1.3241925239563 2.60326862335205 3.03094840049744 -2.85935163497925 -2.71740388870239 -2.43842077255249 -2.02993440628052 -1.18237280845642 -0.548520147800446 -0.212950050830841 0.0803309306502342 0.491727381944656 1.45331645011902 2.08830666542053 2.79701972007751 3.24904894828796 2.47743105888367
3.18707680702209 3.53901147842407 3.87017703056335 3.63388347625732 4.79234886169434 6.04548645019531 3.94266629219055 1.34282886981964 1.11771535873413 1.1836861371994 1.29881870746613 1.46317052841187 1.82713449001312 2.37952399253845 2.87797427177429 3.21545600891113 3.10249400138855 3.15297555923462 3.21190857887268 4.06998491287231 2.49504709243774 1.80937111377716 1.75945448875427 1.90872764587402 2.14530181884766 1.53897500038147 1.54622006416321 1.577228307724 1.65712225437164 1.81198441982269 2.13478446006775 1.83252775669098 1.83436119556427 1.88980448246002 1.93755042552948 2.03058433532715 2.1156804561615 2.20648860931396 2.29443621635437 2.39937090873718 2.55706310272217 2.60021162033081 3.36411905288696 3.61662817001343 4.21066665649414 5.36374664306641 2.81032037734985 2.28026986122131 1.50144529342651 1.54835629463196 1.62188506126404 1.69552075862885 1.77300560474396 1.86136937141418 1.90685367584229 2.02131342887878 2.12212157249451 2.17671895027161 2.47013640403748 2.10349988937378 2.1859438419342 2.23837828636169 2.23792266845703 2.33850979804993 2.44644975662231 2.57999205589294 2.70009517669678 2.81244945526123 2.85555458068848 2.83126878738403 3.00831580162048 3.18806338310242 3.35414052009583 3.79471778869629 4.55496740341187 4.97326564788818 5.48568964004517 5.99956464767456 5.97055625915527 5.47835874557495 6.22940063476562 6.35188007354736 3.18188810348511 2.49185085296631 2.66634678840637 3.17344069480896 3.71992754936218 4.27014923095703 4.78580856323242 5.23362159729004 5.46874666213989 5.65672588348389 5.84641265869141 6.02610445022583 6.21859931945801 6.422447681427 6.6482629776001 6.88982915878296 7.14758253097534 7.42521190643311 7.72076320648193 8.00565624237061 8.42198657989502 9.03772830963135 9.76665019989014 10.6183223724365 11.6340312957764 12.9136867523193 14.4734439849854 16.5991249084473 18.1548805236816 20.4272708892822 23.2284755706787 17.2145957946777 17.2405300140381 12.4482879638672 8.00675582885742 8.04648303985596 8.93475246429443 9.89904689788818 11.6228723526001 13.4975805282593 16.6199779510498 17.0932312011719 6.5373706817627 3.89279389381409 4.08505773544312 0.273232817649841 1.48220276832581 -1.49789977073669 -1.24202644824982 -0.220944747328758 0.937238156795502 2.21355581283569 5.54694128036499 9.84306335449219 13.3778524398804 19.6512355804443 13.3368988037109 2.02994894981384 2.11919927597046 2.49690318107605 3.00110745429993 4.02342844009399 4.45349979400635 5.19792604446411 6.262770652771 8.90630054473877 10.5953102111816 13.3819637298584 14.168360710144 5.30606985092163 -2.20761322975159 -1.23686170578003 -0.9888676404953 0.0410494282841682 0.127587720751762 -0.838031768798828 -2.95428371429443 -2.34054374694824 -1.46942937374115 -0.798553764820099 -0.173454225063324 -0.00296325911767781 0.285656660795212 1.10609650611877 1.47068083286285 2.28941440582275 3.93288397789001 5.62046241760254 6.66480016708374 7.13145875930786
2.28022861480713 2.64904642105103 3.16212344169617 3.2884213924408 2.95997214317322 2.95785593986511 4.59403228759766 3.2753963470459 1.94626474380493 1.30705237388611 1.38095259666443 1.56309568881989 1.8984557390213 2.56291127204895 2.81159472465515 3.10123419761658 3.16895055770874 3.07779288291931 3.13686394691467 4.26115846633911 2.85380434989929 1.91951406002045 2.00628542900085 1.93826222419739 2.12434864044189 1.67708802223206 1.68287765979767 1.70036578178406 1.73146903514862 1.76495122909546 1.82825803756714 1.78343498706818 2.00398087501526 2.11110854148865 2.17857003211975 2.26028990745544 2.36014413833618 2.469886302948 2.58385872840881 2.70971870422363 2.8234748840332 2.98720908164978 4.00404691696167 4.60940551757812 5.06559991836548 6.4785361289978 3.28582572937012 2.92215085029602 1.46745932102203 1.34942448139191 1.44418847560883 1.58623611927032 2.28357028961182 1.6470547914505 1.67414498329163 1.87274980545044 1.99180793762207 2.07054448127747 2.25195527076721 2.09379577636719 2.01748919487 2.02342796325684 2.03825092315674 2.10028672218323 2.19916868209839 2.31254935264587 3.16776561737061 2.31269025802612 2.39759111404419 2.07768368721008 2.18866491317749 2.37787485122681 2.47845339775085 2.79152727127075 3.45509719848633 4.2165846824646 5.09636259078979 6.13422107696533 6.15012168884277 4.40694236755371 4.44717264175415 5.64084386825562 2.73813009262085 2.86682796478271 3.03466153144836 3.52841353416443 4.02523136138916 4.46161603927612 4.86728620529175 5.27262544631958 5.48826217651367 5.65700817108154 5.85634517669678 6.03656482696533 6.22512340545654 6.43298959732056 6.64660120010376 6.87943983078003 7.12931680679321 7.39735555648804 7.68563652038574 7.99029731750488 8.46949672698975 9.09615898132324 9.83495330810547 10.6990661621094 11.7419891357422 13.066276550293 14.8244590759277 17.7029209136963 19.2534351348877 21.8138961791992 23.5594902038574 15.5907649993896 15.9677152633667 11.903995513916 10.3916368484497 8.04193210601807 9.26877212524414 12.56383228302 13.3659954071045 15.5021886825562 19.892936706543 10.2374897003174 3.84948396682739 5.23848009109497 7.41218423843384 1.7777373790741 -0.779877483844757 -1.98675954341888 -1.7819128036499 -0.786039054393768 0.388459235429764 1.81067061424255 4.48213768005371 7.10957479476929 9.9804048538208 13.0191230773926 11.9625778198242 4.9346227645874 1.83555090427399 1.98327028751373 2.10351824760437 2.51944708824158 3.08827328681946 4.1266942024231 5.39646482467651 8.27234649658203 10.4195642471313 13.869987487793 12.0594701766968 0.261157304048538 -2.55219841003418 -2.25178384780884 -1.25199294090271 0.291455328464508 -0.260856777429581 -2.22084212303162 -2.05331516265869 -1.00452494621277 -0.0533444546163082 0.576114654541016 1.6516284942627 0.857087194919586 1.16640603542328 2.27164244651794 3.12421655654907 3.82355523109436 4.53704261779785 6.90279960632324 8.63292789459229 10.5815000534058
1.48591303825378 1.66922080516815 1.90036261081696 2.19810485839844 2.47307705879211 2.2404956817627 1.65053260326385 1.65018558502197 1.98536252975464 2.37881660461426 1.74695467948914 1.81483244895935 2.1140820980072 2.65525436401367 2.77327156066895 2.99278998374939 3.24420142173767 3.14809656143188 3.22372174263 3.39698386192322 3.59338402748108 2.10947918891907 2.17843580245972 2.09216737747192 1.91454041004181 1.82136523723602 1.84137201309204 1.86519300937653 1.89220690727234 1.9112194776535 1.92091023921967 1.97571849822998 2.20864248275757 2.33366060256958 2.46128177642822 2.53177690505981 2.63608908653259 2.79411864280701 2.99300312995911 3.16185188293457 3.28603720664978 3.59259128570557 4.36317110061646 5.16776990890503 6.42935991287231 5.30216264724731 5.31918001174927 2.78410029411316 1.26188600063324 1.26856219768524 1.22115778923035 1.26878881454468 2.00663995742798 1.34541261196136 1.37953567504883 1.60542166233063 1.7213419675827 1.81474924087524 1.90554308891296 1.92450761795044 1.6796703338623 1.70181560516357 1.71138334274292 1.72043311595917 1.81183636188507 2.12110185623169 2.78656721115112 2.08671975135803 2.62524342536926 3.00516080856323 1.39499747753143 1.41368401050568 1.42896378040314 1.49044632911682 2.05371117591858 3.06910800933838 4.09704971313477 5.24962711334229 5.08746957778931 3.43816757202148 3.10821437835693 3.15266728401184 3.16419553756714 3.29905915260315 3.50133013725281 3.82259631156921 4.25066900253296 4.61612701416016 4.97023105621338 5.32387208938599 5.49869251251221 5.66617584228516 5.80618381500244 5.98389577865601 6.17013645172119 6.35675811767578 6.56909608840942 6.81914758682251 7.06966638565063 7.33407878875732 7.61858606338501 8.09761238098145 8.51466655731201 9.24472141265869 9.93497943878174 10.7690649032593 11.8065156936646 13.1923179626465 14.9576463699341 17.018196105957 18.6739406585693 19.9842300415039 22.7845115661621 19.2628746032715 17.6008987426758 14.9738388061523 13.6079111099243 10.8568601608276 11.8393306732178 11.9403686523438 13.0054807662964 13.0792760848999 8.52602863311768 8.91106033325195 4.11392402648926 3.17969536781311 3.9749550819397 1.19336199760437 -1.05806720256805 -2.33063054084778 -2.20652294158936 -1.18705201148987 -0.155497431755066 1.23407554626465 2.98723554611206 5.89334106445312 7.65318298339844 9.29178333282471 9.70746517181396 4.03865528106689 1.52107083797455 1.53281247615814 1.55446994304657 1.80625140666962 2.38823008537292 3.55337381362915 5.06172895431519 6.59168910980225 8.5129566192627 10.7268781661987 10.3035936355591 -1.2562255859375 -1.77791905403137 -1.62620937824249 -1.46246337890625 -1.2352819442749 -1.22043406963348 -1.19720709323883 -0.903656780719757 -0.18152242898941 0.953289926052094 1.38571739196777 1.57890522480011 1.68824982643127 2.27791118621826 2.61186146736145 3.92859983444214 5.15319156646729 5.76358461380005 6.42671966552734 8.18305110931396 10.0562658309937
1.4239102602005 1.45537352561951 1.48808991909027 1.59457755088806 1.63530778884888 1.68201899528503 1.7374130487442 1.78753173351288 1.85998511314392 1.93272578716278 2.0801408290863 2.28181552886963 2.4693877696991 2.74661946296692 2.86584424972534 3.007248878479 3.2918438911438 3.30216407775879 3.32970666885376 3.44951128959656 4.22260236740112 2.27201819419861 2.30214595794678 2.36440229415894 1.95416498184204 1.98586678504944 2.015625 2.04335379600525 2.0786395072937 2.10411548614502 2.1108226776123 2.18305134773254 2.29770493507385 2.56547975540161 2.67867302894592 2.7409565448761 2.89228630065918 3.10964632034302 3.38587021827698 3.63117265701294 3.81226325035095 3.98507642745972 4.48589563369751 5.15612030029297 6.392653465271 5.89765977859497 4.71563673019409 6.12050437927246 1.89232587814331 1.11505150794983 0.861062049865723 0.865404546260834 0.943350255489349 1.00602245330811 1.09522104263306 1.22501194477081 1.33365726470947 1.44398772716522 1.53520345687866 1.61721956729889 1.78018021583557 1.49533522129059 1.47421681880951 1.42545235157013 1.9703574180603 2.37012076377869 3.0090024471283 3.8297381401062 2.87608313560486 3.50290393829346 2.87552452087402 1.29172492027283 1.33866751194 1.57008707523346 1.79794931411743 2.03981614112854 2.36925506591797 3.26431941986084 3.29056811332703 3.35907363891602 3.41023182868958 3.46538352966309 3.56139445304871 3.69151258468628 3.89399600028992 4.1214017868042 4.43182897567749 4.76123762130737 5.05984592437744 5.28839731216431 5.45471334457397 5.65849828720093 5.86069631576538 6.77681922912598 7.14282369613647 5.95727348327637 6.06371831893921 6.41851758956909 7.09182977676392 7.42160129547119 8.28460025787354 8.72332668304443 9.11092662811279 9.80414199829102 10.5305557250977 11.3822546005249 12.3788089752197 13.5642700195312 15.0693264007568 16.9127864837646 19.3435459136963 20.6275062561035 22.8541812896729 20.7147197723389 21.5916328430176 19.7251892089844 22.4262046813965 11.5304183959961 9.99190521240234 9.9279260635376 7.63028812408447 8.25155448913574 9.31360054016113 11.272403717041 5.78042316436768 2.75486731529236 1.27176356315613 -1.77058613300323 -2.27666902542114 -2.52184534072876 -2.39481496810913 -1.65754616260529 -0.642181932926178 0.592578768730164 2.07685995101929 5.6976842880249 7.29921054840088 8.57170104980469 9.06333446502686 3.75882482528687 2.3524968624115 1.03720116615295 0.501397550106049 1.00223457813263 1.4304450750351 2.47187852859497 3.8799614906311 4.21415853500366 5.35851526260376 6.34788608551025 6.24042940139771 0.522850155830383 -1.19676125049591 -1.07740139961243 -0.735446214675903 -0.590023934841156 -0.374736219644547 -0.169061154127121 0.216431617736816 0.736503839492798 2.09085774421692 1.02824378013611 1.3650496006012 2.09046244621277 2.54969263076782 2.94350099563599 3.93806385993958 5.21644592285156 5.4531717300415 5.42411613464355 5.54249334335327 7.00042486190796
1.49953675270081 1.54321455955505 1.57801270484924 1.61403036117554 1.70969116687775 1.77446830272675 1.83055806159973 1.89163184165955 1.96061253547668 2.03217625617981 2.15787601470947 2.30504608154297 2.52228665351868 2.80280804634094 2.96190285682678 3.18785309791565 3.52649521827698 3.57336807250977 3.30903053283691 3.35712504386902 3.78914189338684 2.57510375976562 2.59140849113464 2.32729458808899 2.10629677772522 2.14494037628174 2.16553974151611 2.19924807548523 2.23481488227844 2.27473998069763 2.28920936584473 2.346604347229 2.426926612854 2.48867511749268 2.74853253364563 2.88303852081299 3.03051543235779 3.22712302207947 3.48000359535217 3.77028560638428 3.94074177742004 4.08640193939209 4.35718202590942 5.12383890151978 5.95884704589844 6.7356219291687 9.02451133728027 7.07575654983521 1.06610703468323 1.07625651359558 1.26216506958008 1.19816839694977 0.354542315006256 0.377421200275421 0.488928765058517 0.603985488414764 0.865937411785126 1.28797852993011 1.47368121147156 1.66094863414764 1.8566689491272 1.87260448932648 1.9493762254715 1.98633396625519 2.46229958534241 3.34401512145996 4.42620706558228 6.14004564285278 3.50857901573181 4.52928447723389 2.12299823760986 1.16870021820068 1.22955083847046 1.51309061050415 1.8107784986496 2.09447717666626 2.46547198295593 3.12341117858887 3.37576413154602 3.49725914001465 3.58737730979919 3.66870021820068 3.80744123458862 4.0267915725708 4.19623565673828 4.3946704864502 4.64771604537964 4.92713356018066 5.16597890853882 5.32367467880249 5.75778865814209 7.48086023330688 8.97442245483398 10.4916753768921 10.0177392959595 9.73545360565186 6.51587724685669 5.6797947883606 6.6170973777771 7.91764402389526 8.52850818634033 9.13434314727783 9.63215732574463 11.0423460006714 11.9413404464722 12.8881368637085 14.0207071304321 15.320122718811 16.6748523712158 18.6816158294678 21.5716953277588 23.1716384887695 23.3983840942383 22.0821590423584 22.4628925323486 20.9180488586426 21.6434154510498 11.8368310928345 6.29217958450317 7.8155779838562 6.98869848251343 8.29620838165283 10.229115486145 12.7584190368652 6.62664127349854 2.01131987571716 -1.31935930252075 -2.61868381500244 -2.6049747467041 -2.57050538063049 -2.54858708381653 -2.14843034744263 -1.55200624465942 -0.612255454063416 1.57673740386963 5.50970363616943 7.21026563644409 8.36830043792725 9.09900569915771 2.14411520957947 0.42609578371048 0.728222846984863 0.953624904155731 -0.404851257801056 -0.210228636860847 0.588105976581573 1.84096777439117 2.53202271461487 3.53216314315796 3.17992687225342 2.81635737419128 -0.124828338623047 -1.06814432144165 -0.82358705997467 -0.504956901073456 -0.331857085227966 -0.00361897889524698 0.344355076551437 0.741580545902252 1.14068925380707 1.3239973783493 1.27860677242279 1.34732007980347 1.84113788604736 2.44834232330322 3.20453977584839 3.95934128761292 6.06778860092163 7.59324026107788 4.36110067367554 4.82254505157471 4.52357625961304
1.58177936077118 1.6303858757019 1.66903054714203 1.70710122585297 1.79047322273254 1.86669731140137 1.93381989002228 1.9692348241806 2.02279853820801 2.11457347869873 2.2132613658905 2.37275385856628 2.51803207397461 2.81547665596008 3.07085132598877 3.64744019508362 4.29567623138428 3.90031337738037 3.68488669395447 3.7000207901001 2.85097002983093 3.20046305656433 2.72427654266357 2.76880931854248 2.25507855415344 2.21810626983643 2.23575973510742 2.28015851974487 2.33274388313293 2.36811923980713 2.3957998752594 2.41997909545898 2.47816491127014 2.54078316688538 2.95600819587708 3.14516425132751 3.30801653862 3.52695918083191 3.80858492851257 4.12482500076294 4.37798357009888 4.58429336547852 4.85554170608521 5.58442497253418 6.38400077819824 7.16251230239868 8.16609382629395 6.33776569366455 2.15399479866028 2.73255658149719 3.29322576522827 4.46854400634766 3.08083057403564 -0.135019242763519 0.099711187183857 0.420718461275101 1.02468371391296 1.42782759666443 1.61662745475769 1.84582161903381 2.08345437049866 2.11875653266907 2.28036975860596 2.44993185997009 2.62956094741821 3.40099501609802 4.95092058181763 4.56828832626343 4.71710872650146 7.80766725540161 3.18248724937439 1.09069538116455 1.20298719406128 1.55131494998932 1.84549140930176 2.19486498832703 2.73971605300903 3.24168419837952 3.4683952331543 3.6042537689209 3.75554990768433 4.02567148208618 4.30357646942139 4.4629225730896 4.63806486129761 4.85626888275146 5.13165521621704 5.363938331604 5.516685962677 6.2027645111084 7.72215175628662 9.49403667449951 12.9270219802856 13.5093078613281 14.9824819564819 20.6728916168213 9.53159999847412 4.93165016174316 5.55150747299194 6.9008731842041 7.81949758529663 8.80951976776123 9.88197898864746 11.4193105697632 12.6088438034058 14.1282606124878 15.3190851211548 16.6757717132568 18.1441898345947 23.393533706665 27.0425910949707 30.0636234283447 30.6081523895264 28.7433643341064 17.3160591125488 12.3243808746338 8.84487819671631 10.520227432251 6.62168121337891 6.38426971435547 7.33647632598877 8.40990734100342 9.61689949035645 11.3657083511353 7.89303350448608 0.943846762180328 -2.46641635894775 -2.31998348236084 -2.2571964263916 -2.24162912368774 -2.22012114524841 -2.01272654533386 -1.53623187541962 -1.21555459499359 0.768989264965057 5.50210428237915 6.91288089752197 6.99365091323853 8.10822296142578 -0.281524479389191 -0.178451776504517 0.123271062970161 -0.163664549589157 -0.0468824096024036 -1.04210710525513 -0.800232529640198 0.0486188530921936 0.771445989608765 2.51184463500977 2.28809833526611 0.181573137640953 -1.00711166858673 -1.05864143371582 -0.846837997436523 -0.566034138202667 -0.334839999675751 -0.0470838509500027 0.318934500217438 0.801521301269531 1.25548183917999 1.60864019393921 1.46873927116394 1.62082326412201 1.7574063539505 2.23479342460632 2.87877607345581 3.53443384170532 4.16953992843628 4.57666110992432 4.76035070419312 4.99724578857422 4.47454881668091
1.66426455974579 1.7273542881012 1.76614689826965 1.80526471138 1.84480082988739 1.96184027194977 2.02649140357971 2.069983959198 2.10518598556519 2.13090014457703 2.27960872650146 2.43487691879272 2.59551239013672 2.99693894386292 3.46168518066406 3.88828444480896 4.89725112915039 4.84993410110474 4.19591808319092 3.91853308677673 3.10431241989136 3.38995981216431 3.10890936851501 3.24726533889771 2.34614181518555 2.35677337646484 2.38287758827209 2.43459439277649 2.50121188163757 2.53584980964661 2.5624144077301 2.58466720581055 2.62769412994385 2.71437287330627 3.02619886398315 3.21356105804443 3.42113471031189 3.64513659477234 3.87856435775757 4.1945743560791 4.54743099212646 4.7520546913147 5.01740694046021 5.59463024139404 6.35380983352661 7.61564683914185 9.38224220275879 6.54271030426025 2.35596084594727 3.2567253112793 4.19199132919312 4.02787590026855 4.55681371688843 -0.048139214515686 0.0997232049703598 0.452536374330521 1.10279607772827 1.67773294448853 1.88926148414612 2.17267179489136 2.29958295822144 2.43058180809021 2.67344284057617 2.97736167907715 3.20273995399475 3.63239979743958 4.35707330703735 4.86053991317749 4.73969221115112 7.22156858444214 5.21141338348389 1.14442658424377 1.38116300106049 1.83032596111298 2.18363308906555 2.58501887321472 3.22736835479736 3.57355499267578 3.74104475975037 3.88687515258789 4.10505485534668 4.46370983123779 4.73715734481812 4.87079668045044 5.38208913803101 6.15298366546631 6.7648720741272 7.21530055999756 7.5885181427002 8.14200401306152 9.00288867950439 9.92039108276367 12.4784650802612 14.1980218887329 15.0554904937744 18.6154937744141 16.0056629180908 4.45189571380615 4.79980611801147 5.43489265441895 5.89858818054199 7.91291856765747 9.77628612518311 11.0880813598633 12.538990020752 14.6411275863647 16.5374622344971 18.2912139892578 23.2506580352783 28.2340755462646 32.3991355895996 38.4046936035156 21.5885391235352 21.7723217010498 15.6229000091553 7.80890083312988 6.71693801879883 6.76348209381104 6.883713722229 7.17438411712646 7.66301155090332 7.74294900894165 8.0154447555542 8.81178569793701 7.83257818222046 2.46755933761597 -2.28636407852173 -2.04308891296387 -1.98609960079193 -1.96683406829834 -1.91272580623627 -1.73386824131012 -1.46137487888336 -1.06299662590027 2.22625136375427 8.30269145965576 12.008563041687 3.58079743385315 2.30274605751038 0.00478113256394863 -0.973276615142822 -0.66717004776001 -0.455691516399384 0.277002990245819 0.0630016401410103 -1.19077086448669 -0.949589371681213 -0.458937913179398 0.681101679801941 1.22960042953491 0.0622639805078506 -1.18296372890472 -1.41598200798035 -1.49544942378998 -1.29595863819122 -0.932837784290314 -0.564388871192932 -0.0972718447446823 0.501092612743378 0.975120961666107 1.39509212970734 1.56116187572479 1.50655376911163 1.78100728988647 2.09340214729309 2.48629450798035 2.91546130180359 3.31727075576782 3.84904742240906 4.3885760307312 4.89165258407593 4.08024501800537
1.75030696392059 1.8092086315155 1.84894943237305 1.88946890830994 1.93071389198303 1.97565221786499 2.08687496185303 2.13468885421753 2.17791032791138 2.20281577110291 2.34130668640137 2.54652142524719 2.76899456977844 3.06154417991638 3.46301865577698 4.09129858016968 4.76858425140381 5.80868196487427 4.84406137466431 4.40241575241089 3.94611954689026 3.3552553653717 3.64399814605713 3.46709632873535 2.42031216621399 2.41728711128235 2.4406852722168 2.49904870986938 2.5617470741272 2.58717250823975 2.60081005096436 2.63594937324524 2.67096781730652 2.75156164169312 2.98635935783386 3.19497013092041 3.38959217071533 3.63508772850037 3.8655424118042 4.13492774963379 4.5024881362915 4.77059173583984 5.06160545349121 5.40124177932739 6.19746541976929 7.22029113769531 8.45058250427246 8.82269668579102 2.66918230056763 2.87554836273193 5.11718845367432 3.30976128578186 3.36807012557983 0.196667119860649 0.23146453499794 0.642979741096497 1.10997211933136 1.69806718826294 1.97163057327271 2.27253389358521 2.34658646583557 2.41380739212036 2.79117250442505 3.1917667388916 3.54028606414795 3.88727879524231 4.36377668380737 5.19869184494019 5.27957773208618 3.98218750953674 1.35746395587921 1.52615642547607 1.92527318000793 2.30454254150391 2.70431303977966 3.16807103157043 3.51701807975769 3.81292963027954 4.01593255996704 4.23843240737915 4.41739225387573 4.63748931884766 5.3604679107666 6.68503427505493 7.24823474884033 7.69982528686523 7.96183586120605 8.50658226013184 9.54248714447021 11.3880014419556 13.6349430084229 10.1185970306396 8.85805034637451 11.5333528518677 12.44873046875 11.7068290710449 15.9655933380127 4.56854677200317 4.73666143417358 5.11253118515015 5.47662019729614 6.28572082519531 8.1559476852417 10.2348432540894 12.460033416748 14.7599906921387 17.4247550964355 19.4231700897217 23.5141181945801 28.0534629821777 30.1674213409424 33.2916145324707 21.7342357635498 19.4284629821777 17.162296295166 6.00606489181519 5.66980028152466 6.02301740646362 6.88020610809326 7.23542737960815 7.72107791900635 7.36227512359619 7.99219942092896 8.99213123321533 10.1706695556641 3.31159925460815 -2.2994921207428 -1.93293678760529 -1.87214004993439 -1.83224654197693 -1.81494104862213 -1.59241199493408 -1.35500121116638 -0.103081107139587 6.18030738830566 13.1038599014282 13.9477033615112 0.54779177904129 -1.19650030136108 -0.880180358886719 -0.510838210582733 -0.883140861988068 -0.771681368350983 -0.251772820949554 0.848657250404358 -0.651940703392029 -0.338240712881088 0.449007451534271 0.878694117069244 1.484987616539 1.83723735809326 -1.54940581321716 -1.33907425403595 -0.413629084825516 0.276483923196793 -2.23192119598389 -1.94893980026245 -1.37255549430847 -0.480809330940247 0.459085881710052 0.940952777862549 1.2141147851944 1.35182058811188 1.66612529754639 1.92158353328705 2.23424887657166 2.59512710571289 2.9507417678833 3.40819644927979 3.96167182922363 4.40358066558838 4.34676122665405
1.73108839988708 1.86095142364502 1.90123546123505 1.94197881221771 1.985023021698 2.03225898742676 2.18395614624023 2.23551464080811 2.28440999984741 2.32398676872253 2.45053029060364 2.63953542709351 2.84380650520325 3.12175917625427 3.45211625099182 3.96937584877014 4.65486288070679 5.64482116699219 5.9340968132019 4.97771167755127 4.01848745346069 4.11471891403198 4.12816619873047 3.48223090171814 2.91291308403015 2.43251299858093 2.47382616996765 2.55763030052185 2.60440945625305 2.87744569778442 2.6496856212616 2.65971612930298 2.67616724967957 2.73002529144287 2.90266132354736 3.08948254585266 3.28938746452332 3.52038097381592 3.77836942672729 4.01872873306274 4.29427719116211 4.66249227523804 5.03936243057251 5.37508869171143 5.79099321365356 6.54168558120728 8.03121662139893 9.90751361846924 4.89920425415039 2.24841570854187 3.43267440795898 3.25335168838501 3.71943259239197 1.52413856983185 0.292542636394501 0.668988168239594 1.18438100814819 1.30363953113556 1.62131690979004 1.9109160900116 1.92302656173706 1.99819338321686 2.32166910171509 2.76855707168579 3.13601326942444 3.84983062744141 4.67627334594727 5.79164600372314 6.00020122528076 2.00561690330505 1.77052617073059 2.11645817756653 2.46749782562256 2.85843944549561 3.12701153755188 3.39164137840271 3.65025997161865 4.00221920013428 4.32547807693481 4.49389886856079 4.9352331161499 5.36069393157959 5.80794620513916 7.9669771194458 6.96883392333984 7.18379020690918 7.68783283233643 9.82971858978271 12.0309743881226 14.2835845947266 14.2174577713013 11.7164688110352 7.28168439865112 9.06611824035645 9.90144157409668 5.28052568435669 9.49588394165039 4.6723051071167 4.74616622924805 5.04457426071167 5.43648815155029 6.02033758163452 7.41181373596191 9.22952556610107 11.7025375366211 14.237232208252 16.8533000946045 19.7880992889404 24.9814376831055 28.6040592193604 31.7974090576172 30.0127792358398 17.9892749786377 17.0712261199951 19.7450504302979 4.64088296890259 4.68284034729004 5.64504241943359 6.7035961151123 7.30416917800903 7.58249711990356 7.22620439529419 7.39165782928467 8.11969661712646 9.22849655151367 3.95249605178833 -1.98127615451813 -2.04994368553162 -1.83536612987518 -0.0780826732516289 -1.81865549087524 -1.72397661209106 -1.32756412029266 1.2724871635437 7.93698120117188 14.2815189361572 15.933087348938 -0.978644013404846 -0.962830305099487 -0.592531621456146 -0.343694359064102 -0.285958409309387 -0.106707707047462 0.148706987500191 0.343447476625443 0.477736800909042 0.739627420902252 1.07308852672577 1.51443290710449 1.88366091251373 1.27129936218262 0.640802145004272 1.51136147975922 3.87338995933533 1.62037169933319 -2.56068253517151 -2.35185027122498 -1.94303619861603 -1.49080467224121 -0.101693771779537 0.594443023204803 0.890556931495667 1.23342132568359 1.49931418895721 1.76472544670105 2.06813192367554 2.38590598106384 2.74699473381042 3.18211388587952 3.72396278381348 4.24238395690918 3.66378283500671
1.79798865318298 1.94779276847839 1.98850810527802 2.0310914516449 2.07524704933167 2.12337303161621 2.22723317146301 2.28275895118713 2.33670687675476 2.39030861854553 2.51871228218079 2.70879697799683 2.87956571578979 3.13969278335571 3.45033502578735 3.86583042144775 4.43254470825195 5.29241800308228 6.07311058044434 5.60775136947632 4.45508861541748 4.41572380065918 4.93961238861084 3.91061973571777 2.99727320671082 2.47895812988281 2.5292112827301 2.57222247123718 2.76929330825806 2.88914585113525 2.9802713394165 3.31464910507202 2.56451487541199 2.62985062599182 2.73874497413635 3.0012891292572 3.17405462265015 3.3844587802887 3.58445262908936 3.85650110244751 4.07800245285034 4.40210962295532 4.73052167892456 5.10809183120728 5.55199575424194 6.08329057693481 7.44696664810181 9.56996440887451 5.45619058609009 1.98830461502075 2.32268166542053 2.44124317169189 2.9401216506958 3.639004945755 0.156471252441406 0.417008876800537 0.850406765937805 1.2166907787323 1.59555268287659 1.73444950580597 1.9331511259079 2.00867533683777 2.17606544494629 2.59013104438782 3.14768981933594 3.70812487602234 4.45281171798706 6.26730442047119 5.0293345451355 1.70574748516083 2.2174768447876 2.59457492828369 2.86869120597839 3.21295094490051 3.37950682640076 3.54265546798706 3.82907772064209 4.29544258117676 5.17984533309937 4.40162372589111 4.56277179718018 5.05429124832153 6.12296342849731 7.83160638809204 10.3293905258179 6.5998969078064 8.72944068908691 11.4262771606445 13.6865491867065 12.8218603134155 13.4459819793701 7.83614444732666 4.76302671432495 4.39749574661255 5.00208711624146 4.4057092666626 4.54994297027588 4.65021228790283 4.69426441192627 4.98696613311768 5.46065902709961 6.5782904624939 7.5886082649231 8.9005012512207 10.6549196243286 12.1969881057739 13.5497875213623 17.5841236114502 25.1389789581299 29.0383186340332 35.3841972351074 28.849006652832 20.3359661102295 12.8023319244385 11.0268220901489 6.84982347488403 3.9511296749115 4.87562990188599 5.87618684768677 6.3677806854248 7.03280448913574 6.85323524475098 6.29109954833984 6.87560939788818 7.43579816818237 4.51413440704346 0.712925672531128 -1.91761064529419 -1.31183636188507 0.271457016468048 -2.03188252449036 -2.02398324012756 -1.45722615718842 0.960188984870911 6.27022457122803 12.1504831314087 16.76149559021 0.125347435474396 -0.635835468769073 -0.49468657374382 -0.136268049478531 0.187112778425217 0.363774418830872 1.01521503925323 0.409506529569626 0.475226640701294 0.68220716714859 1.12722837924957 2.42204403877258 1.19527649879456 1.29542863368988 1.2087277173996 2.11469030380249 4.33087015151978 -1.59662139415741 -2.2734043598175 -2.11307239532471 -1.71065962314606 -1.26652777194977 -0.472638159990311 0.365035593509674 0.674566149711609 0.592947423458099 0.815699517726898 0.971840918064117 1.19023191928864 1.46470201015472 1.7735550403595 2.12472701072693 2.55447745323181 2.83438801765442 2.37889361381531
1.84437036514282 1.98905646800995 2.03258419036865 2.0758011341095 2.12035465240479 2.16701507568359 2.24854898452759 2.30463862419128 2.36113786697388 2.41790962219238 2.53936266899109 2.76819634437561 2.963299036026 3.20904684066772 3.50701189041138 3.90040636062622 4.32914066314697 4.97252321243286 6.38953685760498 6.29952144622803 4.87406158447266 4.58433437347412 4.9319109916687 4.56641054153442 3.11945796012878 2.46532344818115 2.51560950279236 2.61287927627563 2.67884421348572 2.8655092716217 2.94280576705933 2.82333445549011 2.48607420921326 2.52400660514832 2.65090417861938 2.87440061569214 3.07357430458069 3.28508973121643 3.39494490623474 3.69196271896362 3.97654628753662 4.26810693740845 4.60368204116821 5.01901388168335 5.42210960388184 5.86889123916626 6.6647686958313 7.42170810699463 5.2686333656311 1.65229654312134 1.15836322307587 1.41023123264313 0.748628079891205 0.681402206420898 0.505413174629211 0.810393691062927 0.907163858413696 1.07287657260895 1.4396071434021 1.72837889194489 1.89339113235474 2.01910853385925 2.15759611129761 2.41715049743652 2.86393404006958 3.23657608032227 3.77068519592285 5.12012910842896 5.03733205795288 2.12297630310059 2.37778878211975 2.73052096366882 3.05374622344971 3.28287220001221 3.45216536521912 3.72762250900269 6.95017147064209 9.27666854858398 4.1319899559021 4.20879650115967 4.41738939285278 4.7731499671936 5.37358093261719 5.94762372970581 6.49748849868774 6.70587921142578 8.97449588775635 10.4294471740723 11.8207483291626 12.136212348938 9.17471981048584 6.46562910079956 4.69839143753052 4.00830936431885 4.11305332183838 4.26840734481812 4.47281646728516 4.66348838806152 4.86271905899048 5.26494550704956 5.97760438919067 6.61977434158325 7.39539670944214 8.22686290740967 9.02296161651611 9.60376262664795 11.1599521636963 14.2316541671753 24.231502532959 28.8656673431396 37.3235015869141 28.8919143676758 20.9262351989746 14.2705106735229 6.8270378112793 5.98233890533447 3.35756230354309 3.93273663520813 4.74860525131226 5.06236982345581 5.9266152381897 6.42691040039062 5.43857526779175 5.7634391784668 4.73505210876465 4.49830436706543 5.05430269241333 0.286483079195023 -1.24706387519836 -0.365983873605728 -1.99238240718842 -1.96763527393341 -1.44589197635651 -0.383481562137604 5.38930654525757 12.1996917724609 16.5349884033203 -0.241951182484627 -0.323523551225662 -0.231390908360481 0.0708134174346924 0.135899424552917 0.254102170467377 0.675556361675262 0.284020155668259 0.317748814821243 0.797982454299927 2.12902903556824 3.19843816757202 3.63825941085815 4.19341802597046 0.618968665599823 0.867476999759674 0.0350798480212688 -1.9475269317627 -2.05880546569824 -2.07547402381897 -1.8071174621582 -1.36186909675598 -0.903602778911591 -0.25629198551178 0.155073195695877 -0.00395463220775127 0.140052050352097 0.142667472362518 0.19269971549511 0.553710222244263 0.93146139383316 1.32438969612122 1.68527150154114 1.18378186225891 0.626887261867523
1.83532738685608 1.99110245704651 2.04909348487854 2.09765553474426 2.14502096176147 2.20695996284485 2.30398321151733 2.35387706756592 2.40675449371338 2.45815324783325 2.58344864845276 2.80919599533081 3.01626062393188 3.25578308105469 3.54774498939514 3.91448163986206 4.35363006591797 4.89184951782227 6.25736331939697 6.49431467056274 5.19359064102173 5.25201320648193 4.76412534713745 5.18008947372437 3.81348633766174 2.66883611679077 2.79284954071045 2.97061920166016 3.18692684173584 4.01846265792847 4.26599454879761 2.34971022605896 2.38648581504822 2.41396927833557 2.50878429412842 2.68076872825623 2.86913061141968 3.07229018211365 3.22183418273926 3.45548963546753 3.74077749252319 4.013671875 4.37754917144775 4.77992963790894 5.30860042572021 5.99421548843384 6.19664859771729 5.18957376480103 5.04268646240234 0.490417569875717 0.807317733764648 0.848444283008575 0.859032928943634 0.863277673721313 1.24079668521881 1.01763021945953 1.02993416786194 1.14816308021545 1.24033546447754 1.53904569149017 1.7583634853363 1.90961396694183 2.01622438430786 2.16790342330933 2.43916416168213 1.49231517314911 1.50848650932312 1.93210732936859 2.27493190765381 2.41384172439575 2.6179678440094 2.88670611381531 3.10198950767517 3.2963981628418 6.82078886032104 10.2078609466553 16.6526851654053 9.67908763885498 3.5918390750885 3.75205945968628 3.99653387069702 4.23716068267822 4.6739444732666 5.65268087387085 5.84292364120483 6.12073469161987 6.66335821151733 7.06967163085938 6.66071510314941 5.91413545608521 6.47596025466919 5.66164970397949 4.42631578445435 4.06353950500488 4.13072299957275 4.39928579330444 4.73438692092896 5.07916784286499 5.46130037307739 5.74822378158569 6.13995838165283 6.5834002494812 7.23522281646729 7.36463260650635 7.87622404098511 8.65237522125244 9.80741119384766 12.1958665847778 22.2694969177246 28.8390655517578 35.9080696105957 34.554931640625 20.3007431030273 14.0944700241089 6.5667085647583 3.29885578155518 2.83391642570496 3.01569557189941 3.74451327323914 4.39858913421631 5.0373420715332 5.8078441619873 5.90769052505493 5.83785772323608 4.46466970443726 5.35457944869995 6.13290166854858 1.90901410579681 -0.286100596189499 -1.46573925018311 -1.70936763286591 -1.64893090724945 -1.63001453876495 -0.781389117240906 2.95335078239441 10.2185840606689 16.8295269012451 1.5424576997757 -0.372456043958664 -0.302646487951279 -0.153961077332497 -0.572143137454987 -0.682412922382355 -0.56575882434845 -0.439988762140274 -0.0528319478034973 1.39229154586792 3.16051554679871 3.83308267593384 4.03286647796631 3.85448837280273 1.85484147071838 -0.518483519554138 -1.65240347385406 -1.65136587619781 -1.35720527172089 -1.78143227100372 -1.87694537639618 -1.55058634281158 -1.14946722984314 -0.821171820163727 0.521791517734528 1.52671408653259 2.97711086273193 1.57579171657562 -0.898075819015503 -0.849824845790863 -0.428832173347473 0.351280689239502 0.747982919216156 0.374097794294357 0.504737913608551
1.77435743808746 1.9721827507019 2.02881598472595 2.09158492088318 2.16049575805664 2.23048734664917 2.30263590812683 2.35235714912415 2.40293335914612 2.45776414871216 2.59250354766846 2.82207226753235 3.03117895126343 3.27340269088745 3.56081652641296 3.90783286094666 4.34939813613892 4.87109899520874 5.85553312301636 6.60426616668701 5.41921234130859 5.73345756530762 5.13013029098511 4.39930582046509 4.27433586120605 4.13693141937256 3.01152276992798 3.42420101165771 3.80481863021851 4.71744823455811 5.05412626266479 2.16789245605469 2.21766829490662 2.27278757095337 2.29805040359497 2.39776611328125 2.58715152740479 2.72751903533936 2.97283244132996 3.18592834472656 3.44299578666687 3.70193004608154 4.01720190048218 4.64357280731201 5.72457218170166 6.67921495437622 6.77247524261475 5.23965883255005 3.45750093460083 0.535435080528259 0.926702916622162 0.979314923286438 1.02282655239105 1.05290102958679 1.08692717552185 1.12034595012665 1.16456639766693 1.21111929416656 1.28113389015198 1.34773445129395 1.40119767189026 1.83327984809875 1.71109557151794 1.41098582744598 1.44856786727905 1.38571584224701 1.64661955833435 2.04740142822266 2.42587542533875 2.61749696731567 2.74374723434448 2.93542194366455 3.09214115142822 4.2592248916626 6.19578456878662 10.0657482147217 13.3145542144775 13.9121465682983 3.35468339920044 3.44527459144592 3.58021712303162 3.77434134483337 3.94491696357727 4.13084411621094 5.41932725906372 4.22570562362671 4.43218278884888 4.86008739471436 4.93693065643311 4.87274265289307 4.38588762283325 5.29239082336426 4.41608095169067 4.42823123931885 4.47827529907227 4.77168846130371 5.0549488067627 5.39796447753906 5.72978544235229 6.01592969894409 6.48763847351074 6.8078818321228 7.1619725227356 7.25886583328247 7.43783473968506 7.93080520629883 9.05073928833008 11.2022657394409 18.7120265960693 26.4193267822266 33.8491439819336 40.4950408935547 25.6221733093262 12.8097352981567 4.53395414352417 2.41504883766174 2.97206997871399 2.51110529899597 2.81146955490112 3.76519918441772 4.44728994369507 5.19526290893555 7.59017992019653 4.65462589263916 4.31156444549561 5.34056377410889 6.00330877304077 2.01595854759216 -0.17616368830204 -1.58314216136932 -1.51440560817719 -1.15114176273346 -1.81716465950012 -1.44920086860657 0.878033816814423 4.73595666885376 10.6898708343506 4.9753794670105 -0.820706069469452 -0.758489966392517 -0.835356533527374 -0.880030333995819 -1.45288896560669 -1.65409159660339 -1.26730179786682 -0.387287527322769 1.15939557552338 2.35377526283264 2.79052829742432 3.78340220451355 4.46104907989502 0.13488233089447 -1.16084289550781 -1.64336729049683 -1.59401559829712 -1.55078840255737 -1.52946794033051 -1.58795344829559 -1.45280754566193 -1.25832462310791 0.217315092682838 2.29180812835693 3.80728483200073 4.50908422470093 1.30327582359314 -1.40389811992645 -1.34073901176453 -1.24684011936188 -0.764819622039795 0.475015103816986 1.11035406589508 1.88068616390228
1.72023820877075 1.94076156616211 2.05752491950989 2.11624383926392 2.17969655990601 2.23534107208252 2.28656888008118 2.35242486000061 2.45281100273132 2.56594109535217 2.6937940120697 2.82823944091797 3.07269978523254 3.30376815795898 3.57265424728394 3.88697671890259 4.23101902008057 4.78256130218506 5.48135423660278 6.20177888870239 5.66351652145386 5.90223503112793 6.01849460601807 4.24068546295166 4.2322826385498 4.69210910797119 3.89068627357483 4.12838697433472 4.4962363243103 4.9061336517334 4.81867074966431 1.92871189117432 1.96729707717896 1.98129677772522 2.04110860824585 2.14967894554138 2.31662392616272 2.49760484695435 2.77786302566528 3.05535054206848 3.30596923828125 3.58555197715759 3.98799967765808 4.91894102096558 5.89017629623413 6.90355348587036 7.19989490509033 5.44487333297729 2.00105977058411 0.668670892715454 0.938733458518982 1.0335191488266 1.07829964160919 1.12068545818329 1.15139579772949 1.180779337883 1.15030252933502 1.18413281440735 1.21970534324646 1.27170705795288 1.30706000328064 1.4162335395813 1.90917789936066 1.87702918052673 1.33628356456757 1.41884565353394 1.80670917034149 2.11870718002319 2.58222699165344 2.71773457527161 2.81770014762878 2.92306590080261 3.60231733322144 4.35281610488892 4.60206365585327 6.74743700027466 11.3782339096069 10.5718631744385 3.27102994918823 3.30239224433899 3.36231732368469 3.52113914489746 3.66016745567322 3.81350898742676 3.89524006843567 3.93556952476501 4.02801084518433 4.14373350143433 4.22844457626343 4.31293249130249 4.42765235900879 4.5573616027832 4.75599241256714 4.83556699752808 4.91853713989258 5.14299631118774 5.38001012802124 5.64019012451172 5.90630006790161 6.19544792175293 6.71004772186279 7.07513666152954 7.64945697784424 9.37438297271729 7.23047876358032 7.52915000915527 8.77866077423096 11.4924449920654 17.615385055542 23.4814758300781 28.2814331054688 39.3770370483398 27.7916011810303 18.3549327850342 4.38397407531738 1.96182346343994 4.03378868103027 2.07570934295654 2.11653017997742 2.83864808082581 3.64107656478882 4.21436166763306 4.53440189361572 4.13091230392456 4.10171222686768 4.04262399673462 4.4052677154541 4.17518329620361 0.822871923446655 -0.76021009683609 -1.21591889858246 -1.84334743022919 -1.81347119808197 -1.79802048206329 -0.495745748281479 1.18076658248901 4.48480939865112 6.31971025466919 -0.881478250026703 -0.956001162528992 0.08193489164114 -1.52481842041016 -1.60374784469604 -1.46135520935059 -0.68581086397171 0.541821002960205 2.15175771713257 3.01945114135742 4.06850337982178 5.02480697631836 1.70671451091766 -1.78907990455627 -1.71396434307098 -1.54501140117645 -1.39544343948364 -1.31869089603424 -1.26581203937531 -1.06081330776215 -0.783150315284729 -0.146732643246651 0.980913281440735 2.48826384544373 4.72389936447144 7.35675287246704 2.60847616195679 -1.58629333972931 -1.543328166008 -1.42945957183838 -0.950531125068665 0.149271175265312 0.856824338436127 1.42743265628815
1.73982894420624 1.93690764904022 2.06632781028748 2.12706995010376 2.19470357894897 2.24674987792969 2.2964141368866 2.36382389068604 2.59197354316711 2.71175360679626 2.8388340473175 2.97850632667542 3.13272619247437 3.32487034797668 3.57350659370422 3.86227893829346 4.22517728805542 4.75293064117432 5.44473457336426 5.59819555282593 5.60795450210571 5.94767141342163 6.33039808273315 4.98081636428833 4.53993082046509 4.75815963745117 5.15221786499023 6.01442813873291 5.01451826095581 5.23372554779053 4.91058111190796 1.72855830192566 2.1230525970459 1.72282910346985 1.83551263809204 1.98127961158752 2.13410115242004 2.34223294258118 2.62752366065979 2.95533871650696 3.27838706970215 3.65860080718994 4.08723926544189 5.03490209579468 6.00267791748047 7.27894258499146 6.444993019104 4.79222011566162 1.38188910484314 0.748703896999359 0.872514605522156 0.978266358375549 0.999062597751617 1.03142964839935 1.08128750324249 1.11396038532257 1.11660325527191 1.1562157869339 1.19187664985657 1.23866450786591 1.26991510391235 1.25235855579376 1.2023833990097 1.29728198051453 1.22482788562775 1.59872221946716 2.04825735092163 2.31939649581909 2.56938767433167 2.7314350605011 2.82085013389587 2.90392184257507 2.96904325485229 3.20370721817017 4.57965517044067 5.79603576660156 10.1312656402588 11.0230579376221 3.07581543922424 3.13897728919983 3.20925188064575 3.26109457015991 3.4090416431427 3.6054699420929 3.75538945198059 3.87265419960022 3.94190311431885 4.0281982421875 4.19724655151367 4.36716508865356 4.52054786682129 4.72407817840576 4.87456464767456 5.02109861373901 5.19323825836182 5.35399436950684 5.48059225082397 5.7000036239624 5.93091201782227 6.2041220664978 6.56916379928589 6.90397310256958 7.80041313171387 8.97813701629639 7.0481538772583 7.35283470153809 8.57086944580078 11.3763217926025 15.8354148864746 21.2547035217285 23.8406314849854 33.2617301940918 26.8014430999756 21.4805526733398 9.53973007202148 1.61221027374268 2.70989060401917 3.72849202156067 1.64432179927826 2.05820298194885 2.59839105606079 2.91289472579956 3.48507833480835 4.27320384979248 3.8912365436554 3.2733211517334 2.92555689811707 3.20901489257812 3.93280935287476 0.569728255271912 0.2456394135952 -2.29275441169739 -2.2319324016571 -2.10099101066589 -1.84719657897949 0.0569432787597179 1.76107847690582 3.78360629081726 2.31242918968201 -0.632627367973328 -0.532466232776642 -1.84414720535278 -1.67685067653656 -0.981207013130188 0.166646435856819 1.66848599910736 2.88145351409912 2.89560890197754 5.35904788970947 1.97281682491302 -1.33790016174316 -1.59499180316925 -1.54886972904205 -1.14760422706604 -0.898155033588409 -0.720374464988708 -0.563242197036743 -0.324348151683807 -0.175664320588112 0.0231357403099537 1.26506364345551 1.86414921283722 3.1692590713501 5.01171207427979 4.60149717330933 -0.0544502511620522 -1.45027720928192 -0.89599335193634 -0.20946778357029 0.937871932983398 2.62351894378662 3.55149602890015
1.83823215961456 1.94070875644684 2.07074236869812 2.13835287094116 2.2091748714447 2.29111933708191 2.37858295440674 2.52922606468201 2.73785138130188 2.86104869842529 2.99602794647217 3.14468193054199 3.30614376068115 3.48835492134094 3.7281060218811 4.06288576126099 4.42332458496094 4.7585973739624 5.43397569656372 5.17585563659668 5.25912427902222 5.60827445983887 6.15870761871338 5.69428968429565 5.25335073471069 5.660888671875 6.25106620788574 8.02459335327148 6.31763219833374 5.12439823150635 4.85213136672974 1.56172668933868 1.89177322387695 1.94573271274567 1.67505097389221 1.76055407524109 1.9458042383194 2.14768409729004 2.41122126579285 2.75978422164917 3.16443300247192 3.53460478782654 3.92830371856689 4.92311763763428 6.02963352203369 8.3892650604248 5.81530714035034 3.7025101184845 0.735738515853882 0.79018771648407 0.904858529567719 0.938147842884064 0.924404561519623 0.879633963108063 0.911943256855011 0.946012318134308 0.967474222183228 1.00089609622955 1.03509259223938 1.06962406635284 1.10619258880615 1.0704163312912 0.990065693855286 0.941646754741669 0.9961918592453 1.6475442647934 2.09256744384766 2.39599180221558 2.53432178497314 2.66308426856995 2.73659014701843 2.78897309303284 2.82937741279602 2.93688797950745 3.03133654594421 5.53152751922607 7.38254928588867 3.03270411491394 3.06254482269287 3.32272243499756 4.02310466766357 3.06752777099609 3.29639983177185 3.53339624404907 3.7097635269165 3.88957667350769 3.97230243682861 4.01957893371582 4.19530916213989 4.3934645652771 4.57281446456909 4.73892259597778 4.90015649795532 5.0633749961853 5.19488716125488 5.24014806747437 5.30113935470581 5.38312959671021 5.50335741043091 5.670090675354 5.8950138092041 6.01513624191284 6.26276254653931 6.27479457855225 6.47598934173584 7.0508770942688 8.16634464263916 10.188925743103 14.1693620681763 19.1525611877441 22.3922367095947 25.7138004302979 26.1915378570557 26.603178024292 10.5898551940918 1.28365659713745 1.35836434364319 2.94332337379456 1.42586922645569 1.42812716960907 1.7759348154068 2.17478609085083 3.00399804115295 3.48157429695129 3.59422588348389 3.24570941925049 2.91461539268494 2.81532859802246 3.6202654838562 4.3852367401123 5.35839796066284 0.341286867856979 -2.61224007606506 -2.59782814979553 -2.43379950523376 -1.0698059797287 1.39903330802917 2.50906324386597 4.68775320053101 0.280609250068665 -1.01628017425537 -1.84236860275269 -1.73521840572357 -1.37794816493988 -0.216485008597374 1.37438464164734 2.15399408340454 2.05162763595581 1.86627626419067 1.0159797668457 0.147968888282776 -0.698085904121399 -0.418646723031998 0.641273319721222 0.406034290790558 -1.29717874526978 -1.055135846138 0.385667622089386 1.36214745044708 -1.17660570144653 -0.353113144636154 1.32867920398712 1.0589873790741 1.37166786193848 2.0986065864563 1.9885892868042 0.392807692289352 0.594550430774689 1.48996210098267 2.0545392036438 3.95866823196411 6.342529296875
1.9567197561264 2.04524111747742 2.15684247016907 2.24567008018494 2.32730507850647 2.41678190231323 2.51211643218994 2.70790719985962 2.92058658599854 3.05188488960266 3.19548010826111 3.35197043418884 3.521817445755 3.71378374099731 3.92247748374939 4.33865261077881 4.67714500427246 4.9822850227356 5.17023754119873 5.19967937469482 5.30843639373779 5.46209716796875 5.83130788803101 5.91527080535889 5.37471961975098 5.84764862060547 6.21292161941528 7.12600517272949 7.3170313835144 6.1962571144104 3.9576621055603 3.03019905090332 2.98234224319458 2.43111181259155 1.40579962730408 1.48111283779144 1.72199487686157 1.96332037448883 2.21972823143005 2.54276418685913 2.9118480682373 3.30633187294006 3.70660901069641 4.86471748352051 6.02223682403564 7.84820985794067 8.5474967956543 0.646426558494568 0.649916291236877 0.75726592540741 0.789609372615814 0.818407595157623 0.783481597900391 0.73352187871933 0.704180955886841 0.720557332038879 0.732948839664459 0.755621016025543 0.774657547473907 0.794716358184814 0.81432980298996 1.07202339172363 1.31171011924744 1.62055599689484 1.80994427204132 1.61667442321777 2.03481292724609 2.33803105354309 2.45530819892883 2.86619520187378 3.38593053817749 3.80645513534546 2.47230172157288 2.63294696807861 2.8711051940918 3.01644539833069 3.02268767356873 3.03483057022095 3.60773873329163 3.37698674201965 3.53238105773926 3.077152967453 3.20261573791504 3.44479036331177 3.66525602340698 3.85453200340271 4.00915479660034 4.12072134017944 4.25684118270874 4.41499471664429 4.58035230636597 4.70757246017456 4.80649900436401 5.69447898864746 6.38909816741943 6.88741064071655 7.39827632904053 7.63335466384888 7.71386861801147 4.35949420928955 4.43180847167969 5.28892230987549 5.6794867515564 5.912034034729 6.33288192749023 7.07342624664307 8.1446418762207 9.84730243682861 13.5813512802124 18.0965671539307 21.5818367004395 26.4416465759277 26.0180206298828 22.6206493377686 10.5303945541382 1.00834715366364 1.05346596240997 1.63458073139191 2.23847937583923 1.14780378341675 1.48617386817932 1.99763715267181 2.57505011558533 3.32630300521851 2.75406312942505 2.82751655578613 3.41088581085205 3.30203652381897 5.43764448165894 6.55138397216797 7.89099645614624 9.10574531555176 -2.32350325584412 -2.80840682983398 -2.67972612380981 -2.25573110580444 0.176493316888809 0.774018228054047 3.15298914909363 0.725518584251404 -1.70707261562347 -1.6520379781723 -1.516526222229 -1.34544718265533 -0.77228045463562 0.310554385185242 1.3958899974823 1.58441352844238 1.45950937271118 1.60887539386749 1.73640584945679 3.44635367393494 4.76566743850708 6.04984998703003 7.65470361709595 -1.23113489151001 -1.21305191516876 -0.770826041698456 0.886296629905701 -0.647103071212769 -0.400609374046326 1.05878031253815 1.86593914031982 2.17733573913574 2.46725344657898 2.74538230895996 2.9712553024292 3.1900839805603 3.81015682220459 4.42134618759155 5.09739637374878 7.69179439544678
2.11441326141357 2.22357821464539 2.31383395195007 2.39497566223145 2.48486542701721 2.57631468772888 2.67859578132629 2.87904906272888 3.09058928489685 3.22824001312256 3.37968111038208 3.53663420677185 3.71980905532837 3.91621589660645 4.13789749145508 4.3852071762085 4.78794097900391 5.0687952041626 5.18310594558716 5.22956562042236 5.35912227630615 5.54776620864868 5.91350030899048 6.23288345336914 5.58970737457275 5.8886981010437 6.30732154846191 7.03399419784546 7.76450157165527 6.16879415512085 5.79790592193604 3.85571217536926 4.16236972808838 2.52663731575012 1.07929265499115 1.12456727027893 1.30824685096741 1.59208238124847 1.85443711280823 2.16995406150818 2.52825260162354 3.02389073371887 3.65640568733215 3.82060241699219 4.66174030303955 5.94196891784668 6.78282022476196 0.62628972530365 0.50398862361908 0.567740499973297 0.59583580493927 0.613204956054688 0.578054130077362 0.557422816753387 0.580295562744141 0.624190986156464 0.752210378646851 0.857036054134369 1.23547506332397 1.80873990058899 2.4102520942688 2.74663090705872 2.85047936439514 2.98770976066589 2.42288947105408 1.48164761066437 1.90177702903748 2.15075063705444 3.53600072860718 4.43719673156738 5.95919179916382 8.64165115356445 2.07979559898376 2.27051973342896 2.48294615745544 2.75703096389771 2.96044158935547 3.01630043983459 3.05385541915894 3.08034372329712 3.12009978294373 3.17831635475159 3.26769852638245 3.43579292297363 3.62392330169678 3.79192590713501 3.94958639144897 4.09303712844849 4.23159027099609 4.39412498474121 4.7404727935791 5.19156503677368 6.6163501739502 9.51869869232178 13.4595174789429 15.5995855331421 18.6524982452393 21.1625003814697 11.5159921646118 1.96637678146362 1.95166182518005 3.81821656227112 4.88886213302612 5.43500566482544 6.17924880981445 6.81522750854492 7.9413857460022 9.36597537994385 13.2352075576782 18.5808277130127 23.6573829650879 30.979419708252 22.5173988342285 12.4217910766602 8.72612380981445 2.03789710998535 0.840461134910583 1.11437296867371 1.59744024276733 1.82172513008118 2.35255455970764 2.79326868057251 3.06860876083374 3.33617544174194 3.47933411598206 3.58291935920715 3.79437303543091 4.76330518722534 5.91035795211792 7.33554887771606 8.05190181732178 8.69315624237061 1.42530298233032 -2.80431342124939 -2.71315312385559 -2.31263780593872 -1.82096290588379 -0.665417373180389 -0.770139396190643 0.478184103965759 -1.46319973468781 -1.0946946144104 -0.720138609409332 -0.287703335285187 0.409321039915085 1.47103047370911 2.24176239967346 2.79186487197876 3.19626903533936 3.6182279586792 4.72076559066772 5.88782644271851 6.54941558837891 7.26312160491943 8.10077857971191 0.343581706285477 -0.406181752681732 -0.0342264249920845 0.485329806804657 0.711285829544067 0.927097380161285 1.58277475833893 2.53077578544617 2.90456295013428 3.22607564926147 3.56998610496521 3.90316200256348 4.29343795776367 4.7410774230957 5.34733152389526 6.1909441947937 7.3440523147583
2.27560186386108 2.368488073349 2.44837141036987 2.53651928901672 2.62852954864502 2.72628283500671 2.83276534080505 2.96893334388733 3.14066100120544 3.27877116203308 3.42552065849304 3.59101366996765 3.76882362365723 3.97415709495544 4.20435237884521 4.45782327651978 4.7960147857666 5.06197643280029 5.10873651504517 5.19581031799316 5.31089115142822 5.48804903030396 5.8968620300293 6.44346904754639 5.59251689910889 5.80888319015503 6.38818788528442 6.81776857376099 7.13232421875 7.56577730178833 7.31927537918091 4.0196795463562 3.99394655227661 3.33806586265564 1.46240830421448 0.613602697849274 0.727154135704041 1.001748919487 1.30979990959167 1.55708205699921 1.80424058437347 2.2237024307251 2.70905995368958 2.81619882583618 3.18478417396545 3.56826519966125 3.52086806297302 0.928865313529968 0.49214780330658 0.631299436092377 0.741195678710938 0.945514738559723 1.03766083717346 1.14642703533173 1.28473913669586 1.37867999076843 1.56419587135315 2.37833595275879 2.89507746696472 3.71286916732788 4.64115381240845 3.15025639533997 3.18548321723938 3.18289566040039 2.02638220787048 1.68337571620941 2.18511271476746 2.4418158531189 3.60784077644348 3.85535860061646 3.77856040000916 5.23509359359741 1.86059606075287 1.89238607883453 2.05772614479065 2.24960732460022 2.55716705322266 2.88623285293579 2.98573064804077 3.0484414100647 3.12171816825867 3.20182490348816 3.36561131477356 3.54001140594482 5.04344606399536 5.9102144241333 6.42051649093628 6.96576881408691 7.5547080039978 8.17423248291016 8.8400182723999 9.34819889068604 9.95230102539062 15.2227535247803 16.6808490753174 18.2991199493408 25.9494514465332 18.0172233581543 5.67980289459229 0.721380829811096 0.781665563583374 1.21739363670349 3.14158344268799 4.45825147628784 5.71274089813232 6.45107412338257 7.71659469604492 9.61379909515381 13.8083753585815 18.8906421661377 26.2818031311035 27.3767948150635 13.1991310119629 11.7889289855957 7.55200433731079 1.22512316703796 1.3865555524826 1.68898642063141 1.858069896698 2.27788472175598 2.93931341171265 3.28774881362915 3.38930749893188 3.62965965270996 3.86490607261658 4.62166547775269 3.98349857330322 4.73167514801025 4.91259479522705 6.48782825469971 5.31458902359009 5.99558019638062 2.80526447296143 -2.56208825111389 -2.48840928077698 -2.16355562210083 -1.69136011600494 -1.15855038166046 -0.841825604438782 -0.514445126056671 -0.322297751903534 -0.251080423593521 0.126829415559769 0.481441885232925 0.976682662963867 2.21883106231689 2.97052216529846 3.36938428878784 3.90648055076599 4.53184127807617 5.7628378868103 6.6255898475647 8.89183330535889 3.4576096534729 3.88100481033325 2.8351628780365 0.257587254047394 0.475505352020264 0.942793905735016 1.42917311191559 1.76819753646851 2.1809241771698 2.51544594764709 2.91150879859924 3.1567919254303 3.38747262954712 3.64530658721924 3.93886780738831 4.30750226974487 4.7578911781311 5.3394603729248 6.23452091217041
2.37001276016235 2.44320225715637 2.52140831947327 2.6054835319519 2.6936571598053 2.78736543655396 2.88998770713806 3.00147819519043 3.24322152137756 3.38902544975281 3.56414484977722 3.71462726593018 3.89078235626221 4.099289894104 4.32307100296021 4.55465173721313 4.78261280059814 5.06551265716553 5.10160303115845 5.20377349853516 5.30244779586792 5.45582723617554 5.65934944152832 5.6877269744873 5.78342533111572 6.0415210723877 6.5489559173584 7.0079460144043 7.32150173187256 7.91000080108643 7.48046731948853 5.89638900756836 3.8287045955658 3.10267806053162 2.34434175491333 0.373783618211746 0.275216788053513 0.351750671863556 0.619066476821899 0.84099543094635 0.983655571937561 1.27890741825104 1.66663897037506 2.72307729721069 3.50018882751465 4.2328462600708 3.28717374801636 0.783853352069855 0.929589867591858 1.33125364780426 1.42884790897369 1.57406485080719 1.68448734283447 1.78205561637878 1.90226709842682 2.06406664848328 2.81890225410461 3.30013561248779 3.86867141723633 5.22192621231079 3.7281928062439 3.51610493659973 3.9537467956543 4.16296768188477 4.31334829330444 4.10971117019653 3.28903913497925 4.15111351013184 5.99563455581665 4.84609603881836 1.73244106769562 1.75636553764343 1.52734279632568 1.60210514068604 1.73279500007629 1.88536298274994 2.19576168060303 2.87517094612122 3.52363538742065 3.87045812606812 4.09714603424072 4.30235862731934 4.63164043426514 5.64187812805176 6.98065805435181 7.54268884658813 8.19346618652344 8.90256977081299 9.65311622619629 10.4524517059326 11.0613346099854 11.9614400863647 13.4649305343628 17.7210025787354 18.1395359039307 20.8888053894043 24.2393226623535 9.88319969177246 2.20781707763672 0.688990473747253 0.767921507358551 0.893423616886139 1.41881763935089 3.34375524520874 5.00799226760864 6.31471252441406 7.78380441665649 10.0730724334717 14.0397529602051 18.6823387145996 25.17919921875 25.4523468017578 11.3177766799927 11.6480598449707 4.58768033981323 1.23776817321777 1.58699035644531 1.94164979457855 2.15366554260254 2.54355096817017 3.0744960308075 4.036208152771 3.31607723236084 3.48796772956848 3.65755867958069 3.86090540885925 3.98278331756592 4.33149099349976 4.37107753753662 4.08728647232056 3.90969514846802 2.95604848861694 3.50951814651489 -1.79354071617126 -1.95237743854523 -1.77714014053345 -1.30469012260437 -0.729995012283325 -0.496361583471298 -0.219123706221581 0.30088871717453 0.621327936649323 0.551057398319244 0.915447056293488 1.37817645072937 2.11518907546997 2.59527707099915 2.90104722976685 3.78031468391418 5.45208215713501 7.25878858566284 8.9250316619873 9.94266414642334 0.554804682731628 0.673277199268341 0.987629473209381 0.806999206542969 0.832492649555206 1.15348100662231 1.62736058235168 2.04139113426208 2.39088535308838 2.70601272583008 2.75241112709045 2.71365904808044 2.86606335639954 3.06024765968323 3.30221056938171 3.53486227989197 3.79242157936096 4.11011171340942 4.63336849212646
2.49641346931458 2.57311415672302 2.6545078754425 2.74108576774597 2.83321571350098 2.93350982666016 3.04099106788635 3.15657043457031 3.33557152748108 3.50404119491577 3.66783452033997 3.82454943656921 3.9987633228302 4.20438957214355 4.42909955978394 4.64549970626831 4.76884126663208 4.91606712341309 5.05110645294189 5.12318086624146 5.19813823699951 5.36264419555664 5.46863794326782 5.55890083312988 5.73024034500122 6.00000953674316 6.40923976898193 6.94636869430542 7.53064870834351 8.38544178009033 7.87686920166016 8.03879070281982 3.97566199302673 2.79217505455017 3.35274147987366 0.696112275123596 0.493026226758957 0.555893778800964 0.699709057807922 1.02951538562775 1.14227342605591 1.27364826202393 1.30502796173096 1.85408699512482 2.88987255096436 2.38592123985291 2.41376686096191 1.35701191425323 1.43299162387848 1.67148292064667 1.86481618881226 2.09260559082031 2.32417249679565 2.40599083900452 2.49908924102783 2.66154885292053 2.82302188873291 2.90926146507263 3.51689410209656 4.68297672271729 5.23356962203979 5.8255729675293 7.03410196304321 7.68014287948608 5.28949213027954 4.27460718154907 3.13332295417786 3.47057366371155 4.42210626602173 4.57940053939819 4.53148365020752 4.17276477813721 1.17618453502655 1.07174825668335 1.42671120166779 2.13409781455994 2.68941330909729 3.04800200462341 3.85139870643616 4.57024812698364 5.06720399856567 5.44012784957886 5.75511932373047 6.76413440704346 7.64640617370605 8.24676322937012 8.92417526245117 9.61014842987061 10.202844619751 10.4249706268311 10.6435861587524 11.3837060928345 12.8394441604614 16.0247764587402 17.0190944671631 18.5842399597168 20.1493377685547 9.94828319549561 0.790530562400818 0.559672892093658 0.678984105587006 0.842121005058289 1.13394916057587 2.52624297142029 4.26682615280151 6.17894554138184 8.13628578186035 10.4709205627441 13.6244468688965 17.6375045776367 23.3943347930908 27.5238075256348 16.1482639312744 9.45891094207764 1.08800339698792 1.21023643016815 1.53151667118073 1.82188999652863 2.04143142700195 2.31594085693359 2.81377744674683 5.55105543136597 2.85119342803955 2.9286630153656 3.02416110038757 3.05477929115295 3.58603358268738 3.58484888076782 3.90773725509644 2.56742882728577 2.66008496284485 2.02193450927734 1.62315618991852 1.72344708442688 -1.69045186042786 -1.49235451221466 -1.07633531093597 -0.539186298847198 -0.217683643102646 0.0245014820247889 0.240565732121468 0.755896031856537 1.01421415805817 1.5560063123703 2.13374590873718 2.83523726463318 3.53255701065063 4.23471403121948 5.28540420532227 6.23343706130981 7.83761930465698 10.1719932556152 8.86321640014648 0.733820557594299 0.811180055141449 1.02516961097717 1.14707565307617 1.18464934825897 1.27712976932526 1.64993572235107 2.02837800979614 2.26418805122375 2.38999223709106 2.49709296226501 2.09136533737183 2.1426956653595 2.28332686424255 2.41063475608826 2.4978289604187 2.70233869552612 2.88122963905334 3.17870116233826
2.57151579856873 2.67150664329529 2.75428485870361 2.84067797660828 2.9316737651825 3.03034615516663 3.13762450218201 3.25197792053223 3.3853485584259 3.63485741615295 3.78822159767151 3.95560455322266 4.13893699645996 4.33670234680176 4.54317712783813 4.693199634552 4.69978094100952 4.74256181716919 5.07611465454102 5.12968397140503 5.9065260887146 5.18270826339722 5.36377096176147 5.71009731292725 5.86735391616821 6.22648620605469 6.61337661743164 7.19676542282104 7.72582960128784 8.69384384155273 9.63016510009766 7.35548973083496 4.30892038345337 3.07773852348328 3.47715425491333 1.87064290046692 0.737616240978241 0.856496155261993 0.927091836929321 1.12955367565155 1.29674685001373 1.39101767539978 1.52231979370117 1.65435647964478 1.87603306770325 2.19457244873047 1.8497576713562 1.99449217319489 2.05523657798767 2.11536312103271 2.549724817276 2.82135963439941 3.02956867218018 3.18034982681274 3.75985836982727 3.2766101360321 3.32128739356995 3.46973061561584 4.16972064971924 5.34344816207886 6.60894346237183 7.3929386138916 8.35632038116455 9.07170009613037 7.12523174285889 6.19362449645996 8.24337577819824 1.03718543052673 3.31102752685547 4.98000288009644 5.68126392364502 7.18424320220947 7.60760116577148 0.591694951057434 0.836950242519379 1.7601991891861 2.25913858413696 2.77313137054443 3.52457523345947 4.46942090988159 5.19650888442993 5.78449535369873 6.23747444152832 7.07019710540771 7.92611360549927 8.51200485229492 10.7508506774902 13.8420190811157 14.0478143692017 9.19665908813477 8.55417251586914 9.10849952697754 9.74465274810791 13.3492631912231 14.0335779190063 16.6862945556641 17.4686717987061 6.62523937225342 3.24000763893127 0.48708713054657 0.568975687026978 0.770138025283813 1.02754294872284 2.4187114238739 4.38936614990234 6.37147188186646 8.55425834655762 11.0389461517334 14.2956495285034 18.3458251953125 24.1502704620361 29.3751220703125 12.6074409484863 9.11115169525146 0.748412787914276 0.883398294448853 1.29085695743561 1.59075915813446 1.90471136569977 2.10753989219666 2.88796329498291 4.73459100723267 4.54218053817749 3.00836229324341 2.51959013938904 2.52878069877625 3.54800534248352 5.14034748077393 5.43597936630249 2.60660719871521 1.14726376533508 0.841218531131744 1.1851966381073 2.24859976768494 -1.46548974514008 -1.36259210109711 -0.976066887378693 -0.499008655548096 -0.1227191016078 0.169468015432358 0.38393822312355 0.652031421661377 1.52124881744385 2.19468832015991 2.78178000450134 3.41739630699158 4.02421855926514 4.8516149520874 5.76376056671143 5.4852614402771 7.29677820205688 10.3644886016846 6.30767250061035 0.917050182819366 1.00768983364105 0.947484135627747 1.08108532428741 1.16128981113434 1.22971165180206 1.47465837001801 1.71485507488251 1.79097950458527 1.82005000114441 1.88352453708649 1.73929417133331 1.30464112758636 1.17959558963776 1.23686957359314 1.57778453826904 2.04450035095215 1.28867995738983 1.34534215927124
2.65984344482422 2.75127100944519 2.83281850814819 2.92102003097534 3.01456546783447 3.11301517486572 3.2216317653656 3.34398365020752 3.47962117195129 3.74887824058533 3.91110610961914 4.08102655410767 4.27035760879517 4.47536277770996 4.66243267059326 4.8838529586792 4.69644546508789 4.75934457778931 5.00158548355103 6.0101318359375 4.9753360748291 4.97941064834595 5.07369136810303 5.43819618225098 5.85591220855713 6.19140529632568 6.62332630157471 6.98483037948608 7.53107833862305 8.01845836639404 8.32686614990234 8.33373355865479 5.42234659194946 4.12891340255737 5.076828956604 1.99642097949982 1.11694371700287 1.26766562461853 1.30648672580719 1.4026061296463 1.53696417808533 1.76102447509766 2.01206135749817 2.33538174629211 2.18995380401611 2.91242241859436 2.21154594421387 2.33121657371521 2.49422693252563 2.63030028343201 3.02450633049011 3.42111468315125 3.56529355049133 3.99560308456421 4.11819362640381 4.95539522171021 5.43097019195557 4.11903762817383 4.57158231735229 5.26911401748657 6.77325630187988 7.23607921600342 7.72830200195312 8.47165775299072 7.71149444580078 8.19092082977295 2.95468592643738 0.805903732776642 2.19837808609009 3.49862384796143 3.63359904289246 5.29034566879272 7.24942398071289 3.06369519233704 0.451636642217636 1.42982447147369 1.95852744579315 2.24109864234924 2.96127247810364 4.07891035079956 4.91940069198608 5.69304037094116 6.29672288894653 7.01161050796509 7.91752433776855 11.7813625335693 12.5514364242554 17.1635189056396 20.468376159668 6.75394487380981 7.33855390548706 8.13387012481689 9.06371402740479 12.4382581710815 13.8360176086426 15.2720518112183 15.6133975982666 2.84704542160034 1.21534550189972 0.442138433456421 0.483359724283218 0.639740347862244 1.40718722343445 2.73481750488281 4.47641706466675 6.44073057174683 8.61328315734863 10.9083433151245 13.2241477966309 16.544454574585 21.363130569458 25.0533409118652 14.8225612640381 8.00888156890869 0.56266462802887 0.725699007511139 1.11949169635773 1.41005086898804 1.58418667316437 1.86790657043457 2.77390146255493 3.81538581848145 4.51541042327881 4.2052116394043 3.01449251174927 2.210862159729 3.17775321006775 4.43062019348145 5.16204166412354 2.17828488349915 0.843194305896759 -0.441667705774307 0.69756007194519 2.1092472076416 -1.18447923660278 -1.13729190826416 -0.974557876586914 -0.562737107276917 -0.134721294045448 0.204353272914886 0.501723825931549 0.780254423618317 1.30178451538086 1.92641949653625 2.5514829158783 3.06942558288574 3.54996228218079 4.15623426437378 4.93827867507935 4.75142049789429 5.36370611190796 7.40278100967407 5.39230346679688 0.941175282001495 1.02456259727478 1.00993812084198 0.680802702903748 0.758881270885468 0.875106811523438 1.01768660545349 1.63279271125793 1.19833219051361 1.30087280273438 1.01920509338379 0.970890760421753 0.768240928649902 0.914928495883942 1.25165164470673 1.35494792461395 1.94863891601562 1.54597949981689 0.191736355423927
