NCOLS 171
NROWS 31
XLLCORNER 353920
YLLCORNER 6699328
CELLSIZE 16 
NODATA_value -3.4e+38 
0.509540736675262 0.565830886363983 0.63754016160965 0.651172876358032 0.596196949481964 0.515298128128052 0.365920096635818 0.245356276631355 0.931077718734741 0.0587472692131996 -0.00570487696677446 -0.0490675941109657 -0.104331880807877 -0.196871176362038 -0.330424040555954 -0.281243056058884 -0.268624931573868 -0.259240508079529 -0.24763648211956 -0.228967264294624 -0.223298028111458 -0.17240272462368 -0.146450772881508 -0.128658786416054 -0.00179757445584983 0.114247597754002 0.397183030843735 0.855928957462311 0.963883340358734 0.717104971408844 0.377652376890182 0.178792953491211 0.0398801788687706 -0.120167322456837 0.588659644126892 -0.443114668130875 -0.552422046661377 -0.69437038898468 -0.726765811443329 -0.794324040412903 -0.773999869823456 -0.417487502098083 0.130298465490341 0.250602453947067 0.282077819108963 0.203001007437706 -0.126495569944382 0.0474561452865601 0.872386813163757 2.09655165672302 2.20087718963623 1.43968904018402 1.08919560909271 0.892057418823242 0.790721833705902 0.749697148799896 0.693336844444275 0.269232273101807 0.870477259159088 1.31927001476288 2.22308588027954 2.17006039619446 1.21123313903809 0.865451276302338 -0.0398815013468266 0.302465289831161 6.35157632827759 9.34507179260254 8.40512084960938 7.70009183883667 6.58850765228271 5.36091661453247 6.18197250366211 6.97440528869629 10.7896099090576 11.896782875061 5.10561752319336 4.22952556610107 3.29719281196594 1.25903081893921 0.0400165244936943 0.0115117514505982 0.047635655850172 0.00504620559513569 -0.0267963241785765 0.0107780387625098 -0.0211257748305798 -0.0256421864032745 0.0599709860980511 0.251345932483673 0.396820336580276 0.535690546035767 0.891622006893158 1.94973182678223 2.59175539016724 3.0206139087677 3.19850611686707 3.45681166648865 3.30713558197021 2.83862805366516 2.17694616317749 1.20497870445251 0.233149185776711 -0.429793357849121 -0.417767941951752 0.666186630725861 0.578442752361298 -0.260351359844208 -0.680637300014496 -0.584390938282013 -0.463322341442108 0.858777344226837 0.154758051037788 -0.0368556939065456 -0.112165220081806 -1.34617376327515 -1.66024601459503 -1.66087901592255 -1.75652384757996 -1.61520051956177 -1.10906076431274 -0.597842693328857 -0.129781618714333 0.0679804608225822 0.0728763788938522 -0.14714902639389 -0.454423427581787 2.08068060874939 -1.21600043773651 -1.23528861999512 -1.11836361885071 -0.946314871311188 -0.59586489200592 -0.478562146425247 -0.389894962310791 -0.359979093074799 -0.283680856227875 -0.18373404443264 -0.086619034409523 -0.1860241740942 -0.419155180454254 -0.509582161903381 4.07760953903198 4.59699106216431 4.24833393096924 2.46582317352295 3.50090336799622 6.62898635864258 5.65028619766235 4.90072298049927 4.21374416351318 4.65854358673096 4.4819540977478 3.96435713768005 4.11131906509399 4.15117454528809 4.18151426315308 4.33859443664551 4.5114049911499 4.41040897369385 4.08842849731445 3.72618222236633 2.98860049247742 2.40153813362122 2.00233340263367 2.13622093200684 2.75657606124878 3.10050225257874 4.85656118392944 7.31851768493652 8.29250431060791
0.512296438217163 0.556548595428467 1.02903497219086 0.62231057882309 0.568831026554108 0.465693652629852 0.35597226023674 0.24335078895092 0.626467287540436 0.129636764526367 -0.0196689497679472 -0.0846664533019066 -0.146829664707184 -0.21054020524025 -0.34106507897377 -0.324274837970734 -0.308178007602692 -0.303579330444336 -0.294162899255753 -0.277779579162598 -0.261107236146927 -0.220151275396347 -0.189153894782066 -0.159795105457306 -0.100427389144897 0.0512202084064484 0.342405468225479 0.809078872203827 0.914175689220428 0.662258088588715 0.393564015626907 0.198281288146973 0.0234820190817118 -0.180799514055252 -0.288127779960632 -0.554942309856415 -0.678315281867981 -0.837996363639832 -0.887438535690308 -0.94708114862442 -0.848380386829376 -0.500027179718018 -0.110118754208088 -0.0187052637338638 0.129118606448174 0.0872067362070084 -0.1911511272192 -0.266621351242065 0.444998145103455 1.70057117938995 1.81631433963776 1.23720860481262 0.854018092155457 0.717478811740875 0.6136674284935 0.424101293087006 -0.0116066699847579 -0.150008246302605 0.307418674230576 0.740818440914154 1.69974899291992 1.65885508060455 0.702492117881775 0.394608795642853 -0.0174716226756573 2.97652506828308 6.24762868881226 8.22347927093506 7.50334882736206 7.21601152420044 9.07010173797607 9.76972579956055 11.9935321807861 11.5418281555176 11.1704130172729 11.094500541687 8.34765720367432 5.27389669418335 3.4173538684845 1.32449150085449 0.0446512289345264 0.0110805416479707 0.0425749644637108 -0.0123871453106403 0.0927129089832306 -0.0105048306286335 -0.03407808765769 -0.0102452840656042 0.0289599988609552 0.245901554822922 0.299133539199829 0.328668296337128 0.870597183704376 1.90238308906555 2.52324461936951 2.92617630958557 3.07704091072083 3.18921375274658 3.24961543083191 2.76012825965881 2.29449439048767 1.17816507816315 0.173914045095444 -0.482196241617203 -1.00355923175812 0.357405513525009 -0.747271418571472 -1.21051800251007 -1.19824147224426 -0.808044672012329 -0.759794414043427 -0.910357117652893 -1.41360139846802 -1.91020894050598 -1.96584868431091 -1.98859429359436 -2.15221285820007 -2.23421621322632 -2.28755354881287 -2.1716480255127 -1.65051436424255 -1.08302128314972 -0.44533559679985 -0.225932657718658 -0.223963335156441 -0.455377101898193 -0.713162124156952 -0.201858580112457 -1.04157102108002 -1.4299818277359 -1.37553334236145 -1.30329871177673 -1.02695858478546 -0.856204807758331 -0.725398242473602 -0.681256651878357 -0.723269104957581 -0.643745124340057 -0.532867968082428 -0.705643653869629 -0.835132658481598 1.14551591873169 2.77941226959229 3.08983826637268 3.24412655830383 2.24112153053284 2.42655301094055 5.48565912246704 6.17316913604736 5.52417850494385 4.38632249832153 4.02530813217163 3.46002101898193 3.11309671401978 3.43360042572021 3.75956249237061 3.87065863609314 4.00444984436035 4.14819240570068 4.11242294311523 3.78482151031494 3.32150602340698 2.55940794944763 1.85520803928375 1.44656157493591 1.36055529117584 1.85506963729858 2.6190721988678 3.82630395889282 6.45463514328003 7.43677520751953
2.71350240707397 1.72455263137817 0.795290291309357 0.599949419498444 0.553129613399506 0.461896240711212 0.352963238954544 0.250283867120743 0.211598291993141 0.446999490261078 -0.0408578254282475 -0.120769575238228 -0.193379253149033 -0.254499316215515 -0.351730048656464 -0.374226987361908 -0.333248764276505 -0.330647110939026 -0.332885175943375 -0.330702602863312 -0.294998407363892 -0.263967841863632 -0.226919338107109 -0.18064883351326 -0.160246908664703 -0.0525154322385788 0.211038812994957 0.775897681713104 0.873782157897949 0.615589678287506 0.348126709461212 0.194226160645485 0.00569328013807535 -0.188379153609276 -0.394754111766815 -0.607410073280334 -0.801535189151764 -0.942590951919556 -0.975161790847778 -1.08995652198792 -1.04540419578552 -0.787748336791992 -0.346608728170395 -0.207911238074303 -0.0205348320305347 -0.059167455881834 -0.300354927778244 -0.36661159992218 0.40823170542717 1.42257809638977 1.48082840442657 0.998767256736755 0.570770800113678 0.521465122699738 0.347808420658112 0.144860818982124 -0.189876213669777 -0.291596472263336 0.00107245496474206 0.207187309861183 1.07957875728607 1.0872175693512 0.221432015299797 0.210336148738861 1.71796059608459 3.74216246604919 6.0097599029541 7.70703649520874 7.4890079498291 9.92440032958984 11.9827489852905 14.8438024520874 17.40869140625 18.3129730224609 11.3981618881226 11.7400903701782 11.0682849884033 5.93625736236572 3.57898592948914 1.11806082725525 0.19490821659565 0.0137567706406116 0.0320400483906269 -0.0101490924134851 -0.052303958684206 -0.0615181736648083 -0.0348192267119884 0.0335498861968517 0.0121713969856501 0.0832809135317802 0.192057311534882 0.175810471177101 0.854317963123322 1.8584508895874 2.46416854858398 2.85296416282654 2.99320292472839 3.09830713272095 3.1776020526886 2.74506115913391 2.24745583534241 3.89118957519531 4.80288171768188 0.371393173933029 -1.01496231555939 -1.37385416030884 -1.63912785053253 -1.56740820407867 -1.56129312515259 -1.17975652217865 -1.22108125686646 -1.41718649864197 -1.64366233348846 -2.09916257858276 -2.32552528381348 -2.37448191642761 -2.45468211174011 -2.6067066192627 -2.68776750564575 -2.64173746109009 -2.13019514083862 -1.65129518508911 -0.962694048881531 -0.597105205059052 -0.54249769449234 -0.756466865539551 -0.973166704177856 -1.2234992980957 -1.47762596607208 -1.58693540096283 -1.6052258014679 -1.54547131061554 -1.37474930286407 -1.13883638381958 -0.993708491325378 -1.01542246341705 -1.09189260005951 -1.12369155883789 -1.08384537696838 -1.08917462825775 0.735297799110413 2.25176429748535 1.82660222053528 1.77612018585205 3.0392758846283 2.85080742835999 3.19569683074951 5.0590648651123 5.94847583770752 5.32633495330811 4.53104734420776 3.3989417552948 3.04551482200623 2.92002415657043 2.61155772209167 3.21635556221008 3.48871231079102 3.45809316635132 3.44011878967285 3.64500164985657 3.55747199058533 3.31850838661194 5.19656467437744 1.728071808815 1.14216005802155 1.1734322309494 1.46536540985107 2.17711901664734 3.24449729919434 5.53676414489746 6.47945642471313
4.83765983581543 2.92512106895447 0.82794725894928 0.56152355670929 0.538416266441345 0.526169300079346 0.478375345468521 0.242154866456985 0.150096476078033 0.492307931184769 -0.0618649013340473 -0.138288736343384 -0.213852569460869 -0.289595991373062 -0.364594787359238 -0.41805437207222 -0.366309434175491 -0.350633859634399 -0.353903651237488 -0.364689588546753 -0.336255848407745 -0.292762070894241 -0.260798841714859 -0.212434381246567 -0.193117275834084 -0.0831929743289948 0.179776251316071 0.733885526657104 0.8349569439888 0.582522869110107 0.306472301483154 0.159650519490242 -0.0333205498754978 -0.203222632408142 -0.400464981794357 -0.627570927143097 0.854065537452698 -0.994504868984222 -1.05478000640869 -1.18022394180298 -1.24208927154541 -1.19502401351929 -0.859449505805969 -0.391768157482147 -0.178603187203407 -0.134455233812332 -0.445500195026398 -0.623805701732635 0.245116293430328 1.20443868637085 1.19043052196503 0.760864078998566 0.384984761476517 0.319891393184662 0.139111667871475 -0.0241969227790833 -0.255888313055038 -0.592405617237091 -0.326444715261459 -0.15175724029541 0.500791490077972 0.565328598022461 -0.00932665355503559 0.0939386934041977 0.702572703361511 3.05704784393311 5.64299821853638 8.25694179534912 12.4032506942749 13.1585702896118 13.3249607086182 16.4617462158203 17.711986541748 17.8427543640137 13.4937963485718 12.838662147522 11.4813365936279 6.45714616775513 3.09542226791382 0.978172600269318 0.17303104698658 -2.96820617222693e-05 -0.0617809928953648 -0.250902533531189 -0.417185366153717 -0.488300830125809 -0.409808248281479 -0.113704778254032 -0.0529704093933105 0.00529111968353391 0.0515087209641933 0.121836729347706 0.834989011287689 1.81247055530548 2.40318512916565 2.78089189529419 2.91648197174072 2.9996919631958 3.04525232315063 2.67132878303528 2.15708303451538 1.30493152141571 1.2532354593277 -0.526739656925201 -1.18775999546051 -1.59383451938629 -2.04928302764893 -2.03865742683411 -1.98568105697632 -1.58519053459167 -1.46960234642029 -1.50981020927429 -1.71563851833344 -2.21389985084534 -2.5705726146698 -2.67480874061584 -2.6759467124939 -2.71937417984009 -2.56013488769531 -2.87825751304626 -2.53232383728027 -2.05174875259399 -1.44743657112122 -1.04321444034576 -0.945019841194153 -1.05081427097321 -1.20571315288544 -1.41706490516663 -1.69470405578613 -1.8179042339325 -1.87442374229431 -1.84608733654022 -1.64224660396576 -1.4803466796875 -1.38690114021301 -1.35735356807709 -1.3840970993042 -1.41423547267914 -1.45979380607605 0.604777157306671 4.7448205947876 2.97373223304749 1.76017320156097 4.42343711853027 2.94880628585815 4.89963817596436 7.15667581558228 7.60918474197388 6.25934028625488 5.88901853561401 3.61809229850769 2.88739800453186 4.22830867767334 2.89030885696411 2.79654288291931 2.94179177284241 3.31655597686768 3.11118340492249 2.89635562896729 3.18250203132629 3.31944060325623 4.09720802307129 7.84829044342041 8.98245525360107 2.72098517417908 2.9816882610321 2.84628224372864 3.71151566505432 3.22691226005554 4.85535144805908 5.55488681793213
2.55121874809265 1.66380798816681 0.954580664634705 0.541139781475067 0.961859822273254 0.875480175018311 0.687084078788757 0.332025438547134 0.208838939666748 0.299332588911057 0.394259631633759 0.0466228611767292 -0.223306983709335 -0.268356174230576 -0.206339120864868 -0.445513337850571 -0.398776590824127 -0.375090807676315 -0.369385898113251 -0.38036772608757 -0.365118473768234 -0.330280363559723 -0.29829078912735 -0.256822675466537 -0.207703366875648 -0.103545725345612 0.144339352846146 0.677530229091644 0.792291700839996 0.545452117919922 0.272261112928391 0.120044112205505 -0.0805915668606758 -0.264667004346848 0.865674257278442 2.69369792938232 -0.823732912540436 -1.09316265583038 -1.12399446964264 -1.23429584503174 -1.31165528297424 -1.36647117137909 -1.12833297252655 -0.587337732315063 -0.382883667945862 -0.31995552778244 -0.305821985006332 -0.59545224905014 -0.023226210847497 0.954817831516266 0.951359510421753 0.596959292888641 0.24195471405983 0.149884313344955 0.056843601167202 -0.10665000975132 -0.366985261440277 -0.850555539131165 -0.626340687274933 -0.521182358264923 0.16497129201889 0.177623569965363 0.186308264732361 0.271202504634857 0.650948226451874 2.77009391784668 5.0023512840271 6.98233270645142 10.238018989563 11.4091024398804 11.9722385406494 14.5114965438843 15.7786140441895 15.4463024139404 13.16565990448 11.8610191345215 10.3771133422852 6.05571794509888 2.74528098106384 0.727368891239166 0.0697589218616486 -0.200342729687691 -0.328883320093155 -0.553984999656677 -0.774785697460175 -0.994616568088531 -1.1521703004837 -0.752330303192139 -0.366820693016052 -0.219105929136276 -0.0812315121293068 0.00460644671693444 0.78290057182312 1.76354002952576 2.33642649650574 2.70720100402832 2.82947111129761 2.86515998840332 2.86442947387695 2.50597214698792 1.95429348945618 0.968908846378326 -0.0603587813675404 -0.875992596149445 -1.54077661037445 -2.03088593482971 -2.38859581947327 -2.369961977005 -2.27647638320923 -1.91557431221008 -1.62267887592316 -1.65847289562225 -1.80767285823822 -2.32821393013 -2.76933240890503 -2.9556450843811 -2.96325540542603 -2.94410586357117 -1.78598022460938 -3.05644750595093 -2.85760545730591 -2.51802754402161 -2.02316498756409 -1.3996045589447 -1.2514340877533 -1.28896391391754 -1.36273050308228 -1.54941809177399 -1.83790159225464 -1.97458744049072 -2.00016570091248 -2.01042938232422 -1.88515949249268 -1.73400795459747 -1.66861808300018 -1.65631401538849 -1.61812126636505 -1.67710852622986 -1.74527490139008 -0.590025544166565 3.20535182952881 2.64102864265442 5.05357074737549 4.41829013824463 4.71052169799805 6.48208284378052 8.51369667053223 8.20052909851074 7.10854339599609 6.37401676177979 7.95505237579346 4.58542728424072 3.38569903373718 4.87208127975464 8.95283985137939 7.53264570236206 5.22300958633423 4.46314001083374 2.86291480064392 2.94128108024597 3.24128866195679 4.1848578453064 7.16767644882202 11.5420904159546 10.4064903259277 5.20786380767822 6.1505651473999 4.77805757522583 3.13012862205505 4.2712140083313 4.68550205230713
2.25194430351257 1.57097768783569 1.07995140552521 1.16662633419037 2.52486491203308 1.81792759895325 0.998595476150513 0.67032516002655 0.211775884032249 0.0829696655273438 0.725655138492584 0.082399345934391 -0.00611984962597489 -0.313137948513031 -0.383741825819016 -0.466759324073792 -0.435809344053268 -0.399984896183014 -0.388475388288498 -0.390135139226913 -0.392506390810013 -0.376252889633179 -0.347712606191635 -0.292938649654388 -0.221068739891052 -0.121912695467472 0.115961298346519 0.631871223449707 0.738369941711426 0.509022772312164 0.244090676307678 0.078385517001152 -0.105572916567326 -0.245106667280197 -0.294836163520813 -0.424679726362228 -0.884995341300964 -1.11899077892303 -1.14045584201813 -1.26134181022644 -1.34985435009003 -1.516770362854 -1.44376397132874 -0.872081935405731 -0.597477912902832 -0.412479609251022 -0.38313102722168 -0.594231903553009 -0.186227813363075 0.714324831962585 0.70836341381073 0.420515537261963 0.151914924383163 0.0713181644678116 -0.0611776635050774 -0.20246297121048 -0.632941007614136 -0.90332293510437 -0.628160893917084 -0.766664445400238 -0.516978681087494 -0.0800588876008987 0.565191209316254 0.312639117240906 0.519551396369934 2.51858305931091 3.97752451896667 5.78658199310303 7.83277940750122 9.55345630645752 10.9015293121338 12.6023483276367 13.3595600128174 13.3321447372437 13.2283926010132 11.0701370239258 9.40470218658447 5.14906978607178 2.15761375427246 0.127341881394386 -0.307271689176559 -0.450094521045685 -0.684865057468414 -0.910039067268372 -1.10665619373322 -1.57135725021362 -1.78905439376831 -1.56044054031372 -1.03708934783936 -0.765935659408569 -0.486021965742111 -0.298984408378601 0.301380962133408 1.52596986293793 2.24361252784729 2.59184646606445 2.6938841342926 2.7219398021698 2.71833968162537 2.26728129386902 1.7174311876297 0.532127976417542 -0.714299023151398 -1.68190693855286 -2.19469594955444 -2.45441627502441 -2.49381709098816 -1.73843252658844 -2.38554191589355 -0.683205127716064 -1.74733078479767 -2.17133927345276 -2.23913526535034 -2.09538698196411 -2.86904096603394 -2.31384754180908 -0.194441080093384 0.770945250988007 -0.417180567979813 -0.741198122501373 -0.740515172481537 -2.65093207359314 -2.27725148200989 -1.67686307430267 -1.44676065444946 -1.47964775562286 -1.54177057743073 -1.69609940052032 -1.99019527435303 -2.08034944534302 -2.1364598274231 -2.17586779594421 -2.13541841506958 -2.05504965782166 -2.05081939697266 -2.00737309455872 -1.96064329147339 -1.9400669336319 -1.96869421005249 -1.11986494064331 2.28006982803345 2.93991732597351 3.63312745094299 3.50515413284302 3.89233160018921 4.67396688461304 6.34669876098633 7.01120853424072 7.06800413131714 6.99828052520752 11.4486389160156 13.8166971206665 9.42719459533691 8.1052770614624 8.01106452941895 7.08101654052734 5.42154788970947 8.66966152191162 12.7516622543335 11.2721147537231 6.72075653076172 4.67537784576416 7.00964736938477 10.3380632400513 10.1052780151367 8.30721187591553 8.7194242477417 7.20847320556641 3.0861439704895 3.79997825622559 3.88780879974365
2.05822825431824 1.61160850524902 1.72154998779297 2.57406783103943 2.03352427482605 2.81082463264465 2.2065212726593 1.25221145153046 0.723715662956238 0.504259824752808 0.460618048906326 0.0448196940124035 -0.146083772182465 -0.336222320795059 -0.403369963169098 -0.477669984102249 -0.475703865289688 -0.433828830718994 -0.4235520362854 -0.419200539588928 -0.423341631889343 -0.420445263385773 -0.395903021097183 -0.343452095985413 -0.245335981249809 -0.15687920153141 0.0934412553906441 0.574585258960724 0.673562586307526 0.474173277616501 0.210909903049469 0.0427042953670025 -0.124569498002529 -0.288566768169403 0.202527925372124 0.526169300079346 -0.71894896030426 -0.926461756229401 -1.11573421955109 -0.627259492874146 -1.37104976177216 -1.50100791454315 -1.50702941417694 -1.00967156887054 -0.718415915966034 -0.502994954586029 -0.42656484246254 -0.629161894321442 -0.255347669124603 0.436278492212296 0.492927193641663 0.276152819395065 0.105036318302155 0.0315317288041115 -0.140989318490028 -0.297321885824203 0.0061608306132257 -0.587662518024445 -0.637257695198059 -0.157858937978745 -1.06676721572876 0.438298344612122 2.48884344100952 2.11586356163025 0.911655366420746 2.42558455467224 3.376300573349 4.94419288635254 6.18450403213501 7.60371923446655 9.59267997741699 10.8667554855347 11.6053953170776 12.4365015029907 12.4216632843018 9.98207664489746 7.84387683868408 3.36194276809692 0.707568168640137 -0.418130964040756 -0.622933328151703 -0.804724037647247 -0.993941068649292 -1.23870229721069 -1.46655559539795 -1.8824280500412 -2.23936629295349 -2.14880084991455 -1.91748809814453 -1.81323635578156 -1.15742361545563 -0.745594501495361 -0.333766907453537 1.06110405921936 2.02827382087708 2.46695494651794 2.52950954437256 2.55522036552429 2.51738166809082 1.92488765716553 1.1831830739975 -0.325354218482971 -1.23076903820038 -1.93859207630157 -2.39916944503784 -2.53669190406799 -2.65973544120789 -0.119391530752182 1.49042081832886 1.85716080665588 2.04493689537048 0.898041665554047 1.54267609119415 4.17091655731201 4.23219442367554 2.71272540092468 2.69664216041565 3.16129684448242 3.04312634468079 4.18801021575928 2.44148850440979 2.94634795188904 5.62114572525024 -1.11326265335083 -1.50259268283844 -1.65426313877106 -1.83733463287354 -1.94342172145844 -2.08989977836609 -2.15168118476868 -2.21545910835266 -1.1575049161911 0.268998205661774 -0.0548873841762543 -2.36311173439026 -2.33033609390259 -2.30492472648621 -2.29925966262817 -2.26429533958435 -1.26026034355164 1.32776272296906 1.51564514636993 2.43117094039917 2.2908022403717 2.64591646194458 3.66800379753113 5.50869560241699 6.95543622970581 7.38720798492432 7.24971961975098 9.03696918487549 11.1087770462036 10.0794849395752 8.27826595306396 7.36351585388184 6.14697313308716 4.54870557785034 6.70115232467651 10.1867227554321 10.2771844863892 6.51963949203491 4.55703115463257 6.14098405838013 8.37298774719238 8.4329252243042 7.18268346786499 7.49353313446045 6.2332615852356 4.25162887573242 3.52681064605713 3.51499509811401
1.83933079242706 1.56921553611755 1.26296150684357 1.54373407363892 1.87041556835175 2.40829873085022 3.25747752189636 2.29265356063843 1.64122796058655 1.15507435798645 0.332483053207397 0.451302260160446 -0.17219765484333 -0.35533481836319 -0.419270187616348 -0.481151819229126 -0.504445970058441 -0.471374243497849 -0.470469683408737 -0.466982066631317 -0.459062129259109 -0.455426245927811 -0.438224524259567 -0.394490212202072 -0.295386254787445 -0.195686474442482 0.0593084469437599 0.525393187999725 0.606985151767731 0.417568325996399 0.177596971392632 0.0187606252729893 -0.165485575795174 -0.311725497245789 -0.144833847880363 0.610923588275909 1.94551432132721 -0.37553209066391 -1.14775002002716 -0.429105430841446 -1.36020874977112 -1.11266183853149 0.0816890075802803 -1.05217576026917 -0.756185054779053 -0.551537573337555 -0.48135057091713 -0.648182153701782 -0.307995408773422 0.274240493774414 0.273725032806396 0.168419897556305 0.0644921809434891 0.197173118591309 -0.0491666197776794 -0.258177697658539 0.862655997276306 0.603493213653564 -1.10833084583282 0.346095144748688 4.31905317306519 7.33745718002319 4.42650556564331 2.54740142822266 3.25809025764465 2.46287822723389 2.98292279243469 4.64472579956055 6.08551073074341 6.99949645996094 8.17252826690674 9.37061500549316 10.6496295928955 11.0804319381714 10.2226734161377 7.99311256408691 6.04808187484741 2.22492074966431 0.253331184387207 -0.658560693264008 -1.04636490345001 -1.26164782047272 -1.33730351924896 -1.5539413690567 -1.82471466064453 -1.98693442344666 -2.33983325958252 -2.34925103187561 -2.2479202747345 -2.14422535896301 -1.87616610527039 -1.38586711883545 -0.911349415779114 0.410309642553329 1.58028125762939 2.2387638092041 2.39134049415588 2.33475160598755 2.24401831626892 1.53561496734619 0.765942692756653 -0.516173601150513 -1.31354439258575 -1.95680475234985 -2.51534867286682 -2.60520839691162 -1.80434906482697 4.2071681022644 4.60719776153564 4.53191804885864 3.88016176223755 5.53359794616699 6.77356624603271 7.78444290161133 5.41935443878174 4.57959079742432 4.9885573387146 3.94180989265442 4.79837846755981 3.62376666069031 5.06425142288208 3.73752403259277 4.45925664901733 3.14157629013062 -0.192583292722702 -1.9396071434021 -2.25404071807861 -2.2471604347229 -1.5282883644104 1.22544956207275 1.08283853530884 1.66866230964661 2.47944903373718 4.10324192047119 3.32083010673523 0.441877156496048 -0.147586405277252 -2.56596970558167 -2.0999162197113 -1.82686603069305 -0.805731594562531 0.731383860111237 1.29868030548096 0.881516814231873 0.573658585548401 1.11653292179108 1.88885009288788 4.99504995346069 6.87867069244385 6.32334613800049 7.29603862762451 8.45207500457764 7.74371767044067 6.52376127243042 6.1601390838623 5.58826112747192 4.07717990875244 5.11774873733521 7.63467407226562 7.73035860061646 5.58892631530762 4.98747253417969 5.14624214172363 6.67416191101074 7.00378465652466 6.41260862350464 7.53263902664185 7.81262111663818 5.5004506111145 3.02208065986633 3.49407386779785
1.69123113155365 1.41471195220947 1.11787331104279 1.21328365802765 1.52524769306183 1.96745467185974 2.9641478061676 3.12724852561951 2.0297384262085 1.45110487937927 1.57173764705658 0.436085492372513 -0.0655288100242615 -0.0807191208004951 -0.431395649909973 -0.193088710308075 0.311644792556763 -0.0672909915447235 -0.287370979785919 -0.504886031150818 -0.502866268157959 -0.4979487657547 -0.48550409078598 -0.450286149978638 -0.353096216917038 -0.247177481651306 -0.0524457134306431 0.418238371610641 0.545501053333282 0.340415716171265 0.135154709219933 0.00116307218559086 -0.176230192184448 -0.317639470100403 -0.394693434238434 0.474728256464005 2.25660610198975 1.14326286315918 -1.16480302810669 -0.697068393230438 0.659111499786377 1.12489688396454 0.772283673286438 -1.05567455291748 -0.791384756565094 -0.56947261095047 -0.509392321109772 -0.616660296916962 -0.427112847566605 0.181512698531151 0.211590021848679 0.0855574235320091 0.00962361134588718 -0.0124022392556071 -0.0757531598210335 -0.260965168476105 0.140407919883728 -0.223810493946075 -1.1680223941803 0.274735420942307 6.10562133789062 6.39506149291992 5.86557054519653 7.02822160720825 4.8004674911499 2.78933644294739 2.81283473968506 5.60743999481201 5.65383577346802 6.39398002624512 7.01176404953003 7.76122426986694 9.2597484588623 8.67479038238525 7.59297800064087 6.40172290802002 4.73854780197144 1.26179563999176 -0.173957601189613 -1.00829720497131 -1.39878690242767 -1.64819836616516 -1.72201108932495 -1.89352202415466 -2.10269737243652 -2.12879848480225 -0.442368894815445 -2.40850734710693 -2.35517358779907 -2.24479174613953 -2.03929448127747 -1.75862562656403 -1.30767667293549 -0.230297580361366 0.986276984214783 1.76841771602631 2.23979425430298 2.15549182891846 1.94804859161377 1.25544321537018 0.338749706745148 -0.732782661914825 -1.38401782512665 -1.90095579624176 -2.50376415252686 -2.62839603424072 2.35508799552917 4.1844367980957 5.8402099609375 4.70558261871338 4.10856962203979 4.85508823394775 5.50203657150269 6.41313171386719 5.99514770507812 5.35796451568604 4.25264072418213 4.45398855209351 5.06956434249878 3.26708602905273 2.25269317626953 3.90537142753601 4.09101963043213 3.20220613479614 0.349510103464127 -0.0187147185206413 -2.14471530914307 -0.415596067905426 1.72942495346069 2.31818437576294 2.22172975540161 2.24142551422119 2.18383741378784 2.93565273284912 3.20510673522949 2.91277670860291 1.66631472110748 0.834726631641388 -0.644769966602325 -1.39608752727509 -0.829946517944336 0.482194781303406 0.717070519924164 -0.125953540205956 -0.346481889486313 0.213749423623085 1.07014918327332 2.36525225639343 5.12569093704224 5.48254776000977 5.61038970947266 6.69561338424683 6.49076890945435 5.47824811935425 5.23610496520996 5.19473695755005 4.30355787277222 4.10862398147583 6.04263639450073 6.26951789855957 5.02829074859619 4.4832615852356 5.69029951095581 6.2560338973999 8.2060432434082 7.58408641815186 7.76604175567627 7.8274245262146 5.33720254898071 3.25490403175354 3.47504281997681
1.55929827690125 1.27906763553619 0.995094954967499 0.939934134483337 0.983822762966156 1.58360970020294 2.3172435760498 2.65924668312073 2.05053043365479 1.43338489532471 1.17765927314758 0.994621515274048 0.178158074617386 -0.166369274258614 -0.336601495742798 0.0754189044237137 -0.15315979719162 -0.507927179336548 -0.524811208248138 -0.539361596107483 -0.543292701244354 -0.56075918674469 -0.539213895797729 -0.505151927471161 -0.431515008211136 -0.305419743061066 -0.192026555538177 0.0964884534478188 0.416350364685059 0.43370595574379 0.0921207070350647 -0.0301551967859268 -0.177859291434288 -0.3122498691082 -0.447794646024704 0.103846080601215 1.34568679332733 0.662307620048523 -0.380299359560013 -0.181122347712517 1.28779280185699 2.63244080543518 4.11039066314697 1.99723958969116 0.263834685087204 -0.574836492538452 -0.523942410945892 -0.107110902667046 -0.754580616950989 0.305238276720047 0.298408269882202 0.163379818201065 0.0296321325004101 -0.0624058470129967 -0.088641494512558 -0.269793719053268 0.0887013226747513 -0.384688675403595 0.27347868680954 3.75482583045959 5.5105767250061 6.58798217773438 6.55202674865723 5.59495162963867 3.53063678741455 3.15700340270996 6.29290819168091 3.95342326164246 4.10595655441284 4.76710319519043 5.43735074996948 6.59114265441895 7.52243041992188 7.2907338142395 5.90070867538452 4.90161275863647 3.42418670654297 0.71986973285675 -0.98623651266098 -1.39694380760193 -1.7722156047821 -1.93651032447815 -2.03332376480103 -2.10348415374756 -2.20952200889587 -2.2131724357605 3.60885453224182 2.81804704666138 2.71850442886353 4.84248828887939 3.00304937362671 -1.83140802383423 -1.5446572303772 -0.604835569858551 0.332715213298798 0.858459055423737 1.60675704479218 1.90663731098175 1.77998089790344 1.25506258010864 0.219803363084793 -0.717403650283813 -1.55688488483429 -2.02594947814941 1.96907830238342 -0.669792473316193 1.058709025383 2.82406139373779 3.56770730018616 4.13470697402954 3.80923867225647 4.56253290176392 5.26482248306274 6.10387468338013 7.29278612136841 6.73649311065674 4.19038343429565 3.67893934249878 3.69462919235229 2.66536688804626 2.41045093536377 3.87644672393799 4.66122102737427 4.40630769729614 0.296878337860107 5.62355375289917 4.73119878768921 3.43022418022156 1.03901743888855 1.21855878829956 2.16379928588867 2.3148021697998 1.77146875858307 1.5255674123764 1.63077259063721 1.08180069923401 2.23187780380249 2.82843112945557 1.55209493637085 2.76955890655518 2.81196928024292 1.44668173789978 0.70356410741806 0.130019262433052 3.34405589103699 2.12362575531006 2.90492868423462 3.79878449440002 4.28751039505005 4.86389636993408 4.64008617401123 5.60563850402832 5.60489368438721 4.88624286651611 4.30016374588013 4.34363555908203 3.6754105091095 3.25217223167419 3.60863184928894 4.75538730621338 4.93564891815186 4.0359001159668 4.44624900817871 5.64334630966187 9.33267593383789 9.84456157684326 7.79208898544312 7.19518518447876 4.84959506988525 2.99291324615479 3.47106218338013
1.44343030452728 1.22249829769135 0.942988455295563 0.607423722743988 0.876469016075134 1.00201988220215 1.80643022060394 2.52564215660095 2.00628542900085 1.36886918544769 1.0578488111496 0.732914447784424 0.478935360908508 -0.171063855290413 -0.302984356880188 -0.301422566175461 -0.513979196548462 -0.543374061584473 -0.571108937263489 -0.591926634311676 -0.604430675506592 -0.609956622123718 -0.600316405296326 -0.56778210401535 -0.513591170310974 -0.37830638885498 -0.275222718715668 -0.0989104211330414 0.307391136884689 0.384474396705627 0.192231044173241 -0.0691452771425247 -0.17352420091629 -0.291533917188644 -0.453005999326706 -0.401342183351517 0.483770787715912 0.47281140089035 0.282999753952026 0.657294929027557 2.43044376373291 2.5475378036499 4.03055381774902 6.88609790802002 2.50900864601135 -0.290443539619446 -0.528726577758789 -0.570397555828094 0.491693258285522 0.150741919875145 0.36844265460968 0.162180453538895 -0.0206093639135361 -0.127570122480392 -0.128026261925697 -0.310532540082932 0.0518342927098274 1.0997166633606 1.09165990352631 4.47321462631226 5.23726558685303 6.12931966781616 6.05388736724854 5.07772254943848 5.40348672866821 5.32685852050781 2.04549551010132 2.21860098838806 2.74449324607849 3.54730248451233 4.15505456924438 4.58429956436157 4.89651679992676 5.08392953872681 4.52414798736572 3.50299406051636 2.08948826789856 -0.0252991579473019 -1.2426221370697 -1.64861714839935 -1.94672954082489 -2.0822536945343 -2.17934441566467 -2.19068646430969 1.27195477485657 3.1697404384613 5.56745624542236 7.75595855712891 6.43341970443726 5.0386061668396 2.78066611289978 -0.592866599559784 -1.75449204444885 -1.13417732715607 -0.204550430178642 0.40094467997551 0.900624454021454 1.71973323822021 1.58875000476837 1.24650681018829 0.166939705610275 -0.640433013439178 -1.54747152328491 -2.07870745658875 0.934628486633301 0.77799266576767 0.397100836038589 1.94152331352234 2.50565457344055 3.50678944587708 4.5547776222229 4.32815361022949 4.93374156951904 5.70181655883789 7.24416780471802 7.76159143447876 4.34297657012939 3.61563205718994 3.20953989028931 2.70082950592041 2.46372580528259 2.27408647537231 4.66175317764282 5.4712347984314 2.08016490936279 2.60671758651733 2.28084254264832 1.81126797199249 0.580254793167114 1.36315774917603 1.74150776863098 1.57343018054962 1.2643837928772 1.16478288173676 1.18626844882965 2.14171433448792 7.67681550979614 11.3792581558228 12.8365421295166 10.7600002288818 7.86657476425171 6.90769338607788 5.94455671310425 10.1621198654175 10.9091196060181 5.79578351974487 2.3856348991394 3.40874481201172 3.92439222335815 4.32475757598877 4.03087091445923 4.76091480255127 4.55891609191895 3.77382016181946 3.29179072380066 3.52886581420898 3.1061577796936 3.12686085700989 3.23630380630493 4.15075635910034 4.30433940887451 3.70045447349548 4.310378074646 5.62018060684204 8.03512573242188 8.79324150085449 7.53389501571655 6.62152242660522 4.71334266662598 3.56441426277161 3.56199216842651
1.33402442932129 1.14029169082642 0.883255004882812 0.571837067604065 0.746573030948639 0.924998581409454 1.19140934944153 2.28743696212769 1.99114751815796 1.74869561195374 1.4858067035675 0.643117249011993 1.0515124797821 0.433476507663727 -0.263097047805786 -0.533022820949554 -0.562608957290649 -0.564425528049469 -0.584848523139954 -0.630233347415924 -0.676666259765625 -0.659052848815918 -0.649503886699677 -0.622382998466492 -0.561601459980011 -0.465841829776764 -0.356407999992371 -0.169411525130272 0.242678865790367 0.322531491518021 0.136309087276459 -0.0491649210453033 -0.171007573604584 0.10943315923214 0.33259916305542 -0.561108231544495 -0.376464366912842 0.764894783496857 0.992627680301666 0.614153921604156 2.14730715751648 2.90883898735046 3.68448996543884 5.67053031921387 3.57615756988525 0.449637591838837 -0.0976341292262077 -0.57143223285675 -0.160413399338722 0.0564355589449406 0.29161012172699 0.158080101013184 -0.0443451143801212 -0.176564902067184 -0.200885310769081 -0.340640097856522 -0.389319330453873 4.23519659042358 7.96065282821655 6.45962762832642 7.24169397354126 6.35262823104858 6.45327091217041 5.55080842971802 4.64259099960327 2.40581631660461 0.0136002348735929 0.487927109003067 1.27626240253448 2.18293261528015 2.84370946884155 3.17845726013184 3.76816058158875 3.67374682426453 3.30928683280945 2.41179728507996 1.26784372329712 0.0405521281063557 -1.33467233181 2.92288637161255 5.65723943710327 6.46123218536377 6.73142719268799 4.9060115814209 5.86554336547852 6.50935077667236 7.68674325942993 10.7321262359619 8.61248874664307 4.52068662643433 1.64884412288666 -1.60325515270233 -2.01864433288574 -1.74582350254059 -0.661344170570374 0.0168628990650177 0.495524376630783 1.4047042131424 1.47259891033173 2.06312274932861 4.2534966468811 -0.706887304782867 -1.52205836772919 -2.09189534187317 -0.181618675589561 0.532698452472687 -0.349947214126587 0.518574774265289 2.87487053871155 3.03730988502502 4.60654592514038 5.85015964508057 4.85241603851318 4.94742250442505 7.10338735580444 6.97881984710693 5.11504745483398 3.77320337295532 2.96404123306274 2.76094579696655 3.92397165298462 1.75780951976776 2.88454699516296 3.89074373245239 2.09247732162476 3.38478708267212 3.06481194496155 1.63512217998505 0.901920258998871 0.972889244556427 1.18891263008118 1.2920868396759 1.42278718948364 2.99100661277771 6.88098192214966 12.0299158096313 12.0617170333862 10.8364105224609 12.4726305007935 12.2267427444458 12.5516700744629 11.5647487640381 13.1237497329712 14.7368650436401 14.5099515914917 13.7190418243408 7.44957876205444 3.59698963165283 3.79597449302673 3.99615359306335 3.71718573570251 4.03128576278687 3.65373826026917 2.87983202934265 2.53249549865723 2.48020076751709 2.72737455368042 2.91232967376709 3.04051065444946 3.7715060710907 4.00897789001465 3.37371778488159 3.67130279541016 5.61614656448364 7.2484827041626 7.43540239334106 6.97090244293213 5.8723030090332 4.22426795959473 2.93962955474854 3.42291641235352
1.21689081192017 1.03138601779938 0.810379981994629 0.571299195289612 0.701054513454437 0.867637813091278 1.02029418945312 1.68784558773041 1.89690732955933 1.64506328105927 1.5721607208252 1.08652555942535 0.675180733203888 1.0849415063858 0.621891617774963 -0.544323444366455 -0.589872241020203 -0.622576475143433 -0.618631839752197 -0.663973867893219 -0.738722205162048 -0.716552913188934 -0.695086359977722 -0.684371411800385 -0.620542705059052 -0.522688806056976 -0.426428884267807 -0.225645288825035 0.191206961870193 0.267850279808044 0.0902730077505112 -0.0923184305429459 -0.197453811764717 -0.292606383562088 -0.172530055046082 -0.585921049118042 -0.781550288200378 -0.268769383430481 0.251563370227814 0.569204688072205 1.72912013530731 2.58059096336365 3.57123494148254 4.74157333374023 3.88674306869507 3.62537217140198 0.659985661506653 -0.202213734388351 -0.321489065885544 -0.0569569282233715 0.178755715489388 0.102200970053673 -0.124567955732346 -0.207679525017738 -0.226475059986115 -0.193730741739273 -0.0549966655671597 2.10186004638672 6.12773609161377 5.30489873886108 5.27855491638184 5.93714284896851 5.53109836578369 3.29175686836243 3.03023266792297 1.09614145755768 -0.0867564752697945 -0.035128902643919 0.517336785793304 1.022629737854 1.68907821178436 2.22526812553406 2.84172606468201 3.01198506355286 2.55853199958801 2.07292652130127 1.62368714809418 0.47310683131218 0.357897251844406 4.41496324539185 8.18706607818604 8.55182456970215 9.16505432128906 8.43771076202393 8.61884498596191 7.22990369796753 7.28698015213013 8.21652126312256 7.00834655761719 4.1474289894104 1.95064461231232 -0.879142701625824 -2.10714650154114 -2.0449526309967 -1.20029389858246 -0.379319787025452 0.153238549828529 1.03487539291382 1.2945271730423 1.20253133773804 11.7694234848022 2.46886825561523 -1.57397592067719 -2.09979915618896 -0.236896932125092 2.02785563468933 0.0457622595131397 -0.221044898033142 1.43637466430664 2.32784008979797 3.73284482955933 5.12636280059814 4.04507732391357 6.12928247451782 6.96709060668945 6.80476140975952 6.58563613891602 6.47995233535767 6.3713903427124 6.79934692382812 5.53219032287598 1.66790640354156 1.94208657741547 2.71262240409851 0.946287453174591 2.14326930046082 6.45899343490601 3.03854942321777 3.36736226081848 1.41577243804932 1.18660259246826 1.49732828140259 2.9535961151123 6.31174850463867 10.2559032440186 11.5971822738647 9.82472229003906 9.14863300323486 9.67519378662109 8.88216114044189 7.82463264465332 7.91923427581787 11.3789033889771 13.3658409118652 13.6999855041504 14.1724443435669 11.899863243103 7.33576393127441 3.75587368011475 3.80466175079346 3.79285526275635 3.43846392631531 2.83402466773987 2.47911381721497 2.15955996513367 2.14416742324829 2.27272391319275 2.72632551193237 2.94521999359131 3.46504211425781 3.66159152984619 3.14286613464355 3.24966645240784 4.64779186248779 5.9157567024231 6.37038707733154 5.86347055435181 5.02583837509155 3.53500866889954 2.76978015899658 3.30382299423218
1.23175549507141 0.964850664138794 0.755093634128571 0.58342581987381 0.648001909255981 0.787025034427643 0.930923402309418 1.21436524391174 1.59998953342438 1.52004790306091 1.41550087928772 1.13552057743073 0.529734373092651 0.741669297218323 0.90319037437439 0.344770133495331 -0.515501439571381 -0.651782751083374 -0.704126000404358 -0.760716676712036 -0.79393345117569 -0.782880425453186 -0.772128403186798 -0.74428117275238 -0.70090389251709 -0.610609471797943 -0.496116936206818 -0.288277924060822 0.139493837952614 0.214657783508301 0.0459435060620308 -0.123317383229733 -0.2230024933815 -0.330560892820358 -0.473020315170288 -0.617032110691071 -0.818919897079468 -0.917099952697754 -0.0494608022272587 0.510899782180786 1.4117636680603 2.03314232826233 2.80408906936646 3.77350759506226 3.37760615348816 2.92171478271484 1.70762884616852 0.349742323160172 -0.161861389875412 -0.327934294939041 0.0768757089972496 0.809583067893982 0.61133337020874 -0.248611629009247 -0.248443514108658 -0.341480404138565 0.885176718235016 2.08216309547424 4.48254680633545 3.74933075904846 4.06424951553345 4.58134889602661 4.01181173324585 2.25046706199646 1.48884415626526 0.547436594963074 -0.250896066427231 2.04911160469055 0.0379570797085762 0.453125476837158 1.08234488964081 1.49768269062042 1.93834161758423 2.18859076499939 2.13478469848633 1.99841594696045 1.43403506278992 0.861003458499908 1.84962809085846 3.14750075340271 5.82241868972778 7.95576238632202 8.66910076141357 8.42433071136475 7.47410202026367 6.18136024475098 5.74341583251953 6.29486513137817 5.26694250106812 4.35624694824219 3.02416038513184 0.452466458082199 -0.550851464271545 -2.24375224113464 -1.66144406795502 -0.738694250583649 -0.0408806577324867 0.74627673625946 1.11845886707306 1.04595804214478 9.42893600463867 8.92116546630859 6.24995946884155 0.292657405138016 0.443543612957001 3.29417204856873 2.23095035552979 0.31011489033699 0.98714542388916 2.10600161552429 2.95289444923401 3.54094052314758 3.81586647033691 6.1282696723938 6.72605180740356 7.44745683670044 9.02568435668945 6.90171575546265 6.14334058761597 5.79425525665283 4.83055257797241 5.88427829742432 2.34439635276794 1.92942249774933 0.0707102417945862 0.663573324680328 6.77219247817993 5.43004989624023 5.0290904045105 5.8097095489502 4.21792888641357 5.19304227828979 6.86665534973145 9.31485080718994 10.273494720459 10.4784936904907 8.75328540802002 8.11215209960938 7.94314050674438 6.86817693710327 6.75030183792114 8.383864402771 10.9178295135498 13.0526428222656 13.2046117782593 13.0757503509521 12.3693027496338 8.81674766540527 6.12206983566284 4.04683303833008 3.98160552978516 3.49144792556763 4.28093767166138 2.43324017524719 2.12972784042358 2.16732692718506 2.20773577690125 2.56073260307312 2.85432386398315 3.19728755950928 3.3782787322998 3.08173561096191 3.21385955810547 4.02390146255493 4.99058628082275 5.27833652496338 4.76934337615967 4.07803821563721 2.80081224441528 2.48178863525391 3.11086773872375
1.19820892810822 0.987075984477997 0.769640862941742 0.608458638191223 0.588829040527344 0.748415350914001 0.847668945789337 1.08677923679352 1.11471009254456 1.29925489425659 1.28584039211273 1.12796926498413 0.804953157901764 0.514477014541626 0.47828882932663 0.674490988254547 0.253425687551498 -0.707844436168671 -0.785436570644379 -0.848366141319275 -0.896572589874268 -0.865674555301666 -0.859313905239105 -0.837065458297729 -0.779627501964569 -0.679897785186768 -0.559297204017639 -0.361550122499466 0.0638963356614113 0.146447569131851 -0.0048142084851861 -0.168543487787247 -0.269009292125702 -0.374672442674637 -0.524539947509766 -0.680980682373047 -0.85821408033371 -0.97917252779007 -0.389659702777863 0.680190145969391 0.856004893779755 1.20596837997437 1.70854914188385 2.5143415927887 2.97260737419128 2.17968678474426 1.03913974761963 0.188789904117584 -0.341613054275513 -0.306744933128357 0.0509613044559956 0.427746295928955 1.58697104454041 2.16654109954834 2.10205793380737 2.39299869537354 2.06812953948975 1.90205502510071 3.35972857475281 3.12990641593933 3.15649557113647 3.09761238098145 3.04579567909241 1.7818078994751 0.794458985328674 0.264093726873398 -0.32982936501503 0.0635890364646912 -0.0215313285589218 0.407094895839691 0.744337856769562 1.1148374080658 1.52502036094666 1.72098553180695 1.86491441726685 1.69302129745483 1.12851548194885 0.382489055395126 1.28682351112366 2.68900918960571 4.84069108963013 6.11017274856567 6.87649345397949 7.21795654296875 6.01430654525757 4.79640483856201 4.20269107818604 4.02715539932251 4.34870910644531 3.49113059043884 2.21203994750977 0.171997159719467 -1.26273846626282 -1.56803846359253 -1.3309371471405 -0.979797661304474 -0.215776801109314 0.454288750886917 0.88357812166214 0.882491052150726 6.18979454040527 8.98101615905762 10.2000741958618 6.74072313308716 1.53530478477478 2.62799692153931 4.30416584014893 2.27235913276672 0.947607219219208 1.85976219177246 2.38158416748047 3.37783074378967 7.61951875686646 5.70151662826538 6.0506739616394 6.35871648788452 8.11379241943359 8.86134910583496 6.02786159515381 5.3559422492981 4.22861671447754 4.86752462387085 1.79271757602692 1.32243776321411 0.0725365728139877 3.25346064567566 6.72952747344971 9.19399642944336 5.59086561203003 5.07522964477539 4.94945621490479 6.7756404876709 8.89316654205322 10.2382307052612 10.2623052597046 9.66346263885498 8.66516017913818 7.99921703338623 6.84592533111572 8.52112483978271 11.47398853302 10.4541883468628 10.4337434768677 11.3821592330933 11.456937789917 11.5361204147339 10.6030235290527 8.06782150268555 5.60429906845093 4.04917049407959 3.94681286811829 3.70691776275635 5.88162899017334 8.21846103668213 6.24925756454468 3.62180757522583 5.16418266296387 2.55969047546387 2.78929877281189 2.95758771896362 3.16566562652588 3.03791785240173 2.98410773277283 3.14069151878357 3.91732692718506 3.95004200935364 3.3791983127594 2.89290547370911 2.18944382667542 2.22599101066589 2.87450551986694
1.12484538555145 0.968241155147552 0.790021061897278 0.615510702133179 0.532469213008881 0.682833731174469 0.824052929878235 0.970463573932648 0.813634097576141 0.75195723772049 0.984887957572937 1.05577993392944 1.05433928966522 0.469544500112534 0.249754533171654 0.210560128092766 -0.122813440859318 -0.759186267852783 -0.865682661533356 -0.930319547653198 -0.973405957221985 -0.939290821552277 -0.929761588573456 -0.908993124961853 -0.869137465953827 -0.757889986038208 -0.664911568164825 -0.446890771389008 -0.0219486393034458 0.0776690021157265 -0.0704440698027611 -0.234008714556694 -0.339161932468414 -0.430528432130814 -0.56054151058197 -0.740353643894196 -0.897354900836945 -0.988067626953125 1.73009359836578 1.16642153263092 0.696117281913757 1.05718243122101 1.42334794998169 2.11207509040833 2.44747638702393 1.76342976093292 1.04337394237518 0.26113572716713 -0.287100195884705 -0.370458632707596 0.0321955867111683 0.0935146361589432 0.5989128947258 1.32836353778839 1.11678576469421 0.819402933120728 0.724894821643829 0.548078656196594 1.16560161113739 2.30383253097534 2.08932495117188 2.160719871521 1.90881395339966 0.977120995521545 0.38590395450592 -0.0911531746387482 -0.523827970027924 1.15785992145538 0.374726146459579 0.253022164106369 0.413715869188309 0.83376806974411 1.29084134101868 1.525670170784 1.76323664188385 1.62335979938507 1.03092813491821 0.336348474025726 0.954480707645416 2.18769073486328 3.58805012702942 4.71610498428345 5.46351385116577 5.50678730010986 4.44353771209717 3.52254462242126 2.55487871170044 2.46680092811584 2.42548012733459 1.84724283218384 0.69125109910965 -0.949971437454224 -2.30902791023254 -1.89033365249634 1.41247010231018 1.97595500946045 -0.451198786497116 0.197821661829948 0.596599519252777 0.588214337825775 3.3086040019989 7.89243507385254 8.61581325531006 3.83270263671875 0.678615868091583 1.76140832901001 3.86455106735229 4.20882558822632 0.921346724033356 1.66886520385742 2.33243465423584 5.01670074462891 5.9942831993103 5.34863471984863 5.42979907989502 6.08444356918335 7.60187482833862 8.74484729766846 10.4287424087524 7.6557502746582 4.15144920349121 3.69576668739319 2.37309551239014 0.651804268360138 -0.14578765630722 3.18296384811401 6.28502607345581 8.91407299041748 6.28972291946411 5.28662109375 5.76603555679321 7.67719078063965 8.63167762756348 9.10358715057373 9.4783353805542 9.80590915679932 9.74230575561523 10.0668249130249 13.4281234741211 14.3305149078369 12.9269962310791 10.8119115829468 9.36869049072266 9.41187953948975 9.50082015991211 9.70003223419189 9.76297664642334 7.82649898529053 4.60147428512573 3.6606297492981 3.75997090339661 3.41379070281982 4.56714344024658 8.20557498931885 10.63694190979 8.65067768096924 4.57921075820923 3.99453115463257 2.72350907325745 2.82348132133484 2.92532730102539 2.89746260643005 2.81111836433411 2.59238457679749 2.65934491157532 2.17708873748779 1.72944629192352 1.75133979320526 1.79278361797333 1.93465602397919 2.57600069046021
1.05737626552582 0.903535664081573 0.751694679260254 0.589833438396454 0.477542519569397 0.601374208927155 0.698189437389374 0.746333956718445 0.63967090845108 0.589845836162567 0.540370762348175 0.753698647022247 0.717747032642365 0.215942233800888 0.0453968420624733 -0.108565725386143 -0.430211871862411 0.0635617151856422 -0.879326820373535 -0.97067928314209 -0.999541938304901 -1.01650166511536 -1.028648853302 -1.02201282978058 -0.976486265659332 -0.864968776702881 -0.744282782077789 -0.513602316379547 -0.0996810495853424 -0.00611381186172366 -0.14213091135025 -0.296595275402069 -0.39581561088562 -0.471427410840988 -0.56548684835434 0.50934112071991 -0.930692493915558 0.95956552028656 3.49004292488098 0.714487254619598 0.557226240634918 0.900480628013611 1.27458822727203 1.8161586523056 2.05749869346619 1.45151615142822 0.940412521362305 0.19703583419323 -0.30026188492775 -0.45532763004303 -0.0765110328793526 -0.0221267379820347 -0.157455518841743 -0.288683414459229 -0.341484218835831 -0.391053110361099 -0.465822786092758 -0.477474361658096 -0.0672212913632393 0.387623637914658 0.258972316980362 0.399642676115036 0.437139004468918 0.444558620452881 0.106524795293808 -0.271274268627167 -0.0380304865539074 1.58859527111053 0.331916153430939 0.22349026799202 0.402206122875214 0.659488499164581 1.09734094142914 1.39670038223267 1.63247632980347 1.61838972568512 3.30250453948975 2.12329816818237 1.00939750671387 1.20168435573578 1.78502440452576 3.0812840461731 3.72134184837341 3.70852780342102 2.88558650016785 1.90540659427643 0.857813358306885 0.468277186155319 -0.167500704526901 -0.957729876041412 -0.692468702793121 -1.80839097499847 -2.40464162826538 -1.77839243412018 0.732197403907776 0.798848152160645 -0.810719668865204 -0.104508474469185 0.274995565414429 0.186423018574715 0.0030057611875236 4.87865209579468 4.75738286972046 2.64281892776489 0.558664441108704 0.856940448284149 2.62933278083801 3.13915205001831 1.22539496421814 2.08897519111633 4.29180479049683 4.42130517959595 5.12159729003906 4.54047679901123 4.93789100646973 5.76642751693726 7.01093006134033 7.6689977645874 7.98580026626587 6.3675856590271 4.34607172012329 2.26588249206543 1.29129433631897 -0.170122236013412 -0.719925940036774 1.97351717948914 5.87503957748413 8.18795871734619 8.24377632141113 7.8075065612793 9.77113246917725 8.97957706451416 9.52400016784668 9.96598815917969 9.98162269592285 10.256085395813 9.56335258483887 9.13393783569336 11.7906045913696 12.3690547943115 11.3732881546021 9.99721431732178 8.56635761260986 7.99053907394409 7.24805974960327 7.24953889846802 7.86943054199219 6.8724889755249 4.35238981246948 3.39957213401794 3.58322763442993 3.33161115646362 4.01090478897095 6.80245399475098 8.66279983520508 8.41152477264404 5.99920129776001 3.05925440788269 2.65540671348572 2.71559524536133 2.81055641174316 2.80716681480408 2.74368000030518 2.51555228233337 2.04938101768494 1.48843228816986 1.13461101055145 1.08893966674805 1.2904212474823 1.6167938709259 2.00985908508301
0.989300906658173 0.844717085361481 0.691496312618256 0.541025698184967 0.42421093583107 0.525391817092896 0.584763944149017 0.557492017745972 0.464434564113617 0.427908003330231 0.434866219758987 0.374350517988205 0.481629699468613 -0.0206442456692457 -0.28736412525177 -0.27153554558754 -0.517796218395233 -0.037422601133585 -0.593699753284454 -0.565917432308197 -1.05392956733704 -1.07915544509888 -1.111443400383 -1.10459220409393 -1.06183815002441 -0.983581960201263 -0.847812831401825 -0.659009158611298 -0.251190096139908 -0.104721024632454 -0.216930896043777 -0.350636392831802 -0.44448047876358 -0.514070987701416 -0.599818706512451 0.301980346441269 1.89071571826935 1.74580228328705 1.71347033977509 0.743563294410706 0.440933614969254 0.778581619262695 1.09908926486969 1.59486520290375 1.71723186969757 1.17539656162262 0.529616415500641 -0.204757839441299 -0.66206681728363 -0.630739152431488 -0.24425445497036 -0.282660663127899 -0.487350404262543 -0.717097759246826 -0.709245443344116 -0.777060031890869 -0.896985113620758 -1.02370071411133 -1.05598866939545 -0.925340235233307 -0.766941845417023 -1.09662115573883 -0.414334446191788 -0.145257666707039 -0.266320139169693 -0.340145409107208 -0.152244552969933 0.376283377408981 0.193949311971664 1.48332226276398 3.91108202934265 3.69402170181274 1.24524796009064 1.33969104290009 1.5287207365036 1.52325761318207 2.02826499938965 1.48476922512054 0.721584975719452 0.627006828784943 1.42816305160522 2.23415184020996 2.49360346794128 2.3454155921936 1.47776079177856 0.223996818065643 -1.80212807655334 -2.96395897865295 -3.21392178535461 -3.25870800018311 -2.75290632247925 -2.54964923858643 -2.51767325401306 -1.39829921722412 -0.283377677202225 0.0130775356665254 -0.445260345935822 1.4714607000351 -0.265225321054459 -0.339727401733398 -0.700019121170044 -1.23271358013153 0.378298193216324 1.97491800785065 1.82446432113647 0.373777002096176 1.83053016662598 2.40739870071411 4.50560855865479 6.47547483444214 5.35509395599365 3.65265536308289 4.34388875961304 4.18587970733643 4.74058055877686 5.24622201919556 5.70640230178833 6.3961067199707 6.34051847457886 5.1373291015625 3.68025040626526 2.03933143615723 0.570676207542419 -0.666033983230591 -1.23337340354919 0.634683012962341 5.01747989654541 7.50724935531616 10.524320602417 10.7632436752319 9.7386646270752 9.70096206665039 8.66295051574707 9.53458023071289 10.4963684082031 10.0944499969482 9.47547054290771 8.52244281768799 10.076774597168 11.3835725784302 11.0544567108154 8.94439506530762 7.77613353729248 6.99980974197388 6.40975713729858 6.17194318771362 6.22931337356567 6.0533332824707 5.21601963043213 4.98964166641235 3.46617603302002 3.25469517707825 3.4403715133667 5.52292013168335 6.3377480506897 6.25533199310303 4.42367458343506 3.46852827072144 2.53784966468811 2.60007810592651 2.70346903800964 2.72893047332764 3.02307462692261 5.31741952896118 10.6573657989502 4.76207685470581 1.28774559497833 0.893325507640839 1.10015642642975 1.47689843177795 1.76758706569672
0.935969650745392 0.787765383720398 0.646815001964569 0.497586280107498 0.416243642568588 0.424672037363052 0.421794235706329 0.353194117546082 0.319642096757889 0.274743378162384 0.290035307407379 0.227515265345573 0.128253668546677 -0.241087183356285 -0.19297944009304 -0.21897479891777 -0.653542637825012 -0.205920204520226 0.730654001235962 -0.626255571842194 -1.09490025043488 -1.1319637298584 -1.16195094585419 -1.17365181446075 -1.14441418647766 -1.06566596031189 -0.942139506340027 -0.795762956142426 -0.525294721126556 -0.249603927135468 -0.158993348479271 -0.404462039470673 -0.471609711647034 -0.545525133609772 -0.614953935146332 -0.0241105668246746 2.61127066612244 2.30919694900513 1.17916131019592 0.769507765769958 0.333364695310593 0.637157320976257 0.957330524921417 1.30379855632782 1.44984114170074 0.853107810020447 0.105999611318111 -0.537667989730835 -0.735636115074158 -0.97244119644165 -0.919590413570404 -0.726619005203247 -0.790069043636322 -1.02077913284302 -1.02745532989502 -1.13576090335846 -1.25759541988373 -1.31974589824677 -1.43471312522888 -1.55341303348541 -1.41591107845306 -1.38605713844299 -0.912379324436188 -0.708580851554871 -0.928055465221405 -0.862668812274933 -0.696178674697876 0.0305446032434702 0.376802444458008 1.59244453907013 3.12696242332458 3.38411998748779 3.18041729927063 1.32209241390228 1.45762610435486 1.45126676559448 1.40960776805878 1.02333581447601 0.275281816720963 0.284569710493088 0.70162034034729 1.23483896255493 1.37896764278412 0.43441578745842 -0.982636630535126 -1.90674352645874 -3.13334846496582 -3.52820134162903 -3.65021777153015 -3.62699699401855 -3.47429203987122 -2.98069667816162 -2.72378873825073 -2.18598341941833 -0.683532893657684 0.22141994535923 3.05072736740112 1.40066647529602 -0.948578715324402 -0.901992559432983 -1.43593144416809 -2.06768155097961 -1.06650650501251 0.181538984179497 1.30907845497131 4.21265697479248 3.61500453948975 4.28974008560181 6.5627179145813 7.67083168029785 6.09044027328491 3.86370801925659 3.6924901008606 4.15119981765747 4.69407272338867 4.96205997467041 5.20886087417603 5.19052267074585 5.10446071624756 4.14882183074951 3.28863286972046 3.60096287727356 2.22268462181091 0.00322384922765195 -1.47448635101318 0.590853095054626 3.74384212493896 6.31435298919678 9.49850177764893 12.2355098724365 12.0297069549561 11.0543785095215 9.53986358642578 9.48404216766357 10.210277557373 9.66884136199951 8.93863964080811 7.94863033294678 9.04867362976074 9.98100090026855 9.43299007415771 8.82533073425293 6.91438770294189 6.64407968521118 8.27406597137451 6.13753843307495 5.75316667556763 5.40992212295532 4.99708461761475 6.04397344589233 3.65508627891541 3.20791363716125 3.15058040618896 3.69304203987122 4.74934482574463 4.85110235214233 4.19381999969482 3.22321319580078 2.42867922782898 2.47398948669434 2.58561658859253 2.63380193710327 2.70437145233154 4.25409412384033 9.1921329498291 11.8620576858521 7.88874483108521 3.0468316078186 1.11845445632935 1.40206623077393 1.62115335464478
0.877616763114929 0.742626428604126 0.603483498096466 0.474020421504974 0.406674355268478 0.364628851413727 0.300950646400452 0.192824125289917 0.120020508766174 0.0897696912288666 0.0873939618468285 0.0105219315737486 -0.146503791213036 -0.309727787971497 -0.374859988689423 -0.308525770902634 -0.442846983671188 -0.313960164785385 0.0152176609262824 -0.767753839492798 -1.11462569236755 -1.19992589950562 -1.22647213935852 -1.22696590423584 -1.21162378787994 -1.16575658321381 -1.04203915596008 -0.87317568063736 -0.690744578838348 -0.316820800304413 -0.226319119334221 -0.360005497932434 -0.505331993103027 -0.552053809165955 -0.633375227451324 -0.66930079460144 0.711300313472748 0.921545267105103 0.643738746643066 0.900465250015259 0.216638937592506 0.494877129793167 0.723624050617218 0.983747363090515 1.09523105621338 0.426080256700516 -0.354712724685669 -0.640695810317993 -0.87397313117981 -1.16873455047607 -1.19905531406403 -0.968997299671173 -1.03763961791992 -1.29228472709656 -1.34029972553253 -1.52948379516602 -1.64792013168335 -1.75015676021576 -1.97104966640472 -2.12049269676208 -1.94770181179047 -1.78104841709137 -1.30768191814423 -1.15002942085266 -1.40520119667053 -1.47904801368713 -1.24490451812744 -0.664490640163422 -0.0310288816690445 0.91324645280838 1.97691011428833 2.02952909469604 1.80561828613281 1.28871619701385 1.40904700756073 1.38439726829529 1.01829659938812 0.459532111883163 -0.1654022783041 -0.448573023080826 0.0223414227366447 0.553434610366821 0.449281215667725 -0.89928537607193 -2.20820879936218 -2.95888066291809 -3.50424408912659 -3.7180814743042 -3.76715230941772 -3.73116397857666 -3.66216063499451 -3.4234185218811 -2.97868180274963 -2.6705584526062 -0.594013929367065 1.23104774951935 2.99442601203918 0.761938214302063 -1.36898648738861 -1.34813022613525 -1.89432716369629 -2.42253446578979 -1.77686393260956 -0.629977583885193 1.09181475639343 4.03864145278931 4.45466756820679 5.0788893699646 6.77472448348999 6.45857095718384 5.36984014511108 3.58808851242065 3.58798146247864 3.98191046714783 4.4926438331604 4.85872316360474 4.90799903869629 4.60140609741211 4.45642328262329 3.91600894927979 3.25109004974365 6.54508304595947 5.84691524505615 4.61686086654663 -0.20428267121315 0.212573945522308 3.22272801399231 5.58992958068848 7.95896482467651 10.9533414840698 12.3866357803345 11.6303157806396 11.4780559539795 11.1610260009766 9.63700008392334 9.06457328796387 8.46331596374512 7.83472204208374 7.84253120422363 8.61402988433838 8.31196308135986 7.30427551269531 6.06203174591064 6.16521549224854 8.52857971191406 10.3285312652588 6.21937036514282 5.20953464508057 4.53260564804077 5.53197383880615 4.14227199554443 3.13873624801636 2.98661494255066 2.81907391548157 3.61353063583374 3.95653128623962 3.45348429679871 2.57694625854492 2.3127543926239 2.33753657341003 2.42810678482056 2.48392772674561 2.6155252456665 3.66072773933411 7.33420515060425 10.1767711639404 10.8350267410278 8.40771484375 4.36572122573853 3.13414001464844 1.59118056297302
0.865638732910156 0.695357739925385 0.555608630180359 0.449225455522537 0.376317232847214 0.306872248649597 0.220836877822876 0.127959877252579 0.0245292279869318 -0.083234116435051 -0.142528042197227 -0.247096955776215 -0.335168987512589 -0.418526202440262 -0.458041250705719 -0.506544351577759 -0.676829218864441 -0.493001133203506 -0.00631564809009433 -0.534556090831757 -0.773048520088196 -1.25822877883911 -1.29429697990417 -1.28433358669281 -1.28855633735657 -1.22216320037842 -1.11803770065308 -1.0092808008194 -0.781966686248779 -0.36767515540123 -0.274412751197815 -0.426529943943024 -0.541109383106232 -0.588500499725342 -0.686223268508911 -0.768618106842041 0.480215936899185 0.459726750850677 0.599885821342468 0.470764219760895 -0.0619229376316071 0.181701511144638 0.335433006286621 0.496129542589188 0.513167321681976 -0.181588023900986 -0.695600688457489 -0.800796747207642 -1.02803540229797 -1.30144655704498 -1.37927651405334 -1.20453011989594 -1.38626873493195 -1.77270877361298 -1.78121769428253 -1.96231245994568 -2.16062259674072 -2.26666402816772 -2.34494042396545 -2.43239521980286 -2.46943783760071 -2.37139654159546 -1.99593842029572 -1.51983535289764 -1.69874274730682 -1.7458655834198 -1.63418745994568 -0.958995640277863 -0.324136257171631 0.20452855527401 1.43696165084839 1.16037166118622 1.03265452384949 1.24314892292023 1.34962117671967 1.30986988544464 0.920513212680817 0.296468794345856 -0.536282479763031 -1.88391721248627 -1.46664023399353 -0.902627885341644 -0.82998126745224 -1.67550694942474 -2.78631663322449 -3.15704083442688 -3.60968637466431 -3.81949734687805 -3.64433813095093 -2.96939992904663 -1.54868233203888 -3.51979327201843 -3.1607129573822 -2.82320499420166 -1.44415616989136 0.893575847148895 2.18514680862427 0.636985898017883 -1.6391841173172 -1.63706707954407 1.78144943714142 -0.804270267486572 -2.96728444099426 -1.43643951416016 1.72442972660065 3.16826033592224 2.95568513870239 3.30071640014648 5.24342012405396 5.52710866928101 4.82039594650269 3.4501690864563 3.39713287353516 3.76030278205872 4.19119596481323 4.72881317138672 4.74380683898926 4.37967729568481 4.07558584213257 3.86720848083496 4.69445657730103 5.80968284606934 7.04069471359253 4.08562850952148 3.05358791351318 0.67053896188736 2.65925812721252 5.27380323410034 7.17251110076904 9.31287574768066 10.7609233856201 11.6230792999268 11.5398607254028 10.882472038269 9.43157958984375 8.83034420013428 8.37322807312012 7.6560754776001 7.70697450637817 8.034836769104 7.773850440979 6.65712785720825 5.80367946624756 5.93416547775269 8.43485069274902 10.9265308380127 10.8699960708618 6.35053062438965 4.78150320053101 5.1970796585083 4.27050256729126 3.03492474555969 2.76577806472778 2.69522881507874 2.97118377685547 3.27706813812256 2.77369165420532 2.17594861984253 2.20009684562683 2.22288084030151 2.2990038394928 2.33203387260437 2.37404465675354 2.92605423927307 6.7629919052124 8.89920234680176 10.5198974609375 11.5912570953369 9.9143533706665 4.73849821090698 2.75582122802734
0.87814074754715 0.696604073047638 0.508084952831268 0.419121265411377 0.320194333791733 0.226099699735641 0.147821560502052 0.0691501274704933 -0.0392264649271965 -0.135221615433693 -0.293911695480347 -0.414279788732529 -0.426391005516052 -0.532975792884827 -0.518498778343201 -0.616317510604858 -0.552531540393829 -0.455850869417191 -0.068435050547123 0.390544176101685 -1.15802657604218 -0.873691082000732 -1.20858657360077 -1.34134721755981 -1.33078169822693 -1.28064501285553 -1.20213937759399 -1.11412036418915 -0.890562236309052 -0.446463286876678 -0.34487396478653 -0.478299021720886 -0.627969026565552 -0.680891096591949 -0.744963526725769 -0.819680511951447 -0.561471402645111 -0.195811539888382 -0.0550343915820122 -0.19451916217804 -0.419310569763184 -0.194067627191544 -0.0371416062116623 0.0952880680561066 -0.128517344594002 -0.521159529685974 -0.852498531341553 -0.987886726856232 -1.2292069196701 -1.47933340072632 -1.63170647621155 -1.57687866687775 -1.79865443706512 -2.08504581451416 -2.20605444908142 -2.39003348350525 -2.74242043495178 -2.67520070075989 -2.63454842567444 -2.67121505737305 -2.71392369270325 -2.71249747276306 -2.5567774772644 -2.35185647010803 -2.21794581413269 -2.19593787193298 -1.86726331710815 -1.2409348487854 -0.826077938079834 -0.14621976017952 0.25964418053627 0.849915862083435 1.34353971481323 1.108527302742 1.22498989105225 1.16632866859436 0.856000006198883 0.0879530981183052 -1.05774533748627 -2.3562605381012 -2.45296096801758 -2.55880069732666 -2.17355346679688 -2.78012585639954 -2.96110582351685 -3.30558490753174 -3.68904972076416 -0.843030393123627 -3.29234766960144 -1.4215897321701 -0.0902130603790283 -1.09125030040741 -3.1130838394165 -2.42327117919922 -1.59074723720551 0.521049380302429 1.46456944942474 0.742282927036285 -1.91390109062195 -1.87317597866058 -0.288518399000168 -2.77710914611816 -0.979217171669006 -0.622233092784882 0.835423171520233 2.81269836425781 2.77600240707397 3.79035234451294 4.30259704589844 5.34062337875366 4.99198150634766 3.78882908821106 3.09543919563293 3.30771851539612 3.74201774597168 4.66333436965942 7.10736894607544 5.28196144104004 4.04573106765747 3.82026338577271 4.88057088851929 6.7309422492981 8.10972213745117 7.59375047683716 4.312424659729 2.16218042373657 2.45944738388062 4.96550798416138 6.74839687347412 8.05741310119629 9.91952133178711 11.4176616668701 11.2816209793091 10.2596340179443 9.19423389434814 8.61771011352539 8.24502849578857 7.48975944519043 7.45094156265259 7.67927217483521 7.5216588973999 6.56061458587646 8.03256320953369 7.75611972808838 7.51022338867188 9.41859722137451 9.40360927581787 7.47238302230835 5.10388040542603 5.16799545288086 4.50544023513794 3.07502102851868 2.67831492424011 2.57465481758118 2.5213668346405 2.68294954299927 2.28128838539124 2.11156272888184 2.07906937599182 2.06115436553955 2.09381198883057 2.17519974708557 2.23314523696899 2.36780667304993 4.35051679611206 7.63063716888428 9.65045738220215 12.0458307266235 11.1107892990112 7.12552738189697 4.73714160919189
0.851897716522217 0.719189286231995 0.539566457271576 0.387131154537201 0.239985510706902 0.138519942760468 0.0878395438194275 0.0207955315709114 -0.0781849101185799 -0.223707869648933 -0.35815566778183 -0.49109360575676 -0.549968063831329 -0.561319351196289 -0.592876195907593 -0.633274614810944 -0.542287170886993 -0.397770166397095 -0.330222338438034 0.0314256958663464 1.01510572433472 0.0183732081204653 -1.10302126407623 -1.36584234237671 -1.40978503227234 -1.36749398708344 -1.27686488628387 -1.19743967056274 -1.01549756526947 -0.604567050933838 -0.42980769276619 -0.544357657432556 -0.690065920352936 -0.79245001077652 -0.848361313343048 -0.942526578903198 -0.947223842144012 -0.973624646663666 -0.982292652130127 -0.738285183906555 -0.904057145118713 -0.823558151721954 -0.784067094326019 -0.688615620136261 -0.69431871175766 -1.05774652957916 -1.13904249668121 -1.20824038982391 -1.54608881473541 -1.76301145553589 -1.91240131855011 -2.06280851364136 -2.25041723251343 -2.37519979476929 -2.55958819389343 -2.79692149162292 -2.96648168563843 -2.90632319450378 -2.88061165809631 -2.91592359542847 -2.92198514938354 -2.85178184509277 -2.6896116733551 -2.75981092453003 -2.53400921821594 -2.43412733078003 -2.1727147102356 -1.56216764450073 -1.07845020294189 -0.749055624008179 -0.127284348011017 0.317800581455231 0.574463427066803 0.917992830276489 0.952741920948029 0.631087958812714 0.473147571086884 -0.360008060932159 -1.74010837078094 -2.59931755065918 -2.64284563064575 -2.71191120147705 -2.73310494422913 -2.90646243095398 -3.13593506813049 -3.45887327194214 -3.79453611373901 -1.09292995929718 0.684871435165405 0.728222846984863 1.67515921592712 5.09515285491943 2.87391662597656 0.25785157084465 0.0128134349361062 0.862665176391602 1.41654348373413 0.960355043411255 -2.17116093635559 -2.19810128211975 -0.821041822433472 3.57840275764465 1.23547160625458 2.36160659790039 3.21391725540161 3.52571272850037 3.83090758323669 3.18524193763733 3.62405872344971 4.63993501663208 4.57402276992798 4.37446737289429 4.40124797821045 3.23496747016907 3.52056837081909 4.44958543777466 5.56508827209473 5.22118091583252 5.43432760238647 5.36118745803833 5.66254234313965 8.49164962768555 9.30761432647705 9.44346523284912 7.90158462524414 4.04283094406128 3.20447635650635 4.7508339881897 6.49606132507324 8.00321769714355 9.64915370941162 10.6354465484619 10.4477396011353 10.0350246429443 8.82596397399902 8.26987075805664 7.88342714309692 7.21295022964478 7.19158506393433 7.34796524047852 7.26136159896851 8.09686851501465 9.00140571594238 8.80679607391357 6.90814447402954 7.80644702911377 7.45478391647339 6.3087158203125 4.83437156677246 4.35867595672607 3.60023021697998 3.07957601547241 2.6312563419342 2.44056415557861 2.32386994361877 2.2476065158844 2.0195369720459 1.97778451442719 1.98578321933746 1.97109246253967 1.98384582996368 2.0712673664093 2.12321949005127 2.24791979789734 2.37271404266357 4.98861169815063 8.17664051055908 10.2149639129639 9.77076053619385 7.36336326599121 4.85581588745117
0.800907552242279 0.672909557819366 0.515333473682404 0.324115484952927 0.152803391218185 0.049533486366272 0.0102175651118159 -0.0213070884346962 -0.129945769906044 -0.26204714179039 -0.390170872211456 -0.536267697811127 -0.635191142559052 -0.622507274150848 -0.62643837928772 -0.653422117233276 -0.689651846885681 -0.535043239593506 -0.484692811965942 0.382361978292465 1.53605556488037 1.74862730503082 -0.305661737918854 -0.870399653911591 -1.46721696853638 -1.42146337032318 -1.33082270622253 -1.23719370365143 -1.11877036094666 -0.869494199752808 -0.609089970588684 -0.634574949741364 -0.781869232654572 -0.900188267230988 -0.988875567913055 -1.07421445846558 -1.12268269062042 -1.14120829105377 -1.15627121925354 -1.23677027225494 -1.3016562461853 -1.36740934848785 -1.44133234024048 -1.46366190910339 -1.48313581943512 -1.42835927009583 -1.52893245220184 -1.59291315078735 -1.77191746234894 -2.03735256195068 -2.25678658485413 -2.36184883117676 -2.51261138916016 -2.64667129516602 -2.73316740989685 -2.97512912750244 -3.05311322212219 -3.08262634277344 -3.01361584663391 -3.04797863960266 -3.06776356697083 -2.96925377845764 -2.70702433586121 1.8102171421051 -2.41973304748535 -2.42548704147339 -2.33926916122437 -1.89422929286957 -1.4973247051239 -1.35696625709534 -1.1009932756424 -0.551014184951782 0.14920699596405 0.584288418292999 0.68660032749176 0.055735532194376 -0.151130259037018 -0.476936399936676 -1.80938756465912 -2.73813891410828 -2.74029684066772 0.230886459350586 0.698748350143433 -2.67325234413147 -3.31232619285583 -1.86043584346771 6.11734437942505 2.5180344581604 5.11480331420898 5.85840606689453 6.6921648979187 6.52350950241089 6.30988597869873 3.26035046577454 2.01006460189819 1.41737353801727 1.27502477169037 0.501293063163757 -1.60759580135345 -1.74626636505127 2.07664251327515 6.0138201713562 7.16366910934448 7.81490755081177 5.27345561981201 3.31572461128235 3.30784797668457 2.66353178024292 2.53030490875244 3.52826547622681 4.1882004737854 3.67330718040466 4.06786441802979 3.09490561485291 3.25360798835754 3.96638703346252 4.42566871643066 4.38247919082642 3.937255859375 5.17009019851685 7.99671840667725 7.33002614974976 8.12194538116455 9.36452865600586 10.1599760055542 8.15141010284424 4.92093801498413 4.48273515701294 6.34785890579224 7.8673210144043 9.08212184906006 9.61569404602051 9.4114990234375 8.79495048522949 8.24453544616699 7.78060436248779 7.449951171875 6.87135601043701 6.83336067199707 6.97309494018555 6.89190673828125 8.03698253631592 11.2947368621826 8.91623306274414 6.64263105392456 6.56154870986938 7.07154512405396 6.50080299377441 4.85598087310791 3.80756592750549 3.23581528663635 2.87775373458862 2.37874221801758 2.24850511550903 2.18102598190308 2.04184222221375 1.98548686504364 1.86578547954559 1.87936186790466 1.90547096729279 1.92880308628082 2.00587296485901 2.05948352813721 2.19139814376831 2.33227205276489 4.44240856170654 6.02075052261353 8.56591033935547 8.66672039031982 7.689612865448 5.48135948181152
0.731306195259094 0.619170129299164 0.472562521696091 0.282442450523376 0.0900081694126129 -0.0349778085947037 -0.0864924490451813 -0.114975124597549 -0.168457686901093 -0.285297274589539 -0.426501661539078 -0.576979160308838 -0.666119158267975 -0.678645491600037 -0.666897177696228 -0.68198949098587 -0.719030916690826 -0.666784167289734 -0.645213842391968 0.320940405130386 1.10943233966827 1.33986616134644 1.79884934425354 -1.0487539768219 0.386091083288193 0.686237275600433 -1.05186760425568 -1.29083919525146 -1.19500517845154 -1.0161075592041 -0.852663695812225 -0.800363957881927 -0.898055732250214 -1.02379035949707 -1.15287983417511 -1.24872612953186 -1.30961525440216 -1.31377291679382 -1.36564016342163 -1.44596469402313 -1.55972695350647 -1.66663360595703 -1.7401294708252 -1.78744089603424 -1.80622911453247 -1.73898088932037 -1.82995629310608 -1.91027498245239 -2.08268666267395 -2.32424235343933 -2.53040838241577 -2.64081192016602 -2.74499893188477 -2.80792188644409 -2.87220573425293 -3.00442409515381 -3.06947708129883 -3.10897135734558 -3.09478211402893 -2.88947725296021 -3.09009337425232 -3.0780975818634 0.449116706848145 1.29968500137329 -2.40628266334534 -2.59876585006714 -2.5193178653717 -2.34227252006531 -2.13558149337769 -1.91890788078308 -1.98880958557129 -1.65443229675293 -1.02333331108093 0.178491458296776 0.367191851139069 -0.0500004328787327 -0.374966144561768 -0.673058867454529 8.20173358917236 4.68680334091187 5.2660870552063 7.56706619262695 6.09006214141846 -3.04056978225708 -3.41571545600891 -0.529324591159821 4.25677061080933 3.88065123558044 4.88845014572144 6.54724025726318 6.62328481674194 5.89425373077393 4.78437900543213 3.58253931999207 1.69979476928711 1.30335438251495 0.751825749874115 0.148599043488503 -1.66448581218719 -0.127259880304337 3.15484142303467 7.37988901138306 7.41288280487061 7.72811412811279 5.23430776596069 3.19701457023621 3.09426927566528 2.48673129081726 2.29755640029907 3.11649632453918 3.79234981536865 3.50695943832397 3.29417204856873 2.96022844314575 3.17852210998535 3.81715869903564 4.38426303863525 6.73584651947021 8.83856964111328 5.16185188293457 6.139573097229 8.01691818237305 11.049036026001 11.8756637573242 10.0103740692139 8.202392578125 6.10269737243652 4.30494356155396 5.95857906341553 7.4082727432251 8.30305194854736 8.84793663024902 8.60346031188965 8.10274982452393 7.64961290359497 7.27959299087524 7.00998163223267 6.65801191329956 6.44938516616821 6.34676742553711 6.40065622329712 6.38634824752808 7.31838846206665 6.27302074432373 6.11090850830078 6.34400415420532 6.21858596801758 5.55839872360229 4.47667455673218 3.4459216594696 3.02917456626892 2.66100573539734 2.18481779098511 2.09025573730469 2.01958084106445 1.98401057720184 1.85169005393982 1.76332151889801 1.77829945087433 1.83044373989105 1.89878845214844 1.98481369018555 2.04618144035339 2.45962381362915 2.32718181610107 4.13877010345459 5.4666109085083 6.68469619750977 7.62611627578735 7.38365125656128 5.41545248031616
0.632514297962189 0.511524796485901 0.373017191886902 0.217768058180809 0.0571091882884502 -0.0866938903927803 -0.188404768705368 -0.220332488417625 -0.256512850522995 -0.34284719824791 -0.462887287139893 -0.594740152359009 -0.689937591552734 -0.722446262836456 -0.713587164878845 -0.721473157405853 -0.763404309749603 -0.546699047088623 0.00547781167551875 0.268319755792618 1.34419405460358 1.28256809711456 0.856612622737885 0.308079540729523 0.178185403347015 0.205464869737625 -1.29978060722351 -1.37114596366882 -1.01625287532806 -1.05993711948395 -0.992163300514221 -0.996290385723114 -1.04948687553406 -1.14868414402008 -1.30459451675415 -1.41815328598022 -1.51620543003082 -1.58757197856903 -1.6592413187027 -1.76965069770813 -1.9316987991333 -2.06348967552185 -2.09739589691162 -2.13884449005127 -2.08513212203979 -1.97134971618652 -2.05375957489014 -2.15202474594116 -2.30805969238281 -2.52712798118591 -2.70774030685425 -2.85401892662048 -2.9300742149353 -2.95908832550049 -2.94755125045776 -3.020423412323 -3.07229351997375 -3.11116814613342 -3.13068151473999 -3.15870404243469 -3.20768928527832 -3.13929986953735 -1.29034602642059 -0.447504907846451 -2.57072424888611 -2.82632207870483 -2.78413391113281 -2.79818320274353 -2.62185454368591 -2.36008882522583 -2.10075330734253 -1.74185216426849 -1.27482807636261 -0.486006230115891 0.22385336458683 4.38182830810547 2.55236387252808 3.81594800949097 10.9406480789185 14.8694553375244 11.6123085021973 9.02293968200684 8.67804527282715 -0.899953663349152 -2.33381342887878 -0.986523330211639 2.72879028320312 3.0103919506073 4.16239213943481 5.70530366897583 4.98652362823486 4.0735068321228 4.10141372680664 2.59730339050293 2.68187189102173 1.10596597194672 0.158242866396904 -0.183715581893921 -1.72309219837189 0.999674320220947 4.39888525009155 5.90972471237183 5.98631143569946 6.93247270584106 4.99426937103271 3.25953674316406 2.94570922851562 2.44545650482178 2.24513125419617 3.01197218894958 3.33908319473267 3.47688460350037 3.15441918373108 2.93086218833923 5.07409143447876 6.36877298355103 7.73262119293213 7.8424186706543 7.62498044967651 5.13592338562012 6.10465812683105 8.104660987854 9.08392810821533 8.53668880462646 8.49121475219727 8.34038734436035 6.61695671081543 4.90667819976807 5.5455379486084 6.80578470230103 7.6409010887146 8.19601917266846 7.93177556991577 7.53182220458984 7.12476444244385 6.82287979125977 6.78315734863281 6.54449653625488 6.09131240844727 5.99725723266602 6.00249528884888 5.90498352050781 5.58211374282837 5.27591991424561 5.27671098709106 5.69044303894043 5.52707767486572 4.97516822814941 4.1307635307312 3.07780885696411 2.80868363380432 2.47820568084717 2.05423259735107 1.91845059394836 1.91092526912689 1.80946135520935 1.68892884254456 1.64890265464783 1.67589974403381 1.71458899974823 1.83678734302521 1.97802233695984 2.52733278274536 2.71989464759827 2.31980895996094 3.83702993392944 4.88460922241211 5.97532272338867 6.77406072616577 6.52976989746094 5.11020469665527
0.525153934955597 0.380379945039749 0.284111499786377 0.166723489761353 0.0144594563171268 -0.158547461032867 -0.264814049005508 -0.328137099742889 -0.369369983673096 -0.425076484680176 -0.504781424999237 -0.616239666938782 -0.692109704017639 -0.748473644256592 -0.761483788490295 -0.773354768753052 -0.801618337631226 -0.296468555927277 -0.122376315295696 0.0655595436692238 0.827590584754944 1.2156970500946 0.208661362528801 -0.284823358058929 1.10818290710449 -0.0178859885782003 0.255447387695312 0.549212336540222 -1.04543566703796 -1.17591321468353 -1.11498391628265 -1.14807569980621 -1.23583924770355 -1.34651577472687 -1.53028869628906 -1.707679271698 -1.82073020935059 -1.90322089195251 -1.98559617996216 -2.16708135604858 -2.3823721408844 -2.55251669883728 -2.53634738922119 -2.50668954849243 -2.41493797302246 -2.21364045143127 -2.21306920051575 -2.29713296890259 -2.45096659660339 -2.66315150260925 -2.84379100799561 -2.95274710655212 -3.04884910583496 -3.06996273994446 -2.97577786445618 -3.03886914253235 -3.08040857315063 -3.16550660133362 -3.28062200546265 -3.36118698120117 -3.39682698249817 -3.39770174026489 -3.12820768356323 -1.75575828552246 -2.67381548881531 -3.06668257713318 -3.06066274642944 -2.96367073059082 -2.76835417747498 -2.64699339866638 -2.3571994304657 -1.86622595787048 -1.44109988212585 -0.913644731044769 -0.126877665519714 2.72035813331604 7.54985666275024 6.67232894897461 8.02113342285156 11.3728113174438 9.68543243408203 7.05294752120972 6.14165258407593 8.22742652893066 0.39598074555397 -1.26650238037109 1.52295780181885 2.45022225379944 3.19986391067505 4.7695517539978 4.56781196594238 3.70317792892456 2.98378610610962 1.65247058868408 2.32873606681824 0.848437368869781 -0.0929076820611954 -0.288272857666016 -0.695880115032196 0.568621873855591 3.1755690574646 5.54740858078003 5.01756811141968 5.9832239151001 4.79023933410645 4.01958560943604 2.83351588249207 2.31484985351562 2.72262072563171 2.84420418739319 3.05939769744873 3.5168125629425 8.21433925628662 8.10120677947998 10.0065584182739 10.6118955612183 7.60487699508667 6.63483619689941 7.57359886169434 8.2467737197876 7.50393962860107 7.53448915481567 9.05285453796387 9.14172744750977 10.8186063766479 10.1897001266479 7.78964328765869 6.09223461151123 5.71832275390625 6.20757579803467 7.04127502441406 7.55993413925171 7.330153465271 7.00598192214966 6.71357917785645 6.60296583175659 6.4015588760376 6.16454172134399 5.72456121444702 5.64294719696045 5.71010398864746 5.45221900939941 4.92704582214355 4.65080165863037 4.64538526535034 4.97420120239258 4.92287588119507 4.47803544998169 3.63729166984558 2.68005394935608 2.57894444465637 2.28567337989807 1.8964409828186 1.78002905845642 1.77686536312103 1.66565704345703 1.50525784492493 1.46908724308014 1.55405604839325 1.61338317394257 1.71432423591614 1.89825034141541 2.0222270488739 2.18138241767883 2.29054093360901 3.49580335617065 4.42598962783813 5.36303806304932 6.00397729873657 5.76655673980713 4.5995626449585
0.268859028816223 0.209998592734337 0.136321470141411 0.0322491936385632 -0.0928405970335007 -0.244480788707733 -0.358890742063522 -0.429003715515137 -0.476462304592133 -0.522142946720123 -0.582903325557709 -0.685315608978271 -0.708543360233307 -0.800922214984894 -0.802545309066772 -0.798680782318115 -0.830758392810822 -0.705513775348663 -0.522749960422516 -0.420202791690826 0.301068544387817 0.70999938249588 0.883032560348511 0.42902347445488 0.756235599517822 0.0488221794366837 -0.385899841785431 -0.70560485124588 -1.41732287406921 -1.34755504131317 -1.29019105434418 -1.38936245441437 -1.52608072757721 -1.72634768486023 -1.89210593700409 -2.03119778633118 -2.12873554229736 -2.19795322418213 -2.32444787025452 -2.54131031036377 -2.7414128780365 -2.86397790908813 -2.85677456855774 -2.81368923187256 -2.72497940063477 -2.56572389602661 -2.47519540786743 -2.43687725067139 -2.52909755706787 -2.75853300094604 -2.97030234336853 -3.05158734321594 -3.12956285476685 -3.12600827217102 -3.00223827362061 -3.0486364364624 -3.1072723865509 -3.27307271957397 -3.36299967765808 -3.39193177223206 -3.40403342247009 -3.47425389289856 -3.31145310401917 -2.78650546073914 -2.44971370697021 -3.00364875793457 -2.19682312011719 -0.737619698047638 -2.83818793296814 -2.80358242988586 -2.53494668006897 -1.983682513237 -1.55717694759369 -1.05597805976868 -0.426299065351486 0.902739703655243 4.86917924880981 4.52419376373291 6.71563673019409 8.58292961120605 6.00883913040161 4.99370241165161 4.09200954437256 6.40147638320923 1.32476592063904 -1.41367828845978 -0.159054204821587 1.70740365982056 2.51332807540894 4.70149517059326 4.56598043441772 3.19420504570007 2.2017068862915 1.16239011287689 2.06619334220886 1.29530227184296 0.388877689838409 -0.377534002065659 -0.814737617969513 0.170344412326813 2.42145752906799 4.88751459121704 4.14812850952148 4.208655834198 4.93038368225098 6.10764741897583 5.95982694625854 4.14844131469727 5.88268327713013 4.90742158889771 3.856609582901 3.57432055473328 8.3756275177002 9.25223827362061 10.3505296707153 9.82034492492676 7.34904003143311 6.36581134796143 7.51040506362915 7.99271297454834 7.0333080291748 9.93296241760254 9.78893566131592 12.6511459350586 12.0454387664795 12.9344711303711 13.8783044815063 10.9368286132812 7.7033519744873 6.06392669677734 6.66242551803589 7.05668544769287 6.83143138885498 6.75851154327393 6.57544422149658 6.21827459335327 5.9962797164917 5.78153562545776 5.41205310821533 5.34385013580322 5.30091762542725 5.0120701789856 4.53761959075928 4.05720806121826 3.96237993240356 4.29283905029297 4.26398992538452 3.98531055450439 3.2434093952179 2.36886310577393 2.33074021339417 2.06125068664551 1.70941877365112 1.66569137573242 1.6934769153595 1.57083594799042 1.38597142696381 1.3093489408493 1.39360654354095 1.51328158378601 1.61465215682983 1.76869225502014 1.94055092334747 2.12165284156799 2.23610782623291 3.19464540481567 4.0344352722168 4.84085416793823 5.35326719284058 5.20752143859863 4.4511923789978
0.0518519692122936 0.0609403401613235 0.00727423140779138 -0.0980101227760315 -0.224577993154526 -0.378994017839432 -0.487866908311844 -0.562993884086609 -0.622654497623444 -0.672542810440063 -0.706590235233307 -0.726619362831116 -0.749447166919708 -0.822269558906555 -0.847272455692291 -0.833063721656799 -0.847271025180817 -0.902174592018127 -0.835375368595123 -0.723678112030029 -0.518171846866608 0.174599587917328 1.27255547046661 1.48441433906555 0.455263495445251 -0.376891225576401 -0.68705677986145 -1.29599404335022 -1.54464507102966 -1.51508688926697 -1.53333127498627 -1.67081248760223 -1.91968095302582 -2.09619307518005 -2.20647931098938 -2.32439661026001 -2.42427325248718 -2.52230739593506 -2.68787097930908 -2.98902344703674 -3.0878598690033 -3.1326539516449 -3.12555575370789 -3.09059834480286 -3.03585815429688 -2.92157673835754 -2.77284383773804 -2.69620418548584 -2.73406910896301 -2.8428270816803 -3.03455281257629 -3.12361454963684 -3.2109797000885 -3.18708801269531 -3.07912969589233 -3.06049013137817 -2.99092483520508 -1.74113476276398 -0.876763939857483 -0.0412543341517448 -0.328446537256241 1.88240551948547 -1.0328586101532 -2.43325257301331 -2.30923795700073 1.70990812778473 2.3178026676178 1.88035869598389 -1.5314826965332 -2.8694851398468 -2.54046201705933 -1.93548548221588 -1.00210511684418 -0.444281250238419 -0.525738000869751 -0.0695369094610214 2.78690314292908 3.43087768554688 5.0337061882019 7.00221014022827 5.89332103729248 3.72931146621704 2.49650382995605 5.68432092666626 6.56959390640259 2.50350046157837 0.643950462341309 1.11236548423767 2.2853090763092 4.07920408248901 4.46310615539551 3.45170259475708 3.52742743492126 3.60792922973633 1.39494740962982 0.737401485443115 -0.04507015645504 -0.170538187026978 -0.505639433860779 0.0614170357584953 1.6596268415451 4.31690692901611 5.93347501754761 3.0389199256897 4.87468719482422 6.89188766479492 11.080376625061 13.2379693984985 12.9109563827515 6.99919557571411 9.39632320404053 8.5394811630249 9.07079410552979 14.5290260314941 13.6772899627686 9.21059989929199 8.68973922729492 10.5834131240845 11.6340637207031 10.9875717163086 15.3908090591431 14.2511358261108 9.31505107879639 11.3306474685669 13.2790985107422 13.9851131439209 15.7038269042969 15.0201053619385 11.7588186264038 11.4763498306274 7.43937110900879 6.78045558929443 6.6315712928772 6.43957901000977 6.12996530532837 5.83749723434448 5.69318580627441 5.46345233917236 5.02490043640137 4.83156585693359 4.70938968658447 4.55586671829224 4.21157693862915 3.58743500709534 3.33528780937195 3.57062649726868 3.550940990448 3.35274744033813 2.80175065994263 2.16352224349976 2.11127591133118 1.87581205368042 1.5951726436615 1.553351521492 1.58782005310059 1.48146426677704 1.28319346904755 1.2101491689682 1.27150321006775 1.38990533351898 1.50857794284821 1.65725314617157 1.83186650276184 2.04048347473145 2.16627073287964 2.89581203460693 3.67705106735229 4.36949729919434 4.7535605430603 4.54069852828979 3.61869120597839
-0.143714398145676 -0.0976296290755272 -0.121594421565533 -0.205164566636086 -0.329612195491791 -0.553160786628723 -0.690089225769043 -0.742247402667999 -0.73634147644043 -0.755252301692963 -0.755579054355621 -0.767114341259003 -0.779075384140015 -0.836415588855743 -0.840257942676544 -0.852167308330536 -0.870406150817871 -0.940926194190979 -0.627177536487579 -0.203757345676422 -0.49206206202507 -0.898737549781799 0.359094768762589 0.846574485301971 0.4943568110466 -0.551140010356903 -1.13962388038635 -1.6165384054184 -1.67028629779816 -1.71991097927094 -1.86189842224121 -2.05063819885254 -2.37335538864136 -2.51734042167664 -2.57309365272522 -2.6432671546936 -2.83901166915894 -3.00595903396606 -3.06925654411316 -3.16218495368958 -3.24668455123901 -3.27542233467102 -3.28545236587524 -3.27400875091553 -3.2506890296936 -3.19214081764221 -3.08446288108826 -3.00480365753174 -2.99878787994385 -3.06239795684814 -3.12758016586304 -3.21236324310303 -3.290687084198 -3.25226283073425 -3.18481159210205 -3.12939667701721 -3.13753509521484 -1.71678686141968 0.633460581302643 1.63953542709351 2.7894561290741 2.45746922492981 2.76792359352112 0.269380688667297 -0.409940958023071 0.597975015640259 0.853136837482452 -0.379875898361206 -1.97280311584473 -2.668372631073 -2.55391955375671 -2.02434706687927 -1.61719083786011 -1.11529064178467 0.27514523267746 -0.126990929245949 1.81095409393311 2.37480044364929 2.67064452171326 4.76859378814697 5.57571458816528 6.63416194915771 2.30032706260681 5.37167501449585 11.9341011047363 6.34642887115479 3.40509676933289 2.83265542984009 3.89639735221863 3.90155410766602 4.32756185531616 4.89611196517944 7.29294776916504 5.89779472351074 1.05529177188873 0.242687687277794 -0.128402099013329 -0.128774002194405 -0.278041154146194 0.660258829593658 2.05170369148254 4.08689260482788 6.19018173217773 7.01367521286011 8.04183101654053 8.61726951599121 10.9208278656006 13.7721452713013 12.6199426651001 10.8734474182129 12.388747215271 12.2493133544922 11.3541011810303 14.2742576599121 13.2611627578735 13.2098255157471 12.5151700973511 20.0480442047119 20.7236480712891 23.0472030639648 21.7722511291504 16.6344394683838 20.9089298248291 21.4599208831787 20.4486141204834 18.2991943359375 15.4414758682251 14.2436151504517 10.844988822937 8.75675010681152 6.48766851425171 6.40081119537354 6.29353761672974 6.0401291847229 5.80311918258667 5.5442008972168 5.38191556930542 5.04563236236572 4.50598192214966 4.21604537963867 4.11395597457886 3.95886778831482 3.67930746078491 3.16538119316101 2.87087440490723 2.996333360672 3.02559804916382 2.74896812438965 2.22201418876648 1.91329705715179 1.94931316375732 1.72905659675598 1.50961053371429 1.44893538951874 1.47897481918335 1.37171053886414 1.2039783000946 1.13771116733551 1.1732349395752 1.26097595691681 1.4190012216568 1.58407413959503 1.72468018531799 1.88057291507721 2.04287338256836 2.61030507087708 3.33922553062439 3.88341522216797 4.321533203125 4.15658473968506 10.0534229278564
-0.319222420454025 -0.250686705112457 -0.246194034814835 -0.302138358354568 -0.413727760314941 -0.658509612083435 -0.900842308998108 -0.944028854370117 -0.889554679393768 -0.846316397190094 -0.815565884113312 -0.801280558109283 -0.805093050003052 -0.85169917345047 -0.88155460357666 -0.890938699245453 -0.898399531841278 -0.976897656917572 -0.960166394710541 -0.693189382553101 0.583114087581635 1.8245462179184 -0.0176526233553886 0.208268627524376 -0.722493290901184 -1.00503301620483 -1.53663051128387 -1.7048921585083 -1.83000195026398 -2.03715586662292 -2.2160587310791 -2.43829536437988 -2.67818927764893 -2.78654313087463 -2.89325547218323 -2.95158910751343 -3.0251841545105 -3.12248849868774 -3.20586490631104 -3.26543855667114 -2.14790725708008 -1.41899585723877 -1.48209357261658 -2.57845759391785 -2.84434723854065 -3.12144660949707 -3.2529022693634 -3.14920115470886 -3.12720561027527 -3.17302703857422 -3.23247838020325 -3.26769304275513 -1.70952606201172 -2.80785369873047 -3.25982213020325 -2.89890623092651 -2.57575821876526 -1.78518867492676 1.00937020778656 3.50979018211365 4.81232261657715 5.63296985626221 4.17363405227661 1.69882571697235 -0.569018006324768 -0.365911036729813 -1.41404461860657 -2.91877865791321 -3.11249613761902 -3.15535926818848 -2.84332656860352 -2.48758244514465 -2.14693284034729 -1.49989497661591 -0.798032224178314 -0.186845451593399 0.179075717926025 1.87549877166748 2.21350193023682 4.15467929840088 4.87741613388062 5.99591827392578 5.76446676254272 4.38919544219971 11.1799449920654 13.0714731216431 6.39416408538818 3.56201934814453 3.74537253379822 3.767014503479 4.0646333694458 4.24609231948853 6.07334041595459 4.9060115814209 2.91495680809021 1.15461015701294 2.47140431404114 1.48968362808228 0.437260210514069 0.342297673225403 2.28921675682068 3.78913736343384 5.69929838180542 5.90102529525757 7.0335636138916 7.57877111434937 10.6111745834351 13.0385026931763 13.7670936584473 11.7503604888916 12.2957983016968 13.6002464294434 12.5664806365967 12.4480791091919 12.2507743835449 15.220947265625 23.2839279174805 23.1975421905518 23.3667469024658 25.0512561798096 20.169849395752 18.7372074127197 20.3257675170898 22.2944412231445 19.7978668212891 17.1537036895752 14.3475275039673 12.7212686538696 10.1769866943359 7.41070604324341 6.02585554122925 6.03056526184082 5.96595001220703 5.71217250823975 5.47422933578491 5.21634864807129 5.03928470611572 4.5893292427063 4.01872730255127 3.68658757209778 3.55943012237549 3.37810516357422 3.13974714279175 2.83207511901855 2.52601432800293 2.50567221641541 2.42341375350952 2.2090756893158 1.78300940990448 1.62076044082642 1.76882934570312 1.60229599475861 1.42484879493713 1.33666026592255 1.3677636384964 1.27453768253326 1.12430560588837 1.05751192569733 1.06640493869781 1.13973712921143 1.26689398288727 1.42110192775726 1.63923013210297 1.8200261592865 1.97551262378693 2.38426613807678 3.02899599075317 3.58723640441895 3.95796036720276 5.38478851318359 4.25978660583496
