NCOLS 171
NROWS 32
XLLCORNER 353920
YLLCORNER 6699072
CELLSIZE 16 
NODATA_value -3.4e+38 
0.812370598316193 0.705543756484985 0.687376618385315 0.625444948673248 0.542902886867523 0.342523574829102 0.153052747249603 0.10378011316061 -0.013294879347086 -0.132893681526184 -0.228045433759689 -0.336392998695374 -0.458140462636948 -0.569989264011383 -0.660572290420532 -0.743760704994202 -0.861495137214661 -1.0411251783371 -1.1850118637085 -1.29528117179871 -1.40478408336639 -0.684625566005707 -1.261345744133 -1.52142810821533 -0.555099427700043 0.477542102336884 0.385503709316254 0.513712108135223 0.763419687747955 0.645801186561584 0.0074653965421021 -0.506683230400085 -0.748164653778076 -1.02770018577576 -1.37796461582184 -1.93349719047546 -2.05768322944641 -2.13990640640259 1.6799498796463 4.17269659042358 2.45022892951965 2.10122752189636 1.56372630596161 1.48996567726135 1.31951451301575 1.11807227134705 0.862297475337982 0.797734677791595 0.739651203155518 0.691639482975006 0.576579749584198 0.507555961608887 0.470400631427765 0.413753241300583 0.338714063167572 0.237073689699173 0.213171452283859 0.186515524983406 0.182183504104614 0.758980870246887 0.22705289721489 0.175992593169212 1.85211169719696 1.45134377479553 2.09201741218567 0.309058666229248 -0.0038969055749476 -0.0484473258256912 -0.0511125065386295 -0.0128590175881982 -0.158100366592407 4.07760953903198 4.34983062744141 3.17235517501831 1.8698855638504 1.01074850559235 0.416804283857346 0.796048283576965 1.039222240448 0.602960526943207 0.221190109848976 0.124481588602066 0.0881906673312187 0.0292517468333244 -0.0717558488249779 -0.163719743490219 -0.246234342455864 -0.382706731557846 -0.437770396471024 -0.54831063747406 -0.682501435279846 -0.74625039100647 -0.906041979789734 -0.996452689170837 -0.615458309650421 3.23050308227539 7.93918752670288 14.833667755127 14.0378379821777 7.82903671264648 4.0783953666687 -0.411361306905746 -1.42973124980927 -2.05049228668213 -2.24400973320007 2.34592366218567 2.16210770606995 0.380092829465866 -0.0473048351705074 1.73092615604401 1.89857864379883 3.71363759040833 1.89528346061707 1.12024056911469 0.630973219871521 0.581652700901031 0.408437818288803 0.330507099628448 0.556907176971436 0.223617166280746 -0.486631274223328 0.447935909032822 3.66675901412964 10.1760692596436 16.4765949249268 14.9462728500366 9.27626705169678 7.46126317977905 5.77048873901367 5.38233757019043 4.92638683319092 6.7636251449585 7.9326753616333 9.09997844696045 10.1661787033081 9.56453323364258 8.13114643096924 7.03371238708496 6.15514993667603 5.67189311981201 5.0604829788208 4.72678184509277 5.7764458656311 5.15617704391479 4.23050880432129 4.17943668365479 4.12325763702393 4.02402973175049 4.06563663482666 6.14937686920166 8.85297393798828 6.72006940841675 4.69804763793945 4.70672225952148 4.20858335494995 3.78426241874695 3.62316918373108 5.72527551651001 5.56780195236206 4.47493934631348 3.73973560333252 3.50827217102051 3.22734832763672 2.96290564537048 2.68781685829163 2.50208473205566 2.28605914115906 9.26804637908936 9.21689128875732 11.1466407775879 11.9629306793213
0.761859476566315 0.721356451511383 0.706067383289337 0.668762564659119 0.622583448886871 0.496229290962219 0.193623587489128 0.039118517190218 -0.0600846521556377 -0.158555746078491 -0.254714727401733 -0.356776267290115 -0.464667141437531 -0.577092111110687 -0.670567274093628 -0.777873158454895 -0.886374890804291 -1.03783547878265 -1.20169150829315 -1.34229469299316 -1.43009793758392 -1.49909460544586 -1.56456005573273 -1.62249493598938 -0.419639319181442 1.42586278915405 1.18904030323029 0.788625299930573 0.721639633178711 0.588550388813019 0.182222008705139 -0.242689624428749 -0.540905356407166 -0.776438355445862 -1.03426814079285 -1.6805864572525 -2.10789346694946 -0.481243818998337 4.20756196975708 2.44606328010559 1.99685680866241 1.54741454124451 1.29609000682831 1.19249975681305 1.07976770401001 0.807802021503448 0.916472315788269 0.813061118125916 0.72887396812439 0.654298424720764 0.462046593427658 0.39446222782135 0.326073169708252 0.21162648499012 0.0876433104276657 -0.0536770597100258 -0.0332356952130795 -0.106150083243847 -0.16093972325325 -0.238966882228851 -0.381062209606171 -0.527207791805267 4.50118255615234 7.17547607421875 5.09239482879639 0.119999416172504 -0.0697362199425697 -0.0758336335420609 -0.188570931553841 -0.276903748512268 -0.376622200012207 1.23001003265381 4.60749626159668 4.0317907333374 2.80291485786438 2.40193319320679 1.87654411792755 1.55989634990692 0.971884250640869 0.783630311489105 0.364612460136414 0.21142789721489 0.07485331594944 -0.0609708949923515 -0.193228900432587 -0.311024397611618 -0.459238529205322 -0.61042982339859 -0.762605130672455 -0.889122307300568 7.03173351287842 3.45434308052063 -1.07852864265442 -1.08277785778046 1.21501779556274 2.80103993415833 5.90782356262207 14.4126577377319 12.7837028503418 6.51841926574707 3.268963098526 -1.00877153873444 -1.62846851348877 -2.12400436401367 -2.29258561134338 0.437342166900635 3.71763706207275 1.3459689617157 0.293202668428421 2.593998670578 3.66014719009399 3.45319986343384 2.68284797668457 1.35128855705261 0.75872802734375 0.925736725330353 0.730610430240631 0.681052088737488 0.637713015079498 0.238943636417389 -0.280604690313339 -0.902782797813416 2.32350325584412 8.22549915313721 18.7603569030762 18.6025009155273 13.4108943939209 9.75858497619629 7.69492101669312 6.52849817276001 5.57317352294922 5.9604754447937 8.48015785217285 10.415153503418 10.6213226318359 9.82621669769287 8.16144371032715 7.11936569213867 6.78712558746338 6.11408758163452 5.38178539276123 4.929931640625 4.67265176773071 4.27764987945557 3.79495811462402 3.76851558685303 9.77906608581543 7.16832208633423 3.91329050064087 3.88530278205872 10.3566370010376 8.0716552734375 5.74840021133423 4.91172075271606 4.22157621383667 3.84127950668335 3.6469144821167 3.61576986312866 3.65551376342773 3.45734453201294 3.45694041252136 3.35906338691711 3.18631410598755 2.91120624542236 2.49770379066467 2.25398993492126 2.0439932346344 3.92862153053284 8.68819046020508 13.7169790267944 16.4159297943115
0.716312646865845 0.698439955711365 0.681177973747253 0.641474068164825 0.606119871139526 0.522187948226929 0.254406362771988 0.00185139267705381 -0.13053634762764 -0.217026054859161 -0.298249542713165 -0.393719345331192 -0.497246593236923 -0.605757117271423 -0.696083307266235 -0.798212826251984 -0.906890749931335 -1.04550838470459 -1.22061312198639 -1.35639536380768 -1.48167169094086 -1.56084442138672 -1.65450501441956 -1.71090531349182 -0.53058123588562 0.909172117710114 1.55139875411987 1.17280507087708 0.749331474304199 0.545258045196533 0.521634459495544 0.390182197093964 -0.297603696584702 -0.614536881446838 -0.857699751853943 -1.26514184474945 -1.83575654029846 -0.62628972530365 2.38438034057617 1.53254747390747 1.57195317745209 1.26397204399109 1.03822922706604 1.00169432163239 0.802965581417084 0.800866782665253 0.643593728542328 0.5095134973526 0.427137166261673 0.231424078345299 0.22994202375412 0.0227630920708179 -0.168429374694824 -0.353133320808411 -0.480754733085632 -0.577932715415955 -0.614891946315765 -0.687529861927032 -0.694892466068268 -0.727382481098175 -0.875636577606201 -1.2091646194458 6.18953323364258 6.47695827484131 8.50565338134766 6.87585163116455 2.22007942199707 1.24146413803101 0.774427592754364 -0.0980615839362144 -0.265681445598602 1.01207411289215 2.16272163391113 3.01726865768433 3.09451103210449 2.57758975028992 2.10931634902954 1.72047460079193 1.41120779514313 1.1028470993042 0.836850464344025 0.445953369140625 -0.0870431959629059 -0.190315023064613 -0.349318563938141 -0.558085441589355 -0.921196341514587 -1.37520241737366 -1.59449911117554 -1.64474952220917 23.1044807434082 16.8339958190918 5.96458339691162 2.87233591079712 1.5865478515625 3.55475282669067 3.80876731872559 16.0003108978271 11.8730602264404 5.62280511856079 1.68618535995483 -1.38021230697632 -1.88973355293274 -2.12922215461731 -2.26055264472961 -2.03789710998535 3.79938292503357 2.1416597366333 1.57054173946381 4.57429695129395 3.55380034446716 3.67054224014282 2.6657395362854 1.73320472240448 1.00645613670349 0.547084867954254 1.23003733158112 0.687861740589142 0.465188324451447 0.133110210299492 -0.434996873140335 -0.918537378311157 -0.947278082370758 5.2404580116272 18.433629989624 21.2056846618652 17.9715404510498 12.843677520752 10.8281126022339 9.03236103057861 8.05518627166748 7.0329532623291 7.77212762832642 9.30545997619629 10.6194705963135 9.69443988800049 8.12533855438232 7.07910060882568 6.88760948181152 6.39013528823853 5.7693190574646 4.9557991027832 4.53784465789795 4.20290851593018 3.6842725276947 3.60627055168152 7.4678168296814 9.35964870452881 6.38828229904175 5.20751428604126 6.87222957611084 6.6410059928894 6.44014978408813 5.18493986129761 4.31253004074097 3.83456182479858 3.68996787071228 3.57815408706665 3.4782657623291 3.39001941680908 3.34827089309692 3.27101612091064 3.14448046684265 2.94054484367371 2.6243212223053 2.29028701782227 1.91170167922974 1.65334582328796 7.85263395309448 13.7855978012085 16.077808380127
0.697191119194031 0.690554738044739 0.675875842571259 0.633194029331207 0.588707625865936 0.496847629547119 0.260103195905685 -0.0269145462661982 -0.162519335746765 -0.255258440971375 -0.331066966056824 -0.410572052001953 -0.521065652370453 -0.65050220489502 -0.726544141769409 -0.817960798740387 -0.939241349697113 -1.06454718112946 -1.20573377609253 -1.36927247047424 -1.52814269065857 -1.61785447597504 -1.70970153808594 -1.78501760959625 -1.46240830421448 0.65769100189209 2.03550958633423 1.91463601589203 1.24390983581543 0.449649453163147 0.770876944065094 0.530847609043121 0.167434632778168 -0.273741841316223 -0.598503291606903 -0.880490005016327 -1.32319641113281 -0.928865313529968 -0.349318861961365 0.512050092220306 0.85047847032547 0.677609205245972 0.603263676166534 0.494298040866852 0.511241912841797 0.472085267305374 0.271393597126007 0.145924597978592 0.0375196859240532 -0.113642364740372 -0.453982710838318 -0.638504505157471 -0.806058764457703 -0.953133165836334 -1.08073770999908 -1.09800696372986 -1.11667191982269 -0.447504907846451 -1.17955613136292 -1.30595219135284 -1.3879234790802 -1.55327963829041 0.831503510475159 4.92274475097656 5.65734767913818 9.74464988708496 9.95546627044678 5.43221569061279 3.16876697540283 2.22943735122681 1.26050353050232 1.74563848972321 2.2692768573761 2.08468317985535 1.95581150054932 1.69807398319244 1.41814196109772 1.12917077541351 1.28270518779755 0.928200721740723 0.383482664823532 -0.093281090259552 -0.346582889556885 -0.558333992958069 -0.834604799747467 -1.04867172241211 -1.65217673778534 -1.97531473636627 -2.05526876449585 1.15955317020416 7.4078049659729 22.6978206634521 17.7837677001953 11.0156745910645 7.35415029525757 7.01753282546997 7.08070707321167 12.4926195144653 7.54850053787231 5.04942274093628 -0.159095391631126 -1.66025388240814 -1.92299222946167 -2.12669134140015 -2.24373912811279 1.38770496845245 3.20117115974426 2.18035912513733 3.85541558265686 5.69067811965942 4.59555244445801 3.4672577381134 2.37256574630737 1.58483111858368 1.16531682014465 0.599451839923859 0.67576402425766 0.509256422519684 0.236134007573128 -0.204924553632736 -0.477723956108093 -0.800033926963806 -0.909968912601471 3.03171110153198 14.4072504043579 20.6810932159424 20.6288375854492 15.2565097808838 13.5760231018066 11.9824266433716 10.5819301605225 8.9615421295166 8.49173545837402 8.32803630828857 11.369647026062 9.63372707366943 7.48250389099121 6.78659629821777 6.41931247711182 5.94612073898315 5.42472219467163 4.95417213439941 4.38437652587891 4.12172794342041 3.78694868087769 3.56919169425964 3.90121078491211 7.9403133392334 7.89620161056519 7.04178094863892 6.57616519927979 6.3042631149292 5.66035079956055 4.70337200164795 4.16954278945923 3.75540232658386 3.6834762096405 3.57373714447021 3.46774435043335 3.36808586120605 3.26436901092529 3.19715070724487 3.10797929763794 2.94830799102783 2.73662161827087 2.49131560325623 2.14607667922974 1.63505530357361 5.62303972244263 11.9236135482788 13.8557462692261
0.687483847141266 0.673928260803223 0.658257782459259 0.615153789520264 0.558776080608368 0.464798182249069 0.25637349486351 -0.0510113686323166 -0.19333079457283 -0.304772913455963 -0.400870829820633 -0.473470687866211 -0.58354789018631 -0.666768252849579 -0.741049110889435 -0.832462191581726 -0.952684104442596 -1.08044183254242 -1.22085881233215 -1.39416491985321 -1.55289804935455 -1.67960560321808 -1.7709527015686 -1.8474143743515 -1.90862417221069 -0.373783618211746 1.78043949604034 2.70881366729736 2.05169010162354 0.831612765789032 0.824346959590912 0.399853736162186 0.941211044788361 0.170330762863159 -0.380259960889816 -0.726104259490967 -1.1016697883606 0.111577831208706 0.568977057933807 0.427582383155823 0.149287104606628 -0.060180775821209 -0.180919393897057 -0.233909353613853 -0.0182652771472931 -0.157283753156662 -0.336240291595459 -0.473863750696182 -0.491542458534241 -0.84815502166748 -1.05102598667145 -1.13790094852448 -1.27700471878052 -1.49420559406281 -1.58519351482391 -1.72451305389404 -0.695415735244751 -1.14750957489014 -1.87611019611359 -2.05180597305298 -1.70851600170135 -1.73244106769562 1.2980055809021 3.78763222694397 4.40564775466919 6.3859076499939 12.6408720016479 11.688648223877 7.13578987121582 4.21731090545654 3.47416687011719 2.86967706680298 3.38026762008667 1.88434326648712 1.28087389469147 1.11886322498322 0.903544008731842 0.672524213790894 0.536409616470337 -0.107125051319599 -0.329745292663574 -0.423567324876785 -0.579900979995728 -0.925850808620453 -1.17379570007324 -1.56981027126312 -2.08470988273621 -2.26526427268982 -2.20781707763672 1.85052883625031 3.14190316200256 11.4924077987671 20.8370380401611 17.8734722137451 11.5462999343872 10.5661144256592 10.2978096008301 9.70052146911621 6.49190616607666 5.42139434814453 2.57881474494934 -1.79430174827576 -2.00261259078979 -2.1833336353302 -2.23559951782227 4.59131765365601 4.1919641494751 3.42478394508362 5.32608699798584 4.96277570724487 4.7086386680603 2.63710260391235 1.90906190872192 1.8945677280426 1.4577317237854 1.0163459777832 0.735977411270142 0.405547320842743 0.200718998908997 -0.0797776132822037 -0.315507292747498 -0.413455843925476 -0.582152724266052 1.79354071617126 8.5539083480835 20.3455257415771 22.6579322814941 16.4054622650146 14.4188766479492 13.5070991516113 12.2909317016602 11.0703296661377 10.3678245544434 9.83603477478027 9.57681274414062 8.40499019622803 7.84937238693237 7.53374147415161 7.13274145126343 6.63242721557617 5.7514796257019 5.0576434135437 4.32660293579102 4.17369318008423 3.98734903335571 3.7899169921875 3.72365474700928 5.2910361289978 7.39907312393188 7.69081592559814 6.77957582473755 5.95795774459839 5.06445550918579 4.85294818878174 4.26541328430176 3.80720090866089 3.56678700447083 3.45011925697327 3.33320045471191 3.27227354049683 3.21508026123047 3.15597438812256 3.11293864250183 3.01510310173035 2.82656621932983 2.65894675254822 2.4375536441803 1.8733959197998 1.68742501735687 10.7344741821289 11.3402080535889
0.723600149154663 0.665133595466614 0.647451758384705 0.577545285224915 0.494229465723038 0.380815416574478 0.190708696842194 -0.0776240825653076 -0.244756102561951 -0.362609267234802 -0.470710039138794 -0.563611328601837 -0.654406487941742 -0.715713977813721 -0.781690418720245 -0.86208438873291 -0.978253364562988 -1.10027241706848 -1.2300341129303 -1.41263616085052 -1.57656860351562 -1.75317358970642 -1.84708595275879 -1.90565156936646 -1.99080848693848 -0.696112275123596 0.706601858139038 1.51193475723267 2.22211170196533 2.59833383560181 1.84442889690399 0.572755575180054 0.570527791976929 0.399149805307388 -0.2520352602005 -0.44091609120369 -0.715737521648407 -0.563199281692505 0.260337710380554 0.00741075538098812 -0.456446677446365 -0.538078844547272 -0.656620264053345 -0.745369672775269 -0.908412456512451 -1.15241956710815 -1.34667599201202 -1.14876580238342 -1.20300781726837 -1.46696293354034 -1.60816776752472 -1.72721982002258 -1.93683183193207 -2.15747833251953 -2.30295515060425 -2.35957765579224 -2.41217803955078 -0.60655277967453 -2.38320755958557 -2.51289534568787 -2.59409976005554 -2.66254091262817 -1.17618453502655 13.3175230026245 9.91092014312744 7.1081223487854 6.17863750457764 13.7043180465698 12.1447906494141 7.79850912094116 5.50293207168579 4.73594188690186 4.2543888092041 3.12031960487366 2.70765733718872 2.20677852630615 1.6917097568512 1.3569461107254 0.460025787353516 -0.483146160840988 -0.700762271881104 -0.766709089279175 -0.878286898136139 -1.12064397335052 -1.39645612239838 -1.80042970180511 -2.24237132072449 -2.42558407783508 -0.790530562400818 2.52673292160034 4.55841541290283 8.19688892364502 17.0199432373047 16.6706390380859 14.8243236541748 12.5972414016724 11.9115896224976 10.6354694366455 8.91218566894531 6.65406274795532 4.32499265670776 0.996382832527161 -1.18505787849426 -1.77056384086609 1.13265299797058 4.29196786880493 3.72744464874268 3.38252186775208 7.15718698501587 5.81913328170776 3.96920228004456 2.42945647239685 1.91365349292755 1.48655533790588 1.06325626373291 0.943930447101593 0.722592532634735 0.644168734550476 0.303891390562057 0.170732513070107 -0.0142166689038277 -0.137617036700249 -0.215689525008202 -0.178657338023186 8.06261539459229 18.014232635498 21.5860118865967 17.6068019866943 15.8272180557251 14.3952379226685 13.3797302246094 12.6129398345947 11.5902900695801 10.8535671234131 10.2272815704346 9.43031215667725 8.81228637695312 8.30352783203125 7.85431241989136 7.30311822891235 6.33175945281982 5.49129152297974 4.79434299468994 4.64788675308228 7.06297540664673 4.37730598449707 4.1360650062561 4.00419473648071 5.83618116378784 7.15965175628662 6.13631391525269 4.80694580078125 3.90996336936951 4.05122423171997 3.52918219566345 3.45311665534973 3.37892985343933 3.3066520690918 3.23499655723572 3.16919946670532 3.07785296440125 3.00683999061584 2.97007632255554 2.94830894470215 2.90643286705017 2.80640912055969 2.66615128517151 2.31226444244385 1.90558624267578 5.5789852142334 9.41363430023193
0.756587445735931 0.696700096130371 0.675334095954895 0.560775578022003 0.416706025600433 0.249493896961212 0.0885571464896202 -0.132174402475357 -0.307797431945801 -0.413323193788528 -0.573105037212372 -0.654550909996033 -0.694837391376495 -0.767138779163361 -0.820635735988617 -0.891065239906311 -0.992863118648529 -1.11559116840363 -1.2554224729538 -1.41759967803955 -1.62747192382812 -1.78770267963409 -1.89031064510345 -1.95772159099579 -2.04833841323853 -1.87064290046692 0.175289422273636 0.0983682870864868 1.46093392372131 4.24336194992065 2.94623899459839 0.702155470848083 0.453265011310577 0.347096621990204 -0.0870692804455757 -0.404395401477814 -0.506235063076019 -0.643868505954742 -0.710521817207336 -0.793066263198853 -0.836362063884735 -0.959822714328766 -1.05224990844727 -1.09528458118439 -1.22107231616974 -1.32787394523621 -1.46190690994263 -1.52694237232208 -1.58416032791138 -1.72567546367645 -1.90370285511017 -2.05994820594788 -2.25074195861816 -2.48573756217957 -2.63795113563538 -2.68122482299805 -2.87594604492188 3.05617594718933 1.05883193016052 -1.90511167049408 -2.65370559692383 -2.89882254600525 -3.01181864738464 5.57105588912964 15.6084308624268 12.4445886611938 8.8757381439209 12.1998090744019 14.3231801986694 11.5600938796997 6.86230611801147 5.97679615020752 5.53268909454346 5.06818962097168 3.7814474105835 3.35154294967651 2.38680505752563 0.979484856128693 0.0398344621062279 -0.833103477954865 -1.10105490684509 -1.25056254863739 0.343909561634064 -1.44329369068146 -1.59622359275818 -1.96596825122833 -2.37179350852966 -2.50519180297852 -2.55984401702881 4.39383316040039 5.87900686264038 7.21374368667603 15.1508188247681 16.954797744751 15.232533454895 13.6053514480591 12.5858011245728 10.9568214416504 9.26239395141602 7.24532413482666 4.69903612136841 1.41084766387939 0.152320772409439 -0.458106338977814 1.70057272911072 6.0764741897583 4.81688022613525 4.03466367721558 4.85558986663818 5.53606081008911 4.73890399932861 2.72152376174927 1.99184513092041 1.45536255836487 1.14565372467041 2.72049450874329 1.47305643558502 0.781934142112732 0.347856014966965 0.195465937256813 0.113192848861217 0.147797003388405 0.61862188577652 0.748965859413147 4.78714656829834 15.6092920303345 19.7995853424072 17.5547657012939 16.0932674407959 14.6014652252197 13.7742538452148 13.380880355835 12.4939699172974 11.5378561019897 10.6814994812012 9.95358753204346 9.31996917724609 8.68827056884766 8.14815425872803 7.63092613220215 6.88206768035889 5.95986080169678 5.33916425704956 5.15487241744995 5.10519409179688 5.4687066078186 5.17139673233032 4.54803895950317 4.35998106002808 4.58857345581055 4.24892473220825 3.85736107826233 3.70668983459473 3.51801681518555 3.40148401260376 3.28157782554626 3.23404693603516 3.15193033218384 3.07212901115417 2.97617506980896 2.90915966033936 2.8693482875824 2.81685209274292 2.84532809257507 2.86913323402405 2.81227588653564 2.75133013725281 2.59072709083557 2.15121054649353 2.10488986968994 7.04895639419556
0.763776659965515 0.725579440593719 0.703806340694427 0.555259644985199 0.339198738336563 0.116385690867901 -0.0736296698451042 -0.24148516356945 -0.367161244153976 -0.518596053123474 -0.644070029258728 -0.729047536849976 -0.750673532485962 -0.785046100616455 -0.851664364337921 -0.915596485137939 -1.01426887512207 -1.1388612985611 -1.28816533088684 -1.4432133436203 -1.62924993038177 -1.81205093860626 -1.9344037771225 -2.00889301300049 -2.13948893547058 -1.99642097949982 0.138816490769386 -0.141589537262917 1.42958974838257 2.92167377471924 2.6936571598053 1.48188889026642 0.495957374572754 0.0316112078726292 -0.164432525634766 -0.670438528060913 -0.774481296539307 -0.770835936069489 -0.90155154466629 -1.03781759738922 -1.07213616371155 -1.17836928367615 -1.37616646289825 -1.42966604232788 -1.47786462306976 -1.61984741687775 -1.9051570892334 -1.92552769184113 -2.01637530326843 -2.09156656265259 -2.29443955421448 -2.43495035171509 -2.58756184577942 -2.78655290603638 -2.94075345993042 -3.09057998657227 -2.95468592643738 3.84363651275635 1.27327907085419 -2.19837808609009 -0.304568916559219 -1.81293284893036 -3.09262251853943 -3.06369519233704 18.1532287597656 14.2259292602539 7.1049747467041 12.0910034179688 17.8814029693604 14.5489292144775 9.76034641265869 7.90089750289917 6.99637985229492 6.49066638946533 4.56540393829346 3.14157915115356 2.24725723266602 1.07657873630524 -0.316771000623703 -0.705082297325134 -1.11520493030548 -1.21878123283386 -1.20423090457916 -1.55724942684174 -1.75940239429474 -2.12820625305176 -2.49988794326782 -2.58143877983093 -1.21534550189972 4.43693447113037 6.81478214263916 10.5637445449829 13.0513029098511 14.5295124053955 14.462345123291 13.824146270752 12.4526853561401 10.7237911224365 9.0881872177124 7.09317207336426 4.66619205474854 1.869500041008 0.642102897167206 0.074030227959156 2.55372714996338 6.38566493988037 5.12422180175781 4.70210838317871 4.26766920089722 6.51239824295044 4.38761329650879 3.34724187850952 2.31698513031006 1.61613619327545 1.16542756557465 3.78828501701355 2.51904320716858 1.12041521072388 0.682617366313934 0.503987550735474 0.421796351671219 2.718177318573 2.51835298538208 2.21441388130188 3.27874898910522 11.0302963256836 17.3842353820801 17.3061866760254 16.1149387359619 15.2066831588745 14.3686637878418 13.5600328445435 12.7629661560059 11.843563079834 10.8910598754883 9.98578357696533 9.29852199554443 8.634521484375 8.11003684997559 7.60566139221191 7.17046642303467 6.39662647247314 5.80154418945312 5.57728290557861 5.37804412841797 5.1431827545166 4.97826719284058 4.84943962097168 4.71696901321411 4.42679882049561 4.21961069107056 4.04383993148804 3.87239336967468 3.57280111312866 3.38027191162109 3.26310515403748 3.16813826560974 3.03926062583923 2.93093824386597 2.83203339576721 2.76481699943542 2.69605803489685 2.64251065254211 2.66367745399475 3.1021876335144 3.00630521774292 2.77995753288269 2.71565866470337 2.40903162956238 2.14323878288269 3.56327843666077
0.734431266784668 0.725868344306946 0.697506427764893 0.52104526758194 0.260348975658417 -0.00132963655050844 -0.198386371135712 -0.322577089071274 -0.455980539321899 -0.586660861968994 -0.698689997196198 -0.784963965415955 -0.832268357276917 -0.581174552440643 -0.879876255989075 -0.953922867774963 -1.06019353866577 -1.18053102493286 -1.32008695602417 -1.45148706436157 -1.61039710044861 -1.79108965396881 -1.95662653446198 -2.04331541061401 -2.19769859313965 -1.4014937877655 -0.202063485980034 -0.34479746222496 1.21676552295685 1.14178812503815 0.975174903869629 1.28866672515869 0.277346134185791 -0.289663642644882 -0.682987749576569 -1.08285439014435 -1.20281398296356 -0.934068560600281 -0.466682851314545 -1.22121679782867 -1.3940486907959 -1.51899540424347 -1.74576592445374 -1.84622204303741 -1.99759221076965 -2.28578734397888 -2.54554057121277 -2.16716837882996 -2.58333468437195 -2.65758299827576 -2.76138734817505 -2.81969738006592 -2.89496755599976 -3.02923083305359 -3.22047829627991 -3.33981537818909 0.302902400493622 0.115266114473343 0.919838190078735 -0.753531336784363 -1.97298049926758 -0.571312725543976 -2.18567895889282 2.00185108184814 10.068811416626 8.88423252105713 8.22471618652344 8.23675155639648 15.0891246795654 11.9371995925903 8.13681793212891 6.47080850601196 14.7467288970947 11.458270072937 6.46475410461426 3.50240993499756 2.58628916740417 2.27901530265808 0.821195065975189 -0.356538653373718 -0.179715350270271 1.46421039104462 0.364003211259842 -1.18574571609497 -1.91376805305481 -2.17036724090576 -2.3794162273407 -2.53877282142639 1.39297473430634 5.18212175369263 7.64525699615479 10.3984823226929 12.8458395004272 13.0750589370728 13.5401201248169 12.8682651519775 11.3109636306763 9.76580619812012 8.48103523254395 6.91616153717041 4.97469711303711 2.54983353614807 1.39968252182007 0.826600909233093 0.775532305240631 4.22485780715942 4.51926612854004 3.67599725723267 2.74069428443909 6.37106657028198 7.24463796615601 3.42226243019104 2.77610230445862 1.92855882644653 1.37561404705048 2.56474280357361 1.96303391456604 1.08071911334991 0.685721516609192 1.61856997013092 2.21324586868286 1.89630031585693 3.0188193321228 3.37742495536804 4.11348915100098 9.03207969665527 13.3072261810303 15.0823488235474 16.6285705566406 15.869927406311 14.5208034515381 13.2906522750854 12.6668968200684 11.62548828125 10.7161750793457 9.86101150512695 9.22744846343994 8.57460498809814 8.01695537567139 7.51302528381348 7.10625982284546 6.57877779006958 6.14880514144897 5.78905153274536 5.47958993911743 5.27279806137085 5.12478065490723 4.96003818511963 4.75166034698486 4.48397159576416 4.26383590698242 4.07743072509766 3.85148143768311 3.65058636665344 3.49096989631653 3.38087892532349 3.28172397613525 3.16338562965393 2.91885089874268 2.81274175643921 2.71485352516174 2.61672115325928 2.56610989570618 2.54930901527405 3.82282948493958 3.85614728927612 3.39131188392639 3.29377555847168 2.95376539230347 2.56791853904724 2.30644059181213
0.65412575006485 0.68449467420578 0.632782578468323 0.450891554355621 0.187497809529305 -0.124767996370792 -0.299337863922119 -0.420166313648224 -0.516272127628326 -0.627157151699066 -0.729742348194122 -0.839618682861328 -0.883789956569672 -0.912890017032623 -0.93824976682663 -0.99723345041275 -1.09364902973175 -1.21531736850739 -1.34469640254974 -1.46126878261566 -1.61311662197113 -1.79029178619385 -1.93523335456848 -2.08649706840515 -2.19309210777283 -1.10146450996399 -1.52060306072235 -1.23538100719452 0.60395759344101 0.58079206943512 0.287521243095398 -0.0703782364726067 -0.509374141693115 -0.996164560317993 -1.27488148212433 -1.42955815792084 -1.50294017791748 -0.537110328674316 -1.3317836523056 -1.79665946960449 -2.03167939186096 -2.2131028175354 -2.32532715797424 -2.37804770469666 -2.61091828346252 -2.87264132499695 -3.07352566719055 -2.97062587738037 -3.08552050590515 -2.6354398727417 -3.18556690216064 -3.21484804153442 -2.86407852172852 -2.93512153625488 -3.37323760986328 -2.80074024200439 -0.656625628471375 0.88364714384079 0.880888402462006 -0.0682335570454597 -1.42991423606873 -1.4232006072998 1.54106533527374 2.34123229980469 3.73842167854309 4.84118604660034 5.79186201095581 4.72836351394653 4.93291425704956 12.5207681655884 4.35928201675415 3.97019934654236 13.5800867080688 28.0864582061768 16.2680511474609 4.39158391952515 3.52462863922119 3.17125058174133 2.52369403839111 1.61819338798523 0.697386026382446 3.78940033912659 2.10557174682617 -0.333571195602417 -1.80056810379028 -2.0328061580658 -2.16344523429871 -2.40900683403015 2.17786288261414 7.06391716003418 7.65236902236938 9.13136768341064 10.9088563919067 12.1307420730591 11.9874954223633 11.0748538970947 9.84309196472168 8.97011566162109 8.07756996154785 6.74638032913208 5.19031620025635 3.35096168518066 2.14979910850525 1.54425811767578 1.29784119129181 1.08477437496185 2.59603190422058 2.44412279129028 1.5749294757843 6.07042264938354 8.01196193695068 4.74439573287964 2.60055160522461 1.83491945266724 1.37978529930115 2.34865117073059 2.81720232963562 2.36464047431946 1.30862760543823 1.09887194633484 1.3321658372879 4.63952541351318 4.96866655349731 4.63599872589111 5.00452423095703 6.58948993682861 10.2588129043579 13.1261329650879 16.3073444366455 15.3451366424561 13.4949502944946 12.3994922637939 12.0116672515869 11.0039196014404 10.0535125732422 9.3516263961792 8.9812479019165 8.34971237182617 7.7772855758667 7.22277927398682 6.9466118812561 6.51670169830322 6.00979948043823 5.59316492080688 5.38681650161743 5.26348257064819 5.00279998779297 4.72465944290161 4.55899620056152 4.37410688400269 4.15278100967407 3.93811798095703 3.71033430099487 3.5849940776825 3.49774885177612 3.35333204269409 3.29230332374573 3.19808888435364 3.03746914863586 2.9341869354248 2.87454342842102 2.8022084236145 2.61243796348572 2.69187164306641 3.48864102363586 3.68164205551147 3.98501396179199 3.67051529884338 3.34535479545593 3.00381326675415 2.68319392204285
0.557116687297821 0.536138892173767 0.494300872087479 0.351667046546936 0.0776188597083092 -0.205482229590416 -0.407924830913544 -0.502449870109558 -0.588725924491882 -0.682442724704742 -0.783522605895996 -0.889021039009094 -0.952310740947723 -0.989859700202942 -1.02320551872253 -1.07099497318268 -1.14117693901062 -1.25412893295288 -1.36717176437378 -1.47390651702881 -1.59428250789642 -1.77106809616089 -1.94515013694763 -2.08616781234741 -2.19865155220032 -1.34696567058563 -2.27619934082031 -2.03786969184875 1.92224991321564 1.06255996227264 -0.592101275920868 -1.12717962265015 -1.4270966053009 -1.62528562545776 -1.78458535671234 -1.93120002746582 -2.1377055644989 -2.3011782169342 -2.37120342254639 -2.57284379005432 -2.90854692459106 -3.12807559967041 -1.50530052185059 -2.44631552696228 -3.25702142715454 -3.38298940658569 -3.4471127986908 -3.46681833267212 -2.54530191421509 -1.79217600822449 -2.39917612075806 -3.50804877281189 -1.71059060096741 -2.10962915420532 -2.86421489715576 -0.240885689854622 -0.119282253086567 0.86570155620575 0.115334421396255 -1.78152430057526 -2.24394631385803 1.79283106327057 3.70335364341736 2.56775569915771 0.460481435060501 2.20206093788147 2.96242451667786 0.829673409461975 4.69497203826904 14.27015209198 10.3096895217896 3.64806604385376 9.59326076507568 19.5922832489014 18.4006977081299 9.51137256622314 5.89846086502075 4.83534240722656 4.13436222076416 3.49972486495972 2.39113092422485 2.32844567298889 3.38259053230286 0.535643577575684 -0.626025438308716 -1.30265700817108 -1.40882408618927 -1.46055138111115 2.7455723285675 9.03373241424561 6.8576602935791 6.52164077758789 8.33695697784424 9.74754238128662 16.717248916626 11.2124929428101 8.41581439971924 7.97231340408325 7.14117670059204 6.27409505844116 5.40395402908325 3.62356042861938 2.33696413040161 1.84888231754303 1.53347134590149 1.38016402721405 1.91643714904785 1.47242212295532 1.18091511726379 6.5408763885498 6.04568910598755 5.63863039016724 3.00234913825989 1.43776547908783 1.24249839782715 3.65274620056152 4.19673299789429 4.0926194190979 2.09954333305359 1.2651743888855 2.31706619262695 6.72062206268311 5.58770799636841 4.37768220901489 3.74109363555908 7.29074335098267 9.60141563415527 13.5974588394165 13.8257904052734 14.6796636581421 12.947904586792 11.7967576980591 11.0173540115356 10.1356525421143 9.14261245727539 8.66242027282715 8.40755081176758 7.79496812820435 7.27122926712036 6.75048494338989 6.508376121521 6.10940980911255 5.44018888473511 4.9441704750061 4.73502969741821 4.91624593734741 4.66844701766968 4.42016410827637 4.21381044387817 4.09369087219238 3.88649582862854 3.6962513923645 3.50828862190247 3.44901704788208 3.29943180084229 3.16586875915527 3.11226367950439 3.06273412704468 3.02407884597778 2.94745898246765 2.94212675094604 2.92319178581238 2.82972955703735 2.88438129425049 2.8398232460022 3.55153942108154 3.43173980712891 3.28516554832458 3.14975190162659 2.93356871604919 2.90056538581848
0.447871655225754 0.386337339878082 0.459252089262009 0.253357946872711 -0.040495578199625 -0.307565599679947 -0.483108580112457 -0.595519065856934 -0.668531894683838 -0.751554369926453 -0.846280515193939 -0.929639339447021 -0.994038045406342 -1.05533516407013 -1.09944808483124 -1.13231718540192 -1.17817854881287 -1.27065944671631 -1.3780632019043 -1.48850452899933 -1.60469448566437 -1.75341820716858 -1.9733567237854 -2.10604739189148 -2.17538475990295 -2.23382878303528 -2.27743601799011 -1.74441027641296 0.298995643854141 -0.469605982303619 -1.26817846298218 -1.73936808109283 -2.17913627624512 -2.46077966690063 -2.73991107940674 -2.88635420799255 -2.99643874168396 -2.97591185569763 -3.17414784431458 -3.37171792984009 -3.59960198402405 -3.76168012619019 0.921832084655762 0.229124307632446 -1.4305180311203 -2.52888703346252 -3.08777713775635 -3.3086040019989 -2.4552059173584 -1.6934210062027 -2.0693027973175 -3.1234757900238 -2.88495349884033 -2.54620170593262 0.734532952308655 0.437355846166611 0.31724539399147 -0.53243887424469 -2.47334289550781 -3.10071444511414 -3.27310919761658 -1.61130845546722 10.4098205566406 7.37596607208252 1.59113419055939 -0.618642210960388 2.58800029754639 3.44835448265076 7.47031497955322 8.50934028625488 7.87853145599365 6.18075704574585 8.81632041931152 13.4709701538086 19.8442440032959 13.5928258895874 8.17576789855957 6.60923290252686 5.41019773483276 3.88519740104675 3.53367233276367 3.23336744308472 2.88811087608337 1.45229136943817 0.116622187197208 -0.556927800178528 -0.708344578742981 0.864144623279572 1.78980147838593 10.6317167282104 7.08645153045654 5.0518913269043 4.74003028869629 8.6480073928833 20.0584354400635 13.3064498901367 8.27476787567139 7.33314657211304 6.44544363021851 5.78526878356934 5.14917469024658 3.57417297363281 2.12557244300842 1.7177642583847 1.59933245182037 1.5605480670929 1.47750794887543 1.35677123069763 1.28087687492371 5.13862657546997 4.94599866867065 7.05996179580688 4.5955605506897 2.59597730636597 2.40122485160828 4.27512359619141 4.66869020462036 4.17055606842041 2.68691062927246 1.64422607421875 1.74384582042694 5.69154357910156 6.83585548400879 5.37062311172485 4.92072343826294 6.64979600906372 8.28078174591064 11.6787443161011 13.4444580078125 13.3435335159302 12.4450225830078 11.4123640060425 10.2157421112061 9.33178806304932 8.40397262573242 7.93696975708008 7.63513231277466 7.06155633926392 6.54554176330566 6.07780504226685 6.02142524719238 5.54861974716187 4.70297193527222 4.25434827804565 4.12704658508301 4.28482532501221 4.13782835006714 3.96352386474609 3.80484580993652 3.80577039718628 3.63377475738525 3.46930384635925 3.30761003494263 3.1866672039032 3.06556129455566 2.92105984687805 2.82288408279419 2.77335715293884 2.87974214553833 2.829176902771 2.80850672721863 3.93645310401917 3.60017371177673 3.26160335540771 3.11469101905823 2.89064025878906 2.87780046463013 2.82175755500793 2.79317092895508 2.70059013366699 2.92213940620422
0.360274076461792 0.969002187252045 1.57792103290558 0.746791064739227 -0.170811653137207 -0.421552181243896 -0.556980013847351 -0.655402421951294 -0.736844658851624 -0.814449369907379 -0.900422036647797 -0.961275279521942 -1.0263295173645 -1.12517476081848 -1.15822172164917 -0.734491944313049 -1.21709275245667 -1.30976271629333 -1.41487419605255 -1.53028178215027 -1.62575483322144 -1.7671172618866 -1.95517611503601 -2.10088396072388 -2.17011976242065 -2.24089455604553 -2.3119969367981 -2.3557755947113 -1.90036308765411 -1.95416498184204 -2.47344207763672 -2.56849789619446 -2.71354103088379 -2.92811822891235 -3.08209443092346 -3.20902538299561 -3.30814719200134 -2.06089901924133 -3.47496795654297 -3.7039737701416 -3.92424464225769 -4.04625511169434 0.405487895011902 0.809378206729889 0.167571380734444 -0.600501894950867 -1.24141120910645 -2.20933103561401 -2.14400601387024 -2.43292546272278 -3.30502319335938 -1.69350290298462 -2.06722927093506 -1.66011822223663 1.68878042697906 1.27860403060913 0.180644243955612 -1.85671603679657 -2.43031525611877 -2.62256097793579 -2.64170789718628 -3.01863384246826 6.02049398422241 7.04333209991455 4.38561725616455 1.79982137680054 3.39428853988647 4.90077686309814 5.39409065246582 5.52149868011475 5.47449207305908 7.28058195114136 9.2728099822998 13.3295526504517 16.2732639312744 14.7515058517456 9.78515434265137 7.87944412231445 6.5643835067749 5.44464159011841 3.48733758926392 3.06836891174316 2.68985533714294 1.60833394527435 0.093896672129631 -0.224847137928009 -0.342563897371292 0.997325420379639 3.46819877624512 9.88834381103516 6.83637046813965 4.66488838195801 4.22594165802002 9.10904788970947 20.2998065948486 14.5556859970093 10.1936225891113 8.19679164886475 6.94813346862793 5.91560173034668 4.78839492797852 3.47726130485535 2.06846928596497 1.50465846061707 1.65205812454224 1.61790418624878 1.52373564243317 1.31223738193512 1.52793347835541 4.16113328933716 4.27995824813843 6.78059768676758 6.15761423110962 3.88787651062012 3.6700427532196 3.56957602500916 4.26432991027832 2.74175882339478 2.24951553344727 1.84877049922943 1.83584082126617 9.07676219940186 7.53098058700562 7.03123569488525 6.08255243301392 7.56816673278809 9.80308055877686 11.4686679840088 12.5864820480347 12.3053092956543 11.2023506164551 10.2099342346191 9.67787551879883 8.95888328552246 8.0919132232666 7.29671812057495 6.79196262359619 6.2893705368042 5.85760259628296 5.58768844604492 5.38899517059326 4.81755065917969 4.03998804092407 3.47076487541199 3.36772298812866 3.53497576713562 3.44008302688599 3.39732980728149 3.38245892524719 3.39780950546265 3.19873952865601 3.0545060634613 2.93020343780518 2.89363145828247 2.91445851325989 2.75558638572693 2.62702965736389 2.5283989906311 2.58822846412659 3.37879729270935 2.73025321960449 2.9199435710907 5.22151947021484 4.77012157440186 3.80724406242371 3.10959005355835 2.96411299705505 2.9349148273468 2.85987973213196 3.49393534660339 4.70988368988037
3.9511091709137 3.59339761734009 2.63880681991577 1.02792191505432 -0.317128121852875 -0.553520143032074 -0.68830680847168 -0.752819955348969 -0.8159499168396 -0.885733187198639 -0.951808571815491 -1.01515448093414 -1.08140552043915 -1.1548273563385 -1.20281231403351 -0.583974599838257 -1.09928643703461 -1.35194706916809 -1.46729493141174 -1.56238913536072 -1.68408048152924 -1.7913830280304 -1.93202614784241 -2.07249641418457 -2.17658376693726 -2.26376509666443 -2.34803771972656 -2.42456388473511 -2.48945164680481 -2.53710007667542 -2.62747764587402 -2.79526734352112 -3.05839157104492 -3.24348068237305 -3.37146377563477 -3.51788067817688 -3.61101961135864 -2.88612532615662 -3.82511115074158 -4.11793184280396 -4.22651100158691 -2.61313819885254 -0.182529360055923 0.546016097068787 0.179127961397171 0.165180832147598 0.865865468978882 -0.162407800555229 -1.63009011745453 -2.26114797592163 -2.75297284126282 -1.47944521903992 -2.20688962936401 -0.164006054401398 2.17262482643127 1.8586208820343 0.600433588027954 -1.02572774887085 -1.58937656879425 -1.77300953865051 -1.95809864997864 -1.14761877059937 3.12359833717346 5.65880870819092 3.9530975818634 3.53759002685547 4.000403881073 4.46566534042358 3.84878444671631 4.02053880691528 5.85332298278809 8.02739238739014 10.1801452636719 13.8566474914551 13.6278209686279 13.3153114318848 10.6443357467651 8.904541015625 7.53646612167358 6.06356477737427 4.92439556121826 3.76504325866699 3.209317445755 2.23744320869446 0.470202326774597 -0.100940838456154 -0.294803857803345 0.618627190589905 4.2838716506958 9.6389684677124 8.20592212677002 5.36449146270752 4.78163290023804 9.187819480896 15.1638498306274 12.3157501220703 10.2137994766235 8.3140697479248 7.16242361068726 6.13430976867676 4.57946300506592 3.5979688167572 2.31750082969666 1.48595976829529 3.15628504753113 3.19733095169067 4.1280574798584 3.59643697738647 3.718430519104 3.16032958030701 6.13092994689941 7.32519960403442 7.47569370269775 6.58769941329956 5.44512033462524 4.00632905960083 4.08298349380493 3.38799643516541 3.13711285591125 2.59891176223755 5.0010838508606 7.88381242752075 7.67791891098022 8.12186622619629 7.70207977294922 8.3014612197876 10.7974481582642 12.4214277267456 12.2148485183716 11.5412569046021 9.8173999786377 8.80489253997803 8.55962657928467 7.77404546737671 6.91699361801147 6.69622993469238 6.58714914321899 6.06313848495483 5.50750350952148 4.95484399795532 4.36593389511108 4.03548574447632 3.51808881759644 2.97763657569885 2.70265674591064 2.6973090171814 2.7266583442688 3.62055563926697 3.39530944824219 2.89951848983765 2.70766186714172 2.59898972511292 2.56028628349304 2.56144714355469 2.60398483276367 2.46637034416199 2.32253050804138 2.22863340377808 2.29801774024963 3.44476103782654 3.1690456867218 2.87243127822876 5.39609432220459 5.64974546432495 4.76890087127686 3.59216403961182 3.35572981834412 3.24228024482727 3.1098906993866 3.3330557346344 2.90096354484558
2.28800296783447 4.93500232696533 3.67272448539734 1.41495478153229 0.316954374313354 -0.726513683795929 -0.869803905487061 -0.642871379852295 0.860989809036255 -0.609728455543518 -1.01143980026245 -1.0671112537384 -1.1260347366333 -1.18008542060852 -1.21948945522308 -1.14759147167206 -1.27820122241974 -1.3746178150177 -1.48373031616211 -1.57193493843079 -1.7009369134903 -1.8648693561554 -1.95702481269836 -2.06857705116272 -2.16670608520508 -2.2883243560791 -2.4035222530365 -2.49102234840393 -2.58402943611145 -2.69451642036438 -2.90820574760437 -3.12949204444885 -3.46191000938416 -3.62559247016907 -3.71637654304504 -3.83245611190796 -4.02539157867432 -4.15425586700439 -2.16916012763977 -3.16600871086121 -4.2212438583374 -1.68525922298431 -0.778347790241241 -0.0554064773023129 -0.23126894235611 -0.606115698814392 0.564483225345612 0.377840578556061 -0.284133553504944 -1.39072215557098 -1.78790926933289 -2.15153479576111 -2.58614349365234 1.41293430328369 2.40079879760742 1.71927082538605 0.691741585731506 -0.33406075835228 -0.545656383037567 -0.719351649284363 -0.953362882137299 -1.40177750587463 3.43368148803711 3.30352568626404 3.23083329200745 2.95798087120056 3.90262484550476 3.17438435554504 2.93684935569763 3.68390035629272 5.56247663497925 7.6343879699707 9.47632122039795 14.3498773574829 16.9738445281982 14.1205530166626 10.6164855957031 9.14868259429932 7.92916679382324 6.64593172073364 5.87098455429077 4.74173545837402 3.77332973480225 2.96317458152771 1.25300252437592 0.264611601829529 -0.106916375458241 0.0445055030286312 5.34377288818359 8.54073715209961 7.98701906204224 6.56047487258911 6.28281307220459 7.80487823486328 8.52206039428711 9.86743831634521 8.59536552429199 7.48257541656494 6.5450005531311 5.73254537582397 4.96666717529297 3.86359691619873 2.69628214836121 1.84238266944885 4.19809198379517 3.99056148529053 6.73132705688477 6.5833854675293 5.47677946090698 3.37328147888184 7.687575340271 7.10901355743408 8.86089706420898 8.08822345733643 6.35093545913696 5.12612390518188 4.79135847091675 6.64432430267334 6.4212703704834 6.50664806365967 8.07404708862305 8.5123233795166 10.9915761947632 10.2023849487305 9.28043556213379 10.9933748245239 12.4487476348877 12.4796123504639 10.9269561767578 8.88014698028564 7.57388496398926 7.44216108322144 7.07843017578125 6.35719060897827 5.84821844100952 5.99630403518677 5.68622541427612 5.05702972412109 4.49195623397827 3.99742269515991 3.74189925193787 3.43537449836731 3.03964734077454 2.49997329711914 2.290931224823 2.1625874042511 2.15330600738525 2.19875502586365 3.34133315086365 2.75072407722473 2.28446507453918 2.29867076873779 2.22922825813293 2.19284915924072 2.22352910041809 2.08959221839905 2.00467395782471 1.98353517055511 1.99890458583832 2.27102255821228 4.66425085067749 4.17685461044312 4.78166627883911 6.16112470626831 5.02491521835327 4.07312965393066 3.76270437240601 3.45722103118896 3.72672367095947 3.80363988876343 12.0343713760376
-0.741091310977936 5.4937801361084 4.01295757293701 1.28022491931915 0.624171018600464 -0.848686814308167 -1.0933746099472 -0.0700094029307365 3.96643114089966 2.46330523490906 -0.0180453583598137 -1.07024812698364 -1.15384745597839 -1.21111035346985 -1.25252318382263 -1.15002202987671 -1.31345510482788 -1.41253578662872 -1.50915026664734 -1.59685862064362 -1.68845617771149 -1.82810461521149 -1.9804812669754 -2.09450912475586 -2.24215531349182 -2.3651237487793 -2.47491335868835 -2.56943130493164 -2.72569704055786 -2.97558879852295 -3.2122631072998 -3.47669315338135 -3.74267792701721 -3.87943077087402 -4.01393127441406 -3.96968030929565 -4.19295692443848 -3.81602954864502 -2.89629006385803 -2.49984645843506 -1.77498066425323 -0.956028461456299 -0.841473460197449 -0.997257173061371 -0.673589527606964 -0.878238916397095 -0.946059107780457 -0.130893513560295 -0.665968120098114 -1.10093724727631 -1.40729999542236 -1.60290956497192 -0.832104444503784 0.313147395849228 1.85907125473022 1.67367148399353 1.07919251918793 0.448378533124924 1.38161599636078 1.05935084819794 0.35107034444809 0.184679061174393 1.96686792373657 2.15983939170837 2.22529196739197 1.80730819702148 1.51115822792053 0.972393751144409 2.12408947944641 4.22233057022095 3.69411683082581 6.43366289138794 6.38335752487183 16.8705940246582 20.1324806213379 19.526481628418 12.5076713562012 9.70834159851074 8.37370491027832 7.08034181594849 6.25067853927612 5.39175796508789 4.24552202224731 3.27329802513123 2.29034733772278 1.39888203144073 0.647396266460419 0.394840389490128 5.37589263916016 7.74168825149536 7.42245054244995 6.465980052948 6.51212692260742 6.87785816192627 7.70966005325317 7.96093511581421 7.43969678878784 6.35341453552246 5.77553796768188 5.29524517059326 4.81721353530884 4.01054763793945 2.99553823471069 2.16336345672607 5.43736028671265 4.86961317062378 9.77463436126709 7.88656377792358 7.14972591400146 4.15450954437256 8.15138339996338 7.68647527694702 9.40529346466064 7.16235589981079 6.16656160354614 5.61049175262451 7.7660436630249 8.59139347076416 9.92303562164307 10.8499164581299 7.54644012451172 7.81756687164307 9.82354068756104 10.3884248733521 10.1311950683594 9.31854248046875 9.07158088684082 8.12696647644043 7.57202529907227 6.74356126785278 6.48081159591675 6.29706287384033 6.27003955841064 5.79832744598389 5.37519550323486 4.9914288520813 4.76132392883301 4.35661697387695 3.76961326599121 3.25025677680969 2.85363030433655 2.808833360672 2.42880487442017 2.08936262130737 1.79160594940186 1.69283473491669 1.60269355773926 3.82451581954956 4.51190757751465 3.33237504959106 4.18417835235596 2.56385660171509 1.94394969940186 1.88441264629364 1.83827471733093 1.80038666725159 1.79431557655334 1.73567092418671 1.68641817569733 2.12187957763672 4.06891107559204 4.67274522781372 6.15045690536499 6.07954025268555 4.87829256057739 4.28208684921265 3.95185089111328 3.69834113121033 3.69154214859009 9.21710395812988 7.20610666275024
-0.923219442367554 3.79411959648132 2.60803985595703 0.80950516462326 0.306852400302887 -0.779029905796051 -1.11505484580994 -1.28531646728516 2.71036744117737 4.1636061668396 2.62148785591125 0.323071360588074 -0.129069909453392 -0.489471584558487 -0.756995618343353 -1.12567520141602 -1.35965645313263 -1.44659423828125 -1.53964066505432 -1.62906265258789 -1.72037601470947 -1.83834147453308 -2.00224161148071 -2.15964436531067 -2.32813715934753 -2.46689820289612 -2.5964789390564 -2.78457736968994 -3.23551964759827 -3.49110865592957 -3.64121747016907 -3.7543933391571 -3.92294359207153 -4.07098197937012 -4.16444063186646 -2.04834747314453 -1.61111736297607 -2.09500503540039 -2.61983156204224 -1.75060629844666 -0.804543375968933 0.200151056051254 -0.251554250717163 -0.285147041082382 -0.355782061815262 -0.658963680267334 -0.519786179065704 -0.745292603969574 -0.921583950519562 -1.08055031299591 -1.095738530159 -1.2166473865509 0.73955911397934 2.59402585029602 2.76759648323059 2.77858996391296 2.70765781402588 1.54370987415314 1.39808547496796 1.2415988445282 1.04458248615265 0.84587961435318 0.463305085897446 0.0588380098342896 -0.687818169593811 -1.33679008483887 -1.33617985248566 -1.42616593837738 3.60877275466919 6.20630168914795 5.35610961914062 7.44477033615112 7.74565839767456 16.6491107940674 18.6923809051514 21.5176620483398 18.0581150054932 12.7077550888062 10.8379888534546 9.34241390228271 6.95062255859375 5.86853361129761 4.72089624404907 3.70997738838196 2.82571816444397 2.00318312644958 1.35726583003998 0.831169068813324 4.51682233810425 4.51072645187378 6.32141494750977 6.67752027511597 10.179669380188 8.3317813873291 8.85754013061523 8.35103321075439 6.8897647857666 5.9989013671875 5.43310451507568 5.16861438751221 4.80072355270386 4.10580921173096 3.10367274284363 2.38495206832886 3.15748333930969 4.22235774993896 14.2915506362915 10.9062347412109 8.89996147155762 6.54482364654541 5.81007671356201 5.93957233428955 7.99100685119629 6.18525266647339 6.96102666854858 10.388729095459 10.4734010696411 10.6653509140015 10.0613260269165 7.91459274291992 6.44734573364258 6.30343580245972 5.94420528411865 6.62451553344727 6.26063585281372 5.64435720443726 5.31888294219971 5.25730752944946 5.17291688919067 5.28602504730225 5.21600151062012 5.44300842285156 5.0039267539978 4.60052680969238 4.23877811431885 4.13219022750854 4.06782531738281 3.7118809223175 3.15916395187378 2.64619374275208 2.37041807174683 2.26604413986206 1.87806177139282 1.65737104415894 1.44601786136627 1.26061046123505 1.2030473947525 3.57840275764465 5.77801609039307 4.73829460144043 3.51085186004639 3.05644845962524 2.22902822494507 1.80418658256531 1.68917524814606 1.58801925182343 1.53083860874176 1.50314128398895 1.50943839550018 1.59420573711395 2.4076988697052 4.56289482116699 7.35855340957642 7.19739389419556 5.09162902832031 4.42079544067383 4.13484573364258 4.06548166275024 3.85129737854004 4.56335639953613 3.56364870071411
-0.93105673789978 1.00375747680664 -0.286134749650955 -0.992780089378357 0.595748603343964 -0.461683481931686 -1.12236094474792 -1.32492768764496 -0.0495325177907944 4.05328035354614 3.56941509246826 1.55863344669342 1.03081345558167 0.638218641281128 0.075939804315567 -0.504222214221954 -0.924231469631195 -1.12706303596497 -1.50490725040436 -1.61612975597382 -1.70490431785583 -1.84704804420471 -2.03478097915649 -2.25173544883728 -2.41043949127197 -2.56791949272156 -2.82095861434937 -3.15581488609314 -3.48227381706238 -3.68742156028748 -3.84557795524597 -3.98550224304199 -4.07441139221191 -2.38375306129456 -1.59973359107971 -0.517195224761963 -0.666719317436218 -0.990489840507507 -1.31781351566315 -1.71628332138062 0.136849403381348 1.79283106327057 1.02258467674255 0.642135977745056 0.137123495340347 -0.289717525243759 -0.361112475395203 -0.519958972930908 -0.470708400011063 -0.924140214920044 1.13240718841553 0.817763984203339 1.17347991466522 3.81948399543762 3.94954633712769 3.95352745056152 2.51386523246765 1.13979434967041 1.00900208950043 0.924666881561279 0.815676867961884 0.574795246124268 -0.0783237963914871 -1.28620541095734 -2.23799276351929 0.14930759370327 1.99882221221924 1.98790717124939 4.32405185699463 5.63045358657837 4.75089836120605 3.63825654983521 5.07110977172852 20.2662258148193 21.5714111328125 20.5642719268799 21.7273979187012 14.6665182113647 12.7188301086426 10.9798011779785 8.64105129241943 7.07931613922119 6.14444255828857 4.92735481262207 3.31397104263306 2.44973802566528 1.82737553119659 1.41199731826782 3.41677594184875 3.17152428627014 5.73791599273682 8.45559406280518 10.731388092041 9.49610996246338 9.0678825378418 7.50459766387939 6.39897441864014 5.74776601791382 5.20606231689453 4.99586725234985 4.5867018699646 4.01886749267578 3.05885028839111 2.41559886932373 2.56692409515381 8.41466617584229 14.95751953125 13.2221508026123 11.786660194397 9.46688079833984 8.12981700897217 7.41158008575439 7.61260509490967 8.47419166564941 9.10213470458984 9.71461486816406 9.78463649749756 7.72569417953491 6.18854236602783 5.6169376373291 5.31657981872559 5.59137058258057 5.21635437011719 4.86870718002319 4.56909322738647 4.48735237121582 4.59372234344482 4.34068775177002 4.17520189285278 4.10567092895508 4.0113353729248 3.80974507331848 3.59548306465149 3.45626258850098 3.38319873809814 3.13228011131287 3.05262470245361 2.61589646339417 2.2963342666626 2.11570906639099 1.97079002857208 1.87194931507111 1.6616622209549 1.45425605773926 1.26314377784729 1.07802784442902 0.98126220703125 0.970949590206146 4.97171878814697 6.16366291046143 4.8008337020874 2.61099171638489 2.37411189079285 2.14647269248962 1.37611103057861 1.32276976108551 1.29194891452789 1.69555008411407 2.20577096939087 2.1752302646637 1.61326038837433 3.16091537475586 7.07820463180542 8.0808277130127 5.68062782287598 4.30208206176758 4.25441741943359 5.00230407714844 4.08042049407959 3.6131157875061 3.49193525314331
-0.675869047641754 -0.925731241703033 -0.99878591299057 -1.16971135139465 -0.824647426605225 2.14179611206055 -1.07644093036652 -1.2819390296936 -1.36456763744354 3.76559829711914 3.62475299835205 2.1284008026123 1.61326253414154 1.04493260383606 0.435391336679459 -0.0256301071494818 -0.34686353802681 -0.560359597206116 -0.829228937625885 -1.38314831256866 -1.68991923332214 -1.87447214126587 -2.09271502494812 -2.32122302055359 -2.4882504940033 -2.72794795036316 -3.08363437652588 -3.33289003372192 -3.53816342353821 -3.74038219451904 -3.87700653076172 -2.96247887611389 -1.00352537631989 -1.13733661174774 -0.610484302043915 0.409215480089188 0.881573855876923 1.04516983032227 0.367591887712479 -0.30256399512291 -0.197076722979546 0.698285520076752 1.97938704490662 1.34630870819092 0.692860662937164 0.177645280957222 -0.169540345668793 -0.0771196410059929 0.135243758559227 -0.0529433414340019 0.425301522016525 1.24287664890289 2.73083734512329 3.12245535850525 2.97893619537354 2.47878122329712 1.30344474315643 0.222488701343536 0.302330106496811 2.39509868621826 0.909991562366486 -0.132972955703735 -1.20486569404602 -1.763671875 -2.29356694221497 0.974628627300262 2.39678955078125 2.69773244857788 3.06167912483215 4.98571014404297 5.02339696884155 4.36731004714966 3.50320339202881 16.2727088928223 23.1991577148438 22.0185661315918 20.8248424530029 18.0754013061523 15.2743673324585 13.2288331985474 10.3721694946289 8.41677665710449 7.52049493789673 6.31613922119141 4.05743551254272 3.01254487037659 1.84955644607544 1.74774551391602 4.52214384078979 3.98617053031921 5.52082204818726 8.8488130569458 8.80126285552979 9.23297786712646 7.86010694503784 6.58921480178833 5.78255176544189 5.25367069244385 4.77646064758301 4.75621461868286 4.33221435546875 3.87449598312378 3.1308536529541 2.54511189460754 4.81967449188232 10.6974678039551 15.4931058883667 14.7174167633057 13.8067007064819 11.3892993927002 9.69314575195312 8.79616832733154 8.19037055969238 7.91122388839722 7.14852714538574 6.46876859664917 5.9212532043457 5.49531030654907 5.10730123519897 4.79507112503052 4.75146102905273 4.67009019851685 4.31228685379028 4.05513429641724 3.86569333076477 3.96704268455505 3.96076226234436 3.75269436836243 3.56485438346863 3.50377869606018 3.39691925048828 3.3749988079071 3.09660053253174 3.12598037719727 2.9298779964447 2.67463326454163 2.41266322135925 2.14281582832336 1.98572611808777 1.86833941936493 1.78353238105774 1.74363255500793 1.58704900741577 1.37339401245117 1.20755314826965 1.04475426673889 0.883907079696655 0.761086165904999 3.56112122535706 6.61860799789429 5.12080669403076 1.98755645751953 1.37217307090759 4.21923303604126 1.49391555786133 1.08823430538177 3.69587159156799 2.88796496391296 2.25451922416687 2.10215353965759 1.71566104888916 1.64515221118927 3.32684755325317 6.20892095565796 5.84142684936523 3.93733668327332 6.58466577529907 6.03492259979248 4.35072326660156 3.7432758808136 3.58092331886292
-0.0259187445044518 -0.990789711475372 -1.0755136013031 -1.23651397228241 -1.26696133613586 1.94674241542816 1.0492182970047 -0.245803341269493 -1.30178534984589 2.06727004051208 3.05376505851746 2.24162197113037 1.67838788032532 1.11057209968567 0.549220085144043 0.0569167137145996 -0.264585465192795 -0.452469140291214 -0.631307899951935 -0.983363330364227 -1.32607674598694 -1.82902765274048 -2.13134002685547 -2.3691132068634 -2.57204127311707 -2.86804533004761 -3.18681716918945 -3.39301705360413 -3.51823163032532 -3.62007546424866 -3.24463725090027 -2.46551418304443 -0.536303639411926 0.823666930198669 1.12118816375732 0.688256442546844 0.481101095676422 0.423521876335144 -0.122915141284466 -0.909128963947296 -0.792529284954071 -0.500203013420105 2.55323648452759 1.86817300319672 1.33222532272339 0.53853976726532 0.3974489569664 0.463784784078598 0.375764578580856 0.445853888988495 0.374321848154068 0.852836549282074 1.62081956863403 1.69434130191803 1.17490482330322 0.786553919315338 0.443085640668869 0.133618220686913 -0.0284985546022654 1.14330387115479 -0.15890234708786 -0.728513240814209 -1.64853203296661 -2.21449017524719 -2.3361279964447 0.45228573679924 2.30670118331909 3.38903403282166 2.32994031906128 4.41053628921509 6.93914031982422 5.69518232345581 4.25336074829102 6.92855978012085 23.7252750396729 23.8625640869141 21.3871898651123 21.8788356781006 16.4120006561279 14.3747406005859 12.1716499328613 10.1757144927979 9.07488822937012 7.86195230484009 5.28630495071411 4.18633460998535 3.07535719871521 2.45657992362976 4.18257522583008 3.06315350532532 5.29874658584595 7.97630167007446 7.47220277786255 7.55988025665283 6.35339832305908 5.44825267791748 5.16810178756714 4.84975099563599 4.33111476898193 4.24681711196899 3.85611963272095 3.46001839637756 2.91952133178711 2.43269515037537 7.56851577758789 9.18297386169434 17.0425224304199 14.3395166397095 12.3272285461426 10.7572917938232 9.55581855773926 8.41329193115234 8.1300573348999 7.31019592285156 6.67788314819336 6.11548805236816 5.71686553955078 5.41309928894043 5.0186710357666 4.65903663635254 4.44868564605713 4.21632528305054 4.00577926635742 3.81777763366699 3.64309549331665 3.65856289863586 3.50074934959412 3.35751461982727 3.22663426399231 3.32400369644165 3.13891983032227 2.80459046363831 2.51993656158447 2.33806419372559 2.2236053943634 2.08886551856995 1.93305122852325 1.72287929058075 1.6514493227005 1.56085479259491 1.51766216754913 1.50692343711853 1.43417024612427 1.33961999416351 1.18226969242096 1.05016469955444 0.923251509666443 0.825193524360657 0.868718802928925 2.59737944602966 3.47090744972229 2.89589595794678 2.19726753234863 2.81777453422546 2.64393210411072 2.16324734687805 2.84129500389099 2.99268770217896 3.25889086723328 2.66023850440979 2.17160773277283 1.89273202419281 1.98815274238586 3.00285863876343 2.64755797386169 4.81636476516724 7.41218423843384 7.37970113754272 5.82210779190063 4.28139686584473 3.67859053611755
0.0442254655063152 -1.17098891735077 -1.19803595542908 -1.28693687915802 -1.28838133811951 -0.315811097621918 1.32966732978821 0.712399840354919 -0.108607530593872 1.98096239566803 2.62464356422424 1.70155334472656 1.2087779045105 0.715898871421814 0.182100713253021 -0.239563912153244 -0.281752794981003 -0.430104702711105 -0.652261078357697 -1.02533686161041 -1.36304342746735 -1.8538339138031 -2.20085167884827 -2.41207814216614 -2.64707374572754 -2.97523164749146 -3.18338799476624 -3.29848170280457 -2.90334820747375 -2.18258237838745 -1.62810552120209 -0.832028269767761 -0.466976344585419 -0.241042912006378 -0.434372574090958 -1.04006552696228 -1.33778619766235 -1.31490552425385 -0.905978977680206 -1.07089710235596 -1.1777606010437 2.36027026176453 1.5965940952301 1.67246758937836 1.86797571182251 1.2474011182785 0.762147128582001 0.408095717430115 -0.00330318906344473 -0.254075527191162 -0.155164465308189 0.0167136285454035 -0.0374128855764866 0.0396902337670326 -0.169999435544014 -0.365905523300171 -0.547177612781525 -0.663795471191406 -0.683879554271698 -0.715583741664886 -0.867415726184845 -1.11979269981384 -1.84086465835571 -2.25059938430786 -2.45143675804138 0.177611663937569 1.81100869178772 4.70305871963501 3.4387993812561 2.53834867477417 6.81063365936279 7.01956939697266 5.19497966766357 4.7678017616272 16.5710105895996 26.6703033447266 23.0063953399658 22.9848766326904 18.2322158813477 15.9730815887451 13.8646860122681 10.936375617981 9.76087665557861 8.54292297363281 6.39887189865112 5.03813791275024 4.06918525695801 3.64077734947205 3.49584245681763 3.16595125198364 3.14028596878052 8.16602611541748 8.3629789352417 6.45304536819458 5.64904832839966 5.08034706115723 4.69058036804199 4.33765697479248 3.83377599716187 3.75499105453491 3.39891147613525 3.02251720428467 2.51143670082092 1.94993913173676 8.46326541900635 14.8623342514038 15.047830581665 13.4833278656006 12.1217279434204 10.0544805526733 8.527099609375 7.78530073165894 7.21767425537109 6.48573637008667 5.93441295623779 5.78709030151367 5.56765079498291 5.1331000328064 4.76830911636353 4.46294212341309 4.21982145309448 4.04446840286255 3.82725715637207 3.6330361366272 3.46203255653381 3.44278812408447 3.29851865768433 3.15490770339966 3.02085876464844 3.04302048683167 2.84225416183472 2.35921216011047 2.08103585243225 1.9675999879837 1.98093748092651 1.76403260231018 1.56804072856903 1.34347605705261 1.14789247512817 2.546147108078 2.22621726989746 1.5096960067749 1.22487127780914 1.17997550964355 0.936770915985107 0.849957704544067 0.860952854156494 0.885401904582977 0.899322807788849 0.874810695648193 3.06759071350098 2.92653846740723 2.84933280944824 2.94544887542725 3.49514675140381 4.36149120330811 3.56431984901428 2.88774299621582 2.56378531455994 2.09928393363953 1.77512288093567 1.56229197978973 1.47150886058807 1.90942347049713 1.5063544511795 5.25489807128906 5.746994972229 6.24615287780762 6.69712352752686 6.39760446548462 4.41138362884521
0.542020797729492 -1.19273900985718 -1.22239232063293 -1.24937903881073 -1.31954026222229 -1.31004595756531 -0.231473848223686 -0.00870005879551172 1.77821505069733 2.22775864601135 1.73712229728699 1.66115057468414 1.10922598838806 0.521127462387085 -0.017613435164094 -0.331960260868073 -0.588299810886383 -0.698940098285675 -1.01555454730988 -1.37018537521362 -1.45670711994171 -1.94581425189972 -2.2081606388092 -2.41861057281494 -2.63684725761414 -2.83717203140259 -3.01728987693787 -3.11231851577759 -2.7027485370636 -1.36665225028992 -1.1233731508255 -1.77458131313324 -2.63031196594238 -2.52814841270447 -2.37101435661316 -2.44431710243225 -2.20074939727783 -2.32318711280823 -2.43829154968262 -1.45514571666718 1.04722452163696 0.77789705991745 0.472884237766266 0.970659196376801 0.769679546356201 0.60978102684021 0.377222567796707 -0.0633266493678093 -0.200691938400269 -0.34809285402298 -0.552820205688477 -0.615371346473694 -0.692226111888885 -0.757218301296234 -0.813877582550049 -0.858057260513306 -0.915859818458557 -0.960394680500031 -0.995070338249207 -1.08291471004486 -1.21737813949585 -1.41675460338593 -1.96317899227142 -2.35729479789734 -2.59323048591614 -0.906618297100067 2.90239429473877 3.14310169219971 2.90795350074768 3.27304077148438 5.63540506362915 4.84814405441284 5.23972654342651 5.27914428710938 11.2131366729736 24.6048069000244 23.9192752838135 23.0012340545654 20.3998470306396 16.4318161010742 14.4190473556519 12.0617532730103 10.1564750671387 8.85478401184082 7.57309722900391 5.85755157470703 5.0041446685791 4.46465969085693 4.19565105438232 3.68157911300659 3.4818229675293 6.07099008560181 7.04126024246216 6.70054769515991 6.25720691680908 5.48816585540771 4.7581205368042 4.11547422409058 3.51560521125793 3.62406635284424 3.34436988830566 3.0048394203186 2.41777300834656 1.97079610824585 5.81387376785278 20.5554695129395 16.3945217132568 13.7267379760742 11.887975692749 9.63953971862793 8.20086288452148 7.2644739151001 6.56338596343994 6.02478933334351 5.48845195770264 5.26548337936401 4.86075448989868 4.52577066421509 4.21831226348877 3.94316864013672 3.9827880859375 3.83639812469482 3.65992784500122 3.49151349067688 3.33619904518127 3.25656318664551 3.11845970153809 2.98802447319031 2.84842944145203 2.82323241233826 2.59950280189514 2.17527198791504 1.91749656200409 1.81440627574921 1.65351748466492 1.26180350780487 1.07084584236145 0.90440970659256 0.783121585845947 3.97960448265076 4.42164421081543 2.66093015670776 1.08563661575317 0.983571231365204 0.737431108951569 0.571823000907898 2.25716543197632 4.41365957260132 3.9661591053009 2.69076752662659 2.35675740242004 3.31105470657349 4.37675476074219 4.43669414520264 4.11105632781982 3.79107880592346 2.83197355270386 2.44781804084778 2.17497849464417 2.1686851978302 1.94724309444427 1.79081284999847 1.57226538658142 1.44083118438721 2.19753241539001 3.21462535858154 4.07663106918335 2.69102644920349 3.70041537284851 11.9225673675537 9.75916481018066
1.00496542453766 -0.561946749687195 -1.2590856552124 -1.26575708389282 -1.29472577571869 -1.2512708902359 -0.951740324497223 0.120228245854378 1.78759062290192 1.6040073633194 1.86571896076202 1.3651282787323 0.800093770027161 0.211811661720276 -0.338590770959854 -0.488394170999527 -0.562045454978943 -0.652533888816833 -0.89330917596817 -1.14418792724609 -1.3017144203186 -1.84438574314117 -2.13587427139282 -2.34094858169556 -2.50779700279236 -2.64960312843323 -2.77807641029358 -2.89224553108215 -2.70868372917175 -2.44511461257935 -3.06852054595947 -3.44018769264221 -3.55199098587036 -3.64815592765808 -3.12214040756226 -2.90147423744202 -3.25726723670959 -3.50364851951599 -3.10553812980652 -1.55886542797089 1.70548617839813 1.2622332572937 0.649884700775146 0.484162420034409 0.409100919961929 0.240671381354332 -0.0843492150306702 -0.282852739095688 -0.349050313234329 -0.655642688274384 -0.930216193199158 -1.02264523506165 -1.11353921890259 -1.39252066612244 -1.41945338249207 0.47061675786972 -0.402878910303116 -1.28706657886505 -1.37672102451324 -1.46955442428589 -1.58319425582886 -1.67776906490326 -1.95256400108337 -2.25288438796997 -2.51918363571167 -2.57901191711426 1.06271016597748 3.93468546867371 2.72808599472046 3.45752811431885 4.5169849395752 2.94813275337219 6.10635042190552 5.53875398635864 6.98148488998413 18.4121360778809 27.781551361084 26.6719169616699 22.7988147735596 17.6883277893066 15.4687004089355 13.3345327377319 10.3340606689453 9.02114295959473 7.89354276657104 6.21622467041016 5.46347188949585 4.95208215713501 4.6498703956604 4.26078748703003 4.06195163726807 5.33139562606812 6.70006084442139 6.94202423095703 5.82828712463379 5.14251089096069 4.65692567825317 4.19696283340454 4.05389785766602 3.78805375099182 3.64947366714478 3.2245831489563 2.62051272392273 2.19565320014954 2.35753130912781 20.1391754150391 17.5653457641602 14.3770484924316 11.4433107376099 9.31820774078369 7.85734558105469 7.2411937713623 6.47104263305664 5.78969717025757 5.24123668670654 4.83436918258667 4.44530630111694 4.07874345779419 3.57884907722473 3.02621364593506 2.72810530662537 2.55222678184509 11.3573837280273 7.57782459259033 2.96161413192749 3.0859386920929 2.98177480697632 2.82489967346191 2.66329836845398 2.6072781085968 2.41449189186096 2.21647882461548 1.9462913274765 1.75221335887909 1.52129507064819 1.08971726894379 0.858501851558685 0.79169100522995 2.14215064048767 2.18757486343384 4.9711766242981 3.30129289627075 1.5217992067337 0.919499099254608 0.702600955963135 0.572904706001282 0.569162368774414 4.58444976806641 6.68739461898804 5.01043796539307 4.01275444030762 3.78361678123474 4.04857301712036 4.27816247940063 3.53525567054749 2.868567943573 2.5944390296936 2.51567053794861 2.1385703086853 1.79058682918549 1.65531492233276 1.38418173789978 1.15514922142029 1.02042925357819 1.25430405139923 2.088538646698 3.49933838844299 2.59943795204163 2.27004051208496 7.81230640411377 10.249659538269
0.985946774482727 -0.42706760764122 -1.04684388637543 -1.18388509750366 -1.27329874038696 -1.07560110092163 -0.318843603134155 -0.122547067701817 0.539767801761627 1.01807618141174 1.1333566904068 0.485994458198547 -0.20946829020977 -0.487144023180008 -0.830542743206024 -0.951251566410065 -0.112411111593246 -0.29299208521843 -0.893973052501678 -1.05054235458374 -1.23920834064484 -1.49878108501434 -1.75275444984436 -2.08099675178528 -2.39619755744934 -2.52728939056396 -2.62806057929993 -2.76584410667419 -2.96146845817566 -3.13230347633362 -3.26254296302795 -3.39589762687683 -3.52100849151611 -3.6485960483551 -3.74485206604004 -2.69974970817566 -3.16374802589417 -3.78162813186646 -3.26781225204468 -1.58911406993866 -0.735215842723846 0.336615175008774 0.735758185386658 0.611871778964996 0.386217832565308 0.144212931394577 -0.114633105695248 -0.387106657028198 -0.64365154504776 -0.914344429969788 -1.06891345977783 -1.30659055709839 -1.69505882263184 -1.80426394939423 -0.902821660041809 -0.342789441347122 -0.695347428321838 -1.63215804100037 -1.60725033283234 -1.72312307357788 -1.84606075286865 -1.90930163860321 -2.02275800704956 -2.24658727645874 -2.47800159454346 -2.54601144790649 -0.93313992023468 3.99314451217651 3.25822639465332 1.7193911075592 2.59408044815063 1.96321129798889 4.94769382476807 4.91925954818726 5.76519680023193 13.4313802719116 20.5686187744141 25.6816940307617 24.1596527099609 19.3371601104736 16.5171070098877 14.585018157959 11.6251087188721 9.12840461730957 8.08044528961182 6.86479330062866 6.07097768783569 5.54718399047852 5.12075757980347 4.81552457809448 6.444993019104 5.53876781463623 7.7641396522522 6.98588085174561 5.6251368522644 5.1091947555542 4.97358798980713 4.56846046447754 4.55464029312134 4.34069204330444 4.07398128509521 3.62604022026062 3.24401783943176 2.83691763877869 2.5905339717865 18.9636402130127 17.4140281677246 13.9300374984741 10.9084415435791 8.94217777252197 7.42854642868042 6.53539896011353 5.8214693069458 5.20226860046387 4.70193481445312 4.53967237472534 3.81550216674805 3.14163255691528 2.3135027885437 1.67409110069275 1.37764286994934 1.30777835845947 23.7165508270264 19.2992782592773 10.6393566131592 4.49122428894043 2.81251072883606 2.55456924438477 2.45124268531799 2.38983845710754 2.29640460014343 2.18435049057007 1.97011077404022 1.80888950824738 1.54301977157593 1.09810757637024 0.726121664047241 0.638203799724579 3.30111575126648 2.78253316879272 2.67886829376221 2.35390162467957 1.20864295959473 1.06007182598114 0.656044125556946 0.547249376773834 1.87315380573273 1.58010506629944 5.33562088012695 5.93915271759033 5.17162799835205 4.31389904022217 3.929123878479 3.65782332420349 3.24707913398743 2.92978143692017 2.66442394256592 2.35290384292603 1.86574578285217 1.58704853057861 1.41161060333252 1.20273852348328 1.03019738197327 0.860811233520508 0.860748946666718 0.877587199211121 0.869389653205872 0.843204259872437 5.82095861434937 6.44485807418823 9.04090023040771
0.614820897579193 -0.0628055930137634 -0.624800026416779 -0.596322298049927 -0.666104674339294 -0.396226614713669 0.270364195108414 0.22003610432148 0.378684639930725 0.35526368021965 0.360723704099655 -0.190453559160233 -0.729887425899506 -1.09932839870453 -1.37494921684265 -1.60569250583649 0.435866951942444 0.892524242401123 -0.261211931705475 -1.15090811252594 -1.39873611927032 -1.46378493309021 -1.54256904125214 -1.75942933559418 -2.05975651741028 -2.27829027175903 -2.55198836326599 -2.75686097145081 -2.9131121635437 -3.04676270484924 -3.19528031349182 -3.33254098892212 -3.44674801826477 -3.53335022926331 -3.57748603820801 -3.59279775619507 -2.34848761558533 -3.06099128723145 -2.62603402137756 -2.3721616268158 -2.00387668609619 0.489603370428085 0.842019736766815 0.347078651189804 -0.091197095811367 -0.133039921522141 -0.529876708984375 -1.03509747982025 -1.35850751399994 -1.45556569099426 -1.46295726299286 -1.54988145828247 -2.02925491333008 -2.05751729011536 -1.65383970737457 -2.02136468887329 -1.86753475666046 -1.83905744552612 -1.92377543449402 -2.05751323699951 -2.22708749771118 -2.2443323135376 -2.24783873558044 -2.2847912311554 -2.43527102470398 -2.50156664848328 -0.136412277817726 0.135701939463615 2.01527643203735 1.64286577701569 1.6904456615448 1.45714795589447 4.35751819610596 6.36680316925049 4.87019634246826 9.75452136993408 14.3707485198975 26.0714569091797 23.3074817657471 18.0478916168213 17.5908946990967 15.2924718856812 12.9566431045532 9.93046188354492 8.61546993255615 7.93008041381836 6.70870065689087 6.27989435195923 5.90303754806519 5.74134397506714 9.40669441223145 6.36302757263184 7.68625974655151 6.79257583618164 6.54473400115967 5.7153172492981 5.15680980682373 4.84600448608398 4.58263301849365 4.26543140411377 4.0154914855957 3.87268662452698 3.73890447616577 3.39052128791809 3.11369824409485 16.6342639923096 14.1730356216431 12.7233686447144 9.76857757568359 7.67967796325684 6.31440925598145 5.36831283569336 5.29857635498047 4.62478876113892 3.89630436897278 3.30794167518616 2.38004565238953 1.72205674648285 1.18131470680237 0.848958909511566 0.656853318214417 4.62638807296753 18.2298412322998 12.8977823257446 15.1930894851685 12.2592010498047 8.53170967102051 7.01650190353394 5.86023187637329 2.49688529968262 2.66875433921814 2.06305193901062 1.85743832588196 1.73909986019135 1.47076332569122 1.12018656730652 0.589164912700653 0.396694868803024 6.58237409591675 4.50297498703003 2.31298828125 2.3990261554718 1.65872597694397 1.58094966411591 1.45182502269745 1.94208955764771 2.49703764915466 2.54398822784424 4.2176308631897 4.79430437088013 4.69624710083008 3.46165204048157 2.93392872810364 3.13938999176025 3.18888592720032 2.9281587600708 2.71393823623657 2.49938893318176 2.20638799667358 1.88450455665588 1.57552409172058 1.42157638072968 1.18658363819122 0.784934103488922 0.596915304660797 0.525747418403625 0.634471297264099 0.549129366874695 3.96269249916077 7.56540155410767 9.75690937042236
0.93251359462738 0.456042736768723 -0.324578255414963 -0.451987475156784 0.544404327869415 0.54489928483963 0.50862044095993 0.257565796375275 -0.0396124757826328 -0.170681923627853 -0.10839206725359 -0.389023214578629 -0.631286084651947 -1.16165268421173 -1.40158092975616 -1.4550815820694 -0.994484961032867 -0.714619278907776 -0.0492024049162865 -0.600747585296631 -1.50757896900177 -1.50764107704163 -1.54703378677368 -1.69013452529907 -1.92617571353912 -2.21264147758484 -2.44956135749817 -2.72286033630371 -2.85774230957031 -2.93826532363892 -3.06422853469849 -3.20961165428162 -3.32417893409729 -3.4215075969696 -3.4976806640625 -3.56580471992493 -1.13292610645294 -1.71879315376282 -2.56527709960938 -2.23875212669373 -2.66191673278809 -1.46942520141602 2.02654576301575 0.835395872592926 -0.104244157671928 -0.721561431884766 -1.31854927539825 -1.76063394546509 -1.95801138877869 -1.91877424716949 -1.04462993144989 -1.39241504669189 -1.78056454658508 -1.87253284454346 -1.9286642074585 -2.11104440689087 -2.16522216796875 -2.30174040794373 -2.47187638282776 -2.5425181388855 -2.4852409362793 -2.40550065040588 -2.39876055717468 -2.47072863578796 -2.56923866271973 -2.62810730934143 -2.23018646240234 -1.14898431301117 0.194796249270439 1.83390760421753 2.74775290489197 3.20806169509888 3.32799124717712 5.66662788391113 5.35796451568604 7.51392936706543 14.0965518951416 19.1373653411865 20.2486953735352 16.5750770568848 18.5450687408447 17.5123748779297 13.9174842834473 11.3886613845825 9.23628807067871 8.52472686767578 8.36744499206543 7.36368942260742 6.94981718063354 6.6076283454895 7.64847755432129 6.85606622695923 6.97935247421265 6.08658170700073 5.6637978553772 5.199303150177 4.97427606582642 4.80509853363037 4.66757822036743 4.47589445114136 4.28189039230347 4.14530754089355 4.02429151535034 3.80370306968689 3.68004655838013 7.52168989181519 9.10067081451416 9.58579063415527 6.95772838592529 5.66391134262085 4.71714735031128 4.22856473922729 4.47127771377563 3.66684985160828 2.42356014251709 2.0092613697052 1.60450780391693 1.04986178874969 0.686991035938263 0.509130001068115 0.494444817304611 2.91032433509827 10.4182252883911 5.57052803039551 14.3394403457642 14.4718179702759 10.0620708465576 7.37362384796143 6.53902435302734 4.62677240371704 4.42345237731934 3.14856863021851 2.18437886238098 1.57307124137878 1.38050436973572 1.08189022541046 0.690698504447937 0.339689999818802 2.46461415290833 3.48028469085693 2.73895740509033 5.81979560852051 4.85557651519775 2.93464612960815 1.84390032291412 0.707681119441986 10.2601356506348 7.70936155319214 3.12067008018494 2.54928612709045 2.39574980735779 1.69327092170715 1.63720047473907 2.16972064971924 2.00601148605347 3.66738486289978 2.43386626243591 2.40726232528687 2.35606575012207 2.10324430465698 1.79477024078369 1.51036763191223 1.30980563163757 1.09493350982666 0.905208766460419 0.755283355712891 0.711558699607849 2.1115391254425 2.33812308311462 5.23850727081299 9.01561069488525
1.33173310756683 0.977327764034271 0.378275781869888 0.0221005827188492 -0.138968735933304 0.268105864524841 0.446570932865143 -0.0140079064294696 -0.306854754686356 -0.452527791261673 -0.309779465198517 -0.445361614227295 -0.70857435464859 -1.11148989200592 -1.21019089221954 -1.32319974899292 -1.29774618148804 -0.762846052646637 -0.672642648220062 -1.24103963375092 -1.53404343128204 -1.55836129188538 -1.595547914505 -1.6849912405014 -1.79123365879059 -2.00342345237732 -2.2586829662323 -2.47074747085571 -2.64201140403748 -2.76343202590942 -2.93249845504761 -3.08042287826538 -3.22031497955322 -3.30528092384338 -3.38146829605103 -3.45277404785156 -3.46722459793091 -3.25998449325562 -2.61504292488098 -2.14294195175171 -2.87426519393921 -2.96654081344604 1.30076360702515 0.595270574092865 -1.10361325740814 -1.94014954566956 -2.24527168273926 -2.34715127944946 -2.2912175655365 -2.24110865592957 -1.71714162826538 -0.303776651620865 -0.623940408229828 -1.77685070037842 -1.98958027362823 -2.14338254928589 -2.25196671485901 -2.38386297225952 -2.58464026451111 -2.74400424957275 -2.75565934181213 -2.78237652778625 -2.17868137359619 -2.80756568908691 -2.84406208992004 -2.71014785766602 -2.64040803909302 -2.66952347755432 -0.988612771034241 3.14274764060974 3.36548376083374 5.54531764984131 3.39918899536133 4.44828605651855 7.07459926605225 9.33347415924072 14.0328750610352 16.607120513916 16.210958480835 14.9477777481079 15.2232875823975 18.4292526245117 14.4884033203125 11.8715581893921 9.72567081451416 9.11591815948486 11.9730100631714 8.49498653411865 8.14714622497559 7.78544569015503 7.48586177825928 6.86622047424316 6.59283256530762 6.39577150344849 6.18089056015015 5.89302206039429 5.32377767562866 5.14142227172852 4.99086713790894 4.74674129486084 4.57023334503174 4.41160249710083 4.30896043777466 4.20147371292114 4.06380271911621 3.9529550075531 8.14147758483887 4.30878591537476 3.56233191490173 3.47288584709167 3.40976762771606 3.29678678512573 3.13897776603699 2.87955474853516 2.49519872665405 1.91822338104248 1.56164598464966 1.12510859966278 0.819426238536835 3.84358215332031 3.25019288063049 1.94382238388062 5.49345541000366 2.46875214576721 6.17171096801758 10.5866079330444 13.0346307754517 9.48690032958984 6.37775850296021 5.8254246711731 4.76965188980103 3.79383850097656 2.69629764556885 1.42261004447937 1.27020215988159 1.06307649612427 0.800507485866547 0.410126954317093 0.0899044796824455 3.51308369636536 3.33112263679504 7.5687575340271 5.50320053100586 3.75792622566223 1.50481188297272 0.334979981184006 6.14905261993408 16.7647762298584 10.7450094223022 4.83370494842529 3.69035077095032 2.97265529632568 2.41604232788086 1.21871566772461 2.54211163520813 2.29472661018372 2.64811682701111 2.18524646759033 1.98457169532776 1.86263370513916 1.56756448745728 1.22714865207672 1.26240992546082 1.06391716003418 0.844159424304962 0.692163407802582 0.43859800696373 3.53883123397827 4.23993825912476 5.61911630630493 12.1443853378296
1.28081202507019 0.971968710422516 0.62840336561203 0.269124805927277 0.0962744504213333 0.0200811550021172 -0.0639120265841484 -0.172128453850746 -0.319867432117462 -0.400714993476868 -0.457585275173187 -0.539389431476593 -0.679650843143463 -0.896026313304901 -0.939286351203918 -1.03525936603546 -1.08843123912811 -1.21456718444824 -1.04363679885864 -1.33606159687042 -1.38282573223114 -1.4302784204483 -1.49300527572632 -1.47012984752655 -1.6484123468399 -1.89166963100433 -2.09075999259949 -2.29736995697021 -2.43474721908569 -2.5372040271759 -2.70224285125732 -2.89795160293579 -3.0353741645813 -3.15175676345825 -3.22355270385742 -3.28159046173096 -3.32357931137085 -3.37737703323364 -3.20648622512817 -3.10233283042908 -3.47545218467712 -3.49737143516541 0.269298702478409 0.252770006656647 -1.53184747695923 -2.04792618751526 -2.00119614601135 -2.09090876579285 -2.19226574897766 -2.46830439567566 -1.67215645313263 -0.271129161119461 -1.51508820056915 -2.35367846488953 -2.35534501075745 -2.5299859046936 -2.64875721931458 -2.68989324569702 -2.84190559387207 -2.85530924797058 -2.94229197502136 -2.94950413703918 -2.71842265129089 -2.97300171852112 -2.93296909332275 -2.90571331977844 -2.92674541473389 -2.77381110191345 -1.86324691772461 3.58490681648254 4.76671648025513 3.71275353431702 1.9065580368042 1.73714458942413 9.325439453125 13.1868810653687 15.4052085876465 16.2604236602783 13.9936408996582 13.1526899337769 17.036678314209 15.5505180358887 13.7421703338623 12.6550741195679 10.7647933959961 9.99796390533447 10.137791633606 9.28857517242432 8.88467407226562 8.42857360839844 8.03056335449219 7.6121826171875 7.13416862487793 6.88439416885376 6.62506008148193 6.35129928588867 5.74710559844971 5.55219125747681 5.41981792449951 5.23758840560913 4.88173961639404 4.76119613647461 4.64504671096802 4.5471076965332 4.36796569824219 4.22158575057983 4.1444787979126 3.83143520355225 3.64851379394531 3.45902037620544 3.34209728240967 3.1707010269165 3.13835549354553 2.90662741661072 2.47285676002502 1.96839618682861 1.53346490859985 1.30096185207367 1.13911914825439 0.639100909233093 2.40156245231628 2.4264075756073 6.33725309371948 2.57731246948242 4.67505216598511 10.256908416748 12.7644739151001 11.5383396148682 7.21457481384277 6.1079568862915 5.07606744766235 3.77035188674927 2.83269906044006 2.40289568901062 2.23652005195618 1.99856531620026 1.50081944465637 0.571162223815918 0.0116550680249929 0.91844516992569 5.25665903091431 5.89855146408081 4.79658651351929 3.58014631271362 1.87609553337097 0.222554966807365 2.77318406105042 14.6974811553955 12.8081512451172 7.99127817153931 6.18553733825684 5.13028049468994 4.25620269775391 3.34490084648132 2.21163296699524 2.05200219154358 2.54293632507324 2.72815418243408 2.37887144088745 2.00871181488037 1.55456840991974 1.07290923595428 1.04985964298248 0.822584867477417 0.687523484230042 0.518878638744354 0.360306411981583 0.55805242061615 4.31356573104858 6.5761456489563 13.34716796875
1.56001353263855 1.13271045684814 0.83109176158905 0.547365248203278 0.308141767978668 0.0511770769953728 -0.066879041492939 -0.180020123720169 -0.254502922296524 -0.399644911289215 -0.53180730342865 -0.646263122558594 -0.766727864742279 -0.798238158226013 -0.866866707801819 -0.929901480674744 -1.01629662513733 -1.08541631698608 -1.12401723861694 -1.14513444900513 -1.19369411468506 -1.21999740600586 -1.41091203689575 -1.54370713233948 -1.62898099422455 -1.76905965805054 -1.93613183498383 -2.09426760673523 -2.21040415763855 -2.34415030479431 -2.53461027145386 -2.77509427070618 -2.88696980476379 -2.91967797279358 -2.98144841194153 -3.01884388923645 -3.08354473114014 -3.17379307746887 -3.28421688079834 -3.41587996482849 -3.52959036827087 -2.38920783996582 0.246978104114532 1.19196927547455 -0.36897537112236 -1.17825400829315 -1.39309477806091 -1.65946125984192 -1.9318516254425 -2.42437839508057 -2.53044891357422 -2.7244348526001 -2.94654178619385 -3.06113982200623 -2.00417065620422 -3.05666160583496 -3.1852912902832 -1.01330316066742 -2.47434949874878 -3.07090425491333 -3.09595203399658 -3.03669691085815 -3.10658693313599 -3.03273224830627 -3.17152333259583 -3.25440120697021 -1.27211856842041 -0.355602413415909 -0.644018709659576 0.873704731464386 3.65764379501343 2.11610913276672 1.12918663024902 2.16689562797546 7.1891918182373 12.3889560699463 17.4860706329346 16.3094081878662 13.9288520812988 12.1734771728516 17.4338874816895 16.2596683502197 14.7040119171143 12.6444616317749 11.6602878570557 10.7321748733521 10.2218618392944 9.52957344055176 9.06514835357666 8.62486839294434 8.27550792694092 7.97306108474731 7.49071407318115 7.21386432647705 6.95068216323853 6.66457366943359 6.24494028091431 5.94452667236328 5.7963285446167 5.64067411422729 5.23974609375 5.11103248596191 4.97897148132324 4.89136934280396 4.70401334762573 4.49553346633911 4.31448793411255 3.97630882263184 3.74148201942444 3.50158762931824 3.31638360023499 3.24821662902832 3.16101050376892 2.9465663433075 2.5124363899231 1.98926377296448 1.60838842391968 1.38208663463593 1.18104553222656 0.611193478107452 3.71725606918335 8.21937084197998 10.4074954986572 7.34723949432373 6.64658832550049 9.91186141967773 11.1781702041626 10.5068225860596 8.76563358306885 7.29942226409912 5.82454872131348 4.64506816864014 3.07687139511108 2.64053010940552 2.35057306289673 2.09946370124817 1.71427190303802 1.04749357700348 0.639340400695801 0.531662344932556 5.3615665435791 5.67547416687012 4.52961206436157 3.4334933757782 0.928169071674347 -0.0373141504824162 0.331262767314911 8.62298488616943 14.5397262573242 10.7831106185913 7.91219711303711 6.41531229019165 5.10301542282104 4.63819360733032 3.83734941482544 3.30475735664368 3.06766128540039 2.74436807632446 2.48951745033264 2.01434779167175 1.89322996139526 1.61454927921295 1.00034964084625 0.744153618812561 0.587478816509247 0.535573720932007 0.490193009376526 0.667498350143433 1.6262754201889 4.40735864639282 12.004563331604
1.07899081707001 0.785672426223755 0.562163710594177 0.376423090696335 0.287481039762497 0.0741494297981262 -0.128733426332474 -0.15574885904789 -0.289917409420013 -0.457560986280441 -0.701047539710999 -0.739408850669861 -0.814364075660706 -0.858599185943604 -0.942826867103577 -1.0601921081543 -1.16031217575073 -1.06518828868866 -1.10325694084167 -1.12101376056671 -1.15091562271118 -1.17406642436981 -1.22556269168854 -1.400235414505 -1.47599458694458 -1.50260746479034 -1.5571516752243 -1.82831275463104 -2.02832841873169 -2.18533611297607 -2.37595868110657 -2.66938495635986 -2.79384112358093 -2.86625480651855 -2.92220401763916 -2.16094827651978 -2.44172048568726 -3.00045418739319 -3.08744597434998 -3.28160500526428 -3.41765522956848 -1.40348696708679 0.594997346401215 1.70734226703644 0.52130663394928 -0.197680339217186 -0.524987637996674 -1.14329552650452 -2.38920974731445 -3.00392198562622 -3.02499723434448 -2.98010802268982 -3.25311136245728 -3.27927541732788 -3.37047743797302 -3.53707265853882 -3.09633088111877 -1.63928973674774 -1.7947416305542 -2.44915175437927 -2.54047560691833 -2.17619872093201 -3.29784822463989 -3.30199670791626 -3.53242063522339 -3.61102557182312 -3.57563805580139 -1.29358196258545 0.391035914421082 1.38522028923035 1.00042545795441 2.38427114486694 2.19586825370789 5.16973781585693 4.14952850341797 7.52590560913086 20.4429550170898 18.6948566436768 15.086220741272 12.9763498306274 16.4682788848877 17.7993106842041 17.2306861877441 14.9374103546143 12.6725330352783 11.5571966171265 10.4016752243042 9.37358951568604 8.84408950805664 8.61760520935059 8.4204273223877 8.0194616317749 7.61131906509399 7.33332347869873 7.08064889907837 6.83783149719238 6.55614042282104 6.27506017684937 6.08376550674438 5.90237760543823 5.57670068740845 5.39181756973267 5.28300619125366 5.16914701461792 5.0140643119812 4.77552795410156 4.54778337478638 4.21406602859497 3.98462700843811 3.67001843452454 3.46306800842285 3.33292198181152 3.2338547706604 3.04660177230835 2.64395833015442 2.26976847648621 1.85069942474365 1.44306194782257 1.15222275257111 0.864288687705994 1.42126202583313 11.5259075164795 10.5682992935181 8.47136402130127 12.7058601379395 10.8488101959229 9.97954368591309 9.56158447265625 7.75709772109985 6.38976144790649 5.27797842025757 4.46421098709106 3.70634007453918 3.11108064651489 2.79130101203918 2.32252860069275 1.74149131774902 1.38898348808289 0.948663055896759 0.656913638114929 2.24308967590332 9.43745708465576 6.0781626701355 3.94350051879883 1.83574378490448 0.507445752620697 0.237503558397293 4.4545316696167 13.0878038406372 12.4267673492432 8.63636875152588 6.89407539367676 5.82358407974243 5.2377347946167 4.59045791625977 3.89775991439819 3.45052146911621 3.22274804115295 2.95530462265015 2.76292395591736 2.59610915184021 2.42559099197388 1.8404575586319 1.22910177707672 1.07549726963043 0.967204689979553 0.88800984621048 1.06061208248138 1.23783349990845 2.02867603302002 10.4691152572632
-0.850707054138184 2.11065244674683 1.25393176078796 0.242108270525932 0.127623155713081 -0.115626879036427 -0.374298065900803 0.0277988668531179 -0.295580327510834 -0.413851678371429 -0.611966073513031 -0.715729176998138 -0.760020077228546 -0.88195937871933 -0.996829569339752 -1.09648072719574 -1.14572668075562 -1.14458131790161 -1.1904798746109 -1.2094224691391 -1.2152156829834 -1.17417502403259 -1.05332708358765 -1.23925852775574 -1.3412070274353 -0.956137716770172 -0.823848307132721 -1.54450941085815 -1.82070302963257 -1.99714183807373 -2.21321129798889 -2.64014482498169 -2.8464949131012 -2.95486831665039 -2.96167039871216 1.5514669418335 0.318092316389084 -2.10870146751404 -2.97444033622742 -3.17406678199768 -3.25194120407104 -2.15647387504578 -1.25909292697906 0.555162131786346 -0.38842099905014 -0.718559980392456 -0.882549583911896 -2.04835724830627 -2.97188520431519 -3.28621339797974 -1.46000564098358 -1.98700666427612 -3.2802300453186 -3.72868490219116 -3.77382659912109 -3.86829090118408 -2.21051788330078 -1.89973533153534 -1.63713312149048 -2.63875222206116 -3.28577518463135 -3.29924845695496 -3.51560926437378 -3.59554004669189 -3.80546593666077 -3.88917946815491 -3.95911931991577 -0.712925672531128 -0.639169931411743 4.38492441177368 3.03954386711121 0.362568914890289 1.62962603569031 5.37960290908813 5.91368913650513 9.65776824951172 14.4477119445801 17.1234035491943 14.4723682403564 15.3094329833984 19.8833694458008 20.0690898895264 20.6302375793457 18.0167655944824 14.5296306610107 12.8134145736694 11.2756080627441 9.99499893188477 9.41796875 9.15386867523193 8.90804004669189 8.23299026489258 7.75478029251099 7.48353338241577 7.24922657012939 7.02077674865723 6.65400409698486 6.41072702407837 6.20428943634033 6.01613759994507 5.79749727249146 5.64236259460449 5.51073503494263 5.37144708633423 5.23537826538086 4.96354866027832 4.71276187896729 4.44430828094482 4.19103336334229 3.90807437896729 3.72761726379395 3.55108237266541 3.39555168151855 3.20664381980896 2.83701300621033 2.50639939308167 2.07548332214355 1.35681903362274 1.11814033985138 0.979949295520782 3.51011681556702 7.98940372467041 11.8583946228027 11.6023073196411 12.7687101364136 11.945686340332 10.4413433074951 9.20939826965332 7.73100328445435 6.62312030792236 5.75589466094971 4.91302156448364 3.80924844741821 2.21300506591797 1.95950186252594 6.8510890007019 5.0867772102356 1.98777532577515 1.70958817005157 1.39820337295532 1.10188794136047 3.66273212432861 5.46051359176636 5.63043308258057 3.37563896179199 1.72821998596191 0.922658264636993 1.30991125106812 8.73199558258057 13.5306158065796 10.9098138809204 7.95876312255859 6.3621678352356 5.35485553741455 4.84685325622559 4.23309564590454 3.72346377372742 3.34124135971069 3.07863187789917 2.87040448188782 2.68528628349304 2.51972246170044 2.32149338722229 2.10087466239929 1.81820166110992 1.60169863700867 1.47141993045807 1.16273844242096 1.59088850021362 2.09066247940063 3.62637901306152
-0.594642221927643 2.21567368507385 1.74716019630432 0.229930251836777 0.386214017868042 0.0457690879702568 -0.414379000663757 -0.447307497262955 -0.307970255613327 -0.53084135055542 -0.807311952114105 -0.935405850410461 -1.03290569782257 -1.02480030059814 -1.10501325130463 -1.1527898311615 -1.15931451320648 -1.0058605670929 -1.18975710868835 -1.10860621929169 -1.18028783798218 -0.976402819156647 -0.302519917488098 -0.990995109081268 -1.33796155452728 -0.770726680755615 -1.41503036022186 -1.52997422218323 -1.75424230098724 -1.91818869113922 -2.28423309326172 -2.68257832527161 -2.90331315994263 -2.95049118995667 -1.85727000236511 2.72733640670776 2.56145715713501 0.320305228233337 -1.5390350818634 -2.02183175086975 -2.16196084022522 -2.38269114494324 -0.592066764831543 -0.823943316936493 -2.72211694717407 -1.65779781341553 -1.07248759269714 -2.40732622146606 -2.4738621711731 -3.03485536575317 -3.36111760139465 -3.46205353736877 -3.52722191810608 -3.41898107528687 -3.58263635635376 -3.32622146606445 -3.37297105789185 -1.42421090602875 -2.05441856384277 -2.91162610054016 -3.14716100692749 -3.53208041191101 -3.69498944282532 -3.77521729469299 -4.00582218170166 -4.13726758956909 -4.31450510025024 -4.0394434928894 2.6001603603363 7.15145778656006 6.13591337203979 2.27058625221252 -0.78405100107193 6.06172370910645 11.1131830215454 11.7015905380249 11.1135387420654 15.2116622924805 14.6159591674805 13.5976648330688 21.1884651184082 23.7949848175049 23.2509899139404 20.1751346588135 16.9195404052734 14.8588237762451 12.9169235229492 11.1086740493774 10.0957288742065 9.58926200866699 9.28719520568848 8.69272899627686 8.22441291809082 7.95323276519775 7.73016119003296 7.39300107955933 6.83969831466675 6.57680749893188 6.37413120269775 6.15395307540894 5.87355995178223 5.73534202575684 5.58819055557251 5.43661832809448 5.32296323776245 5.0659327507019 4.85011863708496 4.62195348739624 4.34998559951782 4.11959075927734 3.91477918624878 3.74824953079224 3.59223794937134 3.30754566192627 3.03818368911743 2.74121308326721 2.34250116348267 1.79013562202454 1.32596457004547 1.14686632156372 4.14251661300659 6.49505662918091 9.24521255493164 13.569037437439 14.3836688995361 12.6921577453613 10.4896965026855 9.24689197540283 8.08007907867432 7.01092338562012 5.67687320709229 4.27970218658447 3.43352055549622 2.82159399986267 2.39082860946655 8.7890796661377 11.3559398651123 8.37009239196777 4.38296890258789 2.99694180488586 2.15810346603394 1.94675052165985 3.15070819854736 4.87649202346802 3.10482406616211 1.87869691848755 1.73598849773407 2.52627849578857 4.38851308822632 8.45080947875977 9.24870014190674 7.13432359695435 5.79068231582642 4.80341482162476 4.6781005859375 4.07675933837891 3.57667231559753 3.17343282699585 3.0901038646698 2.86907076835632 2.67871618270874 2.51233339309692 2.37843322753906 2.18251943588257 1.97003936767578 1.73070073127747 1.57199108600616 1.52368676662445 2.92893600463867 3.23850965499878 3.87716579437256
