NCOLS 171
NROWS 32
XLLCORNER 354080
YLLCORNER 6699040
CELLSIZE 16 
NODATA_value -3.4e+38 
-0.307095408439636 -0.421337693929672 -0.535973131656647 -0.65707802772522 -0.751132845878601 -0.84315025806427 -0.93595415353775 -1.06915521621704 -1.24265122413635 -1.39361166954041 -1.51368701457977 -1.59694850444794 -1.68974626064301 -1.75010716915131 -0.53058123588562 0.909172117710114 1.55139875411987 1.17280507087708 1.01673543453217 0.859057307243347 0.601567268371582 0.467720955610275 -0.0766483396291733 -0.217237249016762 -0.403641432523727 -0.796213865280151 -1.25784945487976 -0.62628972530365 2.38438034057617 1.53254747390747 1.07515954971313 0.927760183811188 1.03822922706604 1.00169432163239 0.802965581417084 0.700127780437469 0.549295604228973 0.421541929244995 0.345477700233459 0.268640756607056 0.140691593289375 -0.0503108017146587 -0.162675708532333 -0.338124543428421 -0.460139691829681 -0.500566422939301 -0.539678752422333 -0.613040208816528 -0.623162567615509 -0.657390475273132 -0.769945085048676 -1.14991140365601 6.18953323364258 6.47695827484131 8.50565338134766 6.87585163116455 4.8671989440918 2.85028862953186 0.774427592754364 0.47343784570694 0.299677073955536 1.01207411289215 2.16272163391113 2.45566940307617 2.03117537498474 2.32564949989319 2.10931634902954 1.72047460079193 1.41120779514313 1.1029417514801 0.831258714199066 0.435088604688644 0.0124832969158888 -0.413009315729141 -0.552390336990356 -0.737703382968903 -1.13123083114624 -1.63223612308502 -1.90005838871002 -1.94830250740051 23.1044807434082 16.8339958190918 11.9619417190552 9.72822856903076 3.78109002113342 3.55475282669067 3.80876731872559 16.0003108978271 11.8730602264404 6.96624040603638 1.68618535995483 -1.55244743824005 -2.04507613182068 -2.2853729724884 -2.47578692436218 -2.03789710998535 3.79938292503357 2.1416597366333 1.87225317955017 4.57429695129395 3.55380034446716 2.36807060241699 1.71735394001007 1.73320472240448 1.00645613670349 0.547084867954254 1.23003733158112 0.623926758766174 0.350102573633194 -0.0786091536283493 -0.535799086093903 -1.01642596721649 -1.03936862945557 5.2404580116272 18.433629989624 21.2056846618652 18.1258411407471 14.6713151931763 10.8281126022339 9.03236103057861 8.08500480651855 7.85685729980469 7.66759586334229 7.93449783325195 10.1579647064209 8.8477954864502 8.12533855438232 6.84069967269897 5.9689621925354 5.74584722518921 5.42578125 4.94241380691528 4.44533634185791 3.93220853805542 3.40041995048523 3.22707653045654 7.4678168296814 9.35964870452881 6.7486720085144 5.7591724395752 6.87222957611084 6.51692914962769 5.21529626846313 4.78179025650024 4.31253004074097 3.81169199943542 3.4387788772583 3.29716825485229 3.19884562492371 3.11273384094238 3.03006052970886 2.98559069633484 2.89253330230713 2.71079587936401 2.42579126358032 2.07499074935913 1.89318645000458 1.84591495990753 7.85263395309448 13.7855978012085 16.077808380127 14.1921291351318 13.0309810638428 11.8089561462402 10.2551889419556 9.59398174285889 9.01931190490723 8.39625072479248 7.86065721511841 7.43973541259766 7.03311157226562
-0.363434433937073 -0.447408318519592 -0.553731083869934 -0.678971409797668 -0.764239728450775 -0.855906009674072 -0.978234589099884 -1.10577154159546 -1.25280511379242 -1.41987216472626 -1.5771187543869 -1.66775345802307 -1.75935995578766 -1.83649325370789 -1.46240830421448 0.65769100189209 2.03550958633423 1.91463601589203 1.50784409046173 1.18233597278595 0.866077125072479 0.530847609043121 0.327658802270889 0.0580167807638645 -0.193100959062576 -0.499159246683121 -0.733902156352997 -0.747936367988586 -0.349318861961365 0.284475028514862 0.44403538107872 0.42510724067688 0.603263676166534 0.494298040866852 0.417303413152695 0.266258507966995 0.0834642425179482 -0.0256913416087627 -0.120128072798252 -0.341452240943909 -0.668931245803833 -0.699328243732452 -0.854043126106262 -0.990611433982849 -1.04817938804626 -1.08175277709961 -1.09859132766724 -0.447504907846451 -1.15656459331512 -1.27385199069977 -1.35338509082794 -1.46912527084351 0.831503510475159 4.92274475097656 5.65734767913818 9.74464988708496 9.95546627044678 6.87902498245239 4.99827098846436 2.72499442100525 2.38757753372192 2.32503390312195 2.32093548774719 2.14864444732666 2.03079223632812 1.9446929693222 1.51870620250702 1.12917077541351 0.826269209384918 0.512517631053925 0.141710340976715 -0.111760810017586 -0.359178334474564 -0.681087493896484 -0.928851187229156 -1.12109804153442 -1.77793550491333 -2.2107515335083 -2.35319924354553 1.15955317020416 7.4078049659729 22.6978206634521 17.7837677001953 15.0667171478271 11.8458528518677 7.28547477722168 7.08070707321167 12.4926195144653 7.54850053787231 6.24126625061035 3.26062417030334 0.530132472515106 -0.540990591049194 -1.3542982339859 -2.5021858215332 1.38770496845245 3.20117115974426 2.18035912513733 3.62240600585938 5.69067811965942 3.69147133827209 2.72640371322632 2.18002915382385 1.69901406764984 1.25829720497131 0.673060238361359 0.604447782039642 0.481575757265091 0.251246005296707 -0.228212997317314 -0.502062022686005 -0.824449419975281 -0.934211134910583 3.03171110153198 14.4072504043579 20.6810932159424 20.6288375854492 16.1306324005127 13.6902885437012 11.9824266433716 10.5819301605225 9.90342712402344 9.30506610870361 8.8835620880127 11.369647026062 8.74551868438721 8.1066198348999 7.57038259506226 6.72738027572632 6.44784259796143 6.04674053192139 5.50889778137207 4.79524755477905 4.42692136764526 4.05308961868286 3.75640654563904 3.90121078491211 7.9403133392334 7.64620971679688 6.45115280151367 6.57616519927979 6.3042631149292 5.66035079956055 5.00523900985718 4.4187970161438 3.93151903152466 3.51767420768738 3.18946123123169 3.09013342857361 2.99706649780273 2.92818522453308 2.86627197265625 2.80905151367188 2.689049243927 2.47914385795593 2.22911787033081 1.95952713489532 1.80851364135742 5.62303972244263 11.9236135482788 13.8557462692261 12.6676874160767 11.8085565567017 11.4078598022461 11.1285123825073 10.3259401321411 9.97325611114502 9.2273120880127 8.56239032745361 8.01710319519043 7.55137586593628
-0.425043642520905 -0.491879016160965 -0.607133805751801 -0.708257138729095 -0.789813756942749 -0.882882297039032 -1.00404858589172 -1.1355140209198 -1.27979779243469 -1.45197725296021 -1.61802685260773 -1.75054395198822 -1.84037971496582 -1.9103547334671 -1.96744704246521 -0.373783618211746 1.78043949604034 2.70881366729736 2.05169010162354 1.53842735290527 1.29942214488983 0.573959171772003 0.941211044788361 0.349853903055191 0.0397583022713661 -0.347743332386017 -0.592241227626801 0.111577831208706 0.568977057933807 0.427582383155823 0.289187759160995 0.183704137802124 -0.0835809633135796 -0.233909353613853 -0.244201630353928 -0.447439551353455 -0.597464382648468 -0.710722506046295 -0.874120831489563 -1.13123166561127 -1.22723948955536 -1.26765143871307 -1.34039282798767 -1.42940807342529 -1.52241730690002 -1.60327911376953 -0.695415735244751 -1.14750957489014 -1.81671106815338 -1.89442896842957 -1.70851600170135 -1.73244106769562 1.2980055809021 3.78763222694397 4.40564775466919 6.3859076499939 12.6408720016479 11.688648223877 8.99076271057129 6.88951110839844 3.65790629386902 3.41043925285339 3.40930223464966 3.13749194145203 2.9157178401947 2.72557663917542 2.51729512214661 2.0816125869751 1.5191992521286 1.01047277450562 0.723805963993073 0.466885417699814 0.0923464372754097 -0.677784204483032 -1.16661441326141 -1.52134084701538 -2.16683030128479 -2.4108874797821 -2.20781707763672 1.85052883625031 3.14190316200256 11.4924077987671 20.8370380401611 17.8734722137451 14.7385349273682 12.8399314880371 10.2978096008301 9.70052146911621 8.62499046325684 7.25133323669434 4.21721076965332 1.61021852493286 0.671901285648346 -0.252207458019257 -1.11037397384644 4.59131765365601 4.1919641494751 3.39130282402039 5.32608699798584 4.73046636581421 3.77690577507019 2.50442981719971 1.90906190872192 1.414754986763 1.05563831329346 0.682021975517273 0.448157548904419 0.214147433638573 0.0181863661855459 -0.201247826218605 -0.325282007455826 -0.454323321580887 -0.633242726325989 1.79354071617126 8.5539083480835 20.3455257415771 22.6579322814941 17.6885299682617 15.1072950363159 13.5070991516113 12.2909317016602 11.3160839080811 10.5512475967407 9.97784042358398 9.69135475158691 9.12382984161377 8.44772720336914 8.0522403717041 7.52772188186646 7.070725440979 6.4397087097168 5.65467929840088 4.86178302764893 4.67899513244629 4.57999801635742 4.34064722061157 4.10173225402832 5.2910361289978 7.39907312393188 6.43163919448853 6.24912214279175 5.95795774459839 5.06445550918579 4.28680658340454 3.74098682403564 3.61339974403381 3.35322070121765 3.19427156448364 3.07755970954895 2.96634149551392 2.88207221031189 2.82706522941589 2.78874588012695 2.69320607185364 2.49165487289429 2.35064005851746 2.13093209266663 1.92356538772583 1.87699496746063 10.7344741821289 11.3402080535889 11.2026481628418 10.4848442077637 10.9508008956909 10.795994758606 10.053765296936 9.97946166992188 9.33264923095703 8.64221572875977 8.03608417510986 7.54304504394531
-0.486257791519165 -0.572448968887329 -0.683246195316315 -0.775566756725311 -0.857473015785217 -0.938160479068756 -1.06255316734314 -1.17830848693848 -1.30793416500092 -1.4857782125473 -1.65040230751038 -1.82251226902008 -1.91134333610535 -1.965367436409 -2.04194283485413 -0.696112275123596 0.706601858139038 1.51193475723267 2.22211170196533 2.59833383560181 1.9703426361084 1.20489656925201 0.786798596382141 0.531146764755249 0.153503775596619 -0.0964556038379669 -0.30642107129097 -0.32784178853035 0.260337710380554 0.00741075538098812 -0.368561029434204 -0.491846919059753 -0.614308297634125 -0.649156093597412 -0.668843030929565 -0.759864091873169 -0.849110662937164 -0.86223578453064 -0.992445886135101 -1.21324932575226 -1.2960250377655 -1.3708872795105 -1.54396212100983 -1.74910390377045 -1.86340177059174 -1.9388279914856 -1.97515368461609 -0.60655277967453 -2.11283731460571 -2.18144798278809 -2.24507474899292 -2.29593968391418 -1.17618453502655 13.3175230026245 9.91092014312744 8.98129177093506 8.05337524414062 13.7043180465698 12.1447906494141 9.79214572906494 7.80778121948242 4.73594188690186 4.52416324615479 4.32657384872437 3.96578240394592 3.65592312812805 3.31268906593323 2.77378940582275 1.86295437812805 0.776200711727142 0.415629148483276 0.216792538762093 -0.0666252449154854 -0.661608457565308 -1.24297034740448 -1.76455235481262 -2.29711103439331 -2.52463054656982 -0.790530562400818 2.52673292160034 4.55841541290283 8.19688892364502 17.0199432373047 16.6706390380859 15.5615015029907 14.1402530670166 12.0763874053955 10.6354694366455 9.24399566650391 7.69529819488525 5.00102996826172 1.96543419361115 0.636747717857361 -0.175225481390953 1.13265299797058 4.29196786880493 3.72744464874268 2.9919331073761 7.15718698501587 5.81913328170776 4.00968360900879 2.42945647239685 1.87585508823395 1.43442094326019 1.01355314254761 0.895976424217224 0.621794462203979 0.343500047922134 0.0402502007782459 -0.025624131783843 -0.189137488603592 -0.296338051557541 -0.364184439182281 -0.435465484857559 8.06261539459229 18.014232635498 21.5860118865967 17.5747489929199 15.5823431015015 14.3952379226685 13.3797302246094 12.6129398345947 11.6324653625488 10.7797832489014 10.076979637146 9.37313652038574 8.67434310913086 8.14505672454834 7.93830442428589 7.37204456329346 6.69274139404297 5.7673282623291 5.00531244277954 4.83604049682617 7.06297540664673 4.79650068283081 4.58424806594849 4.43112516403198 5.83618116378784 5.52114677429199 4.7925910949707 4.80694580078125 4.10358142852783 3.9566342830658 3.80706167221069 3.67972707748413 3.49568152427673 3.30606532096863 3.19822287559509 3.07974314689636 2.98019909858704 2.90349793434143 2.86463141441345 2.84229874610901 2.7470486164093 2.4960196018219 2.35588097572327 2.17034578323364 2.12070250511169 5.5789852142334 9.41363430023193 10.4343976974487 9.7593240737915 10.2963609695435 9.9034948348999 10.279088973999 9.56766223907471 8.96077156066895 8.32826042175293 7.73910665512085 7.22902774810791
-0.604512751102448 -0.688532412052155 -0.742348551750183 -0.839324235916138 -0.90938401222229 -0.990458309650421 -1.09485197067261 -1.2033451795578 -1.3235160112381 -1.48307657241821 -1.68664503097534 -1.84599983692169 -1.94076704978943 -2.00548696517944 -2.08083724975586 -1.87064290046692 0.175289422273636 0.0983682870864868 1.46093392372131 4.24336194992065 2.94623899459839 1.85595989227295 1.12578105926514 0.392069101333618 0.177048817276955 -0.0589455813169479 -0.190564319491386 -0.228270471096039 -0.270428001880646 -0.328934490680695 -0.484974443912506 -0.664913177490234 -0.686539769172668 -0.730009913444519 -0.881177186965942 -0.973013877868652 -1.01776254177094 -1.07525873184204 -1.18707597255707 -1.40565633773804 -1.51308536529541 -1.65381669998169 -1.86074733734131 -2.10246467590332 -2.26498055458069 -2.32335066795349 -2.50367760658264 3.05617594718933 1.05883193016052 -0.250848472118378 -0.851975977420807 -2.52545666694641 -2.65338325500488 5.57105588912964 15.6084308624268 12.4445886611938 11.1572036743164 12.1998090744019 14.3231801986694 11.7736654281616 10.096043586731 7.46813917160034 6.55701303482056 6.16499519348145 5.64551782608032 5.18513631820679 4.50703907012939 2.55807638168335 1.07803058624268 0.281983911991119 0.030303843319416 -0.225044474005699 0.343909561634064 -0.706179618835449 -1.04874682426453 -1.81132066249847 -2.3864963054657 -2.53680157661438 -2.60664868354797 4.39383316040039 5.87900686264038 7.21374368667603 15.1508188247681 16.954797744751 15.232533454895 14.2643909454346 12.5858011245728 10.9568214416504 9.26239395141602 7.54341840744019 4.92103385925293 1.87244832515717 0.826942443847656 -0.007809451315552 1.70057272911072 6.0764741897583 4.81688022613525 4.27002477645874 4.85558986663818 5.53606081008911 3.94000482559204 2.72152376174927 1.82354366779327 1.29135704040527 1.00419461727142 2.72049450874329 1.47305643558502 0.654273986816406 0.185129299759865 0.154157862067223 0.0735166072845459 0.0603084526956081 0.0503202378749847 -0.0700558871030807 4.78714656829834 15.6092920303345 19.7995853424072 17.5547657012939 15.5643815994263 14.6014652252197 13.7742538452148 13.380880355835 12.4086933135986 11.417329788208 10.5416040420532 9.69084358215332 8.98998260498047 8.30569839477539 7.93571710586548 7.42110157012939 6.75360059738159 5.8141884803772 5.18492221832275 4.99293994903564 4.95542430877686 4.90361976623535 4.82045745849609 4.70488882064819 4.65669250488281 4.59034252166748 4.40848445892334 4.20719766616821 4.03536510467529 3.88156175613403 3.73832488059998 3.58241081237793 3.50104928016663 3.39928150177002 3.27566337585449 3.13355875015259 3.02928972244263 2.94023084640503 2.88233256340027 2.85175466537476 2.84525752067566 2.7238655090332 2.64995574951172 2.54828572273254 2.46847987174988 2.44844150543213 7.04895639419556 8.55547142028809 8.3430347442627 8.60656070709229 8.65757179260254 11.8671865463257 9.27340221405029 8.25813674926758 7.62127161026001 7.0484447479248 6.52900886535645
-0.683519601821899 -0.779182255268097 -0.81809264421463 -0.861652135848999 -0.93455308675766 -1.00911176204681 -1.11149716377258 -1.22580575942993 -1.35004818439484 -1.49868094921112 -1.67379426956177 -1.85453712940216 -1.97192561626434 -2.0399603843689 -2.15266394615173 -1.99642097949982 0.138816490769386 -0.141589537262917 1.42958974838257 2.92167377471924 2.6936571598053 1.96211516857147 1.22951507568359 0.0482520125806332 -0.106674522161484 -0.386159479618073 -0.516305506229401 -0.537605464458466 -0.575678884983063 -0.640611112117767 -0.765498697757721 -0.916884064674377 -1.02473902702332 -1.09620451927185 -1.16055142879486 -1.31847953796387 -1.50551462173462 -1.54142737388611 -1.6933456659317 -1.80581545829773 -1.94327485561371 -2.10289525985718 -2.27755522727966 -2.48768448829651 -2.64124870300293 -2.81558537483215 -2.82014298439026 3.84363651275635 1.27327907085419 -0.183166831731796 -0.213517561554909 -1.81293284893036 -2.74483609199524 -2.75311708450317 18.1532287597656 14.2259292602539 10.8900461196899 12.0910034179688 17.8814029693604 14.5489292144775 12.5288219451904 10.4738645553589 8.22618103027344 7.9091272354126 7.08049392700195 5.71727752685547 5.10108232498169 3.7133252620697 1.05432045459747 0.840264976024628 0.663580000400543 0.461255997419357 0.378509908914566 -0.0287932846695185 -0.527488529682159 -1.16630017757416 -2.4459822177887 -2.4852089881897 -1.21534550189972 4.43693447113037 6.81478214263916 10.5637445449829 13.0513029098511 14.5295124053955 13.8913583755493 13.0263719558716 12.4526853561401 10.7237911224365 9.0881872177124 7.2302188873291 4.84848213195801 2.39930987358093 1.14971148967743 0.315980821847916 2.55372714996338 6.38566493988037 5.12422180175781 3.88919973373413 3.78535604476929 6.51239824295044 4.38761329650879 3.34724187850952 2.37647604942322 1.6571751832962 1.23487687110901 3.78828501701355 2.51904320716858 1.0671728849411 0.606734693050385 0.441404610872269 0.366544753313065 2.718177318573 1.71710073947906 0.758557856082916 3.21707653999329 11.0302963256836 17.3842353820801 17.3061866760254 15.9520397186279 15.2066831588745 14.3686637878418 13.5600328445435 12.5346832275391 11.5949487686157 10.6329956054688 9.72574710845947 8.95018863677979 8.26956367492676 7.96641778945923 7.46073579788208 6.84335374832153 6.06507587432861 5.47125387191772 5.25543689727783 5.06489038467407 4.87436962127686 4.71343612670898 4.70469379425049 4.59318828582764 4.41999053955078 4.19913387298584 4.01267623901367 3.83179783821106 3.67525815963745 3.53217172622681 3.3992133140564 3.40898036956787 3.29322695732117 3.18443536758423 3.0437479019165 2.92431902885437 2.84537243843079 2.78329491615295 2.74958086013794 3.1021876335144 3.00630521774292 2.88738799095154 2.77108120918274 2.71536684036255 2.67053365707397 3.53205442428589 4.2894139289856 8.91145992279053 8.18570804595947 9.7615795135498 9.04660892486572 8.09347248077393 7.41558408737183 6.85987854003906 6.33813667297363 5.88568878173828
-0.718108117580414 -0.826307713985443 -0.893669247627258 -0.581174552440643 -0.954822599887848 -1.02597832679749 -1.13090109825134 -1.24167168140411 -1.37670195102692 -1.50530755519867 -1.653111577034 -1.8208144903183 -1.9769629240036 -2.06219363212585 -2.20081925392151 -1.4014937877655 -0.202063485980034 -0.34479746222496 1.21676552295685 1.14178812503815 1.05570936203003 1.28866672515869 0.53521853685379 -0.253667950630188 -0.564602792263031 -0.766578733921051 -0.915240228176117 -0.917090058326721 -0.466682851314545 -0.960816979408264 -1.12870907783508 -1.29317700862885 -1.4785772562027 -1.59940838813782 -1.77248311042786 -2.07902264595032 -2.25728631019592 -2.16716837882996 -2.33650231361389 -2.42056798934937 -2.48119187355042 -2.55350112915039 -2.64329361915588 -2.78074359893799 -2.89734029769897 -3.03414869308472 0.302902400493622 0.115266114473343 0.919838190078735 -0.31915095448494 -0.888249576091766 -0.571312725543976 -2.11478590965271 2.00185108184814 10.068811416626 8.88423252105713 8.0722131729126 8.04326438903809 15.0891246795654 11.9371995925903 8.13681793212891 7.93964862823486 14.7467288970947 11.458270072937 7.92233228683472 5.85038948059082 5.08152103424072 4.56824731826782 2.03648281097412 1.59100842475891 1.49385321140289 1.49275469779968 1.38228511810303 0.767885982990265 -0.0179935116320848 -0.403202682733536 -0.992131173610687 -1.69776022434235 1.39297473430634 5.18212175369263 7.64525699615479 10.3984823226929 12.8458395004272 12.2322225570679 12.1737928390503 12.4783496856689 11.3109636306763 9.76580619812012 8.46841335296631 6.85795879364014 4.96974658966064 2.80887150764465 1.61370813846588 1.05331969261169 0.987311720848083 4.22485780715942 3.23509192466736 2.11640477180481 2.71695852279663 6.37106657028198 7.24463796615601 4.00252437591553 2.45541882514954 1.70352673530579 1.17859494686127 2.56474280357361 1.96303391456604 0.978461086750031 0.734279990196228 1.61856997013092 2.21324586868286 1.56317889690399 1.54531061649323 1.52643406391144 4.11348915100098 9.03207969665527 13.3072261810303 15.0823488235474 16.4457149505615 15.0084829330444 14.5208034515381 13.2906522750854 12.1289224624634 10.9865684509277 10.1053943634033 9.22682571411133 8.47974109649658 7.84938859939575 7.6075177192688 7.26758575439453 6.71353721618652 6.15983438491821 5.7153205871582 5.34857749938965 4.9798698425293 4.67361164093018 4.58101224899292 4.69108247756958 4.48803043365479 4.22694396972656 4.00141382217407 3.81217670440674 3.58194470405579 3.43371963500977 3.34074115753174 3.22786664962769 3.18259024620056 3.1007068157196 3.00012159347534 2.90461802482605 2.79633259773254 2.7111291885376 2.65213370323181 2.6305878162384 3.82282948493958 3.85614728927612 3.53144645690918 3.34706449508667 2.95376539230347 2.72691440582275 2.6773636341095 2.72714567184448 7.10294342041016 6.85143899917603 12.45383644104 10.2543687820435 8.8390941619873 7.63415956497192 6.67669630050659 6.00580596923828 5.45953941345215
-0.760800719261169 -0.876942992210388 -0.929969906806946 -0.970242440700531 -0.993385195732117 -1.0515044927597 -1.14670896530151 -1.26155686378479 -1.39049124717712 -1.50292861461639 -1.64387822151184 -1.80752158164978 -1.94349193572998 -2.09022951126099 -2.19316482543945 -1.10146450996399 -1.52060306072235 -1.25120103359222 0.60395759344101 0.58079206943512 0.393002927303314 0.255215167999268 -0.425103187561035 -0.898771464824677 -1.12829971313477 -1.29775023460388 -1.38221085071564 -0.537110328674316 -1.3317836523056 -1.48556697368622 -1.84146881103516 -2.02646899223328 -2.09203290939331 -2.15572762489319 -2.40131330490112 -2.67481279373169 -2.79704666137695 -2.80504155158997 -2.86378788948059 -2.6354398727417 -2.98272037506104 -3.01906967163086 -2.86407852172852 -2.93512153625488 -3.13564276695251 -2.80074024200439 -0.656625628471375 0.88364714384079 0.880888402462006 0.249081775546074 -0.594198346138 -1.17085921764374 1.54106533527374 2.34123229980469 3.73842167854309 4.84118604660034 5.79186201095581 4.76597499847412 4.93291425704956 12.5207681655884 4.35928201675415 3.83694696426392 13.5800867080688 28.0864582061768 16.2680511474609 8.7293872833252 4.48597717285156 4.02888250350952 3.36637616157532 2.59240531921387 2.46580100059509 3.78940033912659 2.2910578250885 1.10649180412292 0.210106387734413 0.00243145553395152 -0.218233242630959 -0.790381908416748 2.17786288261414 7.06391716003418 7.65236902236938 9.13136768341064 10.9088563919067 11.9336042404175 10.9786901473999 10.993504524231 9.84309196472168 8.56375980377197 7.46921348571777 6.26756191253662 4.76461219787598 2.98425197601318 1.90869331359863 1.5157904624939 1.26780223846436 1.24874866008759 2.09205842018127 1.20214307308197 1.26970684528351 6.07042264938354 8.01196193695068 4.84265089035034 2.41190552711487 1.20078504085541 0.898087859153748 2.34865117073059 2.81720232963562 1.69027268886566 1.16675770282745 0.962889492511749 1.3321658372879 4.63952541351318 4.62003660202026 3.62833881378174 3.70881247520447 6.52774333953857 10.2588129043579 13.1261329650879 16.3073444366455 15.3451366424561 13.4949502944946 12.3994922637939 11.3267765045166 10.2272415161133 9.21968936920166 8.42141628265381 7.74145841598511 7.16985702514648 7.05544185638428 6.78277730941772 6.27123641967773 5.83893918991089 5.3256368637085 4.91092252731323 4.72111463546753 4.50067472457886 4.31672096252441 4.32853412628174 4.08563470840454 3.85773134231567 3.64806866645813 3.4448459148407 3.22791290283203 3.08163380622864 3.0036895275116 2.86533093452454 2.89649534225464 2.94254112243652 2.84569358825684 2.78182888031006 2.72238302230835 2.64980864524841 2.60075736045837 2.69187164306641 3.48864102363586 3.68164205551147 3.38304448127747 3.31599044799805 3.34535479545593 3.00381326675415 2.68319392204285 2.90789890289307 4.75830554962158 10.04958152771 9.61920356750488 9.06657600402832 8.25426292419434 7.30216884613037 6.52247619628906 5.87173461914062 5.39323711395264
-0.806263327598572 -0.904615342617035 -0.969186365604401 -1.00886881351471 -1.04538857936859 -1.08836448192596 -1.16523945331573 -1.27517259120941 -1.39019083976746 -1.49745380878448 -1.61527645587921 -1.78272795677185 -1.94726991653442 -2.08282399177551 -2.19238018989563 -1.34696567058563 -2.27890586853027 -2.03786969184875 1.92224991321564 1.06255996227264 0.154298156499863 -0.578162729740143 -1.49811434745789 -1.69733393192291 -1.84925675392151 -1.98969614505768 -2.13321971893311 -2.22089576721191 -2.29458379745483 -2.4600830078125 -2.80439853668213 -2.9672474861145 -1.50530052185059 -2.44631552696228 -3.03974437713623 -3.1755793094635 -3.25091981887817 -3.27873063087463 -2.54530191421509 -1.79217600822449 -2.39917612075806 -3.10389018058777 -1.71059060096741 -2.10962915420532 -2.47988533973694 -0.240885689854622 -0.119282253086567 0.86570155620575 0.115334421396255 -0.9081751704216 -1.9027304649353 1.79283106327057 3.70335364341736 2.56775569915771 1.60530948638916 2.20206093788147 2.96242451667786 1.28731954097748 4.69497203826904 14.27015209198 10.3096895217896 7.25390481948853 9.59326076507568 19.5922832489014 18.4006977081299 11.2188768386841 6.15024089813232 4.83534240722656 4.13436222076416 3.42124223709106 3.0465030670166 2.94130730628967 2.65333390235901 1.02073919773102 0.103616252541542 -0.0519059859216213 -0.311249494552612 -0.325421214103699 2.7455723285675 9.03373241424561 6.8576602935791 5.97961854934692 8.33695697784424 9.74754238128662 16.717248916626 11.2124929428101 8.95649814605713 7.35100936889648 6.6079888343811 5.84315919876099 4.74278020858765 2.95848083496094 1.96474301815033 1.53034615516663 1.24030292034149 1.08696317672729 1.91643714904785 1.06297993659973 0.932334780693054 6.5408763885498 6.04568910598755 5.38937854766846 2.67745733261108 1.32611405849457 1.06624901294708 3.65274620056152 4.19673299789429 2.6237165927887 1.07213461399078 1.01370525360107 2.31706619262695 6.72062206268311 5.1542911529541 2.60261416435242 3.28707814216614 7.29074335098267 9.60141563415527 13.5974588394165 13.8257904052734 14.6796636581421 12.5969944000244 11.7967576980591 10.5808944702148 9.47041988372803 8.49788856506348 7.71126365661621 7.0232720375061 6.50028038024902 6.48280477523804 6.15324974060059 5.63385581970215 5.17843008041382 4.53996562957764 4.07961511611938 3.89343762397766 3.82633590698242 3.75070929527283 3.77381753921509 3.58818936347961 3.39057874679565 3.19675016403198 3.02503180503845 2.85474848747253 2.69641375541687 2.55475163459778 2.49924349784851 2.54021167755127 2.64354348182678 2.56852388381958 2.49948143959045 2.67556953430176 2.49508476257324 2.47068190574646 2.88438129425049 2.8398232460022 3.0292592048645 2.79623460769653 3.18435001373291 3.14975190162659 2.93356871604919 2.78457713127136 2.80549621582031 3.6053032875061 10.6461515426636 9.17431354522705 8.60596752166748 7.75894927978516 7.0722074508667 6.15050172805786 5.41393709182739 5.14954376220703
-0.839236378669739 -0.919129490852356 -0.983175277709961 -1.04892122745514 -1.0945246219635 -1.12896370887756 -1.18754839897156 -1.28308141231537 -1.39544093608856 -1.50656247138977 -1.61677205562592 -1.75835824012756 -1.96703541278839 -2.09975433349609 -2.16754603385925 -2.23126864433289 -2.28520846366882 -1.74441027641296 0.298995643854141 -0.469605982303619 -1.51971578598022 -1.80612766742706 -2.19994878768921 -2.50205683708191 -2.78379321098328 -2.9244658946991 -3.01905560493469 -2.97591185569763 -3.16231751441956 -3.35836625099182 -3.58299922943115 -3.74363136291504 0.921832084655762 0.229124307632446 -0.646545588970184 -1.15054774284363 -2.25962042808533 -2.97028541564941 -2.4552059173584 -1.6934210062027 -2.0693027973175 -2.59915852546692 -2.70659899711609 -2.54620170593262 0.734532952308655 0.437355846166611 0.397319406270981 -0.0475449375808239 -1.4901956319809 -2.93183851242065 -3.02199721336365 -1.61130845546722 10.4098205566406 7.37596607208252 4.56000852584839 2.60562705993652 2.58800029754639 3.44835448265076 7.47031497955322 8.50934028625488 7.87853145599365 7.08739995956421 8.81632041931152 13.4709701538086 19.8442440032959 13.5928258895874 9.55397796630859 6.8427906036377 5.97323656082153 5.25106382369995 4.57521963119507 4.10201597213745 3.51578235626221 1.39902210235596 0.16361078619957 -0.15049059689045 -0.301089763641357 0.864144623279572 1.78980147838593 10.6317167282104 7.08645153045654 5.22328996658325 4.80986070632935 8.6480073928833 20.0584354400635 13.3064498901367 10.607346534729 8.57357788085938 6.37944173812866 5.61271142959595 4.68022394180298 3.0929696559906 1.84662508964539 1.47514593601227 1.25771927833557 1.08423972129822 1.02727472782135 0.931614816188812 0.877268016338348 5.13862657546997 4.94599866867065 7.05996179580688 4.05920648574829 2.59597730636597 2.40122485160828 4.27512359619141 2.63424015045166 1.95574247837067 2.05857872962952 1.64422607421875 1.63491749763489 5.69154357910156 6.12082862854004 3.15885448455811 4.43453168869019 6.64979600906372 7.12770652770996 11.6787443161011 13.4444580078125 11.605297088623 11.9489603042603 11.4123640060425 10.2157421112061 9.08487033843994 8.14600372314453 7.3619818687439 6.78157520294189 6.24379539489746 5.76344871520996 5.49194622039795 5.07835388183594 4.48799276351929 3.67710733413696 3.36439180374146 3.27374458312988 3.29318714141846 3.26103758811951 3.23900508880615 3.0497465133667 2.86947011947632 2.72574973106384 2.58810019493103 2.45178890228271 2.31626510620117 2.28060102462769 2.16672801971436 2.11585402488708 2.20780253410339 2.27942419052124 2.17438650131226 2.16907501220703 3.93645310401917 3.60017371177673 3.48666310310364 3.35749268531799 2.9429624080658 2.69052219390869 2.7594792842865 2.74353122711182 2.69163513183594 2.67577934265137 2.72108054161072 9.38559246063232 9.44351863861084 8.15496635437012 7.31605005264282 6.84039497375488 6.97783613204956 6.51895666122437 5.74088764190674 5.60723209381104
-0.883619964122772 -0.948539078235626 -1.0176899433136 -1.11795961856842 -1.15171325206757 -0.734491944313049 -1.21381294727325 -1.31143200397491 -1.42350292205811 -1.53826498985291 -1.62658631801605 -1.75837063789368 -1.94665157794952 -2.08891224861145 -2.15711426734924 -2.22823357582092 -2.30493569374084 -2.36315608024597 -1.90036308765411 -1.95416498184204 -2.37934374809265 -2.60933542251587 -2.75537180900574 -2.96571397781372 -3.11381506919861 -3.23015809059143 -3.30476450920105 -2.06089901924133 -3.45842051506042 -3.68371725082397 -3.90291881561279 -4.02141618728638 0.405487895011902 0.809378206729889 0.246877938508987 0.00346973608247936 -0.537001073360443 -1.405193567276 -1.82254016399384 -2.32113718986511 -2.85433578491211 -1.69350290298462 -2.06722927093506 -1.66011822223663 1.68878042697906 1.27860403060913 0.683487355709076 -0.62196671962738 -2.22857022285461 -2.62256097793579 -2.63274526596069 -2.6976478099823 6.02049398422241 7.04333209991455 4.93150424957275 3.22010636329651 3.39428853988647 4.90077686309814 5.39409065246582 5.52149868011475 5.47449207305908 7.28058195114136 9.2728099822998 13.3295526504517 16.2732639312744 14.7515058517456 11.2997484207153 7.87944412231445 6.76905393600464 6.05300235748291 5.02708673477173 4.53819274902344 3.69622278213501 1.99545896053314 0.446116060018539 -0.0996167659759521 -0.269223928451538 0.997325420379639 3.46819877624512 9.88834381103516 6.83637046813965 4.50995302200317 4.05053472518921 9.10904788970947 20.2998065948486 14.5556859970093 11.1684761047363 8.61586666107178 6.94813346862793 5.91560173034668 4.66969203948975 3.32775020599365 1.94968724250793 1.38643538951874 1.33371353149414 1.30451822280884 1.2282794713974 1.03188359737396 1.52793347835541 4.16113328933716 3.93163990974426 6.78059768676758 5.44393968582153 3.88787651062012 3.6700427532196 3.56957602500916 2.97802925109863 2.27003383636475 2.01191091537476 1.62489700317383 1.52091002464294 9.07676219940186 7.53098058700562 5.23751401901245 5.19824457168579 7.56816673278809 8.10763359069824 8.69131469726562 10.2640247344971 10.3519697189331 10.4627656936646 10.2099342346191 9.09305381774902 8.01145648956299 7.11967086791992 6.40794610977173 5.83099269866943 5.37589550018311 5.4509220123291 5.30572891235352 4.78358888626099 4.16236448287964 3.39136910438538 2.89689087867737 2.7752046585083 2.73241686820984 2.66973757743835 2.65862965583801 2.55789136886597 2.40779566764832 2.25536465644836 2.15085411071777 2.17310214042664 2.10468292236328 2.01532411575317 1.91500675678253 1.8233106136322 1.78970158100128 2.33485007286072 3.37879729270935 2.73025321960449 2.9199435710907 5.22151947021484 4.77012157440186 4.27927112579346 3.80763840675354 3.04504036903381 2.9349148273468 2.89562225341797 3.49393534660339 4.70988368988037 3.34469127655029 11.551308631897 9.06892967224121 13.355055809021 9.42931461334229 8.00171756744385 7.12533187866211 6.58260059356689 5.87874984741211 5.24875068664551
-0.943102777004242 -1.00495266914368 -1.07471597194672 -1.14901494979858 -1.19591200351715 -0.583974599838257 -1.09928643703461 -1.34735023975372 -1.4610230922699 -1.55776047706604 -1.67883265018463 -1.78469586372375 -1.91947257518768 -2.05662679672241 -2.15903425216675 -2.24444508552551 -2.33155608177185 -2.41708850860596 -2.48951268196106 -2.54634237289429 -2.65531659126282 -2.82701206207275 -3.08730030059814 -3.27002382278442 -3.38978958129883 -3.51391768455505 -3.59539866447449 -2.88612532615662 -3.80148458480835 -4.0855073928833 -4.19360637664795 -2.61313819885254 -0.182529360055923 0.546016097068787 0.179127961397171 0.17447891831398 0.865865468978882 -0.0532117113471031 -0.557469248771667 -1.21218454837799 -2.06460618972778 -1.47944521903992 -2.09224343299866 -0.164006054401398 2.17262482643127 1.8586208820343 1.12471485137939 0.0220068693161011 -1.49025022983551 -1.77300953865051 -1.92328226566315 -1.14761877059937 3.12359833717346 5.65880870819092 3.7500786781311 3.19489789009094 4.000403881073 4.46566534042358 3.54278779029846 3.93775820732117 5.85332298278809 8.02739238739014 10.1801452636719 13.8566474914551 13.6278209686279 13.4960308074951 11.205394744873 8.904541015625 7.53646612167358 6.56512832641602 5.51756906509399 4.4171257019043 3.73114085197449 2.76067924499512 1.39774453639984 0.440881729125977 0.190109863877296 0.618627190589905 4.2838716506958 9.6389684677124 8.20592212677002 5.29458475112915 4.65881586074829 9.187819480896 15.1638498306274 12.3157501220703 9.58708095550537 8.3140697479248 7.16242361068726 6.13430976867676 4.82671022415161 3.56454372406006 2.25944972038269 1.42202770709991 3.15628504753113 3.19733095169067 4.1280574798584 2.50500702857971 2.55667543411255 2.08579397201538 6.13092994689941 6.02206134796143 5.76045608520508 5.62996768951416 5.12955808639526 3.87003612518311 3.33089470863342 2.7992856502533 2.59735250473022 2.09706783294678 5.0010838508606 7.88381242752075 4.42512083053589 4.68606090545654 6.31188678741455 8.3014612197876 9.90202522277832 8.93928337097168 9.61754608154297 10.2392435073853 9.38245010375977 8.17069339752197 7.2649998664856 6.48284435272217 5.80469560623169 5.49910688400269 5.17561006546021 4.839599609375 4.71126890182495 4.28960180282593 3.73194766044617 3.30645775794983 2.8077290058136 2.48245716094971 2.1972770690918 2.12059140205383 2.08792567253113 3.62055563926697 3.39530944824219 2.07853937149048 1.93235862255096 1.85790503025055 1.82392287254333 1.88365638256073 1.81865704059601 1.71145534515381 1.59699285030365 1.52777671813965 1.5266330242157 3.44476103782654 3.1690456867218 3.06327724456787 5.39609432220459 5.64974546432495 4.97810029983521 4.40739297866821 3.63325667381287 3.24228024482727 3.1098906993866 3.3330557346344 3.06912922859192 10.8428535461426 11.3559265136719 10.4043626785278 9.64896583557129 8.20934200286865 8.08629035949707 6.85371065139771 5.7347617149353 4.83959722518921 4.19582557678223
-0.828761756420135 -1.06070959568024 -1.1187744140625 -1.17447566986084 -1.2149612903595 -1.14759147167206 -1.27889215946198 -1.36955094337463 -1.4724987745285 -1.56058120727539 -1.68705439567566 -1.85313773155212 -1.94241452217102 -2.05222129821777 -2.14855933189392 -2.26840281486511 -2.38481187820435 -2.47881650924683 -2.57569313049316 -2.68759536743164 -2.91468143463135 -3.14127230644226 -3.47985005378723 -3.63547658920288 -3.71369647979736 -3.81555509567261 -4.00588321685791 -4.13118028640747 -2.16916012763977 -3.16600871086121 -3.5381600856781 -1.68525922298431 -0.778347790241241 -0.0554064773023129 -0.23126894235611 -0.422553390264511 0.564483225345612 0.377840578556061 -0.00125675485469401 -0.506561458110809 -1.13571166992188 -1.49670052528381 -1.62543332576752 1.41293430328369 2.40079879760742 1.71927082538605 1.29952108860016 0.692827463150024 -0.289167255163193 -0.719351649284363 -0.85651046037674 -0.926040053367615 3.43368148803711 3.30352568626404 2.58779120445251 2.4355161190033 3.90262484550476 3.17438435554504 2.93684935569763 3.68390035629272 5.56247663497925 7.6343879699707 9.47632122039795 14.3498773574829 16.9738445281982 14.1970462799072 11.9176692962646 9.14868259429932 7.94990682601929 7.05877351760864 6.22221612930298 5.04952096939087 3.92913269996643 3.17557811737061 2.15849351882935 1.08672297000885 0.708845973014832 0.68365079164505 5.34377288818359 8.54073715209961 7.98701906204224 5.62676477432251 5.92132472991943 7.80487823486328 8.52206039428711 8.11023139953613 7.49857616424561 7.48257541656494 6.5450005531311 5.73254537582397 4.6571741104126 3.81361603736877 2.69938540458679 1.88704609870911 4.19809198379517 3.99056148529053 6.31612062454224 4.50425100326538 4.64406538009644 3.35467791557312 7.687575340271 6.72997236251831 5.72760200500488 5.85741901397705 6.30016183853149 4.86325407028198 4.00983905792236 6.64432430267334 4.09071159362793 3.61185765266418 4.63089084625244 5.15454912185669 6.44366598129272 6.76851177215576 8.28733444213867 8.46597194671631 8.2094259262085 9.32817840576172 9.60333633422852 8.80809593200684 7.47730731964111 6.41122913360596 5.64012098312378 5.10315990447998 5.12631893157959 5.09713506698608 4.75000858306885 4.30599975585938 3.79659104347229 3.32546663284302 2.93865323066711 2.62059950828552 2.22730946540833 1.93572056293488 1.6305023431778 1.49732577800751 1.85246658325195 2.18400120735168 3.34133315086365 2.75072407722473 2.01490116119385 1.53417587280273 1.56244158744812 1.66725850105286 1.58811342716217 1.48326742649078 1.40269601345062 1.34178698062897 1.31914007663727 2.27102255821228 4.66425085067749 4.17685461044312 4.78166627883911 6.16112470626831 5.02491521835327 4.55590438842773 3.95887899398804 3.45722103118896 3.72672367095947 3.80363988876343 12.0343713760376 9.21524715423584 8.34620571136475 7.68256425857544 6.9832124710083 7.20549821853638 5.71585512161255 4.79338884353638 4.08695507049561 3.48657751083374 3.23297786712646
1.3120002746582 0.697191298007965 -0.717190444469452 -1.20583271980286 -1.24722707271576 -1.15002202987671 -1.31042182445526 -1.40539956092834 -1.49742293357849 -1.58147549629211 -1.67464435100555 -1.81486392021179 -1.96730387210846 -2.08059287071228 -2.22666049003601 -2.34863233566284 -2.45974040031433 -2.55904912948608 -2.71650958061218 -2.96373200416565 -3.20049905776978 -3.47179937362671 -3.74079585075378 -3.87387776374817 -3.99757289886475 -3.96968030929565 -4.16914510726929 -3.81602954864502 -2.89629006385803 -2.49984645843506 -1.77498066425323 -0.956028461456299 -0.841473460197449 -0.983514368534088 -0.673589527606964 -0.878238916397095 -0.900845944881439 -0.130893513560295 -0.665968120098114 -0.815742671489716 -1.16737735271454 -1.25137627124786 -0.832104444503784 0.313147395849228 1.85907125473022 1.67367148399353 1.33921074867249 0.920725882053375 1.38161599636078 1.05935084819794 0.536436498165131 0.358097761869431 1.96686792373657 1.33101904392242 0.733631134033203 1.17138314247131 1.51115822792053 0.972393751144409 2.12408947944641 4.22233057022095 3.69411683082581 6.43366289138794 6.38335752487183 16.8705940246582 20.1324806213379 19.526481628418 15.556191444397 12.1128396987915 8.37370491027832 7.41961479187012 6.6332540512085 5.72305822372437 4.52899694442749 3.42940640449524 2.53276443481445 1.83664691448212 1.18098866939545 1.02887105941772 5.37589263916016 7.74168825149536 7.28336429595947 5.62699031829834 6.40511846542358 6.87785816192627 7.54172086715698 6.79403114318848 7.02864599227905 6.35341453552246 5.47558164596558 5.03851890563965 4.58819723129272 3.8392481803894 3.01052737236023 2.16762256622314 5.43736028671265 4.86961317062378 9.77463436126709 7.33272695541382 6.00293254852295 4.12807178497314 8.15138339996338 7.68647527694702 6.00929832458496 5.13200330734253 6.16656160354614 5.61049175262451 7.7660436630249 7.15551948547363 5.75565052032471 6.03211498260498 5.75115299224854 6.4583101272583 6.43685674667358 7.11924266815186 7.42340612411499 7.2223653793335 7.11845684051514 6.30478048324585 5.90144538879395 4.89586925506592 4.14363098144531 4.18015003204346 4.28161287307739 4.21623229980469 4.38122510910034 4.07323122024536 3.75892400741577 3.24780225753784 2.73333597183228 2.27880692481995 2.00496339797974 1.89984309673309 1.72317981719971 1.50716841220856 1.29028046131134 1.12773561477661 1.07027506828308 3.82451581954956 4.51190757751465 3.49648022651672 4.18417835235596 2.94824862480164 1.81330132484436 1.34162271022797 1.27050924301147 1.18395113945007 1.14617514610291 1.14886450767517 1.11821341514587 2.12187957763672 4.06891107559204 4.67274522781372 6.15045690536499 6.07954025268555 5.30294609069824 4.92052745819092 3.95185089111328 3.8223021030426 3.80515193939209 9.21710395812988 7.20610666275024 5.86771965026855 5.5888729095459 5.42244863510132 4.9497504234314 4.29503393173218 3.39636564254761 3.24603843688965 3.18605995178223 3.10062265396118 3.00927257537842
2.65111589431763 1.88169598579407 0.996485590934753 -0.489471584558487 -0.672620415687561 -0.723167538642883 -0.829013705253601 -1.12489092350006 -1.39895272254944 -1.61916518211365 -1.71035087108612 -1.8303724527359 -1.99374496936798 -2.15085291862488 -2.31870770454407 -2.45598196983337 -2.58481097221375 -2.7762279510498 -3.22836637496948 -3.47851705551147 -3.62788534164429 -3.74004554748535 -3.91264414787292 -4.05765342712402 -4.14725780487061 -2.04834747314453 -1.61111736297607 -2.07945275306702 -2.22490119934082 -1.75060629844666 -0.804543375968933 0.200151056051254 -0.251554250717163 -0.585590898990631 -0.734041273593903 -0.761193573474884 -0.712980329990387 -0.828782916069031 -0.921583950519562 -1.05166971683502 -1.06454932689667 -1.10700058937073 0.73955911397934 2.59402585029602 2.76759648323059 2.44369745254517 1.85531854629517 1.30974328517914 1.39808547496796 1.2415988445282 0.987991333007812 0.889397144317627 0.667602777481079 0.214375212788582 -0.379276156425476 -0.778441667556763 -0.818336725234985 -1.02911162376404 3.60877275466919 6.20630168914795 5.35610961914062 7.44477033615112 7.74565839767456 16.6491107940674 18.6923809051514 21.5176620483398 18.270055770874 14.8583650588989 10.8379888534546 9.34241390228271 8.22441101074219 7.16027879714966 5.98841142654419 4.6981406211853 3.41744112968445 2.1441650390625 1.51667106151581 1.22930002212524 4.51682233810425 4.51072645187378 4.3054518699646 6.50436162948608 10.179669380188 8.3317813873291 7.93502473831177 7.15063762664795 6.82703638076782 5.73077392578125 5.17898511886597 4.78098154067993 4.39460897445679 3.73414087295532 2.95049428939819 2.23221945762634 3.15748333930969 4.22235774993896 14.2915506362915 10.9062347412109 8.8836727142334 6.37282085418701 5.81007671356201 5.66920280456543 5.08214712142944 4.56357192993164 6.96102666854858 10.388729095459 9.25089454650879 7.02191066741943 7.15970134735107 6.93071937561035 6.44734573364258 5.41598272323608 4.84604597091675 4.3310866355896 4.56498575210571 4.30837726593018 4.05791854858398 3.79416847229004 3.59830904006958 3.41543793678284 3.29794931411743 3.37287282943726 3.17905831336975 3.2207612991333 3.05238652229309 2.87894296646118 2.6487398147583 2.34697532653809 2.04863214492798 1.82422816753387 1.69268393516541 1.66284024715424 1.41163682937622 1.23828542232513 1.01021432876587 0.812423527240753 0.758748888969421 3.57840275764465 5.77801609039307 4.73829460144043 4.26815032958984 3.89821243286133 2.73824667930603 1.80418658256531 1.41677677631378 1.06075930595398 0.937638103961945 0.888492941856384 0.885253369808197 1.4133985042572 2.4076988697052 4.56289482116699 7.35855340957642 7.19739389419556 5.8494029045105 5.25731611251831 4.13484573364258 4.07033491134644 3.97277498245239 4.56335639953613 3.82639145851135 3.81301546096802 10.4480714797974 7.4990119934082 3.47775506973267 3.3444344997406 3.21242165565491 3.20726990699768 3.14730644226074 3.05578970909119 2.92673945426941
3.56941509246826 2.39130783081055 1.78050088882446 0.638218641281128 0.075939804315567 -0.105812750756741 -0.21449325978756 -0.50931978225708 -0.852368831634521 -1.09539043903351 -1.35608756542206 -1.73065686225891 -2.02925324440002 -2.24660849571228 -2.40591287612915 -2.55998682975769 -2.8084933757782 -3.14497137069702 -3.47228717803955 -3.67444825172424 -3.82903385162354 -3.96940565109253 -4.06335258483887 -2.38375306129456 -1.59973359107971 -0.517195224761963 -0.666719317436218 -1.11755037307739 -1.60902905464172 -1.78951799869537 0.136849403381348 1.79283106327057 0.784807980060577 -0.0753437727689743 -0.0469149984419346 -0.289717525243759 -0.47654664516449 -0.647770643234253 -0.77209746837616 -1.01852643489838 1.13240718841553 0.817763984203339 1.12869298458099 3.81948399543762 3.04393005371094 2.29973745346069 2.17803359031677 1.13979434967041 1.00900208950043 0.924666881561279 0.663472950458527 0.431317180395126 -0.137358427047729 -1.18361663818359 -1.72455048561096 0.14930759370327 1.99882221221924 1.98790717124939 4.32405185699463 5.63045358657837 4.75089836120605 4.308669090271 5.07110977172852 20.2662258148193 21.5714111328125 20.5642719268799 21.7273979187012 17.4787750244141 12.7188301086426 10.9798011779785 9.66906833648682 8.5127010345459 7.42710542678833 6.30659675598145 5.07450294494629 3.36900854110718 1.90181386470795 1.5812885761261 3.41677594184875 3.17152428627014 3.8632185459137 8.45559406280518 10.731388092041 8.28911018371582 7.67101049423218 7.34385204315186 6.27260541915894 5.427077293396 4.73903465270996 4.24869775772095 3.87704825401306 3.38339424133301 2.85694599151611 2.18142342567444 2.56692409515381 8.41466617584229 14.95751953125 13.2221508026123 10.3549537658691 8.49225807189941 8.12981700897217 7.41158008575439 7.00940895080566 6.81641912460327 7.12568426132202 7.27986145019531 6.41479110717773 6.20088958740234 6.18809509277344 5.2238826751709 4.53795289993286 4.28899908065796 4.08771419525146 3.89048647880554 3.81318116188049 3.56365323066711 3.36743974685669 3.40370464324951 3.26762628555298 3.14083123207092 3.00374817848206 2.86796903610229 2.71749448776245 2.66251492500305 2.47144627571106 2.23819470405579 2.0380847454071 2.02977991104126 1.77259385585785 1.56544101238251 1.45149874687195 1.37040591239929 1.20237576961517 1.01824378967285 0.802897810935974 0.628957569599152 0.583671450614929 0.584438800811768 4.97171878814697 6.16366291046143 4.8578052520752 3.9136655330658 2.95276498794556 2.14647269248962 1.65112829208374 1.26510035991669 1.15237879753113 1.69555008411407 2.20577096939087 2.1752302646637 1.81080853939056 3.16091537475586 7.07820463180542 8.0808277130127 6.1473240852356 5.08809185028076 4.30193853378296 5.00230407714844 4.14474010467529 3.95756053924561 3.78439998626709 10.1755266189575 7.51837348937988 4.72066593170166 3.20989608764648 2.98290777206421 4.09336185455322 3.68529486656189 3.41345906257629 2.91950917243958 2.75972199440002
3.62475299835205 2.53129100799561 1.87896001338959 1.04493260383606 0.435391336679459 -0.0256301071494818 -0.15238444507122 -0.387729346752167 -0.674790441989899 -0.908160924911499 -1.15992653369904 -1.69418239593506 -2.08939838409424 -2.31808090209961 -2.48390102386475 -2.72048473358154 -3.07053637504578 -3.3197603225708 -3.52923846244812 -3.72668957710266 -3.8595826625824 -2.96247887611389 -1.00352537631989 -1.13733661174774 -1.3717679977417 -1.07898771762848 -0.764986395835876 -0.133318543434143 -0.187273591756821 -0.449155390262604 -0.653669714927673 -0.253234446048737 1.1429215669632 0.291137367486954 0.587097525596619 0.177645280957222 -0.169540345668793 -0.268337428569794 -0.37343892455101 -0.537133276462555 -0.16947016119957 0.941306591033936 1.50360774993896 2.37284350395203 2.16886305809021 1.85763001441956 1.27532994747162 0.11011641472578 0.0409386530518532 2.39509868621826 0.909991562366486 -0.415832608938217 -1.18497812747955 -1.64531016349792 -2.03268766403198 0.974628627300262 2.39678955078125 2.69773244857788 3.06167912483215 4.98571014404297 5.02339696884155 4.57356405258179 4.25461053848267 16.2727088928223 23.1991577148438 22.0185661315918 21.6228294372559 20.0717582702637 15.3311805725098 13.2288331985474 11.6581649780273 10.3785591125488 9.23630619049072 7.89555883407593 6.14564418792725 4.76958227157593 3.22909808158875 2.7711226940155 4.52214384078979 3.98617053031921 4.9142017364502 8.8488130569458 8.38461303710938 7.34569883346558 7.11786031723022 6.58921480178833 5.59914779663086 4.83627128601074 4.23600673675537 3.72603607177734 3.29564547538757 2.87887907028198 2.69479370117188 2.09127330780029 4.81967449188232 10.6974678039551 15.4931058883667 14.1222620010376 11.2659740447998 10.8628854751587 9.69314575195312 8.79616832733154 8.11291217803955 7.43759107589722 6.76704931259155 6.16209506988525 5.67118740081787 5.25823307037354 4.89629888534546 4.69463109970093 4.42577219009399 4.15307092666626 3.91211676597595 3.71180963516235 3.52449131011963 3.35057401657104 3.19639492034912 3.21062541007996 3.08474683761597 2.95201230049133 2.79883122444153 2.61415529251099 2.40433359146118 2.26081776618958 2.10309195518494 1.92329800128937 1.67024660110474 1.58793115615845 1.37580001354218 1.22895562648773 1.17045307159424 1.15038335323334 1.02602481842041 0.849545657634735 0.653890490531921 0.520311176776886 0.549198925495148 0.445986986160278 3.56112122535706 6.61860799789429 5.12080669403076 3.09390640258789 1.90475678443909 4.21923303604126 1.49391555786133 1.26896405220032 3.69587159156799 2.88796496391296 2.67688727378845 2.4951765537262 1.76986968517303 1.64515221118927 3.32684755325317 6.20892095565796 5.84142684936523 4.69626569747925 6.58466577529907 6.03492259979248 5.07863616943359 4.35191535949707 3.85863399505615 10.7475671768188 5.19190406799316 3.12589931488037 2.75235939025879 2.56870746612549 3.16358470916748 5.02946996688843 4.57897281646729 3.36256146430969 2.53312063217163
3.05376505851746 1.839470744133 1.33730959892273 1.11057209968567 0.549220085144043 0.0569167137145996 -0.189117148518562 -0.408560544252396 -0.611314177513123 -0.917075097560883 -1.24237430095673 -1.79900538921356 -2.12997341156006 -2.36702084541321 -2.56701588630676 -2.85951137542725 -3.1741316318512 -3.3816545009613 -3.50624966621399 -3.6050717830658 -3.24463725090027 -2.46551418304443 -1.73332822322845 -1.89782500267029 -1.13402593135834 -0.3514723777771 -0.147785171866417 -0.347737967967987 -0.648906052112579 -1.09162771701813 -1.43807530403137 -0.500203013420105 2.55323648452759 1.86817300319672 1.01150059700012 0.385810643434525 0.10455134510994 -0.212770581245422 -0.389595448970795 -0.545700013637543 -0.396611958742142 0.29511621594429 0.413137316703796 0.622344136238098 0.880064070224762 0.786553919315338 0.109210804104805 -0.588732361793518 -0.629515588283539 1.14330387115479 -0.641887843608856 -0.983267664909363 -1.63756883144379 -2.12024641036987 -2.23650097846985 0.45228573679924 2.30670118331909 3.38903403282166 2.32994031906128 4.41053628921509 6.93914031982422 5.69518232345581 5.151291847229 6.92855978012085 23.7252750396729 23.8625640869141 22.1753368377686 22.1013278961182 18.1398391723633 14.3747406005859 12.7010297775269 11.3082218170166 10.0706758499146 8.74879455566406 7.11133098602295 5.67798662185669 4.31149816513062 3.54946184158325 4.18257522583008 3.50018787384033 4.6937780380249 7.97630167007446 7.43068075180054 6.68734073638916 6.10152149200439 5.38721323013306 4.73637533187866 4.19121694564819 3.74293684959412 3.32128119468689 2.98360204696655 2.68816781044006 2.42452335357666 2.02072286605835 7.56851577758789 9.18297386169434 17.0425224304199 14.3395166397095 11.1633749008179 10.7572917938232 9.55581855773926 8.33746814727783 7.34674787521362 6.57775163650513 5.99538278579712 5.478440284729 5.04088497161865 4.7006664276123 4.73214054107666 4.54548835754395 4.250075340271 4.00653028488159 3.78845810890198 3.59590744972229 3.41849422454834 3.25154709815979 3.09838795661926 3.0455584526062 2.92355918884277 2.78977155685425 2.61846303939819 2.29468178749084 2.09645986557007 1.98447716236115 1.88563811779022 1.6914849281311 1.42183661460876 1.23252165317535 1.0559264421463 0.989502251148224 0.964906811714172 1.11274373531342 0.876104712486267 0.74523663520813 0.580996811389923 0.476098209619522 0.484615951776505 0.403422474861145 0.397971451282501 2.59737944602966 3.06930708885193 2.20965385437012 2.19726753234863 2.81777453422546 2.64393210411072 2.27286839485168 2.84129500389099 2.80615043640137 2.23857951164246 2.1997606754303 2.17160773277283 1.89273202419281 1.98815274238586 3.00285863876343 2.64755797386169 4.81636476516724 7.41218423843384 7.37970113754272 6.35325622558594 5.51442050933838 4.14833927154541 5.65568399429321 4.26419448852539 2.97930884361267 2.58893847465515 1.97051358222961 1.67775189876556 7.33587169647217 7.40607213973999 6.15291452407837 4.95376777648926
2.62464356422424 1.68768405914307 1.16654098033905 0.715898871421814 0.182100713253021 -0.222683593630791 -0.387069344520569 -0.483409255743027 -0.640460252761841 -1.143683552742 -1.48851180076599 -1.86830174922943 -2.19972944259644 -2.40873575210571 -2.64113283157349 -2.9656183719635 -3.17112803459167 -3.28691434860229 -2.90334820747375 -2.18258237838745 -3.20262360572815 -3.27959680557251 -2.40825271606445 -1.72277665138245 -1.38995146751404 -1.46863353252411 -1.5740749835968 -1.78853344917297 -1.96122848987579 -2.25612592697144 -2.02722811698914 2.36027026176453 1.5965940952301 1.04161655902863 0.810901045799255 0.910640299320221 0.762147128582001 0.408095717430115 -0.134747624397278 -0.427306622266769 -0.577757716178894 -0.596706569194794 -0.605957329273224 -0.355028688907623 -0.551421880722046 -0.762453973293304 -1.00943112373352 -1.02829241752625 -1.00421071052551 -1.01561594009399 -1.12395298480988 -1.32592964172363 -1.90991771221161 -2.23976898193359 -2.40314030647278 0.177611663937569 1.81100869178772 4.70305871963501 3.4387993812561 3.13881611824036 6.81063365936279 7.01956939697266 5.73458051681519 5.49317121505737 16.5710105895996 26.6703033447266 23.0063953399658 22.9992237091064 20.4896984100342 15.9730815887451 13.8646860122681 12.1775321960449 10.7100267410278 9.25604152679443 7.74132299423218 6.16923093795776 5.02983474731445 4.32448101043701 4.12055635452271 4.0026421546936 3.84244275093079 8.16602611541748 8.3629789352417 7.02548122406006 6.00654458999634 4.9298677444458 4.40337085723877 3.92861318588257 3.47129273414612 3.33255958557129 3.19914960861206 3.00607204437256 2.68930315971375 2.37117218971252 8.46326541900635 14.8623342514038 15.047830581665 13.4090118408203 11.2799682617188 9.93048858642578 8.527099609375 7.41814422607422 6.61974859237671 5.99102687835693 5.51589202880859 5.11012315750122 4.70814275741577 4.34537792205811 4.30854463577271 4.0431170463562 3.81552648544312 3.61130714416504 3.41993260383606 3.24902272224426 3.09899020195007 2.96090507507324 2.83152747154236 2.92456722259521 2.80488872528076 2.67034244537354 2.47425961494446 2.06236815452576 1.8860901594162 1.81462705135345 1.68581247329712 1.46235227584839 1.19419455528259 0.916671454906464 0.748355567455292 2.546147108078 2.22621726989746 1.85532307624817 0.868753969669342 0.605636477470398 0.395440638065338 0.29468047618866 0.440292656421661 0.38055545091629 0.37996518611908 0.368535399436951 3.06759071350098 2.71498799324036 2.59437131881714 2.94544887542725 3.13046288490295 2.81080389022827 2.6192901134491 2.82789397239685 2.45379781723022 2.09928393363953 1.81289005279541 1.58818757534027 1.73064339160919 1.90942347049713 1.65360176563263 5.25489807128906 5.746994972229 6.24615287780762 6.69712352752686 6.39760446548462 5.17698669433594 4.18547582626343 6.35865354537964 3.21021151542664 2.56028819084167 1.55812525749207 1.07881939411163 4.86247968673706 15.0327711105347 11.8668718338013 8.74618625640869
1.75082004070282 1.36875188350677 0.754156172275543 0.521127462387085 0.0444731526076794 -0.274012178182602 -0.413162291049957 -0.503732144832611 -0.746737480163574 -1.08598709106445 -1.2624659538269 -1.65780079364777 -2.20369553565979 -2.4110963344574 -2.62746739387512 -2.82821083068848 -3.00315165519714 -3.09661030769348 -2.7027485370636 -3.25380396842957 -3.33127307891846 -2.74875044822693 -2.69627451896667 -2.88281655311584 -2.91211700439453 -2.94281578063965 -3.04193663597107 -3.42344522476196 -3.49442625045776 -1.45514571666718 1.04722452163696 0.77789705991745 0.664347290992737 0.487506657838821 0.251649886369705 0.60978102684021 0.377222567796707 -0.0633266493678093 -0.473810583353043 -0.611305177211761 -0.776377201080322 -0.938049852848053 -1.02793073654175 -1.09800517559052 -1.21303915977478 -1.24701571464539 -1.41333591938019 -1.43149089813232 -1.44066536426544 -1.48802959918976 -1.61401391029358 -1.76796174049377 -2.17414784431458 -2.4792172908783 -2.65310478210449 -0.906618297100067 2.90239429473877 3.14310169219971 2.90795350074768 3.27304077148438 5.63540506362915 4.84814405441284 5.23972654342651 5.27914428710938 11.2131366729736 24.6048069000244 23.9192752838135 23.5401515960693 22.1815853118896 17.3230381011963 14.4190473556519 12.6433324813843 11.0248203277588 9.60858058929443 8.23761940002441 6.81798219680786 5.8011589050293 5.15155029296875 4.62191915512085 4.45869207382202 4.31854391098022 6.07099008560181 7.04126024246216 6.02953672409058 5.67431116104126 5.48816585540771 4.7581205368042 4.11547422409058 3.75934314727783 3.65023803710938 3.53074645996094 3.37654590606689 3.04400539398193 2.744549036026 5.81387376785278 20.5554695129395 16.3945217132568 13.7335319519043 11.7047863006592 9.63953971862793 8.20086288452148 7.23896408081055 6.51211786270142 5.96016979217529 5.41583108901978 4.91318511962891 4.51573514938354 4.19094848632812 3.97114586830139 3.70580744743347 3.47407627105713 3.28392934799194 3.1383044719696 2.99812126159668 2.86851334571838 2.74453783035278 2.62291312217712 2.68121266365051 2.5503785610199 2.4093005657196 2.19461488723755 1.89069449901581 1.6578471660614 1.55779922008514 1.40261840820312 1.13079166412354 0.925110280513763 0.715057730674744 0.53149002790451 3.97960448265076 4.42164421081543 3.10087108612061 2.05508708953857 0.498174011707306 0.252615481615067 0.0989302024245262 2.25716543197632 4.41365957260132 3.9661591053009 3.26576066017151 2.81092691421509 3.31105470657349 3.30175566673279 3.32582139968872 3.61485290527344 3.27624773979187 2.75198936462402 2.32474279403687 2.02696776390076 1.75980842113495 1.52452635765076 1.3701833486557 1.24829697608948 1.19867992401123 2.19753241539001 3.21462535858154 4.07663106918335 2.86561369895935 3.70041537284851 11.9225673675537 9.75916481018066 8.02657127380371 7.50023698806763 3.8145534992218 2.74910092353821 1.60429179668427 1.24633169174194 1.08027219772339 17.3358783721924 13.6535186767578 9.98793983459473
1.12617135047913 1.00166952610016 0.800093770027161 0.211811661720276 -0.461433202028275 -0.615515172481537 -0.663182616233826 -0.729927122592926 -0.987367749214172 -1.11421048641205 -1.27438163757324 -1.60646021366119 -2.01267027854919 -2.29422569274902 -2.46449875831604 -2.62358069419861 -2.76619911193848 -2.87661361694336 -3.00499200820923 -3.15621423721313 -3.26509022712708 -3.35529565811157 -3.40617656707764 -3.43582677841187 -3.44089007377625 -3.50106549263 -3.60994744300842 -3.67752599716187 -3.10553812980652 -1.55886542797089 1.70548617839813 1.2622332572937 0.799080312252045 0.584602952003479 0.409100919961929 0.240671381354332 -0.0843492150306702 -0.176640003919601 -0.441506683826447 -0.712877929210663 -0.960216283798218 -1.04571962356567 -1.30823659896851 -1.70003628730774 -1.96109139919281 0.47061675786972 -0.402878910303116 -0.751104772090912 -1.42761015892029 -1.940598487854 -2.09050822257996 -2.21042037010193 -2.44314646720886 -2.53310227394104 -2.64988398551941 -2.67664432525635 1.06271016597748 3.93468546867371 2.72808599472046 3.45752811431885 4.5169849395752 3.11798715591431 6.10635042190552 5.53875398635864 6.98148488998413 18.4121360778809 27.781551361084 26.6719169616699 24.5051231384277 20.6845016479492 15.4687004089355 13.3345327377319 11.1878490447998 9.76143836975098 8.54696559906006 7.35439538955688 6.43445301055908 5.80295515060425 5.0843448638916 4.86308908462524 4.77842664718628 5.33139562606812 6.70006084442139 6.41079807281494 5.05569171905518 5.14251089096069 4.65692567825317 4.2900972366333 4.16964292526245 4.08445262908936 4.02934265136719 3.86967897415161 3.56265497207642 3.18866729736328 3.06749534606934 20.1391754150391 17.5653457641602 14.1003170013428 11.0009298324585 9.31820774078369 7.85734558105469 6.93203353881836 6.07224369049072 5.38754844665527 4.8610987663269 4.42965269088745 4.0530424118042 3.69998145103455 3.51540875434875 2.95909976959229 2.43315505981445 2.26738286018372 11.3573837280273 7.57782459259033 5.40941715240479 4.22290134429932 2.52015089988708 2.43720698356628 2.29344010353088 2.16702437400818 1.98497438430786 1.76251542568207 1.500847697258 1.31215631961823 1.12792575359344 0.836887776851654 0.602406322956085 0.471745312213898 2.14215064048767 2.18757486343384 4.9711766242981 3.30129289627075 2.0551962852478 0.614884674549103 0.129880398511887 0.0110325487330556 0.396062701940536 4.58444976806641 6.68739461898804 5.01043796539307 4.10983324050903 3.78361678123474 3.71545600891113 3.50381898880005 3.19197130203247 2.868567943573 2.54126834869385 2.24212050437927 1.99178838729858 1.73983991146088 1.47081053256989 1.01274263858795 0.853264093399048 0.768584012985229 0.9796541929245 2.088538646698 3.49933838844299 2.59943795204163 2.48965692520142 7.81230640411377 10.249659538269 9.89075660705566 8.71081066131592 6.527184009552 3.22868800163269 1.55577325820923 1.17280960083008 1.16553378105164 11.2349281311035 9.36729526519775 7.16256618499756
0.467173337936401 0.343866914510727 -0.387642383575439 -0.853788197040558 -1.17372751235962 -1.26091372966766 -0.112411111593246 -0.29299208521843 -1.26517987251282 -1.20167827606201 -1.38094520568848 -1.61516880989075 -1.79816663265228 -1.99407589435577 -2.20106220245361 -2.36438989639282 -2.47717571258545 -2.58815574645996 -2.77143311500549 -2.91141748428345 -2.992347240448 -3.07410931587219 -3.14363765716553 -3.21325469017029 -3.28611302375793 -2.69974970817566 -3.16374802589417 -3.49216985702515 -3.26781225204468 -1.58911406993866 -0.735215842723846 0.336615175008774 0.37224006652832 0.301654785871506 0.386217832565308 0.144212931394577 -0.114633105695248 -0.353496909141541 -0.617534697055817 -0.893781304359436 -1.05100297927856 -1.23833763599396 -1.90623319149017 -2.1423487663269 -0.902821660041809 -0.342789441347122 -0.695347428321838 -1.2570925951004 -1.94048631191254 -2.20711398124695 -2.33754968643188 -2.39322137832642 -2.5565357208252 -2.70648694038391 -2.86513257026672 -2.93533301353455 -0.93313992023468 3.99314451217651 3.25822639465332 2.46399593353271 2.59408044815063 1.96321129798889 4.94769382476807 4.91925954818726 5.76519680023193 13.4313802719116 20.5686187744141 25.6816940307617 24.1596527099609 21.5163536071777 18.369348526001 14.585018157959 12.5016450881958 10.3718271255493 9.07943630218506 8.05413722991943 7.32350015640259 6.67101240158081 6.09773349761963 5.25393533706665 6.444993019104 5.53876781463623 7.7641396522522 5.7348780632019 5.14199209213257 5.1091947555542 4.9953727722168 4.7267017364502 4.6147894859314 4.54416513442993 4.44808149337769 4.27921104431152 4.04431295394897 3.62801909446716 3.39242815971375 18.9636402130127 17.4140281677246 12.9439172744751 9.92323112487793 8.94217777252197 7.42854642868042 6.34166431427002 5.53401041030884 4.85817050933838 4.32878255844116 3.81753492355347 3.06466150283813 2.77151870727539 2.45651865005493 1.99153399467468 1.4610710144043 0.918969690799713 23.7165508270264 19.2992782592773 15.1990013122559 12.0990581512451 6.12764167785645 2.24665427207947 2.08479690551758 1.99076414108276 1.85826230049133 1.67065858840942 1.42941033840179 1.27618432044983 1.07519936561584 0.741934716701508 0.414450258016586 0.237659558653831 3.30111575126648 2.78253316879272 2.74798011779785 2.5682532787323 1.65693795681 1.1623455286026 0.520002424716949 0.0464193224906921 1.87315380573273 1.58010506629944 5.33562088012695 5.05535984039307 4.18725967407227 4.31389904022217 3.929123878479 3.65782332420349 3.30808067321777 2.97128629684448 2.69326901435852 2.37217712402344 2.09056639671326 1.78851878643036 1.57696175575256 1.31042444705963 1.16827583312988 1.02581429481506 0.905722260475159 0.883197903633118 0.874917924404144 0.850933253765106 5.82095861434937 6.44485807418823 9.04090023040771 11.1077375411987 9.84653759002686 8.08800792694092 4.59293651580811 2.54282903671265 2.13503122329712 2.19398593902588 3.07066917419434 4.51731109619141 3.60388827323914
0.137149512767792 -0.190453559160233 -0.826766610145569 -1.00593113899231 -1.11895906925201 -1.45728945732117 0.435866951942444 0.892524242401123 -0.0288507174700499 -0.595041751861572 -1.45931124687195 -1.57339775562286 -1.6155788898468 -1.74345481395721 -1.92795133590698 -2.12571501731873 -2.30676579475403 -2.48423147201538 -2.61805891990662 -2.71603488922119 -2.82568073272705 -2.92442560195923 -3.01262235641479 -3.09912419319153 -3.20316863059998 -3.24013543128967 -2.34848761558533 -3.16742515563965 -2.62603402137756 -2.3721616268158 -2.87686896324158 0.489603370428085 0.842019736766815 0.394587457180023 0.0918113216757774 -0.106182001531124 -0.727966368198395 -1.35045754909515 -1.63836777210236 -1.70065104961395 -1.51245355606079 -1.75029098987579 -2.10949230194092 -2.06410527229309 -1.65383970737457 -2.10843014717102 -2.11718988418579 -2.12234282493591 -2.2230818271637 -2.38876986503601 -2.59946298599243 -2.60468721389771 -2.70091414451599 -2.81174516677856 -2.97870206832886 -3.03941106796265 -0.136412277817726 0.135701939463615 2.01527643203735 1.64286577701569 1.6904456615448 1.45714795589447 4.35751819610596 6.36680316925049 4.87019634246826 9.75452136993408 14.3707485198975 26.0714569091797 23.3074817657471 20.8229007720947 20.0269145965576 15.2924718856812 13.0293006896973 10.9540729522705 9.5104808807373 8.72910785675049 8.15982151031494 7.57057189941406 7.06238889694214 6.32260179519653 9.40669441223145 6.22206163406372 6.12231922149658 5.9986834526062 6.23120975494385 5.7619514465332 5.59247636795044 5.3282208442688 4.90986204147339 4.7966833114624 4.67113208770752 4.51737260818481 4.37284898757935 4.13054323196411 3.87875628471375 16.6342639923096 14.1730356216431 10.4263286590576 7.7992467880249 7.67967796325684 6.31440925598145 5.36831283569336 4.7501220703125 4.11178159713745 3.41515207290649 3.15876078605652 2.87161421775818 2.48867273330688 1.9772709608078 1.68550288677216 1.41881763935089 4.62638807296753 18.2298412322998 12.8977823257446 15.1930894851685 12.5788888931274 9.32003021240234 7.01650190353394 5.86023187637329 5.29820489883423 5.01272773742676 3.87435102462769 2.67350506782532 2.14073276519775 1.41916525363922 0.755197584629059 0.291707754135132 0.0185929443687201 6.58237409591675 4.50297498703003 3.74133253097534 3.40608358383179 1.9859219789505 1.76349639892578 1.45182502269745 1.94208955764771 2.49703764915466 1.74265420436859 1.62668466567993 3.7035984992981 3.53446388244629 3.05207753181458 2.93392872810364 2.76077914237976 2.48909544944763 2.26964616775513 2.09569525718689 1.91473209857941 1.6632913351059 1.3590042591095 1.46274554729462 1.37314760684967 1.19145572185516 0.998686015605927 0.779396116733551 0.692182719707489 0.689491331577301 0.66445380449295 3.96269249916077 7.56540155410767 9.75690937042236 10.5131225585938 9.54495525360107 8.75047492980957 5.83289289474487 4.45520734786987 3.57747197151184 3.24147582054138 3.05880284309387 2.99927258491516 2.84608101844788
-0.25189596414566 -0.458666175603867 -0.706333518028259 -0.923670828342438 -1.07667899131775 -1.1657794713974 -0.994484961032867 -0.714619278907776 -0.476367384195328 -1.12662088871002 -1.30039834976196 -1.36214804649353 -1.38913762569427 -1.47962188720703 -1.63045048713684 -1.96347332000732 -2.18976163864136 -2.37523937225342 -2.48373961448669 -2.54230308532715 -2.65953469276428 -2.79396414756775 -2.90217518806458 -2.97905993461609 -3.105633020401 -3.17459225654602 -1.13292610645294 -1.71879315376282 -2.52237915992737 -2.23875212669373 -2.89321136474609 -1.46942520141602 2.02654576301575 0.835395872592926 0.275281816720963 -0.605924487113953 -1.31854927539825 -1.86176681518555 -2.09619569778442 -2.20198488235474 -1.04462993144989 -1.39241504669189 -1.62216436862946 -2.00423884391785 -2.09473872184753 -2.27892851829529 -2.32269215583801 -2.45131134986877 -2.63024592399597 -2.71757388114929 -2.87494277954102 -2.81387138366699 -2.74843454360962 -2.87533378601074 -2.9854052066803 -3.04396224021912 -2.23018646240234 -1.14898431301117 0.194796249270439 1.83390760421753 2.74775290489197 3.20806169509888 3.32799124717712 5.66662788391113 5.35796451568604 7.51392936706543 14.0965518951416 19.1373653411865 20.2486953735352 17.4373359680176 18.5450687408447 17.5123748779297 13.9174842834473 11.7743940353394 9.90277481079102 9.10554981231689 9.04716682434082 8.53674221038818 8.01029491424561 7.40563917160034 7.64847755432129 7.05725002288818 6.86709451675415 6.66836595535278 6.46428108215332 6.22443008422852 5.98436641693115 5.75537443161011 5.31345224380493 5.19544506072998 5.05328369140625 4.89565086364746 4.75103616714478 4.60974884033203 4.48876237869263 7.52168989181519 9.10067081451416 6.28471565246582 4.80635547637939 5.66391134262085 4.71714735031128 3.98669266700745 3.79757404327393 3.62859988212585 3.21094036102295 2.90185141563416 2.62131357192993 2.11868214607239 1.74289619922638 1.63767349720001 1.53669273853302 2.91032433509827 10.4182252883911 5.57052803039551 14.3394403457642 14.4718179702759 11.5029630661011 9.05554103851318 6.53902435302734 6.03768634796143 5.66704845428467 4.28339004516602 3.29263496398926 2.81958246231079 2.35789132118225 1.58145022392273 0.364187568426132 0.0537840351462364 2.46461415290833 3.48028469085693 2.6409740447998 5.81979560852051 4.85557651519775 3.06322288513184 1.84390032291412 1.4404593706131 10.2601356506348 7.70936155319214 5.52241897583008 4.38513517379761 2.26443028450012 2.03642010688782 1.48177182674408 1.33584952354431 1.27556443214417 3.66738486289978 2.43386626243591 1.80750608444214 1.29628527164459 1.22167956829071 1.33163011074066 1.08881807327271 0.874204695224762 0.677930295467377 0.505814135074615 0.372740119695663 0.345980197191238 2.1115391254425 2.33812308311462 5.23850727081299 9.01561069488525 12.3492031097412 10.2158460617065 8.70550346374512 7.1978645324707 5.39728832244873 4.3533673286438 3.72679138183594 3.39703631401062 3.14852809906006 2.78783345222473
-0.477065294981003 -0.655631482601166 -0.84409499168396 -1.0402957201004 -1.131387591362 -1.10638666152954 -1.11431276798248 -0.762846052646637 -0.804700493812561 -1.15967774391174 -1.27931833267212 -1.31164646148682 -1.33123922348022 -1.39475536346436 -1.49436354637146 -1.71230173110962 -1.97847461700439 -2.17453408241272 -2.27971482276917 -2.33679938316345 -2.47283267974854 -2.62967014312744 -2.72902846336365 -2.7917308807373 -2.97786283493042 -3.04752397537231 -3.06756401062012 -3.07404947280884 -3.0974748134613 -2.14294195175171 -2.87426519393921 -2.96654081344604 1.30076360702515 0.595270574092865 -0.372923076152802 -1.51347732543945 -2.24527168273926 -2.34715127944946 -2.36994695663452 -2.38502645492554 -1.71714162826538 -0.303776651620865 -0.623940408229828 -1.38797807693481 -1.96272003650665 -2.42807555198669 -2.5324432849884 -2.66371846199036 -2.87255048751831 -3.02306628227234 -3.11214113235474 -3.04806518554688 -2.17868137359619 -3.04776644706726 -3.08550882339478 -3.1093122959137 -3.1338312625885 -3.16534066200256 -0.988612771034241 3.14274764060974 3.36548376083374 5.54531764984131 3.39918899536133 4.44828605651855 7.07459926605225 9.33347415924072 14.0328750610352 16.607120513916 16.210958480835 15.5038967132568 15.4338159561157 18.4292526245117 14.4884033203125 12.162239074707 10.2862920761108 9.54287910461426 11.9730100631714 9.35001564025879 8.89116382598877 8.43523597717285 7.88616275787354 7.63134765625 7.4075813293457 7.15056657791138 6.88119649887085 6.59655809402466 6.31160640716553 6.06560611724854 5.70454549789429 5.50808763504028 5.35913419723511 5.2133903503418 5.07641124725342 4.95820188522339 4.82445430755615 4.76563692092896 8.14147758483887 4.59254169464111 4.27159690856934 4.20547962188721 4.12835502624512 3.99753308296204 3.91663646697998 3.68209004402161 3.22028613090515 2.62040233612061 2.32007884979248 2.02922368049622 1.80379986763 3.84358215332031 3.25019288063049 2.5777575969696 5.49345541000366 2.13992714881897 6.17171096801758 10.5866079330444 13.0346307754517 9.8542947769165 8.12926197052002 6.20815134048462 4.95492553710938 4.0177173614502 2.96417617797852 2.58574318885803 2.35594606399536 1.91642558574677 1.26990735530853 0.504354774951935 0.212410002946854 3.51308369636536 3.33112263679504 7.5687575340271 5.50320053100586 3.38819026947021 1.50481188297272 0.228995114564896 6.14905261993408 16.7647762298584 10.7450094223022 7.50936412811279 5.36524295806885 2.97265529632568 2.41604232788086 1.82123494148254 2.54211163520813 2.29472661018372 2.64811682701111 2.22618317604065 1.89314532279968 1.74286198616028 1.46640825271606 1.00675106048584 0.775149643421173 0.628385007381439 0.494392454624176 0.401426404714584 0.233589112758636 3.53883123397827 4.23993825912476 5.61911630630493 12.1443853378296 10.7761898040771 9.57140827178955 8.21324253082275 7.2110800743103 5.97960948944092 4.73636913299561 4.06235647201538 3.44561648368835 2.92950534820557 2.15420627593994
-0.498602002859116 -0.582448303699493 -0.765406787395477 -1.01481914520264 -1.06366217136383 -1.15921878814697 -1.20764100551605 -1.20822167396545 -1.22853922843933 -1.27466011047363 -1.32352674007416 -1.37295341491699 -1.39520037174225 -1.40823745727539 -1.53117859363556 -1.68067979812622 -1.88768267631531 -2.06103253364563 -2.16552996635437 -2.27566170692444 -2.44895315170288 -2.61946201324463 -2.68813300132751 -2.73728823661804 -2.80762052536011 -2.87347412109375 -2.92306733131409 -2.93709540367126 -2.96449947357178 -3.11368846893311 -3.24077129364014 -3.32960271835327 0.269298702478409 0.252770006656647 -1.01251113414764 -1.65953123569489 -2.00119614601135 -2.09090876579285 -2.19226574897766 -2.34659075737 -1.67215645313263 -0.271129161119461 -1.51508820056915 -2.21465086936951 -2.39084243774414 -2.67109322547913 -2.85177755355835 -2.87807607650757 -3.00229787826538 -3.12497568130493 -3.20302176475525 -3.04206395149231 -2.71842265129089 -3.1386981010437 -3.22657704353333 -3.24494624137878 -3.27032351493835 -2.77381110191345 -1.86324691772461 3.58490681648254 4.76671648025513 3.71275353431702 2.29615187644958 1.73714458942413 9.325439453125 13.1868810653687 15.4052085876465 16.2604236602783 14.4661827087402 14.1392059326172 17.036678314209 15.5505180358887 14.3452529907227 12.8401784896851 10.9715738296509 10.1571006774902 10.1594181060791 9.80138206481934 9.30917739868164 8.76820945739746 8.24284172058105 7.91935253143311 7.64570760726929 7.35526895523071 7.0641827583313 6.7622389793396 6.47409152984619 6.23187923431396 5.99608516693115 5.82802581787109 5.66650533676147 5.49995613098145 5.36595916748047 5.26143598556519 5.12353086471558 5.01126861572266 4.96746349334717 4.60430955886841 4.30192852020264 4.17476272583008 4.0637092590332 3.89467597007751 3.85530257225037 3.63625717163086 3.1769278049469 2.62301397323608 2.20667576789856 2.04507756233215 1.94846558570862 1.76844894886017 2.40156245231628 2.4264075756073 6.33725309371948 2.57731246948242 4.67505216598511 10.256908416748 12.7644739151001 11.5383396148682 9.32721519470215 7.08081483840942 5.07606744766235 4.07320404052734 2.95665955543518 2.50032520294189 2.2716953754425 2.07820677757263 1.56959915161133 0.865308523178101 0.489322632551193 0.91844516992569 5.25665903091431 5.89855146408081 4.54561948776245 3.52679347991943 1.87609553337097 0.114215031266212 2.77318406105042 14.6974811553955 12.8081512451172 9.52597522735596 7.18679809570312 5.13028049468994 4.25620269775391 3.69750595092773 3.22712898254395 2.96145677566528 2.85750985145569 2.84766101837158 2.73296499252319 2.54648637771606 2.02001786231995 1.3496265411377 1.12037861347198 0.956858158111572 0.854929745197296 0.726528465747833 0.581155598163605 0.547942042350769 4.31356573104858 6.5761456489563 13.34716796875 11.283203125 9.30465221405029 7.87739229202271 6.87568187713623 6.14162397384644 4.99279594421387 4.29315567016602 3.64207434654236 2.9580671787262 1.77458572387695
-0.506805002689362 -0.673161745071411 -0.792722463607788 -0.941874146461487 -1.02241444587708 -1.0944676399231 -1.19520473480225 -1.25235641002655 -1.29215514659882 -1.31016314029694 -1.34392595291138 -1.36936056613922 -1.41264617443085 -1.5717967748642 -1.63574302196503 -1.72475206851959 -1.89462018013 -2.00237441062927 -2.11901569366455 -2.25639128684998 -2.45112323760986 -2.64805316925049 -2.74121308326721 -2.743821144104 -2.75846815109253 -2.800457239151 -2.83624815940857 -2.86214971542358 -2.90934085845947 -3.13898825645447 -3.32978916168213 -2.38920783996582 0.246978104114532 1.19196927547455 -0.163659989833832 -0.501370906829834 -1.12450087070465 -1.65946125984192 -1.9318516254425 -2.25582480430603 -2.37703609466553 -2.58508443832397 -2.81926703453064 -2.99393033981323 -2.00417065620422 -3.01403403282166 -3.29656004905701 -1.01330316066742 -2.47434949874878 -3.1298816204071 -3.22469329833984 -3.03669691085815 -3.23235297203064 -3.25072360038757 -3.37333011627197 -3.44308018684387 -1.27211856842041 -0.355602413415909 -0.644018709659576 0.873704731464386 3.65764379501343 2.11610913276672 1.40537106990814 2.16689562797546 7.1891918182373 12.3889560699463 17.4860706329346 16.3094081878662 15.1282720565796 13.7266216278076 17.4338874816895 16.2596683502197 15.6222410202026 13.9850940704346 12.2525978088379 11.3284130096436 10.795015335083 10.2556648254395 9.74792957305908 8.98792266845703 8.4378719329834 8.13582801818848 7.81923675537109 7.51467704772949 7.22767877578735 6.92881202697754 6.66525411605835 6.44461393356323 6.15647220611572 5.98533248901367 5.8028130531311 5.63491058349609 5.50961303710938 5.40037679672241 5.27144956588745 5.19351720809937 4.96084213256836 4.60296010971069 4.34398746490479 4.1598744392395 3.99894046783447 3.9063081741333 3.79422926902771 3.5812885761261 3.18130493164062 2.61210751533508 2.2670316696167 2.09095788002014 1.91665291786194 1.59816884994507 3.71725606918335 8.21937084197998 10.4074954986572 7.63835096359253 7.39081811904907 9.91186141967773 11.1781702041626 9.74108409881592 8.02985763549805 7.29942226409912 5.82454872131348 4.65384101867676 3.81766843795776 3.29732775688171 2.90274453163147 2.54209589958191 2.01858305931091 1.25298357009888 0.839560627937317 0.730470955371857 5.3615665435791 5.67547416687012 4.30290746688843 3.18493175506592 0.928169071674347 0.290649831295013 0.284908026456833 8.62298488616943 14.5397262573242 10.7831106185913 7.92516422271729 6.41531229019165 5.10301542282104 4.63819360733032 4.04513788223267 3.41657209396362 3.13778758049011 3.08562731742859 2.89597964286804 2.6852855682373 2.49795269966125 2.17844915390015 1.70573008060455 1.43406975269318 1.24133670330048 1.13453888893127 1.04216921329498 1.00370013713837 0.989302515983582 4.40735864639282 12.004563331604 10.473183631897 8.58288478851318 7.55533981323242 6.70310735702515 6.06839799880981 5.14437913894653 4.34549283981323 3.61627078056335 2.70787405967712 1.40290427207947
-0.718294680118561 -0.694452583789825 -0.772432923316956 -0.846739709377289 -0.932259619235992 -1.05125999450684 -1.17308342456818 -1.21989619731903 -1.25959897041321 -1.27396559715271 -1.33112919330597 -1.35157310962677 -1.39094400405884 -1.59469437599182 -1.67774760723114 -1.70175492763519 -1.75900542736053 -1.9025958776474 -2.10319995880127 -2.25993585586548 -2.45073318481445 -2.69858026504517 -2.78982639312744 -2.81158256530762 -2.854412317276 -2.16094827651978 -2.44172048568726 -2.87405347824097 -2.93192291259766 -3.13731479644775 -3.30387735366821 -1.40348696708679 0.594997346401215 1.70734226703644 -0.12232394516468 -0.628655195236206 -0.524987637996674 -1.14329552650452 -2.38920974731445 -2.68495059013367 -2.72955060005188 -2.75335335731506 -3.03192400932312 -3.08038139343262 -3.21609163284302 -3.52318239212036 -3.09633088111877 -1.63928973674774 -1.7947416305542 -2.1792905330658 -2.26960420608521 -2.17619872093201 -3.02107214927673 -3.45571160316467 -3.72207379341125 -3.79576826095581 -3.81996464729309 -1.29358196258545 0.391035914421082 1.38522028923035 1.00042545795441 2.38427114486694 2.19586825370789 5.16973781585693 4.14952850341797 7.52590560913086 20.4429550170898 18.6948566436768 16.9070987701416 15.8761434555054 16.4682788848877 17.7993106842041 17.2306861877441 16.0428600311279 13.4731283187866 12.1749677658081 11.195743560791 10.4921588897705 9.86229228973389 9.34960556030273 8.92956924438477 8.59566974639893 8.27588081359863 7.96881914138794 7.68987798690796 7.42358303070068 7.16858196258545 6.83261251449585 6.34436082839966 6.15487098693848 5.98464727401733 5.84520721435547 5.71646022796631 5.58419036865234 5.43872833251953 5.33829641342163 5.07422113418579 4.68586158752441 4.43882989883423 4.20679521560669 4.02974462509155 3.92922115325928 3.80575180053711 3.58678770065308 3.23582291603088 2.83725881576538 2.49342322349548 2.12164449691772 1.8735408782959 1.64183485507965 1.53673088550568 11.5259075164795 10.5682992935181 9.49583053588867 12.7058601379395 10.8488101959229 10.1924610137939 8.98065662384033 7.63332366943359 6.82327270507812 5.9958667755127 5.22167539596558 4.5716028213501 4.03568887710571 3.71249556541443 3.08472967147827 2.25282549858093 1.80311477184296 1.35532903671265 1.05262041091919 2.24308967590332 9.43745708465576 6.0781626701355 4.15501832962036 1.83574378490448 0.66346287727356 0.533693015575409 4.4545316696167 13.0878038406372 12.4267673492432 9.26939487457275 6.89407539367676 5.82358407974243 5.2377347946167 4.5804557800293 3.86625957489014 3.40932130813599 3.17834854125977 2.9680380821228 2.75113248825073 2.62498307228088 2.44945454597473 2.11121487617493 1.74049651622772 1.55676484107971 1.42228734493256 1.3199565410614 1.22588109970093 1.15777266025543 1.68252944946289 10.4691152572632 10.107608795166 8.46021842956543 7.31876468658447 6.34242153167725 5.53957748413086 4.58072471618652 3.77302217483521 2.78991627693176 1.7542896270752 0.719133257865906
-0.800402820110321 -0.779409945011139 -0.819762527942657 -0.90242326259613 -1.01734209060669 -1.11667275428772 -1.16481637954712 -1.20329105854034 -1.25705301761627 -1.27669250965118 -1.23968601226807 -1.25255370140076 -1.20421719551086 -1.39528071880341 -1.51115810871124 -0.956137716770172 -1.28575170040131 -1.72135031223297 -2.04020881652832 -2.2393524646759 -2.4776713848114 -2.77336359024048 -2.96490550041199 -3.04789996147156 -3.03989863395691 1.5514669418335 0.318092316389084 -0.889082670211792 -2.0594527721405 -3.1248631477356 -3.17963933944702 -2.15647387504578 -1.25909292697906 -0.958923637866974 -1.96321594715118 -0.856301248073578 -0.882549583911896 -2.04835724830627 -3.16678929328918 -3.45885467529297 -1.46000564098358 -1.98700666427612 -2.92217803001404 -3.58108949661255 -3.64243578910828 -3.67574286460876 -2.21051788330078 -1.89973533153534 -1.63713312149048 -2.34700798988342 -2.6889545917511 -3.04249310493469 -3.47202634811401 -3.55674600601196 -3.88904428482056 -4.12852096557617 -4.19766044616699 -0.712925672531128 -0.639169931411743 4.38492441177368 3.03954386711121 1.7057136297226 1.686692237854 5.37960290908813 5.91368913650513 9.65776824951172 14.4477119445801 17.1234035491943 14.4723682403564 15.3094329833984 19.8833694458008 20.0690898895264 20.6302375793457 19.0022945404053 15.8117246627808 14.0773115158081 12.7389240264893 11.7120914459229 10.9312572479248 10.5103597640991 9.40097522735596 8.91943836212158 8.55149745941162 8.22874164581299 7.94937801361084 7.68091201782227 7.40372800827026 7.14008045196533 6.7495322227478 6.54282188415527 6.37540721893311 6.23163032531738 6.07917165756226 5.92092132568359 5.76734590530396 5.63507556915283 5.35522413253784 4.93336725234985 4.53743314743042 4.29846096038818 4.15354871749878 4.02499532699585 3.89518404006958 3.72022294998169 3.37310004234314 3.0122435092926 2.62147283554077 1.99283826351166 1.78150510787964 1.67453956604004 3.51011681556702 7.98940372467041 11.8583946228027 11.6023073196411 12.7687101364136 11.945686340332 10.1383676528931 9.20939826965332 8.21445655822754 7.25584268569946 6.30480241775513 5.39681100845337 4.61150884628296 3.62921857833862 3.2502007484436 6.8510890007019 5.0867772102356 2.86243104934692 2.65864944458008 2.3587007522583 2.19305396080017 3.66273212432861 3.43404912948608 3.21760296821594 3.16962313652039 1.72821998596191 1.01897430419922 1.30991125106812 8.73199558258057 13.5306158065796 10.2960166931152 7.31263256072998 6.3621678352356 5.35485553741455 4.54932165145874 3.93998837471008 3.44480657577515 3.07839107513428 2.80684375762939 2.60869288444519 2.47934341430664 2.46609282493591 2.28558850288391 2.04757785797119 1.74555742740631 1.5167955160141 1.38136684894562 1.29586291313171 1.59088850021362 1.82803964614868 3.62637901306152 10.8070087432861 8.35317802429199 6.88923978805542 6.30462169647217 5.3748083114624 4.35167932510376 3.50482392311096 2.25028467178345 1.10070848464966 0.58681708574295
-0.945187449455261 -1.05102038383484 -1.1317024230957 -1.17376339435577 -1.23895370960236 -1.27566969394684 -1.26234257221222 -1.0058605670929 -1.19751977920532 -1.10860621929169 -1.18028783798218 -1.22548472881317 -0.302519917488098 -1.21482610702515 -1.4196263551712 -0.770726680755615 -1.50574111938477 -1.75235724449158 -2.00865840911865 -2.18007659912109 -2.5775249004364 -3.00517201423645 -3.23785614967346 -3.27974581718445 -1.85727000236511 2.72733640670776 2.56145715713501 1.12319457530975 -0.711539328098297 -2.02183175086975 -2.16196084022522 -2.38269114494324 -2.39380288124084 -2.62857413291931 -2.94061422348022 -1.65779781341553 -1.07248759269714 -2.45852375030518 -3.2887749671936 -3.76444268226624 -3.89066958427429 -3.97681879997253 -4.09378528594971 -3.41898107528687 -3.83326029777527 -3.32622146606445 -3.37297105789185 -1.42421090602875 -2.05441856384277 -3.1965320110321 -3.14716100692749 -3.53208041191101 -3.71540904045105 -3.84750199317932 -4.0653018951416 -4.23059797286987 -4.44614601135254 -4.0394434928894 2.6001603603363 7.15145778656006 6.13591337203979 3.90473675727844 1.90062916278839 6.06172370910645 11.1131830215454 11.7015905380249 11.1135387420654 15.2116622924805 14.6159591674805 14.1382465362549 21.1884651184082 23.7949848175049 23.2509899139404 21.4021892547607 18.0719261169434 14.8588237762451 13.4767141342163 12.4153451919556 11.6172246932983 10.9500017166138 10.2401609420776 9.70222282409668 9.24844074249268 8.88231658935547 8.58035945892334 8.26264572143555 7.9434928894043 7.6392993927002 7.36612462997437 6.72763633728027 6.54868650436401 6.38557386398315 6.21580791473389 6.04356098175049 5.91012477874756 5.71686697006226 5.47508144378662 5.15606832504272 4.83988618850708 4.59808206558228 4.43748140335083 4.27821588516235 4.13621520996094 3.89578080177307 3.59841775894165 3.26825308799744 2.78927040100098 2.29883193969727 1.87327015399933 1.76750767230988 4.14251661300659 6.49505662918091 9.24521255493164 13.569037437439 14.3836688995361 12.9851446151733 10.8883600234985 9.24689197540283 8.08007907867432 7.01864242553711 5.65304183959961 4.23405504226685 3.79608750343323 3.12183403968811 2.5993058681488 8.7890796661377 11.3559398651123 8.50985717773438 6.5169358253479 3.62284159660339 2.92292976379395 2.74680423736572 2.64219737052917 4.32549142837524 2.34581732749939 2.13362288475037 2.02004528045654 2.01218938827515 3.57007503509521 8.45080947875977 6.43189573287964 6.03340816497803 5.79068231582642 4.80341482162476 4.07916736602783 3.45386981964111 2.95174288749695 2.56018972396851 2.27360677719116 2.08987736701965 2.11512851715088 2.31768202781677 2.13828039169312 1.93861818313599 1.72219359874725 1.47800803184509 1.32053315639496 1.29526746273041 2.92893600463867 3.23850965499878 2.99555683135986 6.67844676971436 6.3716197013855 5.41594266891479 5.08850622177124 4.47208309173584 3.53640222549438 2.72993087768555 1.54593145847321 1.03588807582855 0.543663024902344
-0.944346964359283 -1.23815846443176 -1.32989466190338 -1.42018938064575 -1.41978764533997 0.274803727865219 -0.334088087081909 -0.365637838840485 -0.291236758232117 -0.208770632743835 -0.330559283494949 -0.543461859226227 -0.58278626203537 -0.668184399604797 -1.1546813249588 -1.21401965618134 -1.52065312862396 -1.75853025913239 -1.91858005523682 -2.10747313499451 -2.57608270645142 -2.94552302360535 -3.17268204689026 -3.24426984786987 0.204959437251091 2.84876251220703 3.04527878761292 2.05168557167053 0.504778742790222 0.0757948085665703 -0.696018755435944 -1.25811696052551 -1.6276433467865 -1.95992469787598 -2.37927865982056 -2.73262357711792 -2.56506991386414 -2.75716781616211 -3.08095455169678 -3.55679035186768 -3.74136877059937 -3.78779125213623 -3.90833950042725 -3.99623370170593 -3.58311080932617 -1.94839334487915 -2.67573308944702 -2.40251708030701 -3.23769950866699 -3.9814441204071 -4.21368455886841 -4.33297872543335 -4.39233016967773 -4.3775372505188 -4.50718641281128 -4.71016597747803 -4.77228546142578 -4.80291891098022 3.19237399101257 8.46142101287842 6.62610197067261 3.19534277915955 2.22866559028625 6.11272525787354 12.1160774230957 13.7652893066406 11.4654865264893 11.4650535583496 16.743257522583 17.9092121124268 22.4349822998047 22.6245594024658 22.1934757232666 21.8040161132812 18.7953777313232 16.3705139160156 14.2925357818604 13.0177526473999 12.0429067611694 11.3043546676636 10.5404100418091 9.9168872833252 9.54342651367188 9.12138557434082 8.79629802703857 8.49652481079102 8.25612831115723 7.94906044006348 7.6111044883728 7.15713405609131 6.94905948638916 6.75473546981812 6.57635354995728 6.44194459915161 6.22417736053467 5.98148250579834 5.75036096572876 5.51641654968262 5.19382429122925 4.76451826095581 4.55479764938354 4.38495302200317 4.2142972946167 4.00691986083984 3.73290944099426 3.41992616653442 2.97001528739929 2.52584886550903 2.15658807754517 2.01956391334534 2.00068759918213 4.60394048690796 5.92998838424683 10.4954528808594 18.5321254730225 15.5040283203125 12.176586151123 9.76264095306396 7.97715282440186 6.58745670318604 4.64985752105713 3.10086965560913 2.89126825332642 2.59350919723511 2.33036231994629 9.92649459838867 13.5708446502686 11.8390684127808 9.19504833221436 6.76733636856079 5.31400203704834 4.25071954727173 3.66091656684875 3.55678606033325 3.08578634262085 2.6082398891449 2.54330086708069 3.72596192359924 2.80706334114075 2.79348182678223 3.60513472557068 3.84179329872131 3.48351287841797 2.83653140068054 2.37855648994446 2.0086407661438 1.94320785999298 1.86251246929169 1.79904460906982 1.74954676628113 1.70311844348907 1.82338273525238 1.69532692432404 1.50760817527771 1.31289529800415 1.09098243713379 1.00452184677124 2.02108860015869 2.77272081375122 3.65261006355286 3.97995781898499 4.31375598907471 4.73212146759033 4.34019041061401 3.84759926795959 3.38726234436035 2.84373831748962 2.28871655464172 1.33784639835358 1.01113653182983 0.602116882801056
-0.876363754272461 -1.23570919036865 -1.34249329566956 -1.50547313690186 -1.20143175125122 0.138761848211288 -0.347222089767456 -0.210778683423996 0.350398004055023 0.407577842473984 1.48631179332733 0.386537313461304 -0.0877166390419006 -0.36821523308754 0.699540555477142 -0.829023957252502 -1.4660416841507 -1.666947722435 -1.83656775951385 -2.02929210662842 -2.34755897521973 -2.75109267234802 -2.94554281234741 -2.9910876750946 0.360383361577988 1.26807713508606 2.29377198219299 1.40973222255707 1.59773409366608 0.226022437214851 -0.518758416175842 -1.25388479232788 -1.74844217300415 -2.23064136505127 -3.0098979473114 -3.25253224372864 -0.412563621997833 -1.9089869260788 -3.19262933731079 -3.33438849449158 -3.53289794921875 -3.79243206977844 -3.81903529167175 -3.53921246528625 -3.51142334938049 -2.55083703994751 -3.11274337768555 -3.62333130836487 -4.19993495941162 -4.35465049743652 -4.46647167205811 -4.52901363372803 -4.51983594894409 -4.33722686767578 -4.6859884262085 -4.78431987762451 -3.86446952819824 -3.03454446792603 1.58990573883057 5.76944303512573 3.44898056983948 2.55703568458557 3.37438678741455 4.20510292053223 11.9989700317383 13.2320146560669 11.6352958679199 10.9451770782471 15.9836988449097 25.7927169799805 22.5497970581055 22.2242221832275 21.8974781036377 20.0502872467041 19.4531555175781 17.0860843658447 15.3951807022095 13.9793434143066 12.7622165679932 11.7787914276123 11.0543947219849 10.3697967529297 9.71148872375488 9.28278636932373 8.88549423217773 8.5976095199585 8.50250244140625 8.10885524749756 7.69819831848145 7.44039154052734 7.21635341644287 7.0113525390625 6.81568622589111 6.6732006072998 6.4394359588623 6.19605922698975 5.96298789978027 5.73577117919922 5.35645008087158 5.008460521698 4.77493762969971 4.57917928695679 4.39326477050781 4.18305683135986 3.9307816028595 3.60354924201965 3.16312336921692 2.6272075176239 2.36328077316284 2.21891236305237 2.11931657791138 2.00842428207397 5.12943935394287 7.63446855545044 17.4422664642334 15.8631248474121 13.1411437988281 10.682318687439 8.1387825012207 6.31421375274658 4.4535117149353 2.09974050521851 2.00046443939209 4.50626039505005 3.30717444419861 8.2359094619751 11.3174610137939 11.3633451461792 9.25752544403076 8.01741695404053 6.72478771209717 5.73814916610718 5.02270936965942 4.54230880737305 4.15029525756836 3.76100969314575 3.44086861610413 3.21248722076416 3.01493263244629 2.57790684700012 2.50646042823792 2.42688822746277 2.35843968391418 2.22745203971863 2.1129162311554 2.01960825920105 1.94739031791687 1.92220139503479 1.89903903007507 1.86854112148285 1.83658790588379 1.76251828670502 1.69064080715179 1.55784475803375 1.47671890258789 1.38181352615356 1.35865569114685 2.75620293617249 2.60114192962646 3.27045369148254 4.14515256881714 3.72669649124146 3.84871673583984 3.76623058319092 3.29204773902893 2.90047979354858 2.57797074317932 2.16415739059448 1.59647309780121 1.00374734401703 0.785936832427979
