NCOLS 171
NROWS 32
XLLCORNER 353888
YLLCORNER 6699904
CELLSIZE 16 
NODATA_value -3.4e+38 
1.7652313709259 2.89247035980225 3.37680983543396 2.92159223556519 1.91503512859344 2.01085591316223 2.03141021728516 2.47606754302979 2.34587049484253 2.52179193496704 2.46046996116638 2.2436261177063 1.96245038509369 1.41067814826965 1.11416101455688 1.02557754516602 1.035111784935 1.01115560531616 1.06889355182648 1.32136678695679 1.42798662185669 1.31752169132233 1.70111870765686 1.074098944664 0.49438413977623 0.285185366868973 0.347121924161911 0.507236123085022 0.449083179235458 0.29038867354393 -0.0289218295365572 -0.289215862751007 -0.250864684581757 -0.213049218058586 -0.189775303006172 -0.175565540790558 -0.132339775562286 0.0233393721282482 0.0623826868832111 0.0663401484489441 0.0537814162671566 0.0446708053350449 0.0612158812582493 0.0612068325281143 0.0585047714412212 0.0592076741158962 0.0730061605572701 0.0628090128302574 0.0495866276323795 0.174290671944618 0.606185138225555 1.15152442455292 1.41927778720856 1.32904314994812 1.12830722332001 1.03512442111969 0.974737465381622 0.692411780357361 0.301602244377136 0.136085987091064 0.44404998421669 0.634131133556366 0.513392090797424 0.289564847946167 -0.0853861719369888 -0.343828946352005 -0.448515444993973 -0.435422956943512 -0.281963557004929 -0.101945199072361 0.0597539357841015 0.0783078372478485 0.0612253099679947 0.265692204236984 0.376952737569809 0.590412259101868 0.83281010389328 1.00176382064819 1.16638243198395 1.36025834083557 1.56923186779022 2.18799996376038 3.79443264007568 4.73588800430298 5.44771862030029 6.07038307189941 6.85302782058716 7.25941896438599 7.65831518173218 7.8994574546814 8.36616134643555 3.02972507476807 1.33259010314941 0.537475407123566 0.225343942642212 -0.0343055240809917 -0.379772782325745 0.290388762950897 1.22716081142426 2.08689260482788 2.50037980079651 2.79850697517395 3.1694483757019 3.5085620880127 4.87858581542969 8.4105110168457 11.0983610153198 11.4505290985107 11.2589702606201 8.61320781707764 3.56220293045044 4.76198863983154 5.34943008422852 5.58290147781372 5.68290662765503 5.73434925079346 6.39081287384033 6.74187088012695 7.03212451934814 6.58032464981079 6.90807056427002 7.84659242630005 7.64290904998779 8.44137287139893 9.06615829467773 10.4167051315308 12.1828422546387 7.62397432327271 6.39466333389282 7.28543138504028 8.10357761383057 8.56395435333252 9.35544681549072 10.3719310760498 11.3563203811646 12.1310472488403 12.4818449020386 12.2681198120117 11.3495769500732 10.8000545501709 10.3507032394409 9.61879062652588 8.4071216583252 6.44392728805542 6.59439849853516 5.48515796661377 3.70091247558594 3.63521265983582 3.83479237556458 4.23690843582153 4.08478260040283 4.09314441680908 3.98498916625977 4.24342012405396 4.51211833953857 4.55576515197754 4.7580361366272 4.8366174697876 4.62838649749756 3.94766521453857 3.59037065505981 3.40535402297974 3.23958802223206 2.72246313095093 2.10152554512024 1.39939153194427 0.322614341974258 -0.320648431777954 -0.569158494472504 -0.69161468744278 -0.774598956108093
1.7188720703125 2.22499990463257 2.62933611869812 2.48192381858826 1.53926694393158 1.75926339626312 1.97685039043427 2.12544751167297 2.30729651451111 2.47274255752563 2.41354584693909 2.31870269775391 1.90613698959351 1.37951707839966 1.02794170379639 0.912223219871521 1.02326631546021 0.965079486370087 0.948522388935089 1.13520729541779 1.29641401767731 1.44317245483398 1.6489669084549 1.71321105957031 0.993583619594574 0.314882218837738 0.336171865463257 0.482579737901688 0.420567274093628 0.249628961086273 -0.0821858197450638 -0.327575117349625 -0.288684755563736 -0.256693333387375 -0.204814717173576 -0.187971249222755 -0.158769980072975 -0.0459235981106758 -0.0431744009256363 -0.0482278391718864 -0.0241581052541733 0.00256537366658449 -0.00073535880073905 -0.024863101541996 -0.0409125909209251 -0.0566173419356346 -0.0643417686223984 -0.0540692955255508 -0.0511030368506908 0.0182702988386154 0.337794572114944 0.862112283706665 1.11692750453949 1.08131504058838 0.907059073448181 0.720374286174774 0.630647122859955 0.554709672927856 0.175381198525429 0.280144810676575 0.377768009901047 0.567490875720978 0.487159550189972 0.269108325242996 -0.107264325022697 0.487499803304672 1.82020652294159 0.561983585357666 -0.391939073801041 -0.170118361711502 -0.00970831979066133 0.0524375140666962 1.68190157413483 1.77206003665924 1.50140988826752 0.596857130527496 0.785511195659637 0.939565539360046 1.1166228055954 1.45764935016632 1.74276387691498 2.11779236793518 3.59304666519165 4.46388292312622 5.11604595184326 5.6798734664917 6.42309427261353 6.81629037857056 7.20645809173584 7.49861192703247 14.530933380127 9.77578926086426 2.46807742118835 0.287041068077087 -0.536962985992432 -1.1721910238266 -0.738605797290802 -0.236913830041885 0.819024980068207 1.58144497871399 2.02179408073425 2.34586787223816 2.81086468696594 2.96925020217896 3.95331048965454 7.21569442749023 9.59768676757812 9.94039440155029 9.87587547302246 7.75754117965698 4.12456560134888 4.03338479995728 4.63077068328857 5.09465551376343 5.44985103607178 6.38315534591675 8.37394332885742 8.26068782806396 6.3992166519165 6.18683767318726 6.97561693191528 7.60092401504517 7.50029325485229 8.39660549163818 8.99507617950439 9.96852588653564 10.7523136138916 9.6609935760498 8.85849571228027 7.25120496749878 7.71993541717529 8.14072036743164 8.91623401641846 9.85901546478271 10.7571249008179 11.4451627731323 11.7106847763062 11.5161848068237 10.847583770752 10.4991636276245 10.0644578933716 9.3607177734375 8.32514572143555 10.2376747131348 10.6247749328613 8.79656410217285 3.86257934570312 3.33085012435913 3.71060252189636 4.11145973205566 3.99097681045532 3.73577737808228 3.96013569831848 4.00268936157227 3.88113474845886 4.33633518218994 4.51281929016113 4.6227822303772 4.39168310165405 3.67432069778442 3.36532139778137 3.23688912391663 3.0878438949585 2.60170602798462 2.00696110725403 1.2163006067276 -0.394316703081131 -1.10174036026001 -1.15200626850128 -1.11416983604431 -1.17076098918915
1.66844475269318 1.77493357658386 1.84294724464417 1.73585784435272 2.14547920227051 1.82454192638397 1.94196963310242 2.18841361999512 2.23163533210754 2.38785552978516 2.37309169769287 2.13645958900452 1.79994261264801 1.33569121360779 1.59402799606323 0.834819495677948 0.848536729812622 0.886417210102081 0.851483285427094 0.998837471008301 1.14015054702759 1.41586339473724 1.33393263816833 1.42136442661285 0.95218414068222 0.620662331581116 0.48692712187767 0.438077658414841 0.407458990812302 0.22756539285183 -0.106882505118847 -0.353559464216232 -0.314562171697617 -0.299365907907486 -0.257475256919861 -0.199949368834496 -0.119719378650188 -0.142451405525208 -0.125105783343315 -0.141607150435448 -0.128496184945107 -0.0971450731158257 -0.0877470374107361 -0.104445241391659 -0.119365625083447 -0.124381095170975 -0.132818624377251 -0.134492710232735 -0.132218152284622 -0.0355821512639523 0.119767054915428 0.616791069507599 0.871077954769135 0.892721831798553 0.758292675018311 0.604177534580231 0.373814016580582 0.273976922035217 0.11798931658268 0.10252083837986 0.31802698969841 0.458104401826859 0.391170829534531 0.225310683250427 2.07373666763306 4.9639368057251 4.65176582336426 5.76872634887695 5.12908697128296 1.52105355262756 -0.0779878944158554 0.019616637378931 2.89090800285339 4.61073970794678 4.50710201263428 2.76724219322205 1.39104986190796 0.929013907909393 1.0725679397583 1.40970075130463 2.04182720184326 2.41409206390381 3.40661382675171 4.22321271896362 4.82390785217285 5.33374834060669 6.04144763946533 6.42367315292358 6.79105663299561 7.08683013916016 10.791072845459 15.7224349975586 9.68556499481201 6.14956569671631 0.499383479356766 -1.25004208087921 -1.00336277484894 -0.535976946353912 0.492432504892349 1.33889007568359 1.77630567550659 1.98141014575958 2.37426114082336 2.30290460586548 2.15212893486023 5.78297519683838 8.31170654296875 8.76463985443115 8.70296669006348 6.88599872589111 8.92137908935547 6.9432053565979 4.11907863616943 4.43777275085449 5.06263256072998 5.58718681335449 6.7655782699585 6.35331916809082 5.67218780517578 5.57180452346802 6.56282091140747 7.28944969177246 8.29520130157471 8.3460636138916 8.82570266723633 9.70454597473145 10.2671947479248 9.60801601409912 9.473557472229 8.72968673706055 7.57675886154175 8.02198123931885 8.71735954284668 9.31016159057617 10.1349086761475 10.7848014831543 10.9721403121948 10.7797555923462 10.2116441726685 9.9678373336792 9.73624038696289 9.14277172088623 8.21794605255127 10.2742357254028 12.5417261123657 10.3389492034912 5.07468748092651 3.13443517684937 3.54414391517639 3.97267627716064 3.89860272407532 3.67424440383911 3.7061448097229 3.60707020759583 3.70634078979492 4.12148666381836 4.30016422271729 4.43238115310669 4.22247314453125 3.49176979064941 3.13870882987976 3.04431581497192 2.95535945892334 2.49105143547058 1.91618943214417 1.13611805438995 7.29458713531494 -1.10889840126038 -1.41684007644653 -1.4236114025116 -1.42182016372681
1.59906709194183 1.72471368312836 1.75902116298676 1.58334934711456 1.74901282787323 2.08668327331543 2.53408145904541 2.79910469055176 2.36293792724609 2.31589078903198 2.27106809616089 2.01464414596558 1.72436511516571 1.2915723323822 1.01667094230652 0.988721966743469 0.991398632526398 0.758208394050598 0.773883938789368 0.867141842842102 0.927250802516937 1.22216331958771 1.19703185558319 1.05978810787201 0.884361863136292 0.670762240886688 0.48169070482254 0.391236066818237 0.295948952436447 0.184012070298195 -0.152075678110123 -0.361784219741821 -0.343135923147202 -0.327040314674377 -0.3044793009758 -0.271660685539246 -0.238624557852745 -0.210054084658623 -0.200264677405357 -0.206188544631004 -0.218400731682777 -0.200765758752823 -0.174101233482361 -0.169160678982735 -0.169762939214706 -0.176358431577682 -0.181463852524757 -0.189919874072075 -0.195293217897415 -0.105790160596371 0.0557857006788254 0.400455117225647 0.647370159626007 0.702500343322754 0.626731157302856 0.509943068027496 0.310003280639648 0.102535113692284 0.230476662516594 0.0801094323396683 0.255213558673859 0.383694559335709 0.334808588027954 0.409831672906876 1.92976140975952 4.69408321380615 6.16012525558472 4.92523956298828 4.93149757385254 2.07259058952332 0.0410767495632172 0.12263198196888 2.16689562797546 3.82911252975464 4.46354722976685 3.98788356781006 2.70656490325928 0.952732682228088 1.04363024234772 1.36380100250244 1.97528517246246 2.73123478889465 3.22257375717163 3.99188089370728 4.5661768913269 5.03494787216187 5.69992065429688 6.06814479827881 6.42136573791504 7.58064889907837 11.6449298858643 15.5005903244019 12.1018953323364 8.78521060943604 3.63198447227478 -0.160126537084579 -1.08927702903748 -0.66203361749649 0.22397269308567 1.24015057086945 1.6973249912262 2.02111625671387 2.14051961898804 2.0371572971344 1.60054707527161 4.69735860824585 7.16037082672119 7.83690881729126 7.81014442443848 6.16752004623413 4.6456184387207 4.33117389678955 3.57925176620483 3.96396088600159 4.73393583297729 5.39889335632324 6.25550031661987 6.10150337219238 5.21083068847656 4.97045850753784 5.1090989112854 5.47037744522095 6.75188589096069 7.37831687927246 8.54469966888428 9.09680843353271 9.74684238433838 9.30274105072021 9.26264476776123 8.69410419464111 7.57990980148315 7.85372543334961 8.43378734588623 9.09117984771729 9.57328414916992 10.1181964874268 10.3390436172485 10.2244567871094 9.70526123046875 9.49287128448486 9.34056568145752 8.86564350128174 8.01167869567871 8.89897155761719 10.4765434265137 9.69504261016846 8.08625030517578 4.57861328125 3.61668133735657 3.58699035644531 3.79723906517029 3.59442067146301 3.44081735610962 3.36462306976318 3.57790541648865 3.94077944755554 4.10916042327881 4.2693338394165 4.13186740875244 3.72972989082336 3.07124519348145 2.89277172088623 2.8026921749115 2.40937352180481 1.87008583545685 3.71945977210999 11.1381454467773 12.2646408081055 8.94625473022461 4.05552339553833 1.19647514820099
1.52621555328369 1.66009855270386 1.70118391513824 1.54085874557495 1.70199489593506 1.89054989814758 3.16199135780334 2.19356799125671 2.23326301574707 2.19823360443115 2.17884421348572 1.95661425590515 1.67471241950989 1.24970126152039 0.979571044445038 0.798617780208588 0.809126019477844 0.819718658924103 0.773192405700684 0.708963871002197 0.773963332176208 0.937032997608185 0.983685255050659 0.895421862602234 0.805592715740204 0.542324721813202 0.480381041765213 0.387308478355408 0.198611155152321 0.0685869678854942 -0.203585922718048 -0.376409828662872 -0.36957460641861 -0.360929638147354 -0.349470049142838 -0.333632260560989 -0.302097290754318 -0.270804643630981 -0.271052628755569 -0.283439517021179 -0.292515844106674 -0.277490854263306 -0.245950683951378 -0.229388356208801 -0.221634775400162 -0.223999708890915 -0.231147602200508 -0.233495488762856 -0.242712035775185 -0.195630297064781 0.0475996844470501 0.283287554979324 0.502746224403381 0.553415715694427 0.519692897796631 0.450112372636795 0.303790062665939 0.166191697120667 0.0248613469302654 0.0532152429223061 0.240002006292343 0.334946900606155 0.278474926948547 0.231171429157257 1.70058476924896 3.61865091323853 4.13952684402466 4.11516046524048 4.0070104598999 2.40494418144226 2.29003500938416 1.33557915687561 1.99405598640442 3.38837170600891 4.12188291549683 3.38458275794983 1.79803061485291 0.934778869152069 1.01686441898346 1.32024645805359 1.91584157943726 2.88437652587891 3.30473923683167 3.788578748703 4.316237449646 4.75759315490723 5.3967661857605 5.74384498596191 6.08339309692383 7.48842430114746 14.5711650848389 14.9232711791992 10.9940090179443 8.22268962860107 7.12111568450928 6.14754009246826 2.14250540733337 1.69888031482697 0.035929910838604 1.08277153968811 1.55384945869446 1.94190466403961 2.11531615257263 5.58650875091553 7.69283437728882 4.57629299163818 6.5489559173584 7.16447782516479 7.20623779296875 5.74990463256836 4.46134948730469 4.14001893997192 3.40594506263733 3.82131052017212 4.53796577453613 5.17398548126221 6.0084433555603 5.84691858291626 4.9051570892334 4.45940256118774 4.45567560195923 4.52095365524292 5.59692096710205 6.31953859329224 7.48298788070679 8.22209072113037 8.11245346069336 8.6798038482666 8.66527938842773 8.22754192352295 7.55752038955688 7.76082611083984 8.17439746856689 8.85977554321289 9.38784980773926 9.58853530883789 9.81121253967285 9.88505268096924 9.361496925354 9.13639831542969 8.89985275268555 8.49481105804443 7.7751293182373 9.05733680725098 9.25514316558838 8.7932653427124 8.36406230926514 6.90934944152832 4.01610422134399 3.39443111419678 3.37812471389771 3.39877128601074 3.33596205711365 3.2688889503479 3.48464465141296 3.78847765922546 3.94663691520691 4.11091661453247 4.02172803878784 3.82289743423462 5.31162261962891 4.46092700958252 3.09426045417786 2.24657869338989 2.54748320579529 4.71461915969849 10.5890169143677 13.4088134765625 13.0653295516968 15.0648746490479 11.1708345413208
1.4752938747406 1.57992541790009 1.62632310390472 1.48181056976318 1.64998137950897 1.86983132362366 2.1777081489563 2.12584543228149 2.23224449157715 2.15608191490173 1.92116165161133 1.91481781005859 1.63046908378601 1.20844423770905 0.944653868675232 0.748720765113831 0.837000906467438 0.807978630065918 0.801291823387146 0.753531396389008 0.642527163028717 0.73503977060318 0.723783195018768 0.645847022533417 0.629437386989594 0.578863084316254 0.477453738451004 0.385986775159836 0.271866798400879 -0.101042576134205 -0.266135275363922 -0.400781959295273 -0.389780819416046 -0.384433418512344 -0.383731991052628 -0.377223372459412 -0.371841251850128 -0.342368304729462 -0.334438294172287 -0.345730304718018 -0.352606028318405 -0.353452801704407 -0.332551091909409 -0.30077451467514 -0.281775116920471 -0.275627613067627 -0.279543101787567 -0.283266603946686 -0.280627191066742 -0.239643007516861 0.0621519759297371 0.261439204216003 0.470248490571976 0.511907756328583 0.485732972621918 0.669901728630066 1.15764153003693 1.19419491291046 0.341901540756226 0.282822161912918 0.331522166728973 0.461902022361755 1.97860193252563 0.536147475242615 2.51756596565247 3.42112588882446 3.22745609283447 3.14257049560547 3.2663791179657 2.14907360076904 3.41161704063416 3.78060054779053 2.91022896766663 3.17772769927979 3.44034075737 2.45103001594543 1.25383281707764 0.946887671947479 1.01467347145081 1.28289484977722 1.86339604854584 2.87168860435486 3.37936210632324 3.62997102737427 4.09695386886597 4.49182271957397 5.10874223709106 5.4481635093689 5.77364110946655 6.29367542266846 14.6951723098755 17.6706485748291 16.3572254180908 9.12079429626465 7.97940969467163 8.11138248443604 10.6152744293213 6.66055059432983 3.56286311149597 0.917898833751678 1.47612714767456 1.91278803348541 3.08205628395081 5.68687725067139 8.13529300689697 6.51154899597168 6.24466466903687 6.75348949432373 7.08735990524292 5.56918525695801 4.4500880241394 4.09762191772461 3.61753511428833 3.69774556159973 4.36909961700439 4.93565940856934 5.73478317260742 5.59745740890503 4.64207744598389 4.12818098068237 4.1333703994751 4.09132242202759 5.10698986053467 5.68048810958862 6.48911762237549 7.15796422958374 7.03451061248779 7.23448085784912 7.45227146148682 7.24915504455566 7.36391878128052 7.56819725036621 7.86494541168213 8.45706558227539 8.95902061462402 9.16165065765381 9.28972339630127 9.16376209259033 8.92625331878662 8.73069000244141 8.28445816040039 7.81538724899292 7.37117528915405 8.58694267272949 8.32530117034912 7.84916162490845 7.51686096191406 6.79615497589111 5.36558818817139 3.47367000579834 3.30191993713379 3.27530288696289 3.2277512550354 3.18241000175476 3.38453912734985 3.64117503166199 3.79123640060425 3.97026085853577 3.90697121620178 3.44695234298706 4.9611029624939 4.97897243499756 3.5563178062439 3.19911479949951 3.71988153457642 4.55449247360229 8.94431304931641 12.5028343200684 13.0647974014282 12.9887762069702 10.7516412734985
1.42199277877808 1.49192094802856 1.53357136249542 1.41586101055145 1.62052714824677 1.86773192882538 2.00760769844055 2.09861159324646 2.18474340438843 2.105060338974 1.90005362033844 1.61584579944611 1.42527556419373 1.1711437702179 0.903358578681946 0.708566188812256 0.777810633182526 0.764669895172119 0.762510776519775 0.760979175567627 0.632639229297638 0.621557474136353 0.528681576251984 0.414913833141327 0.392368584871292 0.483937501907349 0.468613773584366 0.376502633094788 0.166273236274719 -0.156197130680084 -0.361945658922195 -0.414926797151566 -0.411504179239273 -0.417054444551468 -0.430227339267731 -0.44177919626236 -0.441157847642899 -0.420405089855194 -0.393664717674255 -0.391698062419891 -0.387275159358978 -0.3936687707901 -0.399874210357666 -0.388630002737045 -0.366623014211655 -0.358962088823318 -0.345469921827316 -0.32559472322464 -0.318697571754456 -0.275566250085831 0.0799856632947922 0.24522365629673 0.77422308921814 0.997106969356537 0.840749621391296 0.947902798652649 1.07257640361786 0.861665844917297 0.186477169394493 0.380873054265976 0.307444214820862 0.276971578598022 0.269139915704727 0.507698595523834 1.65183353424072 2.30589461326599 2.28456902503967 2.17680025100708 2.00408530235291 1.96579003334045 3.37467932701111 4.51037359237671 4.49306392669678 2.55337071418762 2.36921620368958 1.758784532547 0.872912585735321 0.960280001163483 1.04326784610748 1.25072801113129 1.81516325473785 2.80437326431274 3.41027760505676 3.73929142951965 3.95661520957947 4.27144813537598 4.83887767791748 5.17664957046509 5.49763298034668 5.74742937088013 12.8840036392212 18.3652858734131 22.257511138916 14.2529964447021 11.583155632019 10.0071144104004 15.1178750991821 13.9088649749756 13.2957372665405 9.30734825134277 4.61859798431396 5.39368438720703 5.84273815155029 7.42854499816895 8.83755588531494 11.7211580276489 10.634183883667 6.84298229217529 7.03859758377075 14.1231994628906 8.21023178100586 4.26143026351929 6.86334276199341 3.65553665161133 4.12649393081665 4.76342391967773 5.50481653213501 5.35536098480225 4.43494987487793 3.63778877258301 3.84773063659668 3.80523681640625 4.77058410644531 5.25308799743652 5.74388790130615 6.30279684066772 6.45017719268799 6.36984062194824 6.86708641052246 6.94984102249146 7.05171012878418 7.24623250961304 7.52481508255005 8.04597282409668 8.51909160614014 8.71992778778076 8.80722045898438 8.70872020721436 8.51764678955078 8.41543388366699 7.98781299591064 7.29491806030273 6.72644472122192 7.73842191696167 7.63104057312012 6.69806289672852 6.89017105102539 6.9078950881958 7.16291570663452 5.56537246704102 3.27013540267944 3.13275098800659 3.07753968238831 3.07695627212524 3.29357981681824 3.50523662567139 3.80991625785828 3.76109170913696 3.46351456642151 3.19613885879517 4.19526147842407 4.25797033309937 3.65605211257935 3.59927558898926 3.26957535743713 7.60787916183472 8.55021667480469 10.8935203552246 11.2739009857178 11.044017791748 9.43825912475586
1.39834332466125 1.47075247764587 1.49382364749908 1.36834514141083 1.57306277751923 1.76481223106384 1.91867125034332 1.99746417999268 2.13118267059326 2.05760788917542 1.85821521282196 1.57645118236542 1.16476905345917 0.981907248497009 0.86709851026535 0.658849656581879 0.721839129924774 0.729189574718475 0.73180878162384 0.71574866771698 0.604884386062622 0.530608057975769 0.394853144884109 0.21747350692749 0.212408304214478 0.303428322076797 0.401881009340286 0.315316408872604 0.131662264466286 -0.182241097092628 -0.437970757484436 -0.438017576932907 -0.455564975738525 -0.45828241109848 -0.470533549785614 -0.509539663791656 -0.519661664962769 -0.488858729600906 -0.47038933634758 -0.449867099523544 -0.421540886163712 -0.419983178377151 -0.442419320344925 -0.474929749965668 -0.445986717939377 -0.431088536977768 -0.41789311170578 -0.400314629077911 -0.373866319656372 -0.34129810333252 0.112547248601913 0.324765503406525 0.697894692420959 1.00952041149139 0.794423043727875 0.657904982566833 0.73313981294632 0.526988863945007 0.0341588370501995 0.226985156536102 0.298193067312241 0.151535525918007 0.113276802003384 -0.190599530935287 0.0571446716785431 0.407661974430084 0.376983374357224 0.962028086185455 0.83016961812973 1.76716756820679 3.11829566955566 3.70242404937744 3.12493991851807 2.29719471931458 1.59339952468872 0.792372167110443 0.807473599910736 0.936823129653931 1.07441973686218 1.21999847888947 1.76736807823181 2.67621874809265 3.28708553314209 3.70988154411316 4.00435018539429 4.25758218765259 4.6045036315918 4.9136643409729 5.23476696014404 5.48417139053345 10.8312702178955 16.712215423584 18.6302814483643 23.0134792327881 20.2059020996094 19.1999855041504 19.91286277771 22.4171466827393 22.0190582275391 15.8358316421509 12.1744108200073 9.11801052093506 10.028058052063 10.8815364837646 10.1504068374634 11.6779909133911 12.8617191314697 17.3735980987549 17.7577896118164 14.8894233703613 9.30476760864258 5.91639232635498 6.64836740493774 7.04785299301147 4.11257743835449 4.66749715805054 5.30700302124023 5.10626029968262 4.24329042434692 3.42147612571716 3.36097598075867 3.69552850723267 4.50677680969238 4.90981101989746 5.23730945587158 5.66552114486694 6.00771522521973 6.04236650466919 6.56848430633545 6.64099597930908 6.73631000518799 6.93114471435547 7.17658472061157 7.64954423904419 8.09041118621826 8.29430294036865 8.36157512664795 8.26059913635254 8.072190284729 8.0183744430542 7.63866376876831 7.01100015640259 6.30608415603638 7.0524206161499 6.99906349182129 6.39639043807983 5.96128129959106 6.26823234558105 5.88010835647583 4.82319402694702 3.22679018974304 3.01823353767395 2.92994427680969 2.92138481140137 3.29068541526794 3.52259969711304 3.71686267852783 3.67317986488342 3.31885457038879 3.11964082717896 3.43950724601746 3.59804749488831 3.20519280433655 3.10095715522766 3.80107426643372 6.66947841644287 9.03212642669678 9.12038230895996 9.13919734954834 9.18970012664795 8.31066989898682
1.39084625244141 1.4411096572876 1.4407457113266 1.30254280567169 1.52398192882538 1.71645677089691 1.84475004673004 1.95563542842865 2.08442306518555 2.00936436653137 1.81182956695557 1.54107344150543 1.13102769851685 0.867605209350586 0.741573929786682 0.610291540622711 0.665570259094238 0.673124015331268 0.674140870571136 0.673973143100739 0.585973858833313 0.449011147022247 0.288071870803833 0.189024105668068 0.152159839868546 0.202614977955818 0.296945005655289 0.251835584640503 0.0897077843546867 -0.206342130899429 -0.476607084274292 -0.490420758724213 -0.533861517906189 -0.508147895336151 -0.509151875972748 -0.555639445781708 -0.580227613449097 -0.551471352577209 -0.533202290534973 -0.499063968658447 -0.472843199968338 -0.46711066365242 -0.5013267993927 -0.521196722984314 -0.504936635494232 -0.497320771217346 -0.482594758272171 -0.477701783180237 -0.451819568872452 -0.374017059803009 0.0939985662698746 0.374441772699356 0.557776629924774 0.965642690658569 0.726433634757996 0.497286766767502 0.468605428934097 0.216184705495834 -0.00343644595704973 0.14857617020607 0.231714323163033 0.0569135807454586 -0.117067590355873 -0.274160891771317 -0.47756364941597 -0.656139373779297 -0.603219509124756 -0.111596219241619 0.175758972764015 1.35999310016632 2.24549698829651 2.96185898780823 2.31126308441162 1.97827446460724 1.36269795894623 0.67318469285965 0.79170697927475 0.917550683021545 1.0719268321991 1.18785607814789 1.71727669239044 2.57423043251038 3.15530705451965 3.55679249763489 3.88620924949646 4.20634794235229 4.59899950027466 4.88369417190552 5.05765867233276 5.23763561248779 9.40799236297607 14.5005693435669 17.8569450378418 21.9074325561523 27.1710586547852 24.779468536377 20.6435165405273 20.2699451446533 21.2276039123535 19.9076232910156 16.4447345733643 13.9197015762329 13.0936231613159 13.4588260650635 13.4636325836182 15.5372934341431 17.7185554504395 18.2868175506592 19.2605609893799 13.9767866134644 8.36277866363525 8.85389423370361 13.1456689834595 17.8094024658203 14.4468154907227 8.09045505523682 5.27189302444458 4.87950086593628 4.07990121841431 3.36743116378784 3.30996918678284 3.58646178245544 4.37096786499023 4.69518852233887 4.95502519607544 5.26369047164917 5.54066944122314 5.7965521812439 6.28017616271973 6.35582256317139 6.44587993621826 6.63311004638672 6.86908578872681 7.2880916595459 7.70618963241577 7.89085626602173 7.95869255065918 7.8512749671936 7.6750373840332 7.62302875518799 7.27148771286011 6.6931357383728 6.04722309112549 6.45840644836426 6.3550763130188 5.77986192703247 5.61940479278564 5.2031455039978 5.0009651184082 4.23920011520386 3.45910692214966 3.00146102905273 2.84950494766235 2.79522848129272 3.14868593215942 3.40997648239136 3.61647915840149 3.53647780418396 3.18616056442261 3.00256395339966 2.88199615478516 2.78450226783752 2.44856381416321 2.57742547988892 3.33517670631409 5.98251533508301 7.68096208572388 7.76993846893311 7.82406425476074 7.62976408004761 6.90365743637085
1.38007211685181 1.34946048259735 1.38411927223206 1.24207675457001 1.46734547615051 1.65722000598907 1.78039717674255 1.93338668346405 2.04000687599182 1.96241009235382 1.76781010627747 1.50435364246368 1.0973516702652 0.841690838336945 0.666703283786774 0.57693088054657 0.599556922912598 0.623335719108582 0.642623722553253 0.649283945560455 0.551286399364471 0.396473497152328 0.281143486499786 0.170088991522789 0.0552459359169006 0.0649668052792549 0.0233742110431194 0.0892185941338539 0.0134858824312687 -0.248395442962646 -0.530541598796844 -0.576360106468201 -0.62414014339447 -0.598102211952209 -0.571678578853607 -0.598016083240509 -0.633733689785004 -0.61413961648941 -0.575763404369354 -0.553966820240021 -0.551142513751984 -0.557996153831482 -0.584978222846985 -0.539411008358002 -0.527100265026093 -0.545479774475098 -0.528675258159637 -0.506073772907257 -0.490295022726059 -0.399041950702667 0.0581844784319401 0.344831556081772 0.4630186855793 0.776975154876709 0.517840623855591 0.414050281047821 0.277657985687256 0.0600477233529091 -0.0409490093588829 0.0680660009384155 0.138657614588737 0.0160543285310268 -0.180310115218163 -0.338146239519119 -0.607778549194336 -0.775022089481354 -0.769443094730377 -0.683351397514343 -0.492344290018082 0.586875438690186 1.66279757022858 2.0475869178772 1.93270075321198 1.73514437675476 1.19754767417908 0.622938573360443 0.774679660797119 0.899265587329865 1.04885363578796 1.20781898498535 1.67322659492493 2.47788953781128 3.02612042427063 3.40956616401672 3.72332334518433 4.18114709854126 4.45036840438843 4.71408796310425 4.94598436355591 5.06725454330444 8.38694858551025 12.6508941650391 16.9749317169189 19.2753467559814 22.3775501251221 19.6108131408691 18.0200443267822 18.2869243621826 18.1977405548096 16.8826656341553 15.8414268493652 14.8407907485962 13.2091779708862 15.0658683776855 16.7410278320312 14.6684770584106 15.7659673690796 15.6288967132568 14.7186231613159 13.0370979309082 10.8233375549316 20.8087310791016 25.1700019836426 23.4799118041992 18.3334197998047 10.8852119445801 7.10633325576782 6.03255844116211 3.86260962486267 3.31174421310425 3.24440360069275 3.4987211227417 4.26904249191284 4.55887937545776 4.75927543640137 4.95149993896484 5.13510799407959 5.54446506500244 6.00687217712402 6.09148168563843 6.17807483673096 6.35497808456421 6.58073616027832 6.95556879043579 7.34992694854736 7.5261754989624 7.57785081863403 7.48477411270142 7.31249618530273 7.26693344116211 6.94689846038818 6.39922857284546 5.75545930862427 5.83791589736938 5.79029273986816 5.15481662750244 4.94103145599365 4.48917770385742 4.15485525131226 3.79743814468384 3.26352310180664 3.1933000087738 2.83385396003723 2.72414827346802 2.98933863639832 3.23622798919678 3.47665643692017 3.41692280769348 3.07912826538086 2.90040326118469 2.78817820549011 2.70164489746094 2.34816145896912 2.19186019897461 2.9481942653656 5.33809518814087 6.90193176269531 6.90720176696777 6.68001937866211 6.51419019699097 6.08053684234619
1.35089433193207 1.31061995029449 1.18671822547913 1.15383470058441 1.40460681915283 1.59232366085052 1.71276688575745 1.89565813541412 2.00601959228516 1.92025482654572 1.72660112380981 1.46227204799652 1.07077479362488 0.809937357902527 0.630940437316895 0.522144317626953 0.538974225521088 0.572951138019562 0.598539233207703 0.616290867328644 0.553812861442566 0.405146420001984 0.226673573255539 0.151708126068115 0.606662034988403 -0.0241790674626827 -0.229691028594971 -0.132662877440453 -0.0934261381626129 -0.319568276405334 -0.576598346233368 -0.619500160217285 -0.662103056907654 -0.665210485458374 -0.655981063842773 -0.655831634998322 -0.66413426399231 -0.665684342384338 -0.610600173473358 -0.593545496463776 -0.582472145557404 -0.616347074508667 -0.600724279880524 -0.556009948253632 -0.546551644802094 -0.513561844825745 -0.561611950397491 -0.533020555973053 -0.503144860267639 -0.405083626508713 0.0181122310459614 0.277514964342117 0.399914622306824 0.404431641101837 0.348309546709061 0.239170089364052 0.165287643671036 -0.0295996237546206 -0.083503745496273 -0.00873323529958725 0.0299077611416578 -0.116508632898331 -0.226408079266548 -0.438160926103592 -0.741920590400696 -0.884801805019379 -0.81862086057663 -0.73376739025116 -0.617358326911926 -0.269060909748077 1.24877500534058 1.66638731956482 1.71529567241669 1.54633593559265 1.05802750587463 0.544457614421844 0.735637009143829 0.879313230514526 1.12803614139557 1.34426879882812 1.62609004974365 2.37214398384094 2.90162301063538 3.28522515296936 3.57277035713196 4.00364780426025 4.26854085922241 4.51988649368286 4.73721361160278 4.84543418884277 7.53275632858276 10.7871856689453 15.3525714874268 17.9805889129639 17.7117805480957 16.8206634521484 15.7139225006104 15.7820243835449 15.9810256958008 15.2403736114502 15.1480779647827 14.4823188781738 13.4160003662109 13.5447673797607 13.2646226882935 11.693962097168 11.8684387207031 12.0611000061035 11.3908958435059 12.6011209487915 25.3020935058594 28.870475769043 26.8222141265869 19.5004196166992 14.8709163665771 13.2413473129272 10.7933530807495 11.0779161453247 9.03170680999756 5.36210823059082 3.29606461524963 3.64564728736877 4.11675834655762 4.4440393447876 4.56301879882812 4.68849039077759 4.79743814468384 5.31598043441772 5.75143957138062 5.84435129165649 6.05199909210205 6.27321004867554 6.48063898086548 6.64966678619385 7.02210664749146 7.1844654083252 7.24195718765259 7.14164876937866 6.98610782623291 6.95756196975708 6.6272177696228 6.10574960708618 5.50906467437744 5.3511323928833 5.28984117507935 4.67066764831543 4.37116479873657 3.86774969100952 3.66825342178345 3.38164639472961 3.18167161941528 2.99272418022156 3.03572964668274 2.72365188598633 2.93088388442993 3.10382318496704 3.31868934631348 3.27391767501831 2.94729804992676 2.78698587417603 2.67335677146912 2.59419655799866 2.24609208106995 1.86312687397003 2.5484607219696 4.77188634872437 6.09521389007568 6.22963285446167 5.90457487106323 5.65785074234009 5.28094387054443
1.32054901123047 1.28877198696136 1.12171041965485 1.31407928466797 1.42406165599823 1.52673542499542 1.7612396478653 1.83019948005676 1.9830060005188 1.87688326835632 1.68387937545776 1.42839372158051 1.03884327411652 0.775337874889374 0.594932734966278 0.527441501617432 0.552062928676605 0.550766706466675 0.568273186683655 0.604843497276306 1.03952264785767 0.420340716838837 0.217273458838463 0.488797456026077 0.2924525141716 0.0812745094299316 -0.344219207763672 -0.322283059358597 -0.203014358878136 -0.396900534629822 -0.677334368228912 -0.649403750896454 -0.692619502544403 -0.701700448989868 -0.711510539054871 -0.702855825424194 -0.671267569065094 -0.295471370220184 -0.627732157707214 -0.628123998641968 -0.632650673389435 -0.234875231981277 0.0514859519898891 -0.14702633023262 -0.600535452365875 -0.608585953712463 -0.552531540393829 -0.554440140724182 -0.527538418769836 -0.442463666200638 -0.0199167020618916 0.233543276786804 0.346571445465088 0.358425110578537 0.311924785375595 0.193376034498215 -0.00308193988166749 -0.134236201643944 -0.12632904946804 -0.0845342427492142 -0.0707826018333435 -0.203186586499214 -0.299949407577515 -0.562262177467346 -0.881963729858398 -0.98977530002594 -0.443420678377151 1.42851126194 0.803478121757507 -0.419337540864944 0.749581694602966 1.47313606739044 1.55792164802551 1.3976229429245 0.949242353439331 0.477743417024612 0.669820427894592 0.844172596931458 1.09967935085297 1.58295845985413 1.87367117404938 2.28667950630188 2.79274368286133 3.15280866622925 3.43175911903381 3.85553097724915 4.10273408889771 4.34972476959229 4.55335092544556 4.6456937789917 6.81033277511597 9.61025714874268 12.9923868179321 16.0242538452148 16.9393119812012 15.3590679168701 14.2787294387817 14.0497407913208 13.4590578079224 14.1108207702637 14.0249547958374 13.6145858764648 12.5936670303345 11.5419397354126 10.320839881897 9.59786128997803 9.52784824371338 9.00584030151367 9.42566967010498 11.056450843811 14.4611358642578 18.7913551330566 20.7560729980469 16.9344387054443 13.3448429107666 13.1142587661743 13.2931756973267 11.6066722869873 10.2715368270874 8.44623851776123 6.0439600944519 4.07565259933472 3.93677282333374 4.05768156051636 4.39074850082397 4.45565032958984 4.74045133590698 5.31997442245483 5.59086847305298 5.66561508178711 5.83530378341675 6.05188989639282 6.28730058670044 6.47723913192749 6.72215270996094 6.88150835037231 6.93039846420288 6.84186506271362 6.68413066864014 6.63358306884766 6.33938932418823 5.83440113067627 5.26982831954956 4.924391746521 4.86012840270996 4.23833799362183 3.96802949905396 3.47245311737061 3.55899786949158 3.27741146087646 2.97311758995056 2.85545134544373 2.65849494934082 2.78742957115173 2.78593015670776 2.91622734069824 3.10191130638123 3.0731303691864 2.81048893928528 2.67373919487 2.56907415390015 2.48934650421143 2.14757013320923 1.78566217422485 2.21473121643066 4.29508495330811 5.48355054855347 5.49380445480347 5.21348190307617 5.08924961090088 4.67886924743652
1.30213892459869 1.2843964099884 1.13745951652527 1.28943264484406 1.42952620983124 1.53809463977814 1.72010695934296 1.89155375957489 1.90841436386108 1.84227573871613 1.65068233013153 1.39634215831757 1.00913965702057 0.750584781169891 0.572344660758972 0.515545606613159 0.631015658378601 0.600693106651306 0.568109035491943 0.699776291847229 0.661527931690216 0.596264183521271 0.767257571220398 0.323037207126617 0.234957188367844 2.05474615097046 2.29418110847473 -0.533442318439484 -0.358204782009125 -0.48152083158493 -0.721162676811218 -0.707070171833038 0.0545458756387234 -0.719253778457642 -0.721254289150238 -0.729739427566528 -0.701458156108856 0.22656986117363 -0.559729874134064 -0.632137060165405 -0.641430020332336 -0.636381268501282 -0.371741503477097 -0.613655567169189 -0.629392087459564 0.904269278049469 -0.579374551773071 -0.585106551647186 -0.547186374664307 -0.432941496372223 -0.0476794168353081 0.204333454370499 0.302716374397278 0.281345814466476 0.222388833761215 0.109609343111515 -0.0865072757005692 -0.213054895401001 -0.197805181145668 -0.187679618597031 -0.190671905875206 -0.279715090990067 -0.350619405508041 -0.637632608413696 -0.986042022705078 -1.08439970016479 -0.820939362049103 0.387887358665466 -0.0475381053984165 -0.446107804775238 0.420708149671555 1.27952599525452 1.4291090965271 1.27520930767059 0.867385804653168 0.431436687707901 0.62069171667099 0.818717479705811 1.07150495052338 1.54786670207977 2.00232481956482 2.21387076377869 2.70355892181396 3.04063177108765 3.3120014667511 3.70427513122559 3.94747591018677 4.19257497787476 4.3830189704895 4.47069597244263 6.20260906219482 8.67942237854004 11.1488742828369 13.5294380187988 14.6204128265381 14.6018953323364 13.9908952713013 13.6772737503052 13.1072483062744 12.2890920639038 11.9159460067749 11.5923357009888 10.097972869873 8.57743453979492 8.39425563812256 8.31571578979492 8.05008411407471 7.61420488357544 8.1750955581665 9.36288833618164 13.0206880569458 15.1903038024902 16.0094585418701 15.3678102493286 17.3441429138184 13.1303434371948 11.8613052368164 10.9367322921753 11.0848760604858 11.2991905212402 8.95373249053955 5.78347873687744 3.90120315551758 3.87544918060303 4.09273958206177 4.16012096405029 4.84467315673828 5.26831817626953 5.3919939994812 5.46297025680542 5.61942577362061 5.82970380783081 6.06767749786377 6.33803367614746 6.44001531600952 6.60243034362793 6.64683532714844 6.53418588638306 6.38796138763428 6.35011768341064 6.05285024642944 5.56824588775635 5.01791667938232 4.51490116119385 4.47339010238647 3.81274676322937 3.50783920288086 3.36481142044067 3.44613981246948 3.17376351356506 2.84322905540466 2.69455456733704 2.5906138420105 2.71721863746643 2.70763993263245 2.83831882476807 3.00101542472839 2.9509813785553 2.67711520195007 2.54283142089844 2.44402432441711 2.36721467971802 2.035564661026 1.67060482501984 1.83913385868073 3.77052116394043 4.70898866653442 4.55356884002686 4.09753751754761 4.18314361572266 4.08078813552856
1.74434196949005 2.44566106796265 1.69524991512299 1.67131018638611 1.40493381023407 1.48510611057281 1.64598941802979 1.81103134155273 1.77323365211487 1.83104753494263 1.62746524810791 1.36444318294525 0.987980663776398 0.732691943645477 0.565515339374542 0.552176356315613 0.581123471260071 1.09489631652832 0.634275078773499 0.597429394721985 0.717197954654694 0.859643936157227 1.0150238275528 0.673480272293091 0.166479200124741 2.72422885894775 8.44826984405518 2.8747341632843 -0.575277864933014 -0.595021665096283 -0.744331121444702 -0.716308414936066 -0.68724799156189 0.548884510993958 0.0134008312597871 0.319021165370941 0.856196105480194 0.224384233355522 -0.647234320640564 -0.660468935966492 -0.663675844669342 -0.697273552417755 -0.670597791671753 -0.644776225090027 0.673084199428558 0.1104371920228 -0.614938080310822 -0.606599807739258 -0.545216977596283 -0.349168747663498 -0.0822782218456268 0.166099488735199 0.243831843137741 0.201763987541199 0.127575322985649 0.00168911227956414 -0.186331152915955 -0.311787128448486 -0.299371391534805 -0.30219355225563 -0.319591194391251 -0.362872034311295 -0.462165087461472 1.00400328636169 4.55352878570557 5.6065878868103 1.24441504478455 1.53043162822723 1.47611439228058 1.40553486347198 0.392656445503235 1.14557671546936 1.31751227378845 1.17753219604492 0.795271337032318 0.395173341035843 0.564631581306458 0.805232346057892 1.04871761798859 1.51202726364136 1.95100104808807 2.17192625999451 2.61792087554932 2.93908023834229 3.19924521446228 3.57324814796448 3.80365991592407 4.04145574569702 4.23230838775635 4.31135749816895 5.71374225616455 7.9366250038147 9.75469589233398 11.6319284439087 12.6079444885254 12.986743927002 13.0158987045288 13.1052179336548 12.2581596374512 11.2701625823975 10.062385559082 9.05270862579346 8.24922180175781 7.64123487472534 7.38849830627441 7.32094621658325 6.94662666320801 6.86352443695068 7.19314956665039 8.11685276031494 11.364387512207 12.8435163497925 13.2033920288086 12.2835321426392 10.816650390625 11.0055799484253 10.8398323059082 10.3501005172729 10.0581331253052 10.3040437698364 9.05948448181152 7.10981702804565 4.66635417938232 3.80377435684204 3.81218194961548 3.91762661933899 4.67856979370117 5.08124780654907 5.20007610321045 5.26939249038696 5.4291558265686 5.62485980987549 5.84541130065918 6.17617321014404 6.3202862739563 6.34619855880737 6.24949741363525 6.1003155708313 6.05264568328857 5.88296937942505 5.62960243225098 5.21156692504883 4.73351001739502 4.150963306427 4.0859489440918 3.53175973892212 3.22774267196655 3.31495404243469 3.1237690448761 3.04923439025879 2.73256731033325 2.58707594871521 2.49080276489258 2.62544536590576 2.64503145217896 2.74509572982788 2.90273213386536 2.83465623855591 2.55228471755981 2.4090142250061 2.31091260910034 2.19136953353882 1.89347398281097 1.51106917858124 1.32435822486877 3.02601432800293 3.32641410827637 1.87379705905914 1.82784414291382 2.64067673683167 3.18817353248596
1.51383233070374 1.74918007850647 1.5100919008255 2.2808153629303 1.46359598636627 1.4539886713028 1.58543598651886 1.73905205726624 1.70734143257141 1.59937906265259 1.60292303562164 1.33320605754852 0.966269016265869 0.7239710688591 0.674914419651031 0.522463321685791 0.599530696868896 0.63008838891983 0.542447686195374 0.519812166690826 0.784231603145599 0.85163277387619 0.972225069999695 1.29249656200409 1.09465658664703 1.98514652252197 6.227126121521 7.6641092300415 2.58418321609497 -0.674330711364746 -0.77570104598999 1.1113646030426 1.37423002719879 2.14118218421936 1.85920763015747 1.93951070308685 0.987069606781006 0.161169275641441 -0.115088529884815 0.200642824172974 -0.664922118186951 -0.779538214206696 -0.924872159957886 -0.851425528526306 -0.71007364988327 -0.662904620170593 -0.654394567012787 -0.660564780235291 -0.565287053585052 -0.331793040037155 -0.12352242320776 0.103398226201534 0.159674391150475 0.0941077172756195 -0.00364870275370777 -0.124505609273911 -0.299357175827026 -0.386048078536987 -0.395627051591873 -0.437677353620529 -0.458421111106873 -0.473955541849136 -0.575018644332886 0.174230754375458 7.63801097869873 6.14914703369141 2.01762318611145 3.01476502418518 3.94319653511047 3.51519298553467 1.89923048019409 1.10247981548309 1.20445084571838 1.09026789665222 0.732998132705688 0.356564402580261 0.495116889476776 0.741175055503845 1.0278514623642 1.47940278053284 2.00076580047607 2.29517769813538 2.53328537940979 2.84792828559875 3.09264159202576 3.45243835449219 3.67415428161621 3.90093898773193 4.08729600906372 4.93290185928345 5.82394123077393 7.32277965545654 8.7139778137207 10.3562612533569 11.0466346740723 11.5757656097412 11.6241722106934 11.7497682571411 10.8816947937012 9.93520355224609 8.76813507080078 7.96236753463745 7.27546167373657 6.96309900283813 6.59045457839966 6.52616882324219 6.49813222885132 6.53022146224976 6.41473960876465 7.24693393707275 9.58159923553467 11.1037645339966 11.4306573867798 10.6478652954102 9.15145587921143 8.73354816436768 9.40981960296631 9.41368103027344 9.04387760162354 8.88627338409424 8.30705642700195 6.96539449691772 5.07643604278564 3.7995023727417 3.72565197944641 3.81317543983459 4.48801279067993 4.89834976196289 5.01954126358032 5.0944128036499 5.25394439697266 5.42712306976318 5.62615728378296 5.93446493148804 6.06537389755249 6.08717012405396 5.98669767379761 5.84515905380249 5.80827188491821 5.52728414535522 5.08480787277222 4.72635173797607 4.15419912338257 3.7484188079834 3.56620979309082 3.27856612205505 3.05419182777405 3.13466238975525 2.89827632904053 2.76017737388611 2.60144114494324 2.45930314064026 2.35881686210632 2.49886584281921 2.50117135047913 2.60385513305664 2.77734804153442 2.724445104599 2.44333648681641 2.23682308197021 2.12045216560364 1.89882981777191 1.62077569961548 1.30421841144562 0.941000401973724 1.70809972286224 0.913150072097778 -0.80218094587326 -1.46363174915314 -0.152513906359673 1.53080821037292
1.33060944080353 1.28395974636078 1.33464157581329 1.88780236244202 1.99894499778748 1.45053887367249 1.55351042747498 1.68672275543213 1.65707337856293 1.56493854522705 1.36201560497284 1.16326570510864 0.946701347827911 0.720642030239105 0.730449140071869 0.5896977186203 0.554194867610931 0.53916072845459 0.532245755195618 0.469222009181976 0.659770727157593 1.01042711734772 1.35060846805573 1.40597319602966 2.10556817054749 3.90352964401245 4.39277410507202 5.60894203186035 3.58913850784302 0.392606794834137 -0.434651225805283 0.85031658411026 1.11657404899597 1.63518810272217 1.71592700481415 1.66239750385284 0.720387637615204 0.141528055071831 0.510201632976532 0.335536032915115 -0.0315827913582325 -0.837530076503754 -1.09476184844971 -1.11955177783966 -0.895177245140076 -0.773058176040649 -0.712031960487366 -0.707078099250793 -0.587307333946228 -0.344536244869232 -0.205388873815536 -0.0495443046092987 0.011748562566936 -0.0638902932405472 -0.133482098579407 -0.236186176538467 -0.393593907356262 -0.478704035282135 -0.542923092842102 -0.543196082115173 -0.519557893276215 -0.544026732444763 -0.633868932723999 0.810288071632385 5.29086017608643 5.29072952270508 3.82125186920166 2.97868418693542 4.17579460144043 4.52005338668823 2.99388098716736 1.10862755775452 1.08310627937317 0.97990494966507 0.674440145492554 0.323994368314743 0.420497596263885 0.668643116950989 0.932538866996765 1.45261359214783 1.99972748756409 2.35157155990601 2.52196311950684 2.75953459739685 2.99330449104309 3.3382408618927 3.55138111114502 3.7683093547821 3.94228458404541 4.91356229782104 6.46347379684448 7.05260705947876 7.98307943344116 9.33160972595215 9.84126472473145 10.4346132278442 10.4734296798706 10.6087207794189 9.69822692871094 8.85091495513916 7.81254434585571 7.09474515914917 6.55717277526855 6.39623832702637 6.00116777420044 6.07437086105347 6.19747352600098 6.22641515731812 5.79291534423828 6.54301929473877 8.351149559021 9.78295135498047 10.0771226882935 9.39367961883545 7.96804285049438 7.4144115447998 7.93223428726196 8.04306030273438 7.71122598648071 7.69474267959595 7.29243326187134 6.43300151824951 5.62396001815796 4.4072093963623 3.69298195838928 3.72906374931335 4.34427309036255 4.68854856491089 4.85091400146484 4.92183256149292 5.0715274810791 5.24867820739746 5.42767286300659 5.70789289474487 5.82493877410889 5.84322643280029 5.74054670333862 5.6129903793335 5.55616760253906 5.29441022872925 4.86749315261841 4.37235355377197 3.93763113021851 3.43254899978638 3.17462992668152 2.94170737266541 2.87201476097107 2.92558932304382 2.69700574874878 2.58330106735229 2.44503712654114 2.29382038116455 2.18493318557739 2.32907223701477 2.26964211463928 2.38059759140015 2.58946347236633 2.53847670555115 2.13817286491394 2.0035560131073 1.91446805000305 1.56239223480225 1.15461146831512 0.756294965744019 0.248978987336159 -0.0210769530385733 -0.89092743396759 -1.74380314350128 -2.12412428855896 -2.05941414833069 -0.879819214344025
1.2605357170105 1.24705445766449 1.24570631980896 1.58853054046631 1.79965460300446 1.89450919628143 1.54770874977112 1.66186487674713 1.62805783748627 1.5578453540802 1.2990642786026 0.959659457206726 0.815434634685516 0.79195100069046 1.19777238368988 0.497258067131042 0.484416782855988 0.497699618339539 0.507686853408813 0.454278141260147 0.564563870429993 1.01619064807892 1.30139172077179 1.60169327259064 2.58996200561523 4.84741353988647 4.03644943237305 4.18821859359741 2.95211100578308 2.98716497421265 2.02743268013 1.15739572048187 1.0632883310318 1.39330244064331 1.72998452186584 1.66157865524292 1.09661686420441 0.890994668006897 0.633993268013 0.691099643707275 0.251171767711639 1.47371172904968 0.567816019058228 -1.14592027664185 -1.14072608947754 -0.93342125415802 -0.798900485038757 -0.755079209804535 -0.633611559867859 -0.383181750774384 -0.331486612558365 -0.309183061122894 -0.217178985476494 -0.20433197915554 -0.245898693799973 -0.331972926855087 -0.529202520847321 -0.622199356555939 -0.656879484653473 -0.630698263645172 -0.612798750400543 -0.616491675376892 -0.112342804670334 2.31668424606323 3.89867830276489 4.55704784393311 3.40738368034363 2.5785984992981 3.57719159126282 4.13083648681641 2.7781720161438 1.05818200111389 0.935301005840302 0.662822961807251 0.468929380178452 0.217335104942322 0.350054979324341 0.609403491020203 0.797016620635986 1.3312394618988 1.95974957942963 2.38206148147583 2.61047172546387 2.7606406211853 2.90059161186218 3.23028707504272 3.43893480300903 3.64894390106201 3.81542897224426 4.59731101989746 6.30627155303955 7.28682374954224 7.47636032104492 8.50029468536377 8.9597692489624 9.57571887969971 9.50252437591553 9.63210391998291 8.78072357177734 7.97223711013794 7.010817527771 6.38270902633667 5.96627187728882 5.90756607055664 5.5124077796936 5.80173444747925 5.9181866645813 5.94755887985229 5.42539024353027 5.97036933898926 7.46070337295532 8.73884296417236 9.00543117523193 8.39670372009277 7.11601686477661 6.50967216491699 6.85676717758179 6.9360179901123 6.48619651794434 5.84042930603027 5.12560749053955 5.00951910018921 4.38648986816406 3.84016180038452 3.64688563346863 3.67226386070251 4.23122262954712 4.55162668228149 4.64283990859985 4.74306058883667 4.90099477767944 5.08187675476074 5.23550176620483 5.48481702804565 5.60293912887573 5.6151704788208 5.498459815979 5.36066865921021 5.28479385375977 5.02108097076416 4.65314960479736 4.14324188232422 3.7071259021759 3.21439599990845 2.88530898094177 2.61213326454163 2.6863420009613 2.71311831474304 2.46311664581299 2.36425924301147 2.25074577331543 2.13215923309326 1.99249863624573 2.11135649681091 2.1125009059906 2.32480573654175 2.24442291259766 1.96740257740021 1.82563424110413 1.67968595027924 1.5112053155899 1.06030797958374 0.610425591468811 0.0371974445879459 -0.524450540542603 -1.1558176279068 -1.75902771949768 -2.07846593856812 -2.48153877258301 -2.64812898635864 -2.19735932350159
1.17055678367615 1.18911397457123 1.25914859771729 1.2822277545929 1.56403434276581 1.81863725185394 2.22350311279297 1.62573707103729 2.24937725067139 1.48397290706635 1.25017404556274 0.919537484645844 0.720337390899658 0.89624410867691 0.712400615215302 0.486261010169983 0.980760335922241 0.688477277755737 0.507289826869965 0.455369234085083 0.463798373937607 0.878845393657684 1.33354711532593 1.70753872394562 2.49320960044861 4.82602691650391 4.92052316665649 4.07548952102661 5.43124103546143 5.02342414855957 3.92822742462158 1.47039437294006 0.990968465805054 1.30074656009674 1.61870312690735 1.82228088378906 2.08596014976501 1.62020790576935 1.27751171588898 1.18556523323059 1.82128465175629 3.8816032409668 7.76263761520386 5.29723930358887 0.166369274258614 -1.09044063091278 -0.932490050792694 -0.817891299724579 -0.664698123931885 -0.378759562969208 -0.32035619020462 -0.40070828795433 -0.312418311834335 -0.282311230897903 -0.316113620996475 -0.441323518753052 -0.677581429481506 -0.718853354454041 -0.692763864994049 -0.676272392272949 -0.667533457279205 -0.663398206233978 0.165838941931725 3.33537459373474 3.68370509147644 3.33556747436523 2.78662610054016 2.38240647315979 3.16738438606262 3.43732261657715 2.16812324523926 0.997403979301453 0.867872893810272 0.583750009536743 0.279452204704285 0.0580077059566975 0.306738466024399 0.473605573177338 0.708365738391876 1.10197591781616 1.9021087884903 2.31981778144836 2.59304404258728 2.79917526245117 2.97293949127197 3.12690258026123 3.33237171173096 3.53658938407898 3.69825124740601 4.33024311065674 5.90603494644165 6.87459230422974 7.45043039321899 7.82005739212036 8.23267936706543 8.85667514801025 8.72959327697754 8.8334379196167 8.024094581604 7.2263035774231 6.35155868530273 5.79584407806396 5.47644281387329 5.4843807220459 5.29368257522583 5.55266666412354 5.6683554649353 5.69555044174194 5.19492101669312 5.60797309875488 6.73302125930786 7.8953275680542 8.13119506835938 7.56812000274658 6.41793918609619 5.80465841293335 6.02215766906738 6.09407138824463 5.57566213607788 5.00753259658813 4.2308030128479 3.87297105789185 3.80987405776978 3.62397718429565 3.49363446235657 3.57919049263 4.11318445205688 4.42074489593506 4.50895214080811 4.55108499526978 4.74044466018677 4.88620042800903 5.04570150375366 5.2624888420105 5.37299156188965 5.37589406967163 5.24425554275513 5.09942245483398 4.99696016311646 4.71488428115845 4.39536333084106 3.89781379699707 3.45512628555298 2.97063708305359 2.71912741661072 2.4465799331665 2.49628353118896 2.51211380958557 2.23737120628357 2.12755346298218 2.00090289115906 1.92120409011841 1.84595334529877 1.9357351064682 1.94944083690643 2.07427954673767 1.95889627933502 1.6037677526474 1.41193342208862 1.12717413902283 0.744472980499268 0.144213601946831 -0.407423138618469 -0.789517641067505 -1.08576285839081 -1.76611328125 -2.21706962585449 -2.47161340713501 -2.79890727996826 -2.96095132827759 -2.58651280403137
1.05042386054993 1.14016020298004 1.06845331192017 1.13292002677917 1.53950583934784 2.97377300262451 3.68572330474854 3.97277998924255 1.62441158294678 1.41719245910645 1.21526253223419 0.89999783039093 0.698175489902496 0.639801204204559 0.452324122190475 0.708568692207336 0.835791945457458 0.651961207389832 0.503598093986511 0.847305178642273 0.444259196519852 0.796609103679657 1.23055815696716 1.76319253444672 2.23401284217834 4.38021945953369 4.94823741912842 4.66534996032715 4.23306369781494 3.96615242958069 3.52164363861084 1.81892383098602 0.87982839345932 1.06113517284393 1.35677206516266 1.40943026542664 1.86055862903595 2.14080023765564 1.59398698806763 1.09833061695099 1.47666716575623 3.45287990570068 6.89460706710815 5.8871169090271 5.5479564666748 3.06384491920471 -0.963852763175964 -0.867984414100647 -0.696446299552917 -0.41333931684494 -0.307363986968994 -0.188717439770699 -0.440446317195892 -0.432594627141953 -0.406017422676086 -0.56958532333374 -0.751145541667938 -0.752445340156555 -0.747677683830261 -0.728005349636078 -0.713423609733582 -0.08193489164114 0.0859291553497314 2.72868704795837 2.75802087783813 1.16508328914642 2.08969831466675 2.15990471839905 2.84943699836731 2.84218740463257 1.70195460319519 0.943113625049591 0.827315151691437 0.544766128063202 0.260157018899918 0.0122629273682833 0.204120963811874 0.398268222808838 0.623416543006897 1.06827783584595 1.84403300285339 2.24834609031677 2.51514363288879 2.71674227714539 2.94130969047546 3.22036218643188 3.41487789154053 3.52475762367249 3.63261008262634 4.09073066711426 5.55167722702026 6.43574142456055 7.20566749572754 7.50752687454224 7.77877521514893 8.23082065582275 8.05819225311279 8.15244770050049 7.41069269180298 6.62924909591675 5.83850717544556 5.34258270263672 5.06604290008545 4.91373300552368 5.29423999786377 5.40785455703735 5.43336868286133 4.96319246292114 4.94280624389648 5.44084692001343 6.41038036346436 7.18857145309448 7.40802812576294 6.89326095581055 5.84333992004395 5.26104640960693 5.43725490570068 5.42880153656006 4.95862245559692 4.38748550415039 3.68141031265259 3.70608997344971 3.64094305038452 3.44830083847046 3.34085369110107 3.46848773956299 3.98529195785522 4.27108335494995 4.3566575050354 4.38907432556152 4.53479099273682 4.64183187484741 4.84800052642822 5.0337119102478 5.11358404159546 5.10938930511475 4.97341775894165 4.84279584884644 4.72594022750854 4.44934415817261 4.11176204681396 3.63225078582764 3.19588446617126 2.71727323532104 2.35994291305542 2.24060726165771 2.31495690345764 2.32973170280457 2.0326783657074 1.89678955078125 1.72354936599731 1.60453617572784 1.59598815441132 1.64709615707397 1.37445795536041 1.11325824260712 0.956861674785614 0.907393872737885 0.700968980789185 0.277468264102936 0.0351922549307346 -0.532180190086365 -1.07843410968781 -1.48805236816406 -1.75234198570251 -2.26941180229187 -2.61136174201965 -2.82973313331604 -3.02425169944763 -3.00510048866272 -2.00378847122192
1.0246639251709 0.996610939502716 1.0274703502655 2.43660712242126 1.76250731945038 1.80926537513733 2.3040144443512 2.41879177093506 1.27481877803802 1.35507023334503 1.17764484882355 0.863929808139801 0.672893106937408 0.555546402931213 0.724821984767914 0.47008603811264 0.53562605381012 0.617659091949463 0.607043325901031 0.499158084392548 0.472756028175354 0.724885404109955 1.05550038814545 1.65350377559662 2.00442123413086 4.02189445495605 4.64755582809448 3.99223351478577 3.83648777008057 3.63877820968628 3.20738983154297 1.95952725410461 0.860287547111511 0.893377721309662 1.15225696563721 1.12838578224182 1.28137111663818 1.36810457706451 1.12760055065155 0.982849657535553 1.77781403064728 3.13823056221008 5.9900541305542 5.84405612945557 7.02235507965088 6.26465892791748 4.57410717010498 -0.308926463127136 -0.723815202713013 -0.464086264371872 -0.33589580655098 0.837785959243774 -0.478290170431137 -0.535214304924011 -0.485173016786575 -0.58474600315094 0.00684384955093265 -0.0650643557310104 -0.757491230964661 -0.773866832256317 -0.751103937625885 -0.201407790184021 0.00421920232474804 2.34282159805298 2.47096967697144 0.439970701932907 0.834757387638092 1.96306800842285 2.39593052864075 2.04120898246765 0.973184466362 0.887177109718323 0.79141902923584 0.509018838405609 0.24189992249012 0.0221298113465309 0.13774336874485 0.335883915424347 0.552117526531219 1.03705549240112 1.78418064117432 2.17285656929016 2.43607401847839 2.63928937911987 2.92847228050232 3.1272439956665 3.31679320335388 3.4636070728302 3.53196263313293 3.88405656814575 5.2497296333313 6.06310749053955 6.74948310852051 7.09731006622314 7.63626670837402 7.47852516174316 7.49096727371216 7.56771421432495 6.88677310943604 6.11900568008423 5.38365030288696 4.95621156692505 4.75137853622437 4.44782161712646 5.07916307449341 5.18791484832764 5.21841096878052 4.75706148147583 4.63133668899536 5.36106061935425 6.35994291305542 6.59416198730469 6.81077194213867 6.32069730758667 5.34893751144409 4.98813581466675 4.93647813796997 4.86853694915771 4.44575548171997 3.87721705436707 3.50741457939148 3.54727554321289 3.4839334487915 3.29463887214661 3.27837252616882 3.36838674545288 3.85322260856628 4.11583948135376 4.18218469619751 4.20049953460693 4.3580641746521 4.53057050704956 4.63074827194214 4.75098276138306 4.82022762298584 4.8140435218811 4.69760370254517 4.57895088195801 4.46063947677612 4.20050621032715 3.81075954437256 3.39213848114014 2.96411347389221 2.49293422698975 2.16493797302246 2.06876993179321 2.14271211624146 2.1635046005249 1.84787714481354 1.66492998600006 1.4030933380127 1.13258635997772 0.75514417886734 0.602516055107117 0.536527395248413 0.41689795255661 0.18487411737442 -0.0801950991153717 -0.24759379029274 -0.496337115764618 -0.70859694480896 -1.06901562213898 -1.68764758110046 -2.11270093917847 -2.26667547225952 -2.57283902168274 -2.90054965019226 -3.02910947799683 -3.05159616470337 1.70704197883606 5.99579668045044
0.993896305561066 0.943103075027466 0.969562828540802 1.01447510719299 1.26856410503387 1.62597262859344 1.51427936553955 1.0191034078598 0.981236815452576 1.03335773944855 1.01563632488251 0.846005976200104 0.661137223243713 0.528774380683899 0.45176637172699 0.457042276859283 0.647989928722382 0.782710254192352 0.925109684467316 0.605055749416351 0.55840003490448 0.669132173061371 0.947651922702789 1.42728674411774 1.92376732826233 3.63856911659241 4.26736116409302 3.71997666358948 3.55307555198669 3.21646022796631 2.77136135101318 1.83695077896118 2.04841589927673 0.952382147312164 0.980273902416229 0.951267600059509 1.08087801933289 1.11148750782013 0.939101040363312 1.06536388397217 2.54639482498169 4.56443357467651 5.17812490463257 5.08454751968384 4.82539844512939 3.4846465587616 2.66632103919983 0.211448043584824 -0.734669327735901 -0.518932163715363 -0.346738517284393 0.520931005477905 0.497635066509247 0.0674002766609192 -0.590733826160431 -0.68591183423996 -0.265685617923737 -0.0611711516976357 0.295539677143097 0.767325878143311 1.57448124885559 -0.151233702898026 0.100575685501099 2.047194480896 2.44555282592773 3.38313984870911 2.81994128227234 2.76636981964111 2.18479681015015 1.10833990573883 0.803227663040161 0.841043293476105 0.746709167957306 0.486461490392685 0.217314034700394 -0.0221747308969498 0.089576818048954 0.29757896065712 0.491206228733063 1.0116890668869 1.73899495601654 2.11535429954529 2.36546587944031 2.5653703212738 2.84639692306519 3.04176092147827 3.22561812400818 3.36299443244934 3.4295380115509 3.68121886253357 4.98310995101929 5.75451707839966 6.3509693145752 6.65972805023193 7.16983413696289 6.96137189865112 7.04280757904053 6.62898778915405 6.23003149032593 5.68349647521973 4.99257850646973 4.52973222732544 4.4583797454834 4.27809047698975 4.87748718261719 4.98595428466797 5.00991201400757 4.57270860671997 4.34320259094238 5.13577604293823 6.11653661727905 6.10377740859985 6.27428960800171 5.71367168426514 4.93438386917114 4.73511743545532 4.50237226486206 4.41126441955566 4.02388334274292 3.48490309715271 3.37073493003845 3.31150984764099 3.1605179309845 3.13691687583923 3.20474886894226 3.41225028038025 3.73114848136902 3.95722222328186 4.06272888183594 4.15892028808594 4.26004314422607 4.37696123123169 4.47335195541382 4.45193862915039 4.50300455093384 4.50240802764893 4.39475536346436 4.30599975585938 4.1938533782959 3.96137762069702 3.57305765151978 3.13714909553528 2.74354004859924 2.2920229434967 2.02408075332642 1.89371073246002 1.96985983848572 1.98402738571167 1.68735480308533 1.30694019794464 1.07684051990509 0.741599678993225 0.269276767969131 -0.169645518064499 -0.217037171125412 -0.150720924139023 -0.369405597448349 -0.674354732036591 -0.802864789962769 -1.02529716491699 -1.34800243377686 -1.63708162307739 -2.06363797187805 -2.37068057060242 -2.54276490211487 -2.75857472419739 -2.91930103302002 -1.38685858249664 3.58243036270142 12.1559791564941 6.17962312698364
0.985946655273438 0.910868346691132 0.893251121044159 0.906428456306458 0.91457736492157 1.29989755153656 1.10954105854034 0.832673668861389 0.795571267604828 0.826385736465454 0.816379427909851 0.714923679828644 0.638061463832855 0.498487442731857 0.464499950408936 0.751307010650635 0.789138674736023 0.805627524852753 0.930347442626953 0.780896842479706 0.660459160804749 0.634392917156219 0.894558608531952 1.28400087356567 1.72062468528748 3.2771098613739 3.84833765029907 3.57036638259888 3.21675324440002 2.81597971916199 2.22278356552124 1.70441126823425 1.88676536083221 1.68863034248352 0.912206053733826 0.80484938621521 0.928266406059265 0.855063796043396 0.775510370731354 1.08900058269501 2.31902718544006 4.54938220977783 4.99013662338257 4.49755430221558 4.60947418212891 3.41394472122192 2.27826476097107 0.122629031538963 -0.702250719070435 -0.282029896974564 -0.356691360473633 0.346896529197693 0.657267570495605 0.552845656871796 -0.508849382400513 -0.715014815330505 -0.328360021114349 -0.0747723132371902 0.3335280418396 1.4519921541214 1.0700706243515 -0.294576644897461 0.000983639503829181 1.84913718700409 2.41125917434692 4.76050329208374 2.42275977134705 1.85468065738678 1.5706182718277 0.52437835931778 0.688099563121796 0.77132523059845 0.704374969005585 0.45387476682663 0.198170930147171 -0.0319054797291756 0.0798979923129082 0.273121625185013 0.472824722528458 1.02260971069336 1.70070326328278 2.06959104537964 2.31753206253052 2.50094032287598 2.76506876945496 2.95522284507751 3.13828945159912 3.26787352561951 3.33283376693726 3.50130009651184 4.73090076446533 5.46820831298828 5.99733591079712 6.25349950790405 6.75562715530396 6.54254674911499 6.60912609100342 6.00494289398193 5.27447175979614 4.81119394302368 4.34709453582764 4.23040580749512 4.22460031509399 4.127525806427 4.69830894470215 4.79557991027832 4.82525062561035 4.40263795852661 4.27193832397461 4.84608268737793 5.73325204849243 5.85816764831543 5.35312604904175 4.90456628799438 4.79022073745728 4.59989976882935 4.14755487442017 4.03362417221069 3.67844295501709 3.17734336853027 3.23169136047363 3.1754105091095 2.9927077293396 3.03401827812195 3.13833498954773 3.46146535873413 3.78532719612122 3.89636254310608 3.89501810073853 3.98246955871582 4.07366991043091 4.15958547592163 4.21086359024048 4.20916318893433 4.21335315704346 4.21209621429443 4.11601448059082 4.03103637695312 3.93326783180237 3.72123193740845 3.34621238708496 2.85341572761536 2.41556906700134 2.14388799667358 1.90105676651001 1.76668226718903 1.75256156921387 1.74650120735168 1.43865573406219 1.12021625041962 0.86881959438324 0.515052378177643 0.24201112985611 -0.432857185602188 -0.693080544471741 -0.711939930915833 -0.796019554138184 -0.985155403614044 -1.10533702373505 -1.26752281188965 -1.55438351631165 -1.91039502620697 -2.3282744884491 -2.55555057525635 -2.69240546226501 -2.82781004905701 0.16203898191452 4.66286659240723 9.94327354431152 8.23659229278564 0.0811881273984909
1.23697364330292 0.897399067878723 0.854940354824066 0.860428094863892 0.869589626789093 1.19697046279907 0.78338086605072 0.690840482711792 0.667009830474854 0.666356205940247 0.647690236568451 0.59963846206665 0.541224420070648 0.462644517421722 0.443290948867798 0.568944931030273 0.693759858608246 0.727765023708344 0.868522822856903 0.848030269145966 0.688721597194672 0.617056369781494 0.807309210300446 1.18044197559357 1.54885303974152 2.97874760627747 3.47249627113342 3.14629912376404 2.95324039459229 2.62392473220825 1.93716323375702 1.71170973777771 1.81389272212982 1.94337213039398 1.59248554706573 0.74942010641098 0.806616067886353 0.73447573184967 0.672054886817932 0.92408961057663 1.95463144779205 3.82243299484253 4.27599573135376 4.69368505477905 3.9001841545105 3.50455069541931 2.09186053276062 1.04574978351593 1.03229868412018 0.679025590419769 0.388358622789383 0.229756087064743 0.382922023534775 0.389581143856049 0.311262309551239 -0.420800387859344 -0.364805728197098 -0.208787709474564 0.139768153429031 0.504546701908112 0.448042184114456 -0.458571523427963 -0.0824057534337044 1.62694025039673 2.20395445823669 3.22031736373901 2.09453201293945 1.24061739444733 1.06480062007904 0.325031757354736 0.535301029682159 0.58648157119751 0.512820601463318 0.248376697301865 -0.0251915343105793 -0.141767889261246 -0.0278801675885916 0.150693789124489 0.70398223400116 1.48964619636536 1.65288960933685 2.01779627799988 2.25189733505249 2.43297028541565 2.69029021263123 2.88155674934387 3.05406427383423 3.1736855506897 3.23974227905273 3.3382556438446 4.5051383972168 5.20965337753296 5.67531776428223 5.92327070236206 6.37349605560303 6.17579174041748 6.23105621337891 5.65989112854004 4.94999504089355 4.41573810577393 4.06191396713257 4.01243257522583 4.00397920608521 3.98645091056824 4.53063583374023 4.6225438117981 4.65171003341675 4.24404239654541 4.14978981018066 4.55138349533081 5.4033203125 5.43887948989868 4.38469648361206 4.20244550704956 4.64191627502441 4.47725963592529 3.93656086921692 3.72302460670471 3.3896176815033 3.01829791069031 3.10486721992493 3.05286741256714 2.90007925033569 2.94830989837646 3.04965496063232 3.49284362792969 3.69022750854492 3.71193766593933 3.71333932876587 3.79158926010132 3.87616062164307 3.94677591323853 3.96369361877441 3.95953702926636 3.95717239379883 3.95803046226501 3.85809063911438 3.73123574256897 3.68224906921387 3.45322608947754 3.06202673912048 2.62069439888 2.14530396461487 2.01638674736023 1.76684212684631 1.71381509304047 1.660520195961 1.30313742160797 1.11392343044281 0.828117966651917 0.592614650726318 0.244851753115654 0.0335335545241833 -0.172284170985222 -0.875449895858765 -1.04443562030792 -1.1385909318924 -1.28638350963593 -1.37956023216248 -1.51004338264465 -1.79092502593994 -2.12078428268433 -2.48137760162354 -2.65749502182007 -2.62420725822449 0.517741560935974 3.58819961547852 9.75385761260986 10.0282831192017 7.38904237747192 4.05186700820923
1.26247906684875 0.895398318767548 0.818708717823029 0.803050696849823 0.85478949546814 0.992195069789886 0.68678617477417 0.905443787574768 0.561791718006134 0.533592760562897 0.522604703903198 0.506735324859619 0.471773624420166 0.397892534732819 0.413368403911591 0.451643407344818 0.567139625549316 0.694108307361603 0.723167955875397 0.773327350616455 0.659012675285339 0.568780243396759 0.749444186687469 1.07543003559113 1.44976210594177 2.73712730407715 3.16430926322937 2.8315851688385 2.68253707885742 2.35996508598328 1.78332161903381 1.63017797470093 1.60921323299408 1.57155108451843 1.50558030605316 0.916751682758331 0.768980383872986 0.67433226108551 0.626578688621521 0.76063460111618 1.65333688259125 3.29270529747009 3.69473004341125 3.99388861656189 3.39960670471191 2.60589051246643 1.40508890151978 0.85260421037674 0.766287863254547 0.46130782365799 0.0965104848146439 -0.114943221211433 -0.339435935020447 -0.339132010936737 -0.313154220581055 -0.467438548803329 -0.334153115749359 -0.298491090536118 -0.210730880498886 -0.00168364157434553 0.0936862081289291 -0.570255756378174 -0.269816607236862 1.34238398075104 1.82833957672119 2.02425050735474 1.29683828353882 0.960011065006256 0.758483231067657 0.247886344790459 0.354945421218872 0.346050173044205 0.163196593523026 -0.151697069406509 -0.409536212682724 -0.345810651779175 -0.254287749528885 -0.052736908197403 0.750056564807892 1.4675999879837 1.78170382976532 1.96743142604828 2.19321846961975 2.37149953842163 2.61975193023682 2.80620384216309 2.97434902191162 3.09727120399475 3.15365028381348 3.60752701759338 4.30009031295776 4.96987867355347 5.40206623077393 5.63298082351685 6.03461074829102 5.84313583374023 5.87832736968994 5.34971189498901 4.66449594497681 4.17165899276733 3.83934473991394 3.80928921699524 3.80435037612915 3.85898804664612 4.37960624694824 4.46944522857666 4.4926233291626 4.09881019592285 4.03399991989136 4.28682899475098 5.10549211502075 4.93346929550171 4.04578876495361 4.13250255584717 4.52424621582031 4.35751867294312 3.83260726928711 3.44763970375061 3.23819065093994 2.86168074607849 2.98970198631287 2.93968772888184 2.81874942779541 2.86831784248352 2.9605131149292 3.37256860733032 3.52634024620056 3.53830337524414 3.52470231056213 3.60066318511963 3.67241168022156 3.74186897277832 3.76886439323425 3.77502536773682 3.73966908454895 3.66371488571167 3.6101291179657 3.48782014846802 3.34483432769775 3.15402460098267 2.71835446357727 2.33657383918762 1.85244023799896 1.71867191791534 1.57229316234589 1.57610714435577 1.51040470600128 1.10441517829895 0.904064774513245 0.56293922662735 0.263619601726532 0.0348922610282898 -0.178210750222206 -0.54982054233551 -0.946125984191895 -1.19136595726013 -1.2526878118515 -1.45268630981445 -1.52219879627228 -1.62380015850067 -1.98764753341675 -2.17352509498596 -1.70084571838379 -2.12793636322021 0.782936811447144 3.29901909828186 9.51568222045898 12.4452924728394 9.44144535064697 6.86532211303711 7.15662240982056
0.999187231063843 0.837225258350372 0.769224345684052 1.11275744438171 1.89029276371002 0.857940077781677 0.740323960781097 0.519581317901611 0.462884664535522 0.435464560985565 0.410732269287109 0.404232621192932 0.386451810598373 0.367807567119598 0.3917535841465 0.440572768449783 0.47156298160553 0.594895303249359 0.685421526432037 0.668479084968567 0.626488089561462 0.6082763671875 0.886278212070465 1.02701818943024 1.37269997596741 2.5653932094574 2.95128393173218 2.59491372108459 2.4248149394989 2.15278577804565 1.63170421123505 1.63702535629272 1.39697706699371 1.36424994468689 1.25919306278229 0.955687046051025 1.01349437236786 0.659841597080231 0.591542482376099 0.688567161560059 1.45086264610291 2.87619996070862 3.22768449783325 3.44867062568665 2.93899178504944 2.07028841972351 1.2191618680954 0.669505655765533 0.518324375152588 0.194791689515114 -0.0541967265307903 -0.21567890048027 -0.590893864631653 -0.759417831897736 -0.708971977233887 -0.771462261676788 -0.636635601520538 -0.455852538347244 -0.173206195235252 -0.547234952449799 -1.01342511177063 -1.04321801662445 -0.759715616703033 0.828587472438812 1.32336163520813 0.555086612701416 0.51099956035614 0.65211296081543 0.414778769016266 0.128352180123329 0.189786985516548 0.0220578592270613 -0.227648764848709 -0.519651651382446 -0.581239640712738 -0.524477124214172 -0.413573145866394 -0.200712904334068 0.646670162677765 1.35547685623169 1.77203381061554 1.98567247390747 2.13907313346863 2.30539679527283 2.54625558853149 2.73122787475586 2.89901399612427 3.018803358078 3.07524132728577 4.01766347885132 4.3882007598877 4.74063777923584 5.14512300491333 5.3700385093689 5.74469709396362 5.5563645362854 5.56241369247437 5.05386543273926 4.41727495193481 3.95206594467163 3.63524222373962 3.62639689445496 3.62549209594727 3.73472261428833 4.2348256111145 4.32376575469971 4.34381103515625 3.9592821598053 3.92622137069702 4.07709264755249 4.79158306121826 4.41695070266724 3.90725350379944 4.09391689300537 4.40860080718994 4.23550319671631 3.72993397712708 3.2681405544281 3.13518810272217 2.77056670188904 2.88368439674377 2.83374714851379 2.74154114723206 2.78638315200806 2.85590124130249 3.22756457328796 3.36718678474426 3.37673425674438 3.36059641838074 3.41325712203979 3.47381711006165 3.53696417808533 3.58230376243591 3.57646870613098 3.55235028266907 3.46721720695496 3.44391179084778 3.31036782264709 3.17759799957275 2.99146962165833 2.49446487426758 2.11716890335083 1.70918262004852 1.45868408679962 1.42012321949005 1.41394555568695 1.33448481559753 0.971074402332306 0.765361726284027 0.371818423271179 -0.0276102274656296 -0.440286815166473 -0.473069489002228 -0.729629337787628 -1.03825771808624 -1.19794714450836 -0.0825086310505867 0.151575207710266 0.419311493635178 0.0128680765628815 2.46589589118958 5.52412462234497 7.81630182266235 9.27964973449707 7.76934289932251 10.9545793533325 13.1419124603271 10.1442518234253 7.94489574432373 4.42068481445312 5.08752250671387
0.980763733386993 1.04645979404449 1.40561676025391 1.4495621919632 1.00978672504425 0.718213558197021 0.557725071907043 0.442288130521774 0.394296199083328 0.349286794662476 0.31651845574379 0.306565642356873 0.294112890958786 0.349465161561966 0.3665631711483 0.406796991825104 0.453161865472794 0.482392936944962 0.682418763637543 0.613734781742096 0.586307287216187 0.724632561206818 0.855430960655212 1.30481517314911 2.09970235824585 2.42103433609009 2.75920629501343 2.43342995643616 2.25562429428101 2.01592946052551 1.53564870357513 1.51340627670288 1.37010073661804 1.09820771217346 1.01215946674347 0.750327587127686 0.712596654891968 0.555719494819641 0.481257230043411 0.604713618755341 1.28128159046173 2.5297257900238 2.84213709831238 2.98932027816772 2.5444495677948 1.80037689208984 0.711953282356262 0.370126217603683 0.223909541964531 0.013462302275002 -0.210396379232407 -0.397724956274033 -0.621376633644104 -0.927505552768707 -0.922399580478668 -0.87438702583313 -0.939323961734772 -0.629452347755432 -0.443419456481934 -1.036865234375 -1.20658159255981 -1.31526350975037 -1.29364454746246 -0.0424634031951427 0.775507569313049 0.195621147751808 0.174648433923721 0.331252813339233 0.0742129683494568 -0.0604831464588642 -0.0829706862568855 -0.312872022390366 -0.594083309173584 -0.761541664600372 -0.717555046081543 -0.655392408370972 -0.565797686576843 -0.325293868780136 0.509242713451385 1.29679536819458 1.83027541637421 2.04434490203857 2.16425585746765 2.24872016906738 2.4823944568634 2.66586089134216 2.8296434879303 2.94349360466003 3.00397849082947 3.92088150978088 4.52798748016357 4.64660787582397 4.90726232528687 5.11189317703247 5.46571397781372 5.30003833770752 5.28789663314819 4.79752588272095 4.18345355987549 3.757159948349 3.45555520057678 3.4617133140564 3.45615530014038 3.61084723472595 4.09250068664551 4.18262815475464 4.20471525192261 3.82945275306702 3.80993461608887 3.93095064163208 4.30710744857788 3.93091893196106 3.73051595687866 3.90820336341858 4.21992349624634 4.09061717987061 3.62246298789978 3.0381805896759 2.95741844177246 2.67194390296936 2.77540254592896 2.73657655715942 2.65981435775757 2.68309092521667 2.74027299880981 3.09883761405945 3.23885703086853 3.23336172103882 3.2044882774353 3.24696779251099 3.2903299331665 3.34697008132935 3.39809679985046 3.39295220375061 3.38370370864868 3.30834889411926 3.25685238838196 3.13334107398987 3.01815819740295 2.83750581741333 2.34626817703247 1.98047518730164 1.57218503952026 1.3196849822998 1.29406487941742 1.27884066104889 1.18603622913361 0.836112976074219 0.512346088886261 0.139353170990944 -0.396663963794708 -0.817928850650787 -0.922286152839661 -0.904637575149536 -1.09444606304169 1.76395356655121 2.31624794006348 4.71627426147461 7.61530494689941 10.5121459960938 12.7457885742188 16.8569831848145 18.0443706512451 17.8794727325439 15.1619415283203 12.6034860610962 9.95251083374023 8.09939289093018 5.47118234634399 3.40558671951294 3.79382038116455
0.757181406021118 0.770368158817291 0.840305745601654 0.988658249378204 0.800766587257385 0.625867128372192 0.530540287494659 0.615048587322235 0.346905410289764 0.296470314264297 0.25812754034996 0.238942757248878 0.29693591594696 0.333218455314636 0.34487372636795 0.375648081302643 0.422708362340927 0.440670937299728 0.435076534748077 0.76728492975235 2.19585466384888 2.30681037902832 2.81981873512268 2.18376922607422 2.33497643470764 2.21303200721741 2.5265417098999 2.2316906452179 2.05616664886475 1.83261179924011 1.34563994407654 1.24876534938812 1.13984072208405 0.925229012966156 0.830610156059265 0.649466693401337 0.602349281311035 0.474736720323563 0.379300266504288 0.493977606296539 1.12041068077087 2.2319552898407 2.52683544158936 2.60882806777954 2.18785262107849 1.44447588920593 0.572747468948364 0.285227596759796 -0.0110134538263083 -0.402102112770081 -0.366284251213074 -0.459838628768921 -0.678161203861237 0.612972438335419 -1.023268699646 -1.08555519580841 -1.13463604450226 -1.00335276126862 -0.896725594997406 -1.19290113449097 -1.46250998973846 -1.76725590229034 -1.70327568054199 -1.08959746360779 0.0469832234084606 -0.0834902226924896 -0.143849715590477 -0.0412984043359756 -0.217935591936111 -0.302196711301804 -0.473158359527588 -0.763880610466003 -0.893165588378906 -0.93022882938385 -0.882008850574493 -0.805802762508392 -0.677568435668945 -0.419334083795547 0.429608941078186 1.28348338603973 1.8099912405014 2.03166460990906 2.20112037658691 2.33949851989746 2.42624640464783 2.60393285751343 2.76371717453003 2.8708803653717 2.93203663825989 3.76661086082458 4.34709119796753 4.62508106231689 4.68786859512329 4.87902307510376 5.20473146438599 5.05042695999146 5.04542636871338 4.58161926269531 3.99445390701294 3.57810187339783 3.29137086868286 3.31225681304932 3.29878377914429 3.49681711196899 3.96167302131653 4.0512318611145 4.03802537918091 3.55937027931213 3.49581980705261 3.57598495483398 3.6196403503418 3.45845794677734 3.43581938743591 3.62025046348572 3.92999935150146 3.80531883239746 3.42714929580688 2.80604600906372 2.62490749359131 2.54891037940979 2.67229104042053 2.61580920219421 2.54862427711487 2.56242966651917 2.61289310455322 2.96616172790527 3.11762642860413 3.10720086097717 3.05449366569519 3.09050846099854 3.14006209373474 3.19971895217896 3.23859000205994 3.22465515136719 3.20743036270142 3.1434485912323 3.07183504104614 2.94327521324158 2.8538498878479 2.67543458938599 2.20031642913818 1.84455478191376 1.44068360328674 1.19279551506042 1.15520024299622 1.15396785736084 1.06858313083649 0.703322649002075 0.310097306966782 -0.182151988148689 -0.820668697357178 -1.09759974479675 -1.19789350032806 -1.10000348091125 -0.741607844829559 2.56016206741333 4.78777074813843 8.65703201293945 12.8533964157104 16.5570049285889 18.3069019317627 18.1481952667236 17.8272571563721 16.5378875732422 13.6872072219849 10.2119731903076 7.5383448600769 3.79623460769653 2.90457439422607 2.37453961372375 2.43591165542603
0.648923933506012 0.68080461025238 0.730438888072968 0.834579825401306 0.766983985900879 0.618111371994019 0.689600169658661 0.334013164043427 0.762559235095978 0.359782308340073 0.230568960309029 0.250197619199753 0.324611037969589 0.318022429943085 0.314440548419952 0.34279128909111 0.376787483692169 0.405551940202713 0.404551655054092 0.377313584089279 0.558588683605194 0.701829254627228 0.846031367778778 1.25742256641388 2.16643977165222 2.42881894111633 2.31120181083679 2.04326510429382 1.83003973960876 1.62324166297913 1.17432129383087 1.03018772602081 0.897497713565826 0.826249659061432 0.73945677280426 0.553142905235291 0.507976591587067 0.415481418371201 0.318447142839432 0.383356660604477 0.982153475284576 1.96834063529968 2.23721504211426 2.28419876098633 1.86408698558807 1.06663382053375 0.177889958024025 0.0269467812031507 -0.378559708595276 -0.409560889005661 -0.442975878715515 -0.569782555103302 -0.753154516220093 -1.00863540172577 -0.193908333778381 -0.932375133037567 -1.23568522930145 -1.15151357650757 -1.12738585472107 -1.32179927825928 -1.57451140880585 -1.8260190486908 -1.82870411872864 -0.936980187892914 -0.800626873970032 -0.5469691157341 -0.389076769351959 -0.403303235769272 -0.603608965873718 -0.607435166835785 -1.00049388408661 -1.14427018165588 -1.10046064853668 -1.06252980232239 -0.992033004760742 -0.944349527359009 -0.818932354450226 -0.524138987064362 0.411796361207962 1.2531543970108 1.76295900344849 1.98595869541168 2.14722442626953 2.31539869308472 2.53594827651978 2.69251346588135 2.77586388587952 2.85629367828369 2.855064868927 3.62405872344971 4.18192005157471 4.4697961807251 4.64989471435547 4.82458972930908 4.96432590484619 4.82200622558594 4.80599546432495 4.36868000030518 3.80972981452942 3.41168284416199 3.16042041778564 3.15790009498596 3.38465857505798 3.7051146030426 3.84435987472534 3.87839365005493 3.64142656326294 3.03144073486328 3.03531098365784 3.14376831054688 3.11269354820251 3.07762503623962 3.04553914070129 3.24236941337585 3.48351883888245 3.24941492080688 2.84777593612671 2.32918953895569 2.15933847427368 2.24947285652161 2.43694829940796 2.43099308013916 2.42115426063538 2.44276881217957 2.490070104599 2.82306289672852 2.98456263542175 2.98363852500916 2.93875956535339 2.94907164573669 2.99988150596619 3.06373810768127 3.09213876724243 3.06675457954407 3.0378794670105 2.93923592567444 2.85300016403198 2.69873929023743 2.6360969543457 2.44094944000244 2.02465438842773 1.69634115695953 1.30112183094025 1.02230775356293 0.93292373418808 0.945864677429199 0.761583805084229 0.513273775577545 0.0474297441542149 -0.51063871383667 -0.930010080337524 -1.24614584445953 -1.37968349456787 -1.24264466762543 1.91103363037109 3.77566337585449 8.37685775756836 12.6321315765381 15.8633899688721 16.1470279693604 16.8478851318359 15.8340702056885 15.1947269439697 13.6522760391235 10.8685293197632 8.12659072875977 4.63531827926636 2.17340898513794 1.11948418617249 0.768041729927063 1.75201547145844
0.612749636173248 0.600232601165771 0.638125002384186 0.6200932264328 0.728684544563293 0.764239192008972 0.691429078578949 1.79158914089203 0.594546616077423 0.326083362102509 0.204510554671288 0.236088141798973 0.304163366556168 0.291766613721848 0.288418799638748 0.316366732120514 0.338661670684814 0.365799248218536 0.364192187786102 0.340815484523773 0.465404868125916 0.59600567817688 0.808858633041382 1.15150380134583 2.034499168396 2.27050805091858 1.97049009799957 1.84379053115845 1.66287183761597 1.45837378501892 1.04693078994751 0.862684905529022 0.803114056587219 0.713240444660187 0.559870421886444 0.43635156750679 0.408712565898895 0.326979279518127 0.256904006004333 0.28518608212471 0.842587053775787 1.72635161876678 1.9680370092392 1.99187517166138 1.60016047954559 0.840217053890228 -0.00150702788960189 -0.221621006727219 -0.528171837329865 -0.459077954292297 -0.51408851146698 -0.646885871887207 -0.482036054134369 1.00866007804871 -1.08839631080627 -1.17342364788055 -1.27816593647003 -1.25824630260468 -1.24703669548035 -1.4599916934967 -1.27752542495728 4.53482294082642 3.15031981468201 0.0941472426056862 -1.08686745166779 -0.790758550167084 -0.710366606712341 -0.860038280487061 -0.729061186313629 -0.847004055976868 -1.36115396022797 -1.45500445365906 -1.32724606990814 -1.20974493026733 -1.11214077472687 -1.04631948471069 -0.964344143867493 -0.717127919197083 0.351201176643372 1.21817946434021 1.71916651725769 1.94213485717773 2.09586882591248 2.30281400680542 2.4776496887207 2.62798070907593 2.72944474220276 2.79180765151978 2.75826191902161 3.49015760421753 4.0276460647583 4.28363084793091 4.45803642272949 4.73242473602295 4.58019781112671 4.51778078079224 4.58128499984741 4.16187143325806 3.63038969039917 3.2454092502594 3.02205920219421 3.02029323577881 3.28981781005859 3.71978282928467 3.77173542976379 3.52338814735413 2.78173661231995 2.38320803642273 2.5366804599762 2.72727060317993 2.72031927108765 2.59571003913879 2.47142314910889 2.62540030479431 2.57201027870178 2.21256804466248 1.27777326107025 0.662948429584503 0.660187780857086 1.14371943473816 1.82339799404144 2.11221361160278 2.28302621841431 2.36223363876343 2.41787266731262 2.69935584068298 2.84580731391907 2.85582327842712 2.82212209701538 2.89324402809143 2.94256091117859 2.97977542877197 2.96055197715759 2.92580938339233 2.8645133972168 2.76847529411316 2.64458799362183 2.48876094818115 2.34128379821777 2.13977694511414 1.84790086746216 1.49845135211945 1.12426221370697 0.881087303161621 0.668485641479492 0.543220162391663 0.336995124816895 0.10388246178627 -0.301442116498947 -0.752092480659485 -1.11729919910431 -1.38721144199371 -0.761002242565155 3.541743516922 4.91555786132812 9.03202629089355 13.263388633728 13.2850246429443 13.050952911377 13.8624420166016 13.6513566970825 13.0364780426025 12.2639293670654 10.6518115997314 8.26209926605225 5.22597646713257 3.78792643547058 5.91344594955444 3.40820026397705 -0.245331063866615 -0.626153707504272
0.583358824253082 0.572930753231049 0.582710325717926 0.557952225208282 0.668134391307831 0.768650710582733 0.956059038639069 1.35012626647949 0.576516509056091 0.350296318531036 0.230681568384171 0.230958089232445 0.283060967922211 0.264431148767471 0.276930749416351 0.284251838922501 0.311401069164276 0.333737850189209 0.323082089424133 0.306652545928955 0.390603065490723 0.533086955547333 0.730815947055817 1.06831300258636 1.90946269035339 2.12455201148987 1.83740723133087 1.55969953536987 1.49281001091003 1.28872561454773 0.917143881320953 0.753540754318237 0.695730745792389 0.609133839607239 0.455247163772583 0.338314801454544 0.297791063785553 0.198639363050461 0.234268233180046 0.484365463256836 0.887055277824402 1.51015746593475 1.72374880313873 1.7284734249115 1.40488004684448 0.815563440322876 0.823746025562286 0.263233631849289 -0.578987956047058 -0.600291073322296 -0.692743480205536 -0.708343803882599 -0.802246272563934 0.0411996953189373 -1.14940714836121 -1.25899267196655 -1.31424808502197 -1.29114019870758 -1.26814842224121 -0.67516028881073 2.8740119934082 8.15693759918213 8.78400993347168 1.89100229740143 -0.561082124710083 -0.871387541294098 -0.817130267620087 -0.913281083106995 -0.88968962430954 -1.09072029590607 -1.55795621871948 -1.68344628810883 -1.60233557224274 -1.47269284725189 -1.3242095708847 -1.19909131526947 -1.07759237289429 -0.866956651210785 0.119621612131596 1.11870074272156 1.6757538318634 1.90165388584137 2.0507595539093 2.24884343147278 2.42293310165405 2.56854677200317 2.66719102859497 2.72938680648804 2.69588255882263 3.36681389808655 3.88325333595276 4.1141939163208 4.28794193267822 4.54050350189209 4.39771699905396 4.36129426956177 3.98860621452332 3.74664354324341 3.416348695755 3.00285124778748 2.89350962638855 2.88885188102722 3.19414138793945 3.59305644035339 3.47101330757141 3.05599522590637 2.12204217910767 2.02150654792786 2.09775900840759 2.38174152374268 2.35522603988647 2.13752341270447 1.92462086677551 1.90812718868256 1.67981505393982 1.04376482963562 0.135118514299393 -0.568925857543945 -0.447495222091675 0.316069960594177 1.07726287841797 1.61611020565033 1.95521950721741 2.14935922622681 2.34327936172485 2.6223201751709 2.76163291931152 2.79387617111206 2.80665254592896 2.82122182846069 2.85505771636963 2.87813758850098 2.83952045440674 2.76044654846191 2.69123601913452 2.59597969055176 2.50713777542114 2.29281091690063 2.14387392997742 1.89408183097839 1.57256519794464 1.25782346725464 0.867078363895416 0.691097915172577 0.465900659561157 0.184875637292862 -0.0355084389448166 -0.33072429895401 -0.722435712814331 -1.08372855186462 -1.3500565290451 -1.48384022712708 3.58131456375122 3.27649903297424 4.68803834915161 8.87956523895264 11.4786987304688 11.1734457015991 11.0259866714478 11.3411407470703 11.0885848999023 10.4630975723267 9.17385387420654 6.94540691375732 5.13664293289185 3.79431438446045 3.17493391036987 3.40847253799438 4.32907724380493 0.230886459350586 -1.07455348968506
0.529215335845947 0.556372046470642 0.560359239578247 0.533702492713928 0.677768528461456 0.954171180725098 0.942857801914215 0.936549544334412 0.678175806999207 0.45540514588356 0.225888475775719 0.223106667399406 0.265350937843323 0.253966867923737 0.256520628929138 0.258654713630676 0.283822745084763 0.301509171724319 0.294036149978638 0.277756363153458 0.315691769123077 0.462617337703705 0.644509732723236 0.993166923522949 1.77510118484497 1.99795532226562 1.70732641220093 1.45983719825745 1.23273527622223 1.08209347724915 0.772238314151764 0.658354878425598 0.59817898273468 0.519460618495941 0.379125863313675 0.277588993310928 0.196252033114433 0.123831294476986 0.139391541481018 0.617043316364288 1.29802942276001 1.3085777759552 1.51240086555481 1.50562298297882 1.25674152374268 0.755884230136871 0.790346205234528 0.708172619342804 -0.443284094333649 -0.652294039726257 -0.793839275836945 -0.897018671035767 -0.393724113702774 -0.154075041413307 0.658974885940552 -0.410118520259857 -0.816521167755127 -0.473253041505814 -0.271538972854614 3.68297529220581 5.57115077972412 7.33996343612671 7.97799634933472 5.37202024459839 2.45166063308716 -0.919513761997223 -0.834098935127258 -0.993846297264099 -1.10386204719543 -1.34736120700836 -1.71846628189087 -1.81139051914215 -1.8130578994751 -1.77762877941132 -1.64213228225708 -1.51214957237244 -1.30867767333984 -1.01997590065002 -0.239032939076424 0.826340317726135 1.55857610702515 1.85640561580658 2.00766825675964 2.19713354110718 2.36672139167786 2.51418209075928 2.60792326927185 2.670077085495 2.63588809967041 3.2518138885498 3.75253105163574 3.96139216423035 4.12883853912354 4.3658299446106 4.22806453704834 4.18297386169434 3.80549836158752 3.3127760887146 2.96050500869751 2.74015307426453 2.78949093818665 2.78877401351929 3.10083627700806 3.30864405632019 3.03225564956665 2.5813353061676 1.44497752189636 1.56812715530396 1.72350585460663 1.95622396469116 1.93844723701477 1.70766007900238 1.47946989536285 1.20609819889069 0.863258004188538 0.510195970535278 -0.468000322580338 -1.02952182292938 -1.22138690948486 -0.691867828369141 0.47804006934166 1.27119016647339 1.62442791461945 1.86074912548065 2.22310304641724 2.5370135307312 2.67033267021179 2.64721727371216 2.66333389282227 2.68355369567871 2.71070837974548 2.7339973449707 2.67224764823914 2.57114791870117 2.50994920730591 2.43755292892456 2.30682516098022 2.14077877998352 2.01306557655334 1.70566916465759 1.27332985401154 0.885084867477417 0.547104775905609 0.337409555912018 0.128319203853607 -0.22189112007618 -0.534623861312866 -0.784594535827637 -1.13296592235565 -1.40339243412018 -1.53885126113892 2.13909506797791 5.98050117492676 6.99620819091797 6.98869848251343 8.21689128875732 9.11037921905518 9.12254524230957 9.3460750579834 9.57033252716064 9.49750804901123 9.04473209381104 7.97264719009399 5.54025030136108 3.80917835235596 2.94989228248596 2.43264293670654 2.10192179679871 3.70755696296692 5.71096658706665 10.0119371414185
0.45910719037056 0.539630591869354 0.479444146156311 0.512087285518646 0.675140857696533 0.879506945610046 0.900899112224579 0.803765952587128 0.712183654308319 0.464609682559967 0.212167605757713 0.21161387860775 0.251121640205383 0.235081285238266 0.230603188276291 0.245186358690262 0.25173607468605 0.273293823003769 0.265479564666748 0.255641758441925 0.255854904651642 0.39211842417717 0.580357849597931 0.913944244384766 1.66638731956482 1.86399173736572 1.58592426776886 1.33807766437531 1.13174045085907 0.788216352462769 0.63836282491684 0.589874982833862 0.532864570617676 0.456045836210251 0.305224239826202 0.197216108441353 0.127864599227905 0.0635614022612572 0.062927708029747 0.496459186077118 1.1704843044281 1.35645711421967 1.27817189693451 1.31072461605072 1.09810853004456 0.646499752998352 0.396121889352798 0.274892508983612 -0.0787520334124565 0.979094266891479 -0.839244782924652 -0.936395347118378 -0.912623524665833 0.174456149339676 1.15066385269165 0.786296665668488 -0.247196674346924 -0.571647346019745 -0.110799193382263 3.02868032455444 4.7439112663269 6.24939250946045 6.67896366119385 3.96989107131958 2.40876245498657 3.72062969207764 -0.299186885356903 -1.11699187755585 -1.2217493057251 -1.51260590553284 -1.79190123081207 -1.91860473155975 -1.95695078372955 -1.97070479393005 -1.9379243850708 -1.78964626789093 -1.52027797698975 -1.21355414390564 -0.595203697681427 0.343581259250641 1.30039298534393 1.78038251399994 1.95130515098572 2.15009999275208 2.31512308120728 2.46225476264954 2.54947924613953 2.61379623413086 2.57838916778564 3.14250040054321 3.63078165054321 3.83008456230164 3.98450064659119 4.21053266525269 4.07299518585205 4.02203607559204 3.65853476524353 3.18507266044617 2.84446811676025 2.63284587860107 2.69152426719666 2.689781665802 2.96953296661377 2.97135424613953 2.62966299057007 2.01998353004456 0.910480141639709 1.20734035968781 1.47231924533844 1.61794030666351 1.58974015712738 1.23787009716034 0.919350683689117 0.766539514064789 0.384390711784363 -0.141139522194862 -0.993823647499084 -1.6297173500061 -1.82536900043488 -1.55279791355133 -0.838939726352692 0.347136497497559 1.23500001430511 1.55579137802124 2.05492496490479 2.3530101776123 2.45874762535095 2.40704941749573 2.47640585899353 2.48475170135498 2.49851036071777 2.51098203659058 2.44195199012756 2.34489631652832 2.30652809143066 2.2624249458313 2.1157853603363 2.00095844268799 1.83643782138824 1.40090751647949 0.996860504150391 0.580896615982056 0.258572906255722 0.00536412792280316 -0.394440978765488 -0.900575041770935 -1.20094132423401 -1.3123950958252 -1.41910707950592 -1.61355435848236 -1.5879203081131 2.4423885345459 6.94417476654053 10.7232122421265 10.2240219116211 7.79559278488159 7.79778528213501 7.55020046234131 8.17086505889893 8.35778617858887 8.26371479034424 7.95213413238525 7.16967725753784 5.09125804901123 3.26315474510193 2.62414216995239 2.39457297325134 2.03378224372864 3.64330410957336 6.47293901443481 10.0941829681396
