NCOLS 174
NROWS 32
XLLCORNER 353952
YLLCORNER 6700112
CELLSIZE 16 
NODATA_value -3.4e+38 
3.23601937294006 4.62023448944092 3.08116626739502 2.62439727783203 2.40504264831543 2.39137315750122 4.37254619598389 3.51363396644592 3.27951717376709 2.71583843231201 2.5390989780426 2.05320477485657 1.08743953704834 5.83871841430664 5.74877691268921 12.4805088043213 0.418875485658646 7.91082143783569 19.2928123474121 2.44067573547363 2.91089463233948 2.51807427406311 4.71236515045166 3.73950171470642 2.8607485294342 2.77038168907166 3.17455196380615 3.25702047348022 4.67962980270386 4.84312725067139 5.54651021957397 5.37149238586426 3.44435024261475 3.73020195960999 3.63751435279846 3.56158518791199 3.45731902122498 2.38075470924377 1.88185572624207 0.786234378814697 0.757850646972656 0.721404135227203 0.721723616123199 4.42089557647705 4.37067270278931 5.51999568939209 5.51347303390503 4.99199342727661 4.84636831283569 4.00554180145264 4.60078477859497 17.6687870025635 4.19913196563721 2.89652395248413 6.21599674224854 7.42373609542847 5.53305006027222 5.14036798477173 17.8609046936035 10.7613935470581 17.2003955841064 11.9877252578735 4.44841194152832 1.80321991443634 2.22257375717163 2.71733140945435 5.71374940872192 7.69689607620239 6.96310329437256 2.71201658248901 9.41721630096436 1.68862593173981 1.37369751930237 5.13191843032837 0.184185698628426 0.287959635257721 0.0816809087991714 0.613152742385864 2.87359094619751 13.4676961898804 14.5302391052246 5.99197340011597 1.4332777261734 0.181701347231865 7.31837129592896 13.6054830551147 34.1034812927246 29.720832824707 24.0658721923828 17.3855838775635 19.8325214385986 13.78111743927 13.174427986145 13.1997489929199 13.6676177978516 9.68058109283447 4.1787428855896 16.9441318511963 20.2938613891602 9.90699768066406 0.319143295288086 12.3546352386475 8.82112407684326 7.3943920135498 8.45368385314941 5.780601978302 0.366204261779785 -1.14819192886353 -1.6136302947998 2.66502952575684 -2.7655200958252 -4.12534761428833 -3.71038842201233 10.6801023483276 7.41901874542236 10.1133880615234 12.6265163421631 18.8282127380371 19.7933216094971 19.3289985656738 20.0234279632568 11.5614213943481 6.94062900543213 5.46807146072388 10.855676651001 3.17550110816956 -1.29879486560822 -0.636404275894165 6.71037626266479 7.41724443435669 26.5714645385742 16.4178810119629 -1.70800828933716 12.2884569168091 0.966063678264618 3.34090042114258 11.2337160110474 13.8643064498901 13.7301073074341 19.4540977478027 13.9300451278687 9.47187995910645 9.55291271209717 21.9864196777344 40.501781463623 30.8442001342773 24.0794200897217 20.1994609832764 16.9407119750977 15.1769580841064 14.3321437835693 13.2138175964355 11.4380111694336 9.04204845428467 7.28775262832642 10.5276279449463 11.2538013458252 17.9653949737549 20.8181228637695 19.5060043334961 19.1210784912109 19.2027912139893 17.1473140716553 18.2028465270996 17.089635848999 16.0359401702881 15.5513315200806 15.0013971328735 14.2740392684937 15.2356281280518 13.547589302063 12.8462572097778 12.0010080337524 11.3867063522339
4.82223415374756 3.37438654899597 2.81736445426941 2.65115976333618 2.38665962219238 2.30286908149719 3.76601052284241 2.49418759346008 2.79098129272461 3.03916215896606 2.51801538467407 2.34824657440186 2.20988082885742 6.28684425354004 -1.13875222206116 1.36750602722168 4.00571584701538 18.2365837097168 21.0926761627197 5.3226466178894 12.5473470687866 9.37601184844971 2.27031993865967 3.98620557785034 3.94648480415344 3.28948020935059 2.5398690700531 3.05676507949829 3.08271908760071 3.57340931892395 4.57040166854858 4.43975353240967 5.10687685012817 4.57565975189209 3.16806364059448 3.50350642204285 3.44704508781433 3.33097457885742 2.70683932304382 2.23642587661743 0.785531759262085 0.747007787227631 0.723723351955414 0.669791042804718 3.71314311027527 3.63425660133362 3.31675171852112 4.44545030593872 4.30810117721558 3.77718114852905 3.43696713447571 3.14112496376038 6.51064920425415 3.37131404876709 3.22605180740356 16.6519718170166 8.14678192138672 8.48904895782471 27.4489364624023 18.7200031280518 8.51062297821045 12.453556060791 8.66555118560791 7.83111524581909 24.6663246154785 4.59612894058228 8.00403022766113 2.14957022666931 2.22992849349976 1.23851990699768 1.98405289649963 1.53844773769379 0.457155048847198 0.410684794187546 0.155270501971245 0.128918915987015 0.898495316505432 0.634206771850586 0.029641242697835 3.13845086097717 18.5231056213379 11.6421146392822 1.61068046092987 0.422531694173813 12.9650850296021 12.1926383972168 5.87400436401367 7.88032484054565 20.3619632720947 19.3440265655518 12.6174345016479 9.83474254608154 13.3464879989624 18.8450736999512 13.5050563812256 9.041184425354 4.52071142196655 16.793363571167 18.1967830657959 4.55440855026245 2.63422179222107 1.92405569553375 12.3414001464844 8.10926151275635 5.34225749969482 3.87017107009888 2.03506278991699 -0.128918349742889 15.1969614028931 -1.76978135108948 -1.98431777954102 -2.85846018791199 8.75596523284912 9.19865703582764 8.46101474761963 11.3709154129028 15.3447704315186 21.8907337188721 16.4707736968994 17.6370830535889 18.3355274200439 13.0823078155518 9.48837947845459 6.77505493164062 3.27283692359924 -0.170535385608673 -0.822773337364197 8.33845901489258 2.96599984169006 8.28663635253906 20.0124683380127 5.96287488937378 8.25591564178467 9.45635509490967 2.48052787780762 6.77145862579346 6.43130779266357 13.043568611145 9.39958190917969 12.4955263137817 13.0487575531006 12.1316957473755 15.3511371612549 27.570333480835 40.4281845092773 19.092601776123 21.1764698028564 18.6582489013672 17.1513423919678 15.3641176223755 13.5386018753052 12.9915266036987 12.0223703384399 10.5383491516113 9.901123046875 7.1168999671936 6.06054449081421 8.82555484771729 14.9110260009766 17.1507625579834 16.2200584411621 15.9790458679199 16.1715393066406 15.3290033340454 15.2692852020264 15.0659971237183 14.3873262405396 14.0660209655762 13.4499893188477 13.0647077560425 13.4433994293213 11.8699741363525 11.8059110641479 11.3177394866943
3.27936887741089 2.72982501983643 2.49614000320435 2.2447657585144 2.38918519020081 2.25591516494751 3.38009977340698 2.25909090042114 1.88229775428772 2.61213302612305 2.8201949596405 2.34934568405151 2.1774628162384 2.01546144485474 1.5950767993927 29.7307453155518 19.0281734466553 0.966062784194946 2.99736976623535 -0.53526383638382 0.517130732536316 12.2507085800171 5.84913969039917 2.24575853347778 1.91586267948151 3.74420595169067 3.02263355255127 2.35020565986633 2.93562626838684 2.8419873714447 2.92962598800659 4.10205936431885 4.22476434707642 4.862229347229 4.7367148399353 3.0724241733551 3.39359354972839 3.33788728713989 3.25778293609619 3.13032197952271 2.16715407371521 1.7458074092865 0.722402334213257 0.682384848594666 0.617489576339722 3.20282077789307 3.15996289253235 2.88426637649536 3.98225665092468 3.81491661071777 3.30828619003296 3.1972930431366 3.07911896705627 5.65473365783691 18.9875869750977 2.59138488769531 5.47556734085083 14.374716758728 16.9265079498291 12.1649036407471 11.3549194335938 6.80792951583862 9.7831392288208 8.75308036804199 10.6305856704712 4.22910928726196 1.92805242538452 1.71351909637451 0.674933135509491 0.294398486614227 0.470220327377319 0.856383740901947 0.776262879371643 4.25116682052612 3.77453565597534 0.0622199475765228 -0.117110073566437 2.9020893573761 10.0934038162231 7.39595031738281 19.7286186218262 13.1950941085815 7.02106523513794 3.4291250705719 6.37238788604736 14.9281587600708 11.0734367370605 12.8386135101318 18.0261631011963 16.8199405670166 16.883020401001 20.6885509490967 16.75119972229 8.91296863555908 9.88327980041504 9.14148044586182 7.07467031478882 27.9159564971924 22.3958492279053 6.0295295715332 2.83400511741638 16.816312789917 15.1410846710205 9.48368358612061 6.0838360786438 3.36464643478394 1.61775708198547 -0.424344092607498 0.764186680316925 -0.822230696678162 6.70244932174683 -2.01624536514282 4.26727247238159 8.41610527038574 9.62400722503662 11.4550724029541 8.99142360687256 16.3365077972412 13.7319087982178 14.8202905654907 24.1782741546631 17.3619060516357 8.39238166809082 20.3971500396729 4.3185510635376 2.74287724494934 1.48978447914124 4.52433776855469 7.56807374954224 0.911510288715363 -0.981353521347046 1.97420632839203 1.95483684539795 0.966686010360718 -0.212393864989281 2.01515650749207 5.85190057754517 9.49706077575684 8.17500114440918 5.97401523590088 11.4115772247314 11.3161420822144 16.081205368042 23.3307132720947 22.4018459320068 27.7459411621094 27.537223815918 19.8882675170898 15.9087762832642 15.3566131591797 13.7837505340576 12.3627490997314 11.9602584838867 11.36585521698 10.4505548477173 9.35407733917236 8.11541175842285 6.71765422821045 8.02561283111572 8.21123504638672 11.6796655654907 13.7714185714722 13.4051971435547 13.4857578277588 13.626841545105 13.9129667282104 13.5306777954102 13.0423212051392 12.6463594436646 12.2908143997192 12.0166311264038 11.9961080551147 11.3440608978271 10.737530708313
2.78228092193604 2.21624255180359 2.22369956970215 2.16830015182495 2.04518818855286 2.30162692070007 2.37845063209534 3.25339818000793 1.96940815448761 1.68745291233063 2.3861563205719 2.61878061294556 2.44526815414429 2.03395962715149 1.78918755054474 1.65882742404938 0.930294990539551 11.6026821136475 0.873505294322968 -1.10547184944153 -0.60511040687561 29.3937034606934 20.5530014038086 4.42436790466309 2.13907146453857 2.34987258911133 3.48185682296753 3.39950704574585 2.77364683151245 2.38570261001587 2.69283246994019 2.70068526268005 3.14097023010254 4.01732969284058 3.9534912109375 4.54570817947388 3.02914524078369 3.25968074798584 3.18448376655579 3.15010929107666 3.04356455802917 2.48612332344055 2.05167031288147 0.699790000915527 0.648544609546661 0.586182236671448 0.573116660118103 2.6374614238739 2.58114171028137 2.36588430404663 3.26138758659363 3.12664890289307 3.02424049377441 3.05052804946899 3.86549878120422 5.70827913284302 19.5273761749268 16.4448623657227 9.85774993896484 6.03663396835327 7.78763008117676 8.32544803619385 6.13100671768188 5.33012294769287 5.25364685058594 4.89323282241821 3.89873504638672 9.23152637481689 1.2935745716095 0.704795897006989 3.37207746505737 17.3779029846191 15.0672664642334 12.5235614776611 10.3335800170898 2.74645376205444 3.82637071609497 4.88080739974976 4.96361589431763 2.32887005805969 16.9511547088623 15.4190454483032 4.87708759307861 1.59493255615234 -0.485813736915588 0.766392529010773 1.7107617855072 6.80829572677612 7.25011920928955 4.06278657913208 9.70369434356689 10.9168109893799 9.10553932189941 8.32852458953857 6.88211250305176 7.01835823059082 8.35216617584229 14.4946346282959 8.27291202545166 12.6260843276978 3.84633755683899 9.29443836212158 1.91069602966309 1.43164384365082 -0.410885244607925 5.01580667495728 2.40480852127075 2.48721718788147 24.5266704559326 0.623783588409424 -0.88018923997879 1.73718774318695 8.05505084991455 12.4415702819824 9.56205654144287 11.6384305953979 9.23879146575928 13.4057664871216 16.2032222747803 34.5589447021484 41.1981544494629 20.3196506500244 24.7131614685059 7.88368558883667 6.43892526626587 4.25720834732056 2.57694578170776 6.00240898132324 11.0212726593018 8.2415018081665 -0.958629786968231 -2.54736328125 -2.06283020973206 0.897775948047638 13.6807899475098 17.6801013946533 8.07754516601562 6.20418453216553 5.53007936477661 7.59729528427124 29.4361171722412 31.3341197967529 44.3988265991211 42.8475303649902 11.5844469070435 29.6558628082275 22.0232715606689 18.3544979095459 16.9324436187744 14.296516418457 13.9911069869995 12.5435009002686 11.9636688232422 11.0354948043823 10.623101234436 9.79508781433105 8.86120986938477 8.44994258880615 6.45254564285278 7.24575138092041 7.51504850387573 10.6477422714233 12.5886392593384 12.3195962905884 12.3069648742676 12.3335733413696 12.1962699890137 12.4424066543579 11.8625383377075 11.6324481964111 11.3049783706665 10.8652992248535 10.6994485855103 10.2930021286011
20.8552417755127 14.1273040771484 1.93926155567169 2.02172255516052 2.03591752052307 2.01432228088379 1.99054372310638 3.13091278076172 2.05635118484497 1.76735281944275 1.52035188674927 1.8581178188324 2.14603924751282 2.26426959037781 1.85988068580627 1.66453194618225 1.53748893737793 0.806123852729797 8.25174617767334 0.817387580871582 33.7064666748047 29.566349029541 20.7776031494141 13.4206790924072 3.67223429679871 3.20998358726501 2.03147268295288 1.88806104660034 3.15574789047241 2.61619162559509 1.989293217659 2.5808961391449 2.53749561309814 2.60555005073547 3.66599369049072 3.76393723487854 4.32801151275635 3.92932176589966 2.79559350013733 3.08652877807617 3.05465722084045 2.99211549758911 2.88443756103516 1.99110078811646 0.674779295921326 0.624161660671234 0.580172896385193 0.536095023155212 2.40041732788086 2.34539556503296 2.13552808761597 3.11379528045654 3.08442068099976 2.98538160324097 2.93210959434509 2.82968926429749 4.11977434158325 5.52406120300293 6.74617719650269 6.51895093917847 5.39113712310791 6.43281173706055 6.78401660919189 6.19854068756104 5.31899213790894 7.09463500976562 4.29498147964478 1.7138876914978 0.657459080219269 6.14615249633789 21.7922897338867 18.5174674987793 16.3536224365234 9.87448406219482 7.88084363937378 3.25376152992249 0.978231191635132 0.175198450684547 8.49417400360107 1.82401669025421 -0.137395203113556 12.1123085021973 0.82936418056488 4.97227621078491 0.563657641410828 28.0437679290771 9.43017959594727 1.07321631908417 5.88269948959351 3.84051990509033 8.57637500762939 4.23938226699829 7.42881631851196 7.0865683555603 7.54632949829102 4.60891628265381 20.6237449645996 14.2801551818848 6.72772169113159 4.26416683197021 0.959345757961273 3.62195777893066 0.460691630840302 -1.95014357566833 -0.69056099653244 -1.421835064888 8.49931049346924 2.86654424667358 -0.209347650408745 7.86458683013916 7.17385053634644 9.04276657104492 4.25644445419312 9.61018943786621 6.90965795516968 7.7965407371521 8.68571758270264 10.1934547424316 32.1544303894043 33.3051261901855 32.8867835998535 26.2580070495605 26.0355606079102 12.3652296066284 6.54177904129028 5.23482179641724 4.92932510375977 2.90997552871704 8.77837944030762 8.19866561889648 4.02513837814331 3.04923176765442 10.9632081985474 20.6684818267822 9.96903324127197 10.9416637420654 6.97678422927856 4.91028642654419 12.6666421890259 21.5128879547119 51.1641540527344 40.9039611816406 29.8855609893799 25.2700805664062 24.511625289917 37.2849922180176 31.6735000610352 18.6314277648926 17.2294216156006 15.1124382019043 13.0767107009888 12.7994031906128 12.1919202804565 11.1752815246582 10.3610553741455 9.97004222869873 9.52813911437988 8.78912258148193 7.96172618865967 6.18192768096924 5.25707149505615 6.45280170440674 9.92711162567139 11.7024841308594 11.413685798645 11.3431463241577 11.3132581710815 11.3919439315796 11.5124759674072 11.1433019638062 10.6728363037109 10.4322862625122 10.0903158187866 9.98919296264648
2.28931975364685 2.51624989509583 9.19516086578369 1.66913735866547 1.87288701534271 1.99766671657562 1.95465350151062 2.61800360679626 2.17326998710632 1.833735704422 1.69355189800262 1.46653366088867 1.21955525875092 1.91428709030151 2.08956694602966 1.92055869102478 1.51628136634827 1.4110369682312 1.13905227184296 6.47132778167725 5.8237566947937 0.789374828338623 15.1955003738403 13.4239568710327 9.98327350616455 4.41723012924194 3.34353971481323 3.09878849983215 1.7565141916275 2.97208261489868 2.38080596923828 1.87204051017761 2.09156346321106 2.38791608810425 2.38828182220459 3.48998236656189 3.60838460922241 4.16381359100342 4.07497215270996 2.78453421592712 2.99156951904297 2.92772388458252 2.88599944114685 2.79680395126343 1.93221616744995 0.694625973701477 0.604241371154785 0.569894850254059 0.522153615951538 0.514813959598541 2.04953336715698 2.00614023208618 2.9619927406311 2.89606761932373 2.71306896209717 2.73672866821289 2.66582703590393 3.34699702262878 4.04024744033813 5.06783103942871 5.30159997940063 5.29929971694946 5.16009140014648 5.39835548400879 5.13783407211304 4.84257698059082 5.16083478927612 1.83547186851501 2.62545466423035 26.623815536499 13.1539068222046 9.10402393341064 9.14325046539307 7.9848518371582 7.92054033279419 1.71533739566803 0.676051020622253 0.391429275274277 7.09063243865967 0.811941504478455 0.0231111738830805 7.54840993881226 5.18614768981934 0.519249737262726 15.4210596084595 14.0512266159058 0.148185566067696 6.10911750793457 2.95012187957764 7.42925786972046 1.59540235996246 3.88843131065369 0.93696266412735 4.51849699020386 10.7474069595337 8.06485843658447 22.363582611084 12.8738889694214 6.98455905914307 6.71686506271362 2.74787974357605 9.37094497680664 -0.382581919431686 -1.59446370601654 -2.8525230884552 0.895514786243439 19.416296005249 14.5112495422363 2.16774964332581 3.18381237983704 2.29821729660034 1.62735044956207 6.10113048553467 18.446159362793 19.5064563751221 8.45432376861572 14.7105741500854 17.7844314575195 32.3930358886719 37.0432815551758 26.3024082183838 22.6987152099609 20.223274230957 12.3289823532104 10.3830118179321 8.30440330505371 4.82368612289429 4.68547773361206 11.9410858154297 11.5453071594238 10.6904525756836 14.2073192596436 16.6441993713379 13.4317874908447 10.4210987091064 9.82210731506348 6.40059518814087 11.2436923980713 28.2924346923828 31.5247802734375 43.9841690063477 37.6228218078613 29.8629055023193 23.9310970306396 21.0045032501221 16.5280055999756 19.1149635314941 22.7930526733398 15.9570636749268 15.1951189041138 13.5548715591431 12.0944700241089 11.2641878128052 11.3311805725098 10.46897315979 10.040976524353 9.38745021820068 8.99934673309326 8.28556251525879 7.55789422988892 6.9767918586731 5.81604528427124 6.29208660125732 6.81273126602173 9.23824214935303 10.6533861160278 10.3683071136475 10.1932706832886 10.0312347412109 10.300030708313 10.3728628158569 9.99929809570312 9.77346897125244 9.42442893981934
2.50374960899353 2.30075335502625 2.12587928771973 7.07470369338989 1.70206463336945 1.8214111328125 1.90360796451569 1.92446100711823 1.95182263851166 1.90004098415375 1.72709536552429 1.53241741657257 1.31747949123383 1.12190616130829 1.51835882663727 1.69219315052032 1.74799942970276 1.46393489837646 1.32354974746704 1.28082633018494 0.681850790977478 4.88639450073242 0.798713982105255 11.3275470733643 9.97719478607178 7.83941984176636 7.59553241729736 2.88500285148621 2.0820460319519 1.63800883293152 2.76852178573608 2.72927904129028 2.15509152412415 1.64838421344757 2.27898931503296 2.30634713172913 2.68980169296265 3.43447780609131 3.39758038520813 3.89942836761475 2.75121879577637 2.56581282615662 2.82807874679565 2.78989005088806 2.69582056999207 1.87905633449554 0.840409100055695 0.597769856452942 0.554072260856628 0.514855921268463 0.485546439886093 1.90378677845001 1.790003657341 1.67187476158142 2.53152227401733 2.5478355884552 2.50762462615967 2.45863008499146 2.97717547416687 2.9080023765564 4.32508230209351 4.70954704284668 4.98855304718018 4.35637235641479 4.55950736999512 4.67334032058716 4.34688854217529 3.63583064079285 25.1717872619629 3.94479417800903 5.27845335006714 6.63548183441162 5.89137840270996 5.11983060836792 5.79434108734131 2.6215934753418 1.52578473091125 0.198189795017242 0.28734427690506 -0.0473080463707447 -0.105145305395126 0.511705696582794 -0.366634160280228 7.71432685852051 4.15284776687622 17.1733741760254 0.578990459442139 3.91919469833374 1.73980379104614 2.59020471572876 6.07819843292236 5.85994148254395 7.448655128479 24.2745265960693 24.3390865325928 16.744592666626 12.0797166824341 10.1035938262939 7.55434370040894 3.09505748748779 2.26898431777954 2.40502667427063 -1.14923059940338 -1.09959733486176 -2.13667321205139 10.944896697998 14.2802085876465 20.4454364776611 5.6159520149231 1.17646205425262 -0.159054294228554 0.928238451480865 7.28298425674438 7.86148548126221 11.1801872253418 8.78037357330322 16.9426555633545 14.8261117935181 12.500412940979 31.9608287811279 25.8187980651855 20.3359642028809 17.4994773864746 16.4960422515869 8.24727153778076 6.96864795684814 8.30427551269531 9.69064807891846 18.33056640625 13.0010719299316 7.17377662658691 7.43273162841797 7.24102163314819 6.85300779342651 8.735764503479 8.9227991104126 12.7729969024658 13.384259223938 38.5697975158691 37.1217613220215 36.5378379821777 30.2780628204346 27.7215766906738 24.572151184082 17.1615409851074 19.3901119232178 19.2584705352783 16.2136344909668 17.9590225219727 14.1947755813599 13.5221242904663 12.2438383102417 11.6902561187744 10.90074634552 10.6080389022827 10.1923980712891 9.44265174865723 8.86722373962402 8.5114221572876 7.98127317428589 7.23969650268555 6.94926071166992 5.74513578414917 5.10479068756104 6.06224489212036 8.67955589294434 9.9953784942627 9.72022724151611 9.43515396118164 9.3077392578125 9.70366477966309 9.78381824493408 9.44153785705566 9.16772747039795
2.6624710559845 2.43677806854248 1.9672440290451 1.99261486530304 5.82364654541016 5.31339168548584 1.65294063091278 1.75145304203033 1.87413263320923 1.66933798789978 1.4799530506134 1.55951333045959 1.38378429412842 1.1582133769989 0.918796420097351 1.40014338493347 1.53549122810364 1.60699152946472 1.3757871389389 1.25024998188019 1.23981094360352 0.647577941417694 4.30283403396606 1.13021528720856 9.04573917388916 8.3968620300293 7.4999885559082 6.0820689201355 2.68373584747314 2.50703763961792 1.71837496757507 1.52821004390717 2.55408358573914 2.00079226493835 1.57191228866577 2.19082546234131 2.13540363311768 2.18501973152161 3.15525984764099 3.2527163028717 3.74904704093933 3.43069171905518 2.48060297966003 2.73882341384888 2.70738768577576 2.61515808105469 0.836010217666626 0.698071956634521 0.573573172092438 0.510770618915558 0.463653087615967 0.418426036834717 1.65475237369537 0.742079019546509 -0.371331185102463 2.35655117034912 2.38272881507874 2.32175159454346 2.20644307136536 2.16138315200806 2.80010366439819 3.19874382019043 3.98678350448608 4.56438732147217 4.32628297805786 4.13516426086426 4.17294216156006 3.7939772605896 3.45812392234802 3.1449613571167 15.6466674804688 10.9508905410767 5.87892150878906 5.30732393264771 1.17518305778503 0.131769746541977 0.28027755022049 0.467936426401138 1.90943622589111 1.45249176025391 11.4957714080811 8.37371635437012 8.4893741607666 17.2945919036865 9.36970329284668 1.03818488121033 1.37987589836121 0.443438827991486 12.9892778396606 16.1128559112549 5.70624971389771 2.19316172599792 26.1750411987305 18.6723461151123 17.8909454345703 17.2341365814209 15.6173667907715 7.75110149383545 5.51520204544067 4.10541296005249 24.3263835906982 2.81990742683411 1.86289978027344 -1.30769443511963 23.3792972564697 26.5037822723389 28.5182971954346 17.3333683013916 20.0243320465088 0.859573304653168 -1.12413787841797 7.69968700408936 25.1393299102783 26.1521968841553 42.8551864624023 13.4430780410767 19.8045597076416 9.48924446105957 42.0040397644043 40.5802726745605 6.9235782623291 11.4370718002319 16.6284618377686 15.0322074890137 10.375319480896 6.97253847122192 6.4810619354248 7.01996088027954 8.31589889526367 7.83544254302979 8.61747932434082 9.31259822845459 6.15613222122192 5.21431016921997 5.84765386581421 17.7556266784668 26.1989593505859 26.0122146606445 43.22119140625 33.8742485046387 29.8056049346924 23.4276580810547 24.331356048584 21.7371997833252 20.9212532043457 23.7706832885742 17.6100997924805 15.1286172866821 14.0227060317993 14.8423900604248 13.4864282608032 12.2355737686157 11.6819648742676 10.8707008361816 10.3111486434937 9.46728515625 9.55391025543213 8.91735744476318 8.40739440917969 8.09434986114502 7.79305982589722 7.21031904220581 6.71423530578613 6.48208332061768 5.55783987045288 5.84581995010376 6.888108253479 8.1640510559082 9.0972728729248 8.75892925262451 8.59304618835449 9.19019794464111 9.21905422210693 8.94789409637451
1.67370808124542 2.39722490310669 2.14255666732788 1.88121926784515 1.74385523796082 1.74225282669067 4.62755489349365 1.53098666667938 1.73759913444519 1.57980096340179 1.41311991214752 1.31750345230103 1.39992761611938 1.22788107395172 1.10303807258606 0.863915205001831 0.828201651573181 1.3337070941925 1.50605893135071 1.44535386562347 1.19967365264893 1.18794023990631 1.00725734233856 3.78530359268188 3.6848578453064 1.54873943328857 7.22833585739136 6.18667507171631 5.41836929321289 3.63872051239014 2.29909133911133 1.61822056770325 1.42156958580017 2.40013813972473 1.86396026611328 1.47502553462982 1.74514472484589 2.04372692108154 2.07268309593201 3.04117441177368 3.13441157341003 3.60520792007446 3.53165984153748 2.40923976898193 2.65911412239075 2.38577675819397 1.183229804039 1.13705396652222 0.63397091627121 0.487577468156815 0.42744767665863 -0.175291687250137 -0.271351307630539 0.263446152210236 -0.5791876912117 4.07742023468018 5.84191799163818 2.2083797454834 2.04606652259827 2.02643990516663 2.09461712837219 2.68807506561279 2.82823300361633 3.36582612991333 3.22257113456726 3.88418865203857 3.67471218109131 3.63442730903625 3.33516597747803 3.060622215271 2.6167950630188 6.50177478790283 1.08264064788818 5.5645580291748 1.92732846736908 0.577951610088348 4.42699766159058 7.23915863037109 10.2348546981812 0.456611126661301 3.89749670028687 2.21572351455688 8.96385383605957 6.34418487548828 -0.14534854888916 3.36851024627686 13.6417598724365 -0.801638841629028 -0.0319842286407948 0.316355973482132 -0.0616551488637924 5.35134792327881 -0.12576262652874 4.47577667236328 8.49510192871094 5.26903772354126 10.7140665054321 10.5897283554077 6.43678617477417 7.57241201400757 4.94956254959106 5.4603853225708 25.8655471801758 7.08167743682861 28.5030307769775 17.0576019287109 8.74790477752686 19.6419448852539 12.6303844451904 13.5494699478149 6.79762077331543 30.5522136688232 37.6510124206543 26.3822975158691 23.4265689849854 16.4118881225586 4.35556125640869 7.4669075012207 39.8690528869629 6.90221500396729 7.34657049179077 12.4593315124512 35.8168029785156 22.4114799499512 13.1988000869751 8.39870262145996 6.60311794281006 8.8524284362793 9.55799102783203 8.24473285675049 7.24699926376343 6.09366178512573 6.70547723770142 3.36092257499695 7.38258790969849 19.5830535888672 26.188325881958 15.0600967407227 37.1293487548828 26.1775951385498 27.4199466705322 23.6022338867188 22.6887588500977 20.9373435974121 19.1159019470215 18.3091259002686 17.2619094848633 15.7838230133057 13.7324657440186 12.6572141647339 12.3589649200439 11.9997434616089 11.3742218017578 10.911678314209 10.2382307052612 9.85983943939209 8.95928287506104 9.01602840423584 8.4201831817627 8.10553741455078 7.70148706436157 7.39737415313721 6.89328575134277 6.42408037185669 6.3082218170166 5.46420764923096 5.69273328781128 6.03227710723877 7.76831245422363 8.57641696929932 8.24608135223389 8.05396270751953 7.90947532653809 8.44866466522217
2.02984428405762 3.05625152587891 2.56250834465027 1.91160249710083 1.8432035446167 1.80097460746765 1.63579416275024 4.09762334823608 1.48492038249969 1.53875279426575 1.37056839466095 1.22511339187622 1.17847311496735 1.25617647171021 1.13908267021179 0.972500205039978 0.740798950195312 0.533984303474426 1.1075953245163 1.25934207439423 1.37170338630676 1.22489154338837 1.14053773880005 1.13748168945312 0.64419037103653 3.39340972900391 1.69758439064026 6.17629289627075 5.5227222442627 4.92732858657837 4.72789001464844 2.25332164764404 1.93804812431335 1.29206132888794 2.24343037605286 2.18624591827393 1.73116934299469 1.4104710817337 1.97582101821899 2.00519943237305 2.3350031375885 2.98111462593079 2.97422671318054 3.41406917572021 3.15808129310608 1.69685578346252 1.41323184967041 1.01209390163422 1.00872182846069 0.571751356124878 0.424932211637497 0.339334547519684 4.87992715835571 -0.415765762329102 -0.5532585978508 16.6020526885986 21.3596076965332 12.3107252120972 1.61550259590149 1.93512511253357 1.91643071174622 1.84949803352356 1.90274930000305 2.5443000793457 2.85752606391907 2.66256999969482 3.39507365226746 2.86381602287292 2.92129564285278 2.91529417037964 2.7827570438385 2.58331489562988 0.967378377914429 10.0981492996216 5.92055082321167 0.436538517475128 9.26699352264404 2.51069116592407 6.0131573677063 0.696418762207031 0.406656324863434 1.21015751361847 7.23409938812256 2.66990423202515 0.163845404982567 7.87728357315063 2.4228196144104 -0.669402062892914 -0.859000742435455 -0.802411019802094 -0.279224395751953 -0.394137799739838 -0.910012364387512 11.3410387039185 -0.629473626613617 4.82169103622437 3.8697681427002 7.15828514099121 6.77489709854126 5.28058052062988 3.86284613609314 3.6267671585083 4.37224626541138 10.5326366424561 31.8794422149658 16.4146785736084 28.398889541626 33.7436637878418 22.107141494751 20.5312824249268 10.0236415863037 29.8794116973877 21.8205471038818 18.0222434997559 17.3918056488037 10.6575298309326 6.60988235473633 4.47329664230347 12.822826385498 4.97992277145386 8.9176197052002 21.1420288085938 20.05251121521 31.6190662384033 15.8378114700317 11.5226316452026 18.5297431945801 30.8944072723389 13.1539440155029 11.3510589599609 8.66560459136963 7.86667585372925 20.5182075500488 7.42558813095093 48.3249969482422 43.0553932189941 38.5941352844238 18.505126953125 31.2480487823486 21.1703853607178 20.6177406311035 17.0075168609619 20.039134979248 18.494945526123 18.8135356903076 17.2407131195068 16.7337017059326 15.7553997039795 14.5846042633057 13.8185653686523 11.9707260131836 11.1653032302856 11.302282333374 10.7999773025513 10.4074831008911 9.93697166442871 9.27283954620361 8.92920398712158 8.48941612243652 8.15086555480957 7.74080610275269 7.28408813476562 7.06235599517822 6.75452184677124 6.50297975540161 6.17037391662598 5.35351943969727 4.85466337203979 5.42544078826904 7.24716758728027 8.10528659820557 7.87396192550659 7.58080291748047 7.44373607635498
3.34724569320679 2.31289029121399 2.0515034198761 1.76598215103149 1.69398283958435 1.54255604743958 1.75184786319733 1.52756655216217 3.70584177970886 3.48566699028015 1.42904245853424 1.34635603427887 1.10135769844055 1.05972063541412 0.940413892269135 1.01421213150024 0.861509382724762 0.719566643238068 0.495549112558365 0.644996702671051 1.1953821182251 1.30559742450714 1.17144095897675 1.08483743667603 1.10104954242706 0.971790313720703 3.10956287384033 3.1417601108551 5.55637407302856 5.23534965515137 4.6850962638855 4.18166542053223 2.41161036491394 1.7693704366684 1.35789632797241 1.15512502193451 1.97392416000366 1.5714099407196 1.31879031658173 1.88086700439453 1.86552596092224 1.91276431083679 2.79653072357178 2.88501191139221 3.30874180793762 3.21771192550659 1.56498265266418 1.29489088058472 0.867971420288086 0.929970026016235 0.776536762714386 0.213320150971413 -0.231915384531021 -0.147046282887459 9.76163101196289 24.2234973907471 10.7970752716064 6.49525117874146 6.62946748733521 0.994136810302734 8.00936794281006 1.61560606956482 1.70433413982391 1.82451999187469 2.41734457015991 2.22254538536072 2.2764937877655 2.834636926651 2.50237798690796 2.5039234161377 2.65071749687195 0.957851886749268 1.83371269702911 16.4346008300781 12.5460033416748 0.731713831424713 7.11316013336182 0.552211284637451 0.694897413253784 2.58935832977295 0.223696798086166 0.365277498960495 1.9249392747879 0.017310643568635 1.03982853889465 7.23988103866577 -0.504122078418732 -1.15576994419098 -1.21220302581787 -1.50691103935242 -1.20527160167694 1.64635062217712 -0.46726867556572 0.67336642742157 14.5064468383789 23.5205039978027 5.34121704101562 0.106477841734886 2.49221873283386 1.90880560874939 3.10013365745544 3.01067185401917 4.54049444198608 3.87293601036072 6.13132810592651 8.08082008361816 4.82806348800659 16.0047721862793 12.046293258667 19.0849075317383 11.7591218948364 8.14962100982666 12.7442293167114 14.6222763061523 13.4680194854736 13.189356803894 10.6936769485474 5.70356750488281 30.1525859832764 13.7074422836304 28.5872478485107 9.87464237213135 11.4410524368286 13.2768383026123 16.0987854003906 13.3566360473633 12.7887229919434 8.8846960067749 16.3172168731689 22.0349025726318 11.7603397369385 22.4976615905762 23.7307319641113 10.4581718444824 42.2254219055176 28.9832229614258 25.7581634521484 21.7170715332031 19.8579273223877 16.6483268737793 16.7868385314941 16.2472724914551 22.9970817565918 17.0202789306641 16.7122364044189 17.1637783050537 15.7420835494995 15.4824571609497 14.794264793396 13.9511547088623 13.0059566497803 11.3999919891357 10.8036689758301 10.8531255722046 10.1949844360352 9.83384704589844 9.31452941894531 8.66218090057373 8.42639350891113 7.71432018280029 7.67368221282959 7.38070821762085 7.18125534057617 6.75386333465576 6.46631288528442 6.25861263275146 5.96439552307129 5.93470478057861 3.91249847412109 5.19640064239502 5.4339747428894 6.86015939712524 7.47177791595459 7.21161222457886
3.346186876297 2.22515916824341 2.02256035804749 1.46237826347351 1.77466404438019 1.6218808889389 1.39239990711212 1.70118641853333 1.41318166255951 1.39420223236084 2.9325954914093 1.02381300926208 1.26256847381592 0.977203667163849 0.862959742546082 0.83099353313446 0.907784402370453 0.768742084503174 0.602174937725067 0.443181037902832 0.616757571697235 1.05730438232422 1.2525155544281 1.23120498657227 1.12473380565643 1.0793868303299 1.14388823509216 1.29100847244263 2.88169097900391 0.925888895988464 4.76744508743286 4.24529457092285 3.80204820632935 3.62973546981812 1.78835570812225 1.24213373661041 1.05307412147522 1.8162727355957 1.78021061420441 1.39927077293396 1.45492267608643 1.74288582801819 1.78118538856506 2.07867884635925 2.65586137771606 2.63612246513367 3.0512421131134 1.41231906414032 1.00053107738495 0.647676825523376 0.453283220529556 0.6828493475914 1.93409967422485 -0.863836348056793 10.7966041564941 -0.909575879573822 2.34521150588989 9.89424514770508 11.7200536727905 4.14627552032471 15.4633893966675 0.794521868228912 0.475820392370224 1.42452776432037 1.58326733112335 2.14969730377197 2.14339089393616 1.8133020401001 1.93902313709259 2.1650652885437 2.34815979003906 1.80413067340851 20.4462738037109 13.4423551559448 1.44495451450348 4.43162298202515 0.593895196914673 0.392602205276489 0.144549578428268 0.437065750360489 1.17796552181244 3.49787759780884 4.01810932159424 0.217865318059921 5.12895345687866 -0.160391002893448 -0.906311333179474 -1.25404226779938 -1.61728286743164 -1.67466080188751 -1.70471346378326 4.00806617736816 -1.17447769641876 -0.855010688304901 -0.742885291576385 6.55171585083008 0.142494931817055 2.01398730278015 18.2705211639404 0.900798380374908 -0.84160590171814 1.94370555877686 14.3415145874023 2.79607653617859 3.03637266159058 9.29341125488281 7.21222066879272 18.8245048522949 11.336296081543 12.2010288238525 13.1084041595459 11.0175676345825 8.94703769683838 15.3759651184082 11.6245651245117 11.4353656768799 11.3233108520508 8.27042865753174 31.6662864685059 21.7056560516357 12.9619979858398 16.9298210144043 22.8293170928955 25.6936531066895 30.8030567169189 25.6070461273193 18.9675521850586 11.403190612793 17.9236698150635 9.63337135314941 17.3119697570801 25.2317008972168 23.781982421875 14.4492311477661 36.5011177062988 23.3356437683105 20.8644123077393 20.6255512237549 17.2254180908203 15.4172515869141 4.96923446655273 7.53598737716675 13.854905128479 14.3217325210571 15.2735805511475 15.2380952835083 15.7982406616211 15.0663290023804 13.8543758392334 13.8738899230957 13.1115942001343 12.317081451416 11.7503108978271 10.5148038864136 10.3074998855591 9.85505294799805 9.1873836517334 8.7694206237793 8.08003234863281 7.9397120475769 7.35675477981567 7.19875526428223 6.74778747558594 6.75907135009766 6.35874509811401 6.10543155670166 5.95118522644043 5.56232690811157 4.56026935577393 2.83337926864624 1.70203149318695 2.70051121711731 6.53590106964111 7.08096265792847
2.22461438179016 1.86185777187347 2.00241041183472 1.88023865222931 3.11585998535156 1.99718022346497 1.50696897506714 1.35119998455048 1.65740215778351 1.62432980537415 1.08135378360748 2.55801248550415 2.29929780960083 1.17656993865967 1.09649395942688 0.747357606887817 0.73580414056778 0.624622583389282 0.652292132377625 0.542463421821594 0.41053032875061 0.314107626676559 0.933808147907257 1.07085371017456 1.18991482257843 1.10136294364929 1.04291725158691 1.0739119052887 0.872459650039673 2.61717915534973 0.810992479324341 4.2273063659668 4.26848125457764 3.70879459381104 3.24720025062561 1.74026358127594 1.51226401329041 1.12169086933136 0.925130486488342 1.64056515693665 1.2722088098526 1.09447419643402 1.62478148937225 1.60301351547241 1.62732088565826 2.45126128196716 2.50510191917419 2.88472175598145 1.16398358345032 0.753598868846893 0.481601864099503 0.329878896474838 0.668527901172638 0.192546099424362 30.98486328125 20.7571601867676 3.34734392166138 14.1142129898071 9.40060997009277 0.361072778701782 3.75243234634399 0.749767363071442 6.39822196960449 14.7895631790161 11.299280166626 1.02110028266907 0.704401731491089 1.85692262649536 1.54667115211487 1.46066880226135 2.05093240737915 1.71459567546844 1.57998251914978 2.20005130767822 6.11972188949585 1.37792098522186 0.285647749900818 0.573103964328766 13.8634824752808 11.775242805481 2.82933926582336 4.45798206329346 1.10444712638855 1.04986131191254 6.0238733291626 0.113364890217781 -0.714518070220947 -1.58673739433289 -1.73306286334991 -1.93912398815155 -1.92974650859833 -1.88733720779419 -2.18356728553772 -1.38043403625488 6.67050266265869 -0.960246801376343 13.7951135635376 8.78965187072754 12.6365156173706 0.0642678216099739 0.400280833244324 3.57746005058289 8.15469264984131 1.82075262069702 12.6404981613159 13.5790576934814 2.89703774452209 2.47737169265747 5.19963645935059 3.31130194664001 11.9582443237305 9.34428977966309 6.76957178115845 15.9806547164917 13.2789516448975 10.2111501693726 9.25294399261475 9.64960765838623 15.7014265060425 10.329158782959 15.8761749267578 7.90328741073608 6.64837741851807 26.2439956665039 20.4075622558594 18.5466957092285 17.3855323791504 15.6024475097656 11.0448417663574 19.7921257019043 28.1391639709473 26.7373428344727 18.0138034820557 9.59598636627197 13.1856136322021 16.9431133270264 16.8206024169922 16.8124809265137 17.0811328887939 8.47011184692383 10.7889614105225 27.535457611084 24.6413898468018 29.2339630126953 13.1247825622559 13.9346771240234 14.0420093536377 13.3729953765869 14.0012149810791 12.9397869110107 13.0271310806274 12.4609622955322 11.5967845916748 10.9323263168335 9.89991474151611 9.2670955657959 9.23771667480469 8.61490917205811 8.257568359375 7.68464708328247 7.45656108856201 7.14784717559814 6.56801557540894 6.25867176055908 6.27657127380371 5.92526626586914 5.84496212005615 5.59368896484375 4.56206130981445 3.53961181640625 11.4596319198608 23.1866645812988 22.5619144439697 26.8097114562988
1.75767838954926 1.81822776794434 2.43492937088013 1.95745146274567 1.7760819196701 1.58134388923645 1.50365376472473 1.38607394695282 1.67126893997192 1.34713995456696 1.4949905872345 0.897127270698547 1.26884400844574 2.00605273246765 0.665461361408234 1.02220988273621 0.655715584754944 0.562474846839905 0.540835916996002 0.591012895107269 0.506783545017242 0.460330367088318 0.334265023469925 0.274164021015167 0.954590976238251 1.15676355361938 1.15773522853851 1.00145983695984 1.02951335906982 0.590793132781982 2.35605931282043 2.30500507354736 0.700263381004333 3.83354997634888 3.32342457771301 2.93868184089661 2.02421426773071 1.45420753955841 0.979800701141357 0.798569619655609 1.48503482341766 1.12415647506714 0.99146980047226 1.21794104576111 1.47136747837067 1.49130856990814 2.2771270275116 2.3315589427948 2.70564675331116 0.859107553958893 0.531433403491974 0.347038507461548 0.2657410800457 0.645043075084686 0.110671788454056 0.520954251289368 13.319055557251 13.9277658462524 10.1942510604858 -0.171551570296288 20.7883377075195 9.73973560333252 4.68073272705078 2.52979516983032 2.59661793708801 7.00120830535889 0.877940356731415 16.7124042510986 8.82715320587158 1.4490259885788 1.42955279350281 3.38489317893982 1.75662779808044 1.52907109260559 1.55923652648926 8.50101280212402 0.43060764670372 3.06362175941467 6.63045644760132 4.87695169448853 0.441986382007599 1.18866896629333 6.6276068687439 5.56110286712646 0.0854261517524719 2.52219820022583 -0.380475282669067 -1.10498678684235 -1.75139141082764 -1.99040842056274 -2.17833662033081 1.28564023971558 2.92215466499329 -1.23664081096649 1.95200335979462 -1.06327545642853 10.0028848648071 14.3683176040649 5.31131410598755 3.50031733512878 3.42213940620422 -1.1813884973526 5.57567739486694 11.6538791656494 18.0045070648193 12.317928314209 2.95682525634766 1.6727169752121 0.784098744392395 1.34299385547638 2.5141077041626 5.99369668960571 6.94713687896729 11.5927295684814 25.7819747924805 10.7075099945068 7.45041656494141 8.7874755859375 9.1558198928833 9.11334037780762 9.14582443237305 13.4847850799561 33.851016998291 34.7109909057617 24.2386379241943 16.902286529541 15.6411867141724 14.8205728530884 14.2799100875854 10.6256723403931 10.1559724807739 12.3131189346313 13.331244468689 12.3220043182373 16.9197425842285 20.4488487243652 14.3571538925171 13.4412689208984 8.66132736206055 4.96858263015747 27.1556854248047 17.666805267334 29.1424369812012 24.8528442382812 21.0148849487305 12.1500272750854 12.8511562347412 12.4456205368042 12.4930086135864 13.1572523117065 12.6516761779785 11.6610059738159 11.546835899353 10.7146787643433 10.0712471008301 9.2515811920166 8.67897891998291 8.676194190979 8.10145092010498 7.80523347854614 7.49021482467651 4.8962550163269 3.47383403778076 3.32469534873962 3.2914891242981 5.7879843711853 5.67308521270752 5.34916925430298 4.74419450759888 3.89690780639648 3.49884748458862 12.1630296707153 4.35348081588745 22.5026531219482
2.08954572677612 1.5667484998703 1.68548476696014 1.86270618438721 1.69711339473724 1.5912219285965 1.4337465763092 1.48051583766937 1.31514132022858 1.07883560657501 1.18664443492889 1.39075815677643 0.741185963153839 0.616224348545074 1.73033595085144 0.557945013046265 0.950353860855103 0.524704396724701 0.486072093248367 0.48707377910614 0.55091667175293 0.483701169490814 0.413306623697281 0.312553197145462 0.25268018245697 0.37661001086235 0.987269163131714 1.10149300098419 0.961282193660736 0.986194372177124 0.771716833114624 0.585827946662903 2.19095706939697 2.12183427810669 3.43194556236267 2.89666318893433 2.6043963432312 2.53583788871765 1.38978886604309 0.87114292383194 0.675415098667145 1.32995414733887 1.29743158817291 0.95825469493866 0.847616374492645 1.31954097747803 1.33711040019989 1.58366405963898 2.10291314125061 0.651198744773865 0.475760638713837 0.288124531507492 0.217831909656525 0.382650434970856 0.0802072212100029 0.252023458480835 0.422835022211075 3.04631447792053 0.067382887005806 12.458176612854 2.26784181594849 9.61143970489502 4.53831672668457 1.11131989955902 1.8009694814682 0.773838460445404 1.00606048107147 12.1076745986938 6.65148019790649 5.85746622085571 2.42850780487061 4.0994873046875 4.78494596481323 0.943712890148163 4.32584857940674 4.38349914550781 2.70296287536621 13.258807182312 14.6059217453003 6.34010982513428 2.85778045654297 1.17791295051575 1.10037755966187 4.85354614257812 0.43629378080368 9.07504844665527 -0.786893725395203 -0.882512807846069 -1.71250212192535 -2.09635615348816 -2.44195485115051 -2.64417743682861 -2.44210195541382 -2.1815390586853 6.96502828598022 20.1171875 27.1245098114014 23.3745288848877 12.2156200408936 4.6444935798645 -0.495116502046585 0.247698336839676 17.0173110961914 20.3321170806885 14.6802453994751 10.6686811447144 6.14605903625488 0.897310435771942 0.422626674175262 0.238985195755959 8.04990673065186 30.3478908538818 24.3720684051514 26.6322536468506 31.5166721343994 23.3320083618164 9.46118259429932 8.57779979705811 8.42281532287598 8.88662052154541 8.90106201171875 8.66669178009033 12.1419324874878 10.8257436752319 17.3507614135742 18.2952346801758 14.9133338928223 14.1062335968018 13.2419052124023 13.0456371307373 12.2168922424316 9.63663005828857 10.2734184265137 9.78063869476318 15.0083703994751 20.6649188995361 9.73632907867432 11.0825757980347 10.0588235855103 15.1551294326782 24.6867446899414 25.3681812286377 13.8799715042114 10.1269245147705 19.7115230560303 16.6741161346436 10.7460098266602 11.1834096908569 11.7354507446289 11.7273349761963 11.2115297317505 11.7414569854736 10.8361215591431 10.7056837081909 9.82680034637451 9.19709300994873 8.81975173950195 8.41306209564209 8.1829662322998 7.91765022277832 7.36826801300049 5.48484754562378 3.61186146736145 2.97733330726624 2.97574234008789 40.7400131225586 29.1284313201904 5.22006750106812 4.89863348007202 4.24147987365723 3.43009567260742 3.36700677871704 2.94197273254395 3.75960826873779
1.94310975074768 1.98983132839203 1.96442103385925 1.47383522987366 1.44075763225555 1.36627495288849 1.46567237377167 1.21360182762146 1.08455801010132 1.11413943767548 0.946248829364777 1.13392984867096 1.28194093704224 1.21967267990112 0.52960878610611 1.49842846393585 1.33958947658539 0.884621381759644 0.433397203683853 0.417853802442551 0.412482231855392 0.359854876995087 0.437731772661209 0.385165959596634 0.297594606876373 0.241578415036201 0.346353203058243 0.943851470947266 1.06948721408844 0.0569994524121284 0.461691856384277 1.22200870513916 1.02308118343353 2.09691143035889 0.619066715240479 3.02960276603699 2.94081139564514 2.51193499565125 2.25103044509888 1.23206460475922 1.05893528461456 0.712558507919312 0.52826452255249 1.15013456344604 0.813278079032898 0.722792267799377 1.18650996685028 1.10805928707123 1.16160917282104 1.38638770580292 0.31210133433342 0.252265244722366 0.13295416533947 0.974766671657562 0.432657063007355 0.103519096970558 0.0260124541819096 -0.78345799446106 8.23717975616455 14.429141998291 8.25654029846191 3.92416334152222 7.58828783035278 3.98418045043945 1.14796829223633 5.95071077346802 0.698500514030457 14.7937507629395 9.9028902053833 5.30331707000732 5.4581413269043 4.99019908905029 4.73589992523193 1.06643736362457 11.8881044387817 6.92852830886841 1.63814508914948 1.0714738368988 2.75145745277405 7.50420761108398 8.12208843231201 0.416992604732513 0.21382275223732 13.1876783370972 1.21509301662445 0.556222319602966 -0.179006054997444 -1.21471416950226 -1.30155408382416 -1.96954298019409 -2.37379574775696 -2.5859272480011 8.30687618255615 8.17749404907227 1.89391505718231 24.3266506195068 26.3227272033691 20.7108726501465 15.0008792877197 4.26331377029419 3.73296880722046 -0.554981589317322 -0.250446140766144 13.6744194030762 14.1164131164551 11.4788599014282 2.3051061630249 1.26581287384033 0.157369628548622 0.303538620471954 10.3281803131104 10.3876161575317 27.144437789917 9.34556579589844 19.0572528839111 16.3356418609619 17.055347442627 9.53771686553955 8.35988998413086 8.3256368637085 7.96354627609253 8.38002014160156 8.32259464263916 7.85773372650146 10.2692031860352 14.6767282485962 15.2996835708618 12.7827835083008 12.9309577941895 12.1317510604858 11.8122844696045 11.2150106430054 9.11243152618408 8.71340847015381 8.43626022338867 11.0719480514526 10.5145807266235 9.50743198394775 10.0235290527344 7.79537630081177 8.83902740478516 22.7354125976562 18.0220718383789 11.3221282958984 8.62075328826904 16.5324325561523 15.5408802032471 13.3457164764404 10.3581418991089 10.6872644424438 10.4643068313599 10.4305610656738 10.9039783477783 10.110936164856 9.89148139953613 9.28160572052002 8.51844215393066 8.25236129760742 7.98039484024048 7.50728034973145 7.47233390808105 5.43025922775269 3.92933487892151 3.22491955757141 2.70133686065674 2.66803193092346 29.2716102600098 17.9267959594727 4.89704561233521 4.6396312713623 4.25735235214233 3.52377772331238 3.27326631546021 9.27348709106445
1.99454212188721 1.76609194278717 2.46316027641296 2.58129644393921 1.43313610553741 1.36533117294312 1.2297922372818 1.03649258613586 0.930337250232697 0.924411356449127 1.05786907672882 1.00337207317352 0.68420284986496 0.97601580619812 1.11359536647797 0.463101834058762 0.293541848659515 1.15665888786316 0.314042955636978 0.357776314020157 0.349733769893646 0.276544958353043 0.311602622270584 0.396925151348114 0.365404903888702 0.353207141160965 0.26516455411911 0.212141528725624 0.844488620758057 0.350789189338684 -0.230731561779976 18.3069686889648 0.720482289791107 0.526891767978668 1.88004457950592 1.79243648052216 0.539442539215088 2.61206841468811 2.21208882331848 1.98665201663971 1.57773947715759 1.01938366889954 0.602928280830383 0.425814867019653 1.01809680461884 0.682163953781128 0.616848111152649 0.800872564315796 0.789654314517975 0.662467896938324 0.173579886555672 0.14494614303112 0.0895219668745995 0.608119964599609 1.68395459651947 -1.00611066818237 -0.0918398052453995 -0.566401302814484 8.52108001708984 14.5444030761719 8.93439865112305 2.63363242149353 2.30454564094543 6.45256042480469 0.723034501075745 -0.601556301116943 -0.387646824121475 9.01400089263916 6.80453252792358 7.38027143478394 5.02001857757568 5.2834153175354 0.612099289894104 1.27951490879059 1.0770355463028 12.0030393600464 12.2583332061768 8.11591053009033 19.7339286804199 19.5841045379639 5.66532802581787 4.06808996200562 0.284961849451065 10.8334655761719 0.211834609508514 0.0739737451076508 0.1129479855299 -0.802969098091125 -1.43894445896149 -2.15241813659668 -2.37745571136475 -2.72948622703552 5.45005130767822 0.980518579483032 5.78751134872437 37.3599014282227 28.5926036834717 18.7103157043457 13.1403532028198 9.35557270050049 4.00704431533813 3.44633603096008 9.33985900878906 18.2119407653809 11.3712902069092 9.28355121612549 0.513571918010712 -1.23122906684875 0.312783062458038 -0.213117465376854 8.32657814025879 14.8946952819824 11.7357330322266 28.0688323974609 24.4612197875977 17.3586921691895 12.4677734375 12.9622650146484 12.0537548065186 8.00505352020264 7.04766750335693 7.83639287948608 8.19561958312988 8.13354396820068 7.78672027587891 9.79827308654785 12.8851327896118 13.3901977539062 12.3407754898071 11.7133598327637 10.7254781723022 10.411093711853 10.2840595245361 9.60756778717041 8.24072074890137 7.91422748565674 7.80941104888916 9.56142997741699 9.63849830627441 9.08604145050049 17.6178512573242 11.6624002456665 8.41496086120605 14.3000764846802 9.95357704162598 9.50575542449951 11.4327411651611 13.9071807861328 11.6659927368164 9.19917678833008 9.48661231994629 9.73359680175781 9.7463264465332 10.1909170150757 9.75144195556641 8.96427154541016 8.68819236755371 8.02193164825439 7.81237983703613 7.60844373703003 7.36579370498657 6.28781414031982 10.4464693069458 21.2481498718262 21.6972179412842 33.4260864257812 17.4468574523926 32.5563430786133 13.394232749939 4.75933218002319 4.69900512695312 4.08415603637695 3.22420644760132 3.20190501213074
1.9958553314209 1.7561103105545 3.22325158119202 1.74053347110748 1.77468287944794 1.79747986793518 1.2603063583374 1.13576591014862 0.885569512844086 0.80988073348999 0.781028807163239 0.73678994178772 0.914526760578156 0.520257651805878 0.899093449115753 1.01022660732269 0.944280803203583 0.225809648633003 0.990841448307037 0.242319211363792 0.286016494035721 0.230506643652916 0.222980111837387 0.275560468435287 0.369703441858292 0.36023360490799 -0.951087236404419 -0.616164028644562 -1.08150577545166 -0.970027387142181 -1.14471065998077 26.2355251312256 17.9600830078125 0.396628201007843 0.452014625072479 0.436890780925751 1.57301843166351 0.456587433815002 2.34897470474243 1.96928608417511 1.76959180831909 1.70531821250916 0.923727035522461 0.506418704986572 0.32800829410553 0.901985943317413 0.873113036155701 0.550204694271088 0.263709127902985 0.0184480827301741 0.635049521923065 0.410292834043503 0.439358353614807 1.25804352760315 -0.437108784914017 -0.885205566883087 29.4854316711426 19.4396533966064 14.1787567138672 13.7753381729126 5.27585315704346 5.72484588623047 11.1218318939209 10.7628345489502 6.8319878578186 0.259627342224121 3.94972443580627 20.7019309997559 14.598105430603 5.73401403427124 6.59854030609131 0.481877416372299 0.763165771961212 21.0204105377197 19.091682434082 0.967703521251678 6.33792734146118 7.39695119857788 5.89929103851318 3.19776654243469 6.65756750106812 4.00565910339355 0.267300188541412 0.231555536389351 9.11096286773682 5.50450849533081 0.876588463783264 0.0526119060814381 -1.61341047286987 -1.93282759189606 -1.14340269565582 1.42046737670898 5.80940198898315 10.1911277770996 3.73531937599182 23.8652400970459 12.9661836624146 22.4060955047607 14.574013710022 12.1160564422607 10.7013444900513 9.79048156738281 13.0424289703369 10.6591606140137 -0.764766693115234 3.83801317214966 0.746220290660858 -1.44498229026794 -1.61530375480652 2.10510325431824 22.7206382751465 18.1864604949951 13.5484743118286 8.08464622497559 12.7520151138306 12.2659730911255 11.9537811279297 11.2764558792114 10.6375169754028 10.6688585281372 7.77000427246094 7.71892118453979 7.59552001953125 7.33645105361938 7.68266916275024 7.62380743026733 9.25393962860107 8.67313766479492 10.616005897522 10.9432201385498 10.486065864563 9.76481914520264 9.6085958480835 9.3065013885498 8.93639755249023 7.95616722106934 7.7310209274292 7.57128763198853 8.89154148101807 8.39826202392578 8.19554138183594 7.78508424758911 7.58971977233887 7.81475591659546 12.2239475250244 11.174446105957 8.75938415527344 7.90172863006592 12.263126373291 10.2143793106079 8.65956211090088 8.93948841094971 9.10415077209473 9.00176239013672 8.90051364898682 9.1627311706543 8.48904037475586 8.33107280731201 7.74371290206909 7.47182416915894 7.21720743179321 5.91168546676636 15.7084941864014 5.77127695083618 16.8151760101318 22.6081485748291 22.6380977630615 37.2795333862305 26.6627197265625 11.6889514923096 10.2182464599609 4.67036533355713 3.69952535629272 16.5731983184814
2.0948212146759 1.86654376983643 3.02786564826965 1.56900584697723 1.62484526634216 1.2460161447525 1.66947555541992 1.19260764122009 1.08737254142761 1.04622232913971 0.706859350204468 0.627634465694427 0.54573529958725 0.815097987651825 0.746347486972809 0.828693866729736 0.806289732456207 0.854669392108917 0.166976645588875 0.848878383636475 0.773044228553772 0.134320020675659 0.17401397228241 0.186388462781906 0.232641756534576 0.225395813584328 -0.802531659603119 -1.45608794689178 -1.3130407333374 -1.57493937015533 -1.75164449214935 -1.20332610607147 26.0436058044434 10.9146451950073 0.328869223594666 0.37331685423851 0.359973818063736 1.39584827423096 1.38570022583008 2.120849609375 2.08253931999207 1.70305693149567 1.51069009304047 0.811112403869629 0.701425492763519 0.407899886369705 0.264462262392044 0.816332519054413 0.514252543449402 0.59074467420578 1.32443225383759 1.73709309101105 1.63589680194855 1.97225797176361 1.84768784046173 3.99963688850403 26.1503009796143 17.1971492767334 12.8571186065674 -0.626709342002869 -0.800350964069366 5.57242202758789 3.85042667388916 3.06438422203064 4.04511833190918 4.32449769973755 18.4387969970703 23.1365966796875 15.9002199172974 10.8840675354004 0.38352045416832 2.25656008720398 8.56507301330566 15.8015403747559 9.17336654663086 11.4003953933716 14.6062383651733 10.3428010940552 5.76831817626953 5.15034151077271 2.32256555557251 2.45858359336853 0.800243198871613 4.5630931854248 6.40719413757324 7.36885356903076 1.70904123783112 0.044600285589695 -0.59756875038147 -1.88457357883453 -1.16545963287354 -2.75698971748352 0.196389198303223 3.03025650978088 9.7200231552124 9.88589763641357 19.5891761779785 18.2359447479248 18.0349407196045 10.2004070281982 9.85071182250977 7.43980264663696 3.65233397483826 2.86456632614136 3.98832297325134 -0.282798171043396 -1.65754532814026 -1.83183574676514 -2.04812502861023 20.7959480285645 11.7587261199951 10.2504606246948 12.6051063537598 11.5901193618774 33.6656494140625 23.7301445007324 14.1598281860352 9.53182220458984 10.2018766403198 9.13715553283691 9.97124099731445 8.36126327514648 7.46987628936768 6.57861423492432 7.06156778335571 7.36834192276001 7.327232837677 7.04145956039429 8.06595420837402 9.44175243377686 9.61129474639893 9.55206871032715 9.12835502624512 8.61966609954834 8.44252967834473 8.42451095581055 7.64933300018311 7.50410652160645 7.23913097381592 7.10638904571533 7.80129098892212 7.4443826675415 7.34238767623901 7.04593086242676 6.8149037361145 7.43085193634033 10.1487922668457 8.2748556137085 7.42277479171753 10.9388027191162 10.2661867141724 8.50443077087402 8.4702205657959 8.24825000762939 8.26592254638672 8.36731052398682 8.70901203155518 8.14894866943359 8.01526641845703 7.72497844696045 7.23000812530518 5.40877676010132 25.5494365692139 14.5057764053345 16.579288482666 6.0147271156311 19.576150894165 17.5460834503174 20.0164165496826 18.7751617431641 12.0043792724609 9.21861743927002 3.8045392036438 5.56391191482544
3.91307377815247 3.90221643447876 2.62404751777649 1.65713679790497 1.38424456119537 1.56172323226929 1.50996804237366 1.57901799678802 1.12055683135986 1.0690838098526 0.983021855354309 0.598080158233643 0.478398591279984 0.398024201393127 0.486675024032593 0.672428131103516 0.295516222715378 0.181390255689621 0.773138821125031 0.111105859279633 0.010991245508194 0.6678346991539 0.0930499881505966 0.130179330706596 0.130628749728203 0.100612111389637 -0.33850023150444 -1.25544261932373 15.6974191665649 -1.3339866399765 2.21479082107544 13.9433193206787 11.9997148513794 26.8259601593018 7.46452474594116 5.16907930374146 0.232832670211792 0.200439229607582 0.14797243475914 1.2453738451004 0.0798188373446465 1.84557521343231 1.4966961145401 1.34922695159912 1.31838035583496 0.706822276115417 0.379510790109634 0.244412168860435 0.795329749584198 1.42656445503235 2.09732389450073 2.3056206703186 2.10790610313416 1.70150291919708 1.47528064250946 1.23846054077148 -0.537669897079468 -0.895979106426239 10.8431644439697 0.461951732635498 10.9463996887207 -1.83754754066467 7.77063131332397 2.83814215660095 2.80754399299622 3.56373453140259 4.41851186752319 3.51221299171448 -0.925063192844391 -0.651116967201233 3.01461839675903 9.51696300506592 8.25651931762695 0.95146232843399 7.7439603805542 5.23774862289429 8.92516040802002 2.96086430549622 5.95232629776001 3.1220076084137 4.36392593383789 2.46193909645081 0.957132756710052 0.684610962867737 0.425022542476654 3.96025681495667 0.163995385169983 0.254360973834991 -0.176400929689407 -1.00214099884033 -1.91692996025085 -2.38714218139648 12.5079355239868 10.6653604507446 7.58100366592407 12.7566375732422 15.7491092681885 24.6252117156982 19.4448566436768 13.1669292449951 6.51326847076416 5.95888471603394 5.86585521697998 2.9851393699646 0.058373536914587 -0.553736925125122 -1.96408319473267 -2.26144242286682 -2.14964270591736 -2.08296179771423 13.6411781311035 7.91093683242798 8.58439445495605 10.4874019622803 6.60542774200439 20.0985240936279 16.7669849395752 11.5894422531128 8.88004398345947 9.58031940460205 8.64227199554443 9.40437698364258 9.18445777893066 7.24173593521118 6.48473072052002 6.67488622665405 6.94171333312988 6.84838390350342 6.65372037887573 7.4188666343689 8.41608428955078 8.58211326599121 8.05555152893066 8.49416637420654 8.02495193481445 7.89724636077881 7.95981454849243 7.61319446563721 7.2523136138916 7.00083208084106 6.86694049835205 7.31725931167603 7.05518770217896 7.01760244369507 6.81943273544312 6.65814685821533 6.87889671325684 9.12248420715332 7.74271726608276 7.01825952529907 7.42522382736206 9.28479290008545 7.68807077407837 7.5995397567749 7.86593008041382 7.86726093292236 7.97618865966797 8.30669212341309 8.01297092437744 7.53912878036499 7.43160581588745 6.97055673599243 30.576530456543 20.0677738189697 10.9431715011597 6.14826345443726 13.602089881897 12.1152944564819 14.358268737793 16.4493999481201 15.0643186569214 13.3710861206055 8.47059154510498 28.7484703063965
2.02232003211975 1.99298810958862 3.61759495735168 1.60109388828278 1.49225974082947 1.31941986083984 1.2866632938385 1.43545055389404 1.48363268375397 1.41212177276611 0.988669216632843 0.916444301605225 0.855545699596405 0.461115658283234 0.287394464015961 0.315234124660492 0.585075974464417 0.226004108786583 0.112989291548729 0.681009829044342 -0.082587257027626 -0.0593244545161724 0.530433893203735 0.470333963632584 0.0456820167601109 0.0184593107551336 0.0572026558220387 -1.02417147159576 13.0130252838135 4.12959766387939 10.8352022171021 10.6634130477905 1.57710945606232 7.88884449005127 23.4011631011963 5.42735052108765 4.97625684738159 0.0831116735935211 0.0573460422456264 0.00348442909307778 1.10433769226074 -0.106223739683628 1.68078339099884 1.65318620204926 1.33157682418823 1.20021641254425 0.667333602905273 0.617983102798462 0.688581645488739 1.59286963939667 1.92142164707184 2.01921916007996 1.91196954250336 1.59354364871979 1.23299479484558 1.10308682918549 0.736846625804901 13.4504261016846 19.5889186859131 12.19065284729 -1.89492225646973 -2.87714838981628 33.3272018432617 24.09739112854 2.48064208030701 3.1279079914093 0.0705490633845329 -1.94527971744537 -0.814939260482788 15.8387632369995 15.9606218338013 11.0446357727051 2.09056925773621 8.13176536560059 11.0346040725708 9.59051704406738 4.00137281417847 6.3878960609436 5.69983911514282 4.73299646377563 2.83134078979492 3.28790283203125 0.615077555179596 0.814298987388611 0.360706478357315 0.66303813457489 0.268895745277405 15.2385816574097 3.31049561500549 -0.875038146972656 -1.37211811542511 16.7624111175537 28.1205902099609 23.5010375976562 11.2963161468506 17.4823436737061 23.6535015106201 15.7598905563354 15.0841875076294 11.6714277267456 7.90086698532104 17.9006748199463 12.1655540466309 5.79050588607788 4.29725217819214 5.00255584716797 -0.873188138008118 -2.2590491771698 -2.26636290550232 4.10769414901733 23.5801944732666 20.7625579833984 10.8479995727539 10.3792457580566 9.55998992919922 13.129451751709 27.3007431030273 13.7497653961182 10.6616277694702 9.32044219970703 9.05952072143555 9.02313709259033 8.56594085693359 8.58718204498291 6.9509449005127 6.74649620056152 6.23975706100464 6.06078004837036 6.27973413467407 6.28854560852051 5.42114353179932 6.52182340621948 7.34131050109863 7.29359769821167 7.88017654418945 7.49098014831543 7.38623476028442 7.17098665237427 7.19947957992554 6.99742364883423 6.80184364318848 6.59795427322388 6.93406343460083 6.63174724578857 6.49490642547607 6.63727521896362 6.36180830001831 6.45497226715088 8.10702705383301 7.77847290039062 7.11982011795044 6.37875652313232 8.52614498138428 8.13871765136719 7.3065242767334 7.54279184341431 7.18993043899536 5.8843936920166 5.74829721450806 6.30577802658081 5.76648950576782 7.10428762435913 6.88128900527954 6.48460006713867 12.9373712539673 8.07885932922363 5.86180973052979 5.64741563796997 7.8425931930542 10.0636434555054 10.9389991760254 12.6973276138306 11.8949594497681 8.04477882385254
2.16743040084839 1.8434751033783 1.88953030109406 3.22967195510864 1.43271493911743 1.43078982830048 1.10959160327911 1.20155298709869 1.35838794708252 1.29903030395508 1.32075655460358 0.907430231571198 0.444325238466263 0.77119117975235 0.388870507478714 0.134780451655388 0.243779897689819 0.505784511566162 -0.0969761908054352 -0.165703490376472 -0.181392624974251 -0.216274544596672 -0.189402163028717 -0.112475633621216 0.363673061132431 -0.08183953166008 -0.0240751523524523 -1.42446112632751 -1.49149024486542 -0.546419858932495 3.24048757553101 -0.934230804443359 -1.08217537403107 5.07041692733765 32.1773109436035 22.2761287689209 7.99246644973755 3.95146298408508 -0.062919095158577 -0.107892148196697 -0.160719439387321 0.988610506057739 0.997605562210083 -0.114818602800369 1.52075386047363 1.23189723491669 1.1461877822876 1.02158463001251 1.42007648944855 1.84016919136047 1.75736260414124 1.60155427455902 1.54556906223297 1.43118155002594 1.19890344142914 1.04508996009827 0.727589666843414 -0.865688383579254 -0.126824349164963 2.2453305721283 -2.42221617698669 -2.81039237976074 18.9403839111328 38.0832366943359 16.097583770752 -1.5163242816925 -1.72034132480621 10.0437440872192 35.5066757202148 23.4887809753418 13.6965360641479 15.3027076721191 3.16501355171204 13.4200458526611 7.34792232513428 2.07940483093262 4.25630664825439 3.82680368423462 2.40722417831421 4.79150629043579 2.73706340789795 2.59211134910583 0.60980886220932 0.511626541614532 0.574055790901184 0.25467324256897 12.2698163986206 0.102394819259644 12.4432373046875 0.0278666876256466 10.4941091537476 25.1276626586914 22.4478435516357 12.0330743789673 12.9016275405884 24.9981479644775 23.8323135375977 16.0519542694092 8.9377326965332 9.79414653778076 10.1622562408447 15.775821685791 18.8294429779053 23.4047431945801 23.5635719299316 11.5490884780884 1.60119652748108 -1.76936554908752 5.62993144989014 17.5609397888184 26.7805347442627 15.5566835403442 12.150032043457 7.68263053894043 13.2432861328125 3.02617073059082 7.46656560897827 23.5894756317139 12.0676240921021 11.4649906158447 9.053879737854 8.13325881958008 8.60177135467529 7.65119171142578 7.90891551971436 7.51623868942261 6.42937231063843 5.57043218612671 5.71812295913696 5.93220281600952 5.96179103851318 5.77366924285889 6.06554222106934 6.85400199890137 6.63404655456543 7.33988523483276 7.04855060577393 6.79360628128052 6.88826751708984 6.82920503616333 6.66852521896362 6.56298398971558 6.37586879730225 6.26766443252563 6.40943431854248 6.25436305999756 6.43032693862915 6.25320339202881 5.8842339515686 5.97314643859863 7.09065771102905 6.72950553894043 6.07650756835938 6.24818086624146 7.21970653533936 6.01179981231689 5.39401054382324 5.45546293258667 4.59516954421997 4.98081827163696 4.93711614608765 4.78462314605713 18.0329914093018 6.57197999954224 6.25708389282227 9.493332862854 6.39762783050537 5.61311483383179 5.50436544418335 5.1623649597168 8.0826587677002 9.79958343505859 11.4958019256592 10.8752698898315
1.77777683734894 2.03682136535645 1.70476138591766 1.6426362991333 2.99838018417358 2.85864162445068 1.35934770107269 0.969211041927338 1.09959352016449 1.04923796653748 1.22248649597168 1.21368539333344 0.815711319446564 0.749952673912048 0.700396776199341 0.323060661554337 0.021484000608325 0.119650542736053 0.194689407944679 -0.206620573997498 -0.346100032329559 -2.40153908729553 -2.12783479690552 -2.10634660720825 -0.255730420351028 0.267820835113525 -0.134352922439575 -0.108428299427032 -1.99201953411102 12.6847915649414 3.11505675315857 -1.3446329832077 -1.79597735404968 -1.04178667068481 10.3442850112915 24.1836090087891 4.16960000991821 0.314921379089355 3.01295876502991 2.47980260848999 -0.224997162818909 -0.285612851381302 -0.122175842523575 0.932992339134216 0.0182051379233599 1.45458555221558 1.20193910598755 1.36302053928375 2.04458904266357 2.2314624786377 1.58509814739227 1.26795291900635 1.17892372608185 1.15661323070526 1.12475872039795 0.897365272045135 0.669466316699982 0.293430387973785 17.8621196746826 -1.87225532531738 -2.70704984664917 -2.75182437896729 26.3146629333496 16.3717632293701 10.1027002334595 1.30655264854431 19.4318866729736 27.4362754821777 18.7473773956299 6.28815126419067 17.3702945709229 11.0046129226685 8.06686687469482 21.464485168457 12.7646856307983 4.72961759567261 2.78647613525391 0.609930336475372 2.07202243804932 2.16225743293762 4.07219886779785 1.09830796718597 1.53979015350342 3.09639763832092 3.93604040145874 0.273771971464157 1.22014832496643 2.13937711715698 17.9410572052002 2.14793276786804 -0.00476521719247103 15.8295583724976 9.20109367370605 11.7054204940796 10.6941137313843 17.2102203369141 14.4180860519409 10.045615196228 9.50294780731201 10.2802629470825 31.3939800262451 16.7031345367432 13.746452331543 9.32883453369141 10.9530000686646 6.40376281738281 3.82146573066711 6.40559768676758 17.0905723571777 22.7197742462158 26.0941619873047 18.0121459960938 14.143214225769 12.2348766326904 8.65130615234375 6.44394493103027 18.2129592895508 21.8021335601807 27.823616027832 10.6532697677612 10.5946044921875 9.28061389923096 8.4851016998291 8.02760791778564 7.66397666931152 6.85721778869629 6.94986391067505 6.13714838027954 5.96173810958862 5.41670083999634 5.61708641052246 5.54215621948242 5.48967790603638 5.65755462646484 5.58862924575806 6.18016624450684 6.03353500366211 6.64057016372681 6.47344541549683 6.59941482543945 6.44027614593506 6.43166399002075 6.33619403839111 6.16333341598511 6.05961179733276 6.19882965087891 6.041588306427 5.90699005126953 6.08092308044434 5.65183019638062 5.73637914657593 6.53719663619995 6.37051200866699 4.78616333007812 5.15125560760498 5.93912506103516 4.75762033462524 5.24372959136963 5.12941789627075 9.14002799987793 18.1106567382812 8.18625545501709 16.9748802185059 11.227822303772 6.2951774597168 6.01296663284302 7.42271327972412 6.39589691162109 5.61482334136963 5.35489320755005 5.19674587249756 7.42387914657593 9.06262874603271 10.5575981140137
1.77743208408356 1.78796923160553 1.91951107978821 1.56023526191711 1.4346832036972 1.58441650867462 2.64874792098999 1.27549934387207 1.20932281017303 1.01513910293579 0.945478737354279 1.13204061985016 1.11048817634583 1.04449987411499 0.673455059528351 0.62739509344101 0.258593797683716 -0.0667609199881554 -0.162674620747566 -0.263069719076157 -0.334110766649246 -2.09490489959717 -2.66915154457092 2.64274930953979 43.0964317321777 13.0924777984619 -1.73875606060028 -1.7433180809021 -1.56072199344635 9.44074821472168 6.31917858123779 -1.51800179481506 -1.71981072425842 5.77454471588135 13.2173013687134 31.3656311035156 21.6102409362793 30.4068069458008 34.2044258117676 23.4294929504395 2.44503593444824 -0.24348309636116 -0.104243546724319 0.396040976047516 0.901937305927277 0.76257312297821 1.41686880588531 1.43773031234741 1.88600623607635 2.14776182174683 1.5796799659729 1.14459562301636 0.922826290130615 0.946796655654907 0.810168623924255 0.699341595172882 0.495337575674057 0.210668042302132 -0.302939146757126 -1.90111446380615 -3.19917917251587 -0.288715422153473 21.7252826690674 22.2790489196777 29.4946517944336 29.343189239502 20.6478862762451 16.4415836334229 8.0147008895874 12.950267791748 8.71971797943115 9.12390327453613 10.0151920318604 6.80567359924316 6.65964078903198 6.58790159225464 0.110443346202374 0.531183183193207 -0.0821187645196915 3.19573402404785 3.82603621482849 3.64806771278381 3.43253064155579 0.528893172740936 0.353466033935547 0.485809743404388 0.0369059480726719 7.06146621704102 0.922430336475372 1.66766703128815 -0.398250341415405 -0.944382667541504 -0.547453224658966 7.23591327667236 8.50848388671875 10.4272031784058 13.0137529373169 10.912522315979 16.4239711761475 25.3612289428711 22.9336318969727 22.7977638244629 26.5872097015381 15.1840705871582 7.87512159347534 7.27477264404297 6.0732479095459 17.6581249237061 25.2388019561768 21.5529937744141 14.4259548187256 16.7714691162109 13.9066581726074 10.7450428009033 10.5642776489258 8.65517520904541 16.0598163604736 3.16530108451843 6.36510944366455 20.5532093048096 13.179027557373 9.76160335540771 8.98565769195557 7.98692893981934 7.01741075515747 7.07621002197266 6.47921419143677 6.56612920761108 6.37983703613281 5.70702600479126 5.04150581359863 4.98058366775513 5.17072105407715 5.23105001449585 5.08837747573853 5.24618864059448 5.82594537734985 5.70513772964478 6.24740028381348 6.13901519775391 6.07633495330811 6.18592691421509 6.20013093948364 6.10064315795898 5.96198892593384 5.81031131744385 5.83803033828735 5.85497283935547 5.74780035018921 5.92559671401978 5.80977058410645 5.42709112167358 5.43994569778442 5.88543272018433 5.61327028274536 4.8599534034729 5.27894639968872 4.34506702423096 4.70862436294556 4.67914915084839 10.913046836853 4.53466844558716 21.2296276092529 11.5027542114258 4.41351985931396 4.29384756088257 5.86003589630127 5.64558172225952 5.42661666870117 5.45767021179199 5.16234064102173 5.10099697113037 5.08081436157227 6.66410207748413
2.77936172485352 1.23552823066711 1.73706638813019 1.84135496616364 1.81762003898621 1.25740253925323 1.12319266796112 2.43319439888 0.857099294662476 1.11142444610596 0.636840999126434 0.85477739572525 1.07067704200745 0.316804885864258 0.966508507728577 0.607074022293091 0.547301530838013 -0.0668970867991447 -0.176623165607452 -0.253362417221069 -0.347201734781265 -1.99196827411652 -2.41108465194702 9.95322895050049 20.9867134094238 29.9909057617188 28.1533432006836 12.6450500488281 -2.12914943695068 -1.89904272556305 3.53703165054321 5.59752511978149 0.764223396778107 8.53667736053467 12.7545938491821 11.9115333557129 22.9955158233643 13.4988746643066 8.76642990112305 12.997875213623 14.6711158752441 2.03142547607422 1.86874401569366 0.244973689317703 0.520811438560486 0.872666597366333 0.898710191249847 1.01327300071716 1.85884368419647 2.42322206497192 1.58482336997986 1.14544773101807 0.929987251758575 0.73026031255722 0.522226750850677 0.422468274831772 0.304437786340714 0.0520416125655174 -0.934926748275757 -1.63229191303253 -2.17118334770203 25.029842376709 37.3571243286133 34.3353576660156 26.4718742370605 20.936580657959 23.3812732696533 14.7232036590576 10.9428472518921 8.63617515563965 5.65469598770142 5.87834358215332 17.1252765655518 10.7402114868164 6.86360025405884 1.15107131004333 2.44346165657043 6.08761644363403 -0.133453205227852 8.28010177612305 13.694806098938 4.17248630523682 1.38854265213013 3.06908679008484 2.82006931304932 0.305105358362198 1.92494142055511 27.9768943786621 0.642379879951477 14.3346672058105 11.7187557220459 18.1322727203369 20.479076385498 11.9209508895874 5.09337711334229 8.30484867095947 9.18953037261963 9.18760776519775 16.1422309875488 20.6790599822998 35.7862930297852 23.2740516662598 20.0030574798584 10.2067966461182 9.0811071395874 7.23775005340576 14.818546295166 11.4166774749756 4.69236326217651 8.876784324646 1.54850459098816 9.51869773864746 8.91654109954834 9.14289379119873 8.35708045959473 9.23558330535889 17.4350128173828 8.00949859619141 20.7796382904053 10.5825309753418 32.970386505127 11.7307567596436 9.29491233825684 8.57774353027344 7.7443995475769 6.52153253555298 6.58342313766479 6.20379686355591 6.02871608734131 6.10305690765381 5.46389484405518 4.72817373275757 4.74828433990479 4.92900657653809 4.85943078994751 4.85433912277222 4.80144309997559 5.50632047653198 5.3320779800415 5.890793800354 5.72771215438843 5.84055948257446 5.95299530029297 5.8646068572998 5.83506774902344 5.7406964302063 5.59690284729004 5.49902772903442 5.63006353378296 5.50463056564331 5.4108362197876 5.59284925460815 5.06867027282715 4.73347139358521 4.34803628921509 4.57681465148926 4.29912233352661 3.51488471031189 4.32873153686523 6.11693954467773 16.9954032897949 6.47877883911133 6.01067066192627 4.73843765258789 4.37559127807617 6.46585655212402 22.9461269378662 26.4166622161865 5.45330476760864 5.24376726150513 5.29804706573486 5.18011713027954 5.008216381073 4.89928865432739
4.61989974975586 2.6211531162262 2.63177132606506 1.69577479362488 1.58203744888306 1.64778959751129 1.14096117019653 1.00566709041595 2.21762228012085 2.06312537193298 1.01437246799469 0.970707297325134 0.825637221336365 0.768295109272003 0.698392152786255 0.896677672863007 0.815943479537964 0.452221393585205 -0.161341086030006 -0.260837584733963 -0.356203556060791 -1.969078540802 -2.4314181804657 7.60986995697021 18.5986595153809 31.3876914978027 18.8699588775635 13.8420095443726 10.6580305099487 32.8870506286621 14.1784915924072 -1.95131623744965 0.0626880005002022 5.9223370552063 -1.25721406936646 -1.088343501091 29.8870601654053 20.0636749267578 9.92640018463135 7.50435781478882 9.00615215301514 10.8213272094727 1.94186043739319 1.8253139257431 -0.0757956430315971 0.428961247205734 0.960854113101959 1.38682019710541 1.9145165681839 2.05749320983887 1.32207345962524 1.09660148620605 1.07803905010223 0.522323250770569 0.326053023338318 0.162379115819931 -0.0170536749064922 -0.250708043575287 -0.431408435106277 -1.39278316497803 -1.34305608272552 8.77670574188232 21.9495639801025 29.3715343475342 23.975902557373 19.2661056518555 17.2666797637939 12.3124332427979 11.6459054946899 12.5149116516113 4.49001836776733 21.5578727722168 13.2298574447632 4.21430730819702 7.76078033447266 3.40148687362671 0.991831004619598 7.25915479660034 11.0825099945068 17.2028751373291 12.5723533630371 8.04473304748535 2.97034215927124 1.37684667110443 2.77761793136597 1.53720486164093 5.59541940689087 1.3373099565506 4.95207834243774 27.7666969299316 11.2656116485596 4.50223350524902 6.94534969329834 2.45447850227356 12.0226621627808 18.644847869873 6.55959987640381 6.57587575912476 27.1426620483398 31.3284931182861 16.8423194885254 12.5867586135864 12.3359832763672 9.24900722503662 9.39051342010498 8.3604211807251 7.71012544631958 6.09474229812622 5.24847507476807 4.51186466217041 5.2139720916748 26.2202415466309 7.08314752578735 6.35385274887085 5.51019906997681 9.35889720916748 6.59453821182251 8.74695205688477 5.71538782119751 6.72200298309326 9.07062435150146 31.1519088745117 12.4024629592896 8.71554088592529 7.86374044418335 7.15642309188843 6.69170570373535 6.14598417282104 5.9319634437561 5.77349185943604 5.83925724029541 5.24530267715454 5.11788654327393 4.41336154937744 4.39680862426758 4.56013345718384 4.63562345504761 4.51591777801514 4.7457275390625 5.02835178375244 4.95317697525024 5.37205171585083 5.60307455062866 5.70255899429321 5.56594514846802 5.61778545379639 5.52829360961914 5.40341091156006 5.2795581817627 5.27704906463623 5.31979894638062 5.24819183349609 5.43698120117188 3.77668404579163 3.84937453269958 3.61353135108948 3.5182774066925 4.27422285079956 18.0122661590576 9.39575958251953 10.2971334457397 12.018274307251 4.47672033309937 4.08498430252075 4.06746387481689 22.1339588165283 22.2979164123535 7.10387706756592 7.16694450378418 5.3073878288269 5.15912342071533 4.97191286087036 5.03968095779419 4.89568138122559
2.641432762146 4.30671119689941 2.0585925579071 2.47925782203674 1.63722658157349 1.6423704624176 1.52836167812347 1.07195436954498 0.899444103240967 1.20951342582703 1.88119149208069 0.598411440849304 0.937423706054688 0.532577157020569 0.706998944282532 0.614276587963104 0.086717814207077 0.735628068447113 0.37332808971405 -0.247193768620491 -0.361270904541016 -1.72335481643677 -2.13971376419067 6.01834392547607 35.0948715209961 30.0131511688232 20.6284465789795 13.6456232070923 3.5728325843811 12.3859167098999 4.99191665649414 3.60713028907776 10.7604370117188 14.0829391479492 10.1142196655273 10.6890106201172 44.4356498718262 31.3485107421875 12.0392818450928 9.84354877471924 6.67500925064087 7.2064380645752 8.3942756652832 7.45306348800659 1.64885091781616 0.702115058898926 1.3321133852005 1.53484523296356 1.64012813568115 1.43490016460419 1.34162425994873 1.31419336795807 1.06809973716736 0.96998542547226 0.451276928186417 0.207597240805626 -0.271971523761749 -0.365280419588089 -0.524263143539429 -0.730352342128754 12.5438013076782 -1.98556411266327 16.5419044494629 26.8294048309326 22.1181163787842 19.5041007995605 16.9753475189209 9.90281009674072 11.4767923355103 10.13307762146 8.24480438232422 15.6202507019043 8.8738899230957 8.06614398956299 3.56321501731873 5.02843046188354 2.79114890098572 12.920708656311 12.8614253997803 5.54860877990723 5.77831745147705 8.18816375732422 5.97949934005737 2.33380389213562 1.7486480474472 1.00185441970825 11.4787969589233 13.3673295974731 20.4806327819824 5.11078643798828 7.93118286132812 10.4713163375854 21.5673332214355 6.199547290802 15.5244340896606 10.1552114486694 8.43457126617432 27.5095863342285 27.8965110778809 19.1425170898438 10.2582530975342 9.59076023101807 11.190842628479 12.0105686187744 8.75081253051758 8.00042819976807 7.66416025161743 7.0730185508728 5.44958591461182 6.32998895645142 4.23176670074463 4.74659109115601 4.75380516052246 17.2578525543213 21.2928256988525 21.0652236938477 10.761775970459 23.6800384521484 7.05596876144409 5.57415246963501 9.11151885986328 40.395637512207 29.3842067718506 10.6320018768311 8.87337303161621 7.3388147354126 7.06066942214966 6.29319715499878 5.50593423843384 5.68149662017822 5.54090309143066 5.59605979919434 5.45051097869873 4.9004077911377 4.22923231124878 4.19134521484375 4.34444665908813 4.4200382232666 4.31007146835327 4.41312694549561 4.74283170700073 4.70755004882812 5.03355360031128 5.25080490112305 5.23461389541626 5.33807420730591 4.34981632232666 5.27165842056274 5.19191122055054 5.08788967132568 5.00931835174561 5.14790439605713 5.09203815460205 3.87421083450317 3.23540306091309 3.21714472770691 5.36791896820068 12.7917814254761 11.6574726104736 4.78536987304688 3.92554306983948 3.13092398643494 3.12024664878845 3.00517511367798 3.07586765289307 3.1256787776947 11.0472745895386 5.95215606689453 5.2227349281311 4.15208959579468 15.7432022094727 4.98134660720825 4.81191301345825 4.88500547409058
27.7195911407471 17.9288883209229 4.03031778335571 3.94603586196899 2.34312605857849 1.1709588766098 1.54227268695831 1.35434293746948 1.23467111587524 0.79571396112442 0.694161295890808 1.76842319965363 1.70196294784546 0.884626388549805 0.429964244365692 0.607841193675995 0.545313894748688 0.457471668720245 0.651295900344849 0.289115279912949 -0.322699636220932 -0.426701784133911 31.4186763763428 37.3395881652832 38.0628280639648 27.2379722595215 17.2950229644775 7.65706253051758 12.7229690551758 31.6843147277832 13.0175457000732 1.78798198699951 7.27050495147705 1.69413077831268 5.25998783111572 4.19005107879639 34.6858825683594 21.8693523406982 17.9766006469727 8.75107288360596 -0.930851817131042 5.37813425064087 4.95058917999268 5.14525938034058 6.17661476135254 1.56918847560883 1.49146127700806 1.27197587490082 1.08651494979858 0.653120815753937 0.828288972377777 0.283872544765472 1.18599617481232 0.952463865280151 0.832333028316498 0.744535326957703 0.0199781693518162 -0.440260231494904 -0.602458715438843 -0.724080801010132 -0.86023336648941 -0.0143557200208306 -1.99062550067902 23.6791114807129 16.0581474304199 19.2439193725586 18.3331108093262 11.2611637115479 18.1490993499756 13.8333921432495 6.99761390686035 12.6943206787109 7.46936082839966 5.43303442001343 5.75539112091064 2.75496125221252 3.81180715560913 4.14336347579956 8.2940559387207 8.04226875305176 3.96573495864868 4.64501571655273 6.01573371887207 4.68944406509399 4.13483715057373 1.6060745716095 2.4748649597168 2.20805263519287 4.76373815536499 6.15172624588013 0.302474737167358 5.01519346237183 7.34782791137695 5.48284339904785 5.27179479598999 11.9107322692871 13.5860328674316 13.2424221038818 11.103931427002 9.66933059692383 6.5529408454895 6.20668601989746 8.02700233459473 7.52774000167847 7.23846054077148 6.88626480102539 6.26256561279297 6.55108261108398 6.52736330032349 4.87473630905151 9.90072536468506 10.0793333053589 8.01362228393555 3.32303309440613 5.59393644332886 7.85385751724243 8.9404411315918 9.33787536621094 9.61428737640381 16.5316162109375 12.6879997253418 10.2247972488403 26.3227806091309 19.5694332122803 12.7719774246216 8.01451873779297 7.2784481048584 6.62199831008911 5.94409608840942 5.17788887023926 5.43652677536011 5.29074954986572 5.16291046142578 5.21901273727417 4.70133256912231 4.05238676071167 3.99337601661682 4.13758897781372 4.06865072250366 4.10174798965454 3.82486486434937 4.1597146987915 4.27943277359009 4.74765205383301 4.81472635269165 4.99148559570312 3.73021984100342 3.44579410552979 4.07519340515137 3.64280271530151 3.49540877342224 4.8213996887207 4.97035884857178 4.40109920501709 29.8942279815674 23.6868743896484 15.7353687286377 2.78805828094482 3.01281666755676 2.69154262542725 2.78089261054993 2.39256954193115 2.13769340515137 1.85469472408295 1.97011721134186 2.36872935295105 5.46840524673462 19.7896327972412 9.65202713012695 4.12011957168579 8.8245792388916 4.09743928909302 4.80442190170288 4.64837694168091
19.9440860748291 19.5399742126465 11.4821329116821 2.20796394348145 3.75168013572693 2.29878163337708 2.21916556358337 1.40166854858398 1.07076442241669 1.11876475811005 0.731679260730743 0.673401594161987 1.01746261119843 1.52368533611298 0.773751199245453 0.361298263072968 0.548487186431885 0.480932235717773 0.385458439588547 0.568512201309204 -0.269772171974182 -0.383707404136658 -0.577560424804688 -0.669518172740936 11.6915788650513 16.7256774902344 18.1736602783203 8.25157928466797 28.9491271972656 19.6493225097656 8.56721210479736 5.98615837097168 -1.75874102115631 3.13871192932129 25.73366355896 14.0678997039795 38.9564628601074 24.188835144043 10.3049755096436 11.5844259262085 -0.927963435649872 14.0952501296997 31.0368118286133 4.30874729156494 4.42054414749146 5.37155055999756 1.43449771404266 1.37535548210144 0.192162558436394 0.0955697149038315 0.0357995666563511 0.725026965141296 -0.0283009633421898 1.04303097724915 0.940352320671082 0.681461811065674 0.597532570362091 -0.0840667709708214 -0.619290292263031 -0.711435198783875 -0.76035863161087 -0.508435308933258 1.41373693943024 37.3974990844727 28.3314819335938 14.0485057830811 15.54709815979 14.4825448989868 12.4275541305542 10.8332710266113 7.47997522354126 6.73142051696777 14.5431880950928 5.73750925064087 4.22812986373901 4.99393892288208 4.61984920501709 14.7770156860352 11.3893690109253 7.48629665374756 5.99179887771606 4.23404788970947 3.30619931221008 4.69827222824097 4.16579723358154 3.49446272850037 1.45498669147491 0.960196375846863 2.54917597770691 4.16396522521973 4.2709846496582 7.89425230026245 0.272910594940186 6.4377384185791 10.9914951324463 4.81964302062988 4.36166763305664 8.76475048065186 8.60865592956543 9.18053340911865 6.25313711166382 9.042555809021 15.7622632980347 7.40746545791626 6.76841735839844 6.2402515411377 6.74048805236816 14.6484346389771 12.0203847885132 8.94940376281738 16.4296092987061 15.8130254745483 19.1092872619629 8.7160530090332 21.2953128814697 10.0057849884033 14.6509714126587 16.3825874328613 7.36190223693848 11.0741424560547 7.92352724075317 18.6905078887939 22.0147323608398 27.7458038330078 14.5014677047729 11.4125680923462 7.61025857925415 6.89441013336182 6.22888612747192 5.58159589767456 5.38594102859497 4.8693470954895 5.05520248413086 4.94442129135132 5.00035762786865 4.50219345092773 4.39840126037598 3.78695631027222 3.68217349052429 3.7835693359375 3.8420832157135 3.2460196018219 3.88146042823792 3.93421864509583 4.0952205657959 4.38299560546875 3.5750846862793 3.22045278549194 3.53924679756165 8.52168083190918 3.59703540802002 16.4276065826416 16.8020534515381 3.78089904785156 3.84374618530273 2.99399065971375 2.29553747177124 2.43206477165222 2.36884021759033 2.0919132232666 1.89363479614258 1.84033274650574 1.55449903011322 1.38130831718445 0.905918955802917 1.65892136096954 16.9829864501953 13.8240203857422 18.752893447876 3.64612984657288 4.04531240463257 7.12297582626343 4.04188203811646 3.61592531204224
14.235297203064 12.4989938735962 12.5439500808716 8.57033634185791 2.1618766784668 3.69650459289551 1.82803678512573 1.99625384807587 1.32396280765533 1.26351189613342 1.04718744754791 0.922363817691803 0.565177142620087 0.478899896144867 1.38149559497833 0.31015157699585 0.217434272170067 0.202182695269585 0.411783427000046 0.321952641010284 -0.160978987812996 -0.335921078920364 -0.481167048215866 -0.637087762355804 -0.187303707003593 8.93473434448242 12.8937435150146 14.3200073242188 19.9625701904297 13.3097620010376 12.969801902771 4.6583948135376 20.7064800262451 24.3795394897461 18.2472591400146 18.5474662780762 28.0790996551514 15.8956136703491 12.7722320556641 7.62438106536865 -0.871789693832397 43.7458114624023 33.4393310546875 23.3940238952637 3.87802648544312 3.95980215072632 4.35876035690308 3.7992217540741 1.05058622360229 -0.303569227457047 -0.233687028288841 -0.127375960350037 -0.010415606200695 -0.358397573232651 -0.420793324708939 0.777597725391388 0.551767706871033 0.459843814373016 -0.570560455322266 -0.654331684112549 -0.138736918568611 -1.66771674156189 -1.46097087860107 11.0682716369629 10.5300807952881 21.3760776519775 12.5320358276367 8.80204677581787 11.3847417831421 9.4174690246582 8.63742923736572 8.22281932830811 19.8596496582031 13.1969652175903 7.12811708450317 4.68796062469482 3.48899793624878 4.12087106704712 2.3542685508728 6.55261659622192 4.80428504943848 4.75616645812988 4.23450803756714 2.40721440315247 2.97284150123596 3.48717546463013 3.00645399093628 1.41223216056824 3.87334966659546 2.50778031349182 3.16478419303894 2.98470330238342 13.5038528442383 2.77884912490845 2.07180261611938 2.61645603179932 2.4402756690979 2.97043132781982 7.28806257247925 6.34645700454712 5.72933435440063 7.26290321350098 6.14822721481323 5.43364572525024 9.53770160675049 6.44512271881104 21.9315071105957 16.0949764251709 21.7791004180908 16.866024017334 11.8177719116211 13.7093238830566 12.7786741256714 8.08179378509521 16.0543689727783 13.4714050292969 21.7878379821777 14.4836759567261 14.2673606872559 26.0635223388672 17.1300449371338 9.92256164550781 7.8972749710083 12.1981506347656 18.1300067901611 11.4062719345093 10.1541938781738 7.08316326141357 6.39338159561157 5.85790491104126 5.65933990478516 5.06899070739746 4.38550472259521 4.81319236755371 4.70836305618286 4.75621700286865 4.65160322189331 4.17465019226074 3.56299901008606 3.42361760139465 3.50168800354004 3.55652689933777 3.4308135509491 3.44425559043884 3.56390857696533 3.65128183364868 4.1192774772644 12.4826526641846 10.8293581008911 7.60559749603271 2.88955998420715 3.01105856895447 3.30451798439026 5.30266666412354 3.06045746803284 2.25146651268005 1.86642014980316 1.4708753824234 1.67140674591064 1.75056111812592 1.44744420051575 1.16648423671722 0.773438930511475 0.928768038749695 0.961064457893372 3.52574038505554 11.502965927124 21.8018112182617 22.8877182006836 14.9459552764893 23.4686241149902 5.75537300109863 3.88867545127869 3.94275426864624
5.14123773574829 4.62387084960938 7.99141263961792 9.41843318939209 7.32007789611816 6.44716548919678 3.33861565589905 3.17893433570862 1.83796060085297 1.77944469451904 1.18128979206085 0.793707072734833 0.824045956134796 0.512770235538483 0.424650520086288 1.25759172439575 1.17115616798401 0.194609880447388 0.129214212298393 0.158760488033295 0.259432077407837 -0.271899074316025 -0.393851041793823 -0.897060573101044 -0.923528790473938 3.53843665122986 7.68183517456055 10.8528366088867 11.6554822921753 10.530611038208 8.95312786102295 9.79736518859863 5.74570512771606 3.72859406471252 20.0725708007812 27.0913600921631 17.9520683288574 12.890100479126 1.26766812801361 -0.241044238209724 5.39529705047607 38.7600631713867 29.7413215637207 22.0802688598633 14.8990468978882 4.23490524291992 3.48138904571533 3.14629697799683 3.39053916931152 1.63791227340698 0.588927030563354 -0.389995783567429 -0.423365384340286 15.2477350234985 9.76935195922852 -0.461860239505768 0.688162624835968 -1.12057447433472 -0.839334011077881 -1.73352766036987 -2.25827050209045 -2.25919103622437 -1.79590368270874 26.5184440612793 20.749828338623 9.60423374176025 9.19701766967773 8.11476707458496 5.93604230880737 9.01901054382324 12.6402273178101 9.10298442840576 5.95540714263916 7.43483638763428 8.1540470123291 6.53575229644775 4.22705507278442 2.96703791618347 3.14269065856934 3.56775951385498 4.86279201507568 3.94711208343506 2.8234691619873 3.54547238349915 2.22234845161438 2.60402059555054 3.00036311149597 2.63536286354065 3.87695527076721 2.93743872642517 1.91578662395477 1.89522409439087 1.82325792312622 3.01430726051331 19.2782344818115 22.541051864624 19.6293392181396 1.65889513492584 2.2778000831604 4.77021408081055 15.7703952789307 10.727952003479 6.3568696975708 4.74574613571167 14.6580095291138 11.0120458602905 18.3397655487061 12.1618633270264 13.1013975143433 10.3547964096069 9.97233295440674 7.04566287994385 7.10183668136597 8.73283100128174 6.70291519165039 7.70587539672852 7.30596208572388 9.81514549255371 9.06475257873535 7.52862739562988 5.81957149505615 5.30366039276123 5.60831260681152 5.26590871810913 7.06682729721069 13.3030738830566 9.28769397735596 8.62376689910889 7.54109573364258 5.9892954826355 5.78286170959473 5.29520702362061 4.72052192687988 4.53472757339478 4.54758214950562 4.42044973373413 4.33732604980469 4.38250064849854 3.91360306739807 3.79590535163879 3.19286251068115 3.20725178718567 3.10068035125732 3.13002514839172 2.65097045898438 3.20177435874939 2.78612685203552 3.01393032073975 2.33445024490356 2.45226383209229 2.65912842750549 3.78459525108337 2.98829650878906 2.6260461807251 2.30239605903625 1.77684569358826 1.38386762142181 0.887393057346344 0.593034505844116 0.518121063709259 0.801716566085815 0.54734194278717 0.551164984703064 0.108876697719097 0.152307152748108 0.264707416296005 5.15878582000732 14.051815032959 19.4168815612793 17.7449245452881 13.2512273788452 5.16269588470459 4.40423583984375 3.7142026424408
7.65321636199951 30.033878326416 29.4465980529785 19.4981918334961 7.86423778533936 6.59976530075073 5.1373348236084 1.28406655788422 2.97113728523254 1.45023584365845 1.5994610786438 1.10419678688049 1.03795850276947 0.74094557762146 -1.19788300991058 -1.17561590671539 0.72119528055191 1.08502471446991 0.162809491157532 0.0703314989805222 -0.0244049448519945 -0.174182996153831 -0.312335729598999 -0.409079492092133 14.3225469589233 14.3535718917847 9.02655124664307 1.95741629600525 5.99879598617554 8.38943004608154 9.07290554046631 7.52038621902466 7.08550405502319 19.7322120666504 21.8229789733887 13.9934873580933 13.0294075012207 12.837082862854 9.03286457061768 5.45819902420044 40.1730499267578 28.003942489624 5.77345180511475 20.4056625366211 16.3519458770752 11.4952602386475 10.0618953704834 2.76650810241699 2.97021913528442 3.02053928375244 3.09073543548584 4.59682941436768 1.75967693328857 -0.523121953010559 -0.51770681142807 5.16808748245239 -2.09805750846863 -0.940194189548492 6.07423400878906 0.897885799407959 -2.34988856315613 0.616625010967255 1.54814493656158 36.5162925720215 28.1835556030273 15.9074401855469 -1.57831883430481 7.52846002578735 4.85203504562378 3.54862022399902 3.7253532409668 5.8842978477478 6.23413467407227 5.85288524627686 5.86813545227051 5.51511240005493 4.75147771835327 2.97191667556763 1.94284176826477 6.45575284957886 4.58269691467285 3.85662889480591 3.66197562217712 2.56901097297668 3.84748387336731 2.75696706771851 1.9558310508728 2.62354469299316 2.7823166847229 2.84386348724365 1.88907158374786 1.3153076171875 1.76435852050781 1.65150547027588 2.3432502746582 4.5430474281311 6.87396383285522 8.76364040374756 10.0933818817139 1.42665576934814 1.32656610012054 3.79920959472656 5.0260009765625 5.03374433517456 19.2014427185059 10.8951950073242 6.56121873855591 7.08931541442871 9.36095523834229 8.82132148742676 7.37198448181152 8.31351757049561 6.6523756980896 6.08812570571899 7.16802358627319 6.29378318786621 5.35818338394165 5.66325187683105 5.62015199661255 4.13471174240112 4.12553405761719 4.44348001480103 4.45495080947876 5.30884504318237 5.03216648101807 5.56513547897339 18.2419948577881 8.92340660095215 7.63179683685303 6.6277813911438 5.92171144485474 5.35694217681885 4.88285398483276 4.69335651397705 4.19402122497559 3.57362771034241 4.1515154838562 4.06989860534668 4.08859491348267 3.96087670326233 3.51317524909973 2.93235039710999 2.7379035949707 2.79283738136292 2.18198847770691 2.31652450561523 2.39462780952454 1.65765273571014 1.57694900035858 2.01213932037354 2.06972122192383 1.86869466304779 1.78452122211456 1.69045913219452 1.41372072696686 0.990592181682587 0.459653347730637 -0.123518124222755 -0.23057547211647 -0.252013653516769 0.10310697555542 -0.156107515096664 -0.264649003744125 0.495342642068863 12.5915489196777 24.5842666625977 19.3805274963379 36.5441856384277 19.4044494628906 23.6705017089844 8.9609432220459 8.32455062866211 4.18310880661011 3.33288168907166
