NCOLS 173
NROWS 32
XLLCORNER 353744
YLLCORNER 6699280
CELLSIZE 16 
NODATA_value -3.4e+38 
2.52525019645691 2.57854342460632 2.62859058380127 2.64881634712219 2.75097036361694 2.86920022964478 2.93741726875305 2.99010992050171 3.06860041618347 3.23126173019409 3.40653967857361 3.54257011413574 3.55159974098206 3.60892009735107 3.62151193618774 3.64600133895874 3.6658308506012 3.66718554496765 3.65739607810974 3.63254261016846 3.61666464805603 3.62103724479675 3.63877367973328 3.64649677276611 3.58721351623535 3.56027388572693 3.59785485267639 3.57387137413025 3.58784127235413 3.68197250366211 3.72405695915222 3.73750877380371 3.59839868545532 3.52523684501648 3.4998574256897 3.51034164428711 3.51175451278687 3.56360101699829 3.78471398353577 4.08352136611938 4.21725273132324 4.60693693161011 5.0690336227417 5.47116327285767 5.89230251312256 5.52646780014038 4.74047470092773 3.73512721061707 3.45828938484192 3.16930818557739 3.19631910324097 3.66962122917175 4.26178550720215 1.80782163143158 2.34007239341736 2.56495451927185 2.68704843521118 2.73704719543457 2.80151557922363 2.84678721427917 2.95715522766113 3.08107018470764 3.20629858970642 3.23912954330444 3.67463874816895 4.03328800201416 4.32846879959106 4.24867916107178 4.55615854263306 5.02436304092407 4.93314647674561 4.54101514816284 3.41983270645142 3.42441654205322 3.38326025009155 2.78576707839966 2.64705610275269 2.86463403701782 2.97576069831848 3.066810131073 3.08812141418457 3.2313871383667 3.26273322105408 3.3944296836853 3.67915749549866 4.73770761489868 6.28161525726318 7.57335615158081 9.34416961669922 10.995777130127 12.3061761856079 11.762791633606 13.3543720245361 11.4773759841919 13.1344347000122 11.780122756958 8.94955444335938 8.97836971282959 9.50915622711182 9.96834278106689 10.6325817108154 11.2103471755981 11.9781169891357 12.7442598342896 14.2220487594604 15.2351312637329 16.6675205230713 18.3707828521729 20.158878326416 22.5432796478271 23.4545860290527 22.9846134185791 22.3690280914307 22.1139583587646 22.1502532958984 20.7458744049072 22.2831840515137 20.9503479003906 21.485818862915 20.4589042663574 17.8689250946045 13.2645492553711 10.8618803024292 11.4336080551147 9.25540924072266 8.31342124938965 7.54166460037231 3.51348447799683 1.06312084197998 -1.95303916931152 -2.72591781616211 -1.85702192783356 0.0665307641029358 3.64313554763794 7.02837324142456 8.82495403289795 10.7501935958862 12.5430326461792 12.6729421615601 8.55073261260986 7.37764024734497 7.12772512435913 3.71652483940125 2.62511730194092 1.43805384635925 2.37926316261292 3.55209708213806 4.77257585525513 6.54875183105469 7.34496927261353 3.99603223800659 -1.68842375278473 -1.63637948036194 -1.63608348369598 -1.59502911567688 -1.69341421127319 -2.00262594223022 -2.30095505714417 -2.38454389572144 -2.29473400115967 0.130555495619774 1.30228054523468 -2.01245188713074 -1.85822689533234 -1.33794784545898 -1.16495394706726 0.854221999645233 4.02187299728394 5.39204216003418 2.84533047676086 2.72572541236877 4.05020046234131 6.88964796066284
2.57638120651245 2.63305449485779 2.73898077011108 2.95051836967468 3.09617733955383 3.2038848400116 3.26422882080078 3.29029631614685 3.38440132141113 3.58575081825256 3.80514073371887 3.92667269706726 3.90625643730164 3.88480973243713 3.85536742210388 3.82926750183105 3.82562518119812 3.81240081787109 3.78981137275696 3.78207302093506 3.80756735801697 3.75441336631775 3.75922107696533 3.74705576896667 3.70939779281616 3.72243905067444 3.67723512649536 3.66301274299622 3.7227771282196 3.76529097557068 3.78022027015686 3.83259606361389 3.84576964378357 3.84670186042786 3.63837146759033 3.57946252822876 3.60409641265869 3.6364803314209 3.77890682220459 3.95127367973328 4.20186424255371 4.56146621704102 5.1058201789856 5.47981357574463 6.18604803085327 5.90144681930542 6.02233028411865 7.17991352081299 3.60099816322327 3.52699613571167 4.06410598754883 3.25086641311646 4.11676549911499 2.76090741157532 2.26837015151978 2.50913238525391 2.60839676856995 2.70663833618164 2.77725481987 2.826416015625 2.88795280456543 2.96277666091919 3.0256564617157 3.14922952651978 3.38493490219116 4.04635667800903 4.62183713912964 5.31254768371582 4.94577121734619 5.9713306427002 5.00215291976929 3.41966962814331 3.42158365249634 3.53025007247925 3.74853467941284 3.69783306121826 3.83497977256775 3.12024426460266 3.08098840713501 3.56769347190857 3.96007800102234 4.22986030578613 4.33316040039062 4.76726102828979 5.48554801940918 6.34086036682129 7.4613618850708 8.98931694030762 9.86183452606201 11.0800733566284 12.9298648834229 14.7121658325195 16.8400650024414 18.371639251709 19.163143157959 18.4938793182373 20.8346252441406 11.3218269348145 9.54336547851562 10.0811033248901 10.7864398956299 11.3792963027954 12.2865753173828 13.2401838302612 14.1793413162231 15.3030824661255 17.1448211669922 18.9886302947998 21.6755409240723 24.0780410766602 26.3901805877686 28.094898223877 27.8951568603516 25.3171577453613 24.7490425109863 24.5336494445801 26.8600120544434 19.9418678283691 15.506459236145 14.0321664810181 9.28884696960449 9.51816463470459 11.6464281082153 13.2194089889526 9.98815441131592 7.37114238739014 4.52009868621826 1.33800113201141 -0.347403794527054 -1.2316859960556 -2.74096536636353 -2.42511820793152 -0.815109074115753 2.35416674613953 5.89783763885498 8.34703254699707 10.0860481262207 11.035120010376 11.7442111968994 6.93157052993774 4.17047929763794 2.86660552024841 2.80763506889343 3.91352987289429 1.26109445095062 1.65808594226837 2.9095573425293 4.11780118942261 5.95986461639404 5.74981927871704 3.25168466567993 -1.26306402683258 -1.62112629413605 -1.48100817203522 -1.24139928817749 -1.2697297334671 -1.24817228317261 -1.41634726524353 -1.54342842102051 -1.61148941516876 -1.91761982440948 -2.39986848831177 -2.40429186820984 -1.92250800132751 -1.84786880016327 -1.50299561023712 -0.78513240814209 3.10224843025208 2.27789926528931 -0.1800836622715 0.024640891700983 1.40281653404236 3.5213086605072
2.64021301269531 2.80918073654175 3.06978487968445 3.2544150352478 3.37335348129272 3.49578762054443 3.57421731948853 3.61982464790344 3.75273776054382 4.01745176315308 4.11356115341187 4.16195154190063 4.15901231765747 4.14255285263062 4.11188125610352 4.07593059539795 4.01555681228638 3.96752166748047 3.93593668937683 3.91997528076172 3.92266917228699 3.87416768074036 3.88203954696655 3.83420419692993 3.83670377731323 3.8315954208374 3.79525446891785 3.74582743644714 3.73226141929626 3.78525233268738 3.81997990608215 3.86427164077759 3.90054965019226 3.94203281402588 3.90462398529053 3.76507663726807 3.7117862701416 3.71607661247253 3.73520374298096 3.89375472068787 4.19368982315063 4.34345817565918 5.03149509429932 5.33680152893066 5.96366357803345 7.05493783950806 8.26269435882568 6.35946226119995 2.87178254127502 3.52967381477356 4.16310024261475 5.26878976821899 6.58772897720337 3.84415674209595 2.29198265075684 2.34469413757324 2.51697039604187 2.64756631851196 2.7231023311615 2.8123152256012 2.86509561538696 2.88416624069214 2.94452810287476 3.02700924873352 3.10426497459412 3.57057952880859 4.64357137680054 5.42822980880737 4.90361213684082 5.99162435531616 5.04379177093506 3.37739396095276 3.38256573677063 3.62857961654663 3.9203884601593 4.32175588607788 4.54390382766724 4.49940013885498 4.62882518768311 3.86248731613159 4.64578866958618 5.1638650894165 5.74820327758789 6.41886568069458 6.98844432830811 7.88606548309326 8.83119583129883 9.97976303100586 11.5064287185669 11.9077558517456 13.6692924499512 15.2087097167969 17.1673622131348 19.5913238525391 21.0122699737549 24.9617385864258 24.839729309082 13.5426692962646 10.0495920181274 13.6599826812744 10.5478973388672 11.4135026931763 12.4143743515015 13.4697856903076 14.7753295898438 16.045726776123 17.6064147949219 19.780632019043 22.3307590484619 25.8819160461426 28.6798496246338 29.8240985870361 32.1793365478516 34.5641746520996 32.129035949707 26.1112213134766 17.6889686584473 9.62899494171143 5.93486642837524 6.02183294296265 5.79666471481323 6.96138572692871 10.0798692703247 10.5356435775757 7.06311988830566 3.05692577362061 -0.795550584793091 -2.82331776618958 -2.6411759853363 -1.97025120258331 -2.75812530517578 -2.5785608291626 -2.34717917442322 -0.0826703980565071 4.606369972229 8.15328884124756 10.2908926010132 10.9775447845459 11.3059358596802 4.63158750534058 2.76228547096252 2.97493314743042 2.42231750488281 1.7157210111618 1.16977739334106 1.17916238307953 3.39450931549072 3.33654117584229 4.68553400039673 3.80839347839355 1.69105350971222 -1.58291161060333 -1.81742286682129 -1.41065895557404 -1.14984893798828 -0.994085490703583 -0.782275974750519 -0.664354801177979 -0.57308429479599 -0.720968067646027 -1.1696298122406 -1.53494942188263 -1.93958675861359 -2.0071496963501 -1.90656077861786 -1.11622881889343 -0.829076886177063 0.0259840656071901 0.269466638565063 -0.235028237104416 -0.601428389549255 0.709108948707581 1.28483521938324
2.89552688598633 3.1213960647583 3.45845150947571 3.61931538581848 3.6971640586853 3.79775786399841 3.98717188835144 4.10499620437622 4.13571739196777 4.20462846755981 4.27471733093262 4.30658197402954 4.30701732635498 4.36479663848877 4.34723329544067 4.33103084564209 4.27531623840332 4.1771502494812 4.08096837997437 4.04636478424072 4.00965738296509 4.01508665084839 4.00900030136108 3.9510338306427 3.95466566085815 3.90867328643799 3.89093470573425 3.88351607322693 3.91542291641235 3.85859346389771 3.84101462364197 3.87422466278076 3.92286920547485 3.94947266578674 4.00268840789795 4.03581714630127 4.04633808135986 3.90976119041443 3.89057540893555 3.85629534721375 4.11613273620605 4.25664043426514 4.71244049072266 5.03193330764771 5.99251222610474 6.73034000396729 6.90362882614136 5.14116668701172 2.56272482872009 3.14413595199585 3.71977472305298 4.80951452255249 4.4473090171814 1.06640946865082 1.58428514003754 2.08471274375916 2.40351676940918 2.58497214317322 2.68648266792297 2.78057169914246 2.8743097782135 2.89282751083374 2.91933870315552 2.95643925666809 3.01880526542664 3.46028900146484 4.38722562789917 3.75154209136963 4.29122400283813 5.90018510818481 3.80125784873962 3.25799322128296 3.41387152671814 3.73742651939392 4.1146411895752 4.53293132781982 4.89529991149902 5.29985666275024 5.41727066040039 5.23457908630371 5.42290067672729 5.50215721130371 6.52932786941528 7.37192964553833 8.31046104431152 9.31136226654053 10.5790376663208 12.0486688613892 12.6890468597412 14.2192506790161 14.8001947402954 16.3493709564209 17.8740520477295 18.1558055877686 19.6485290527344 24.3641014099121 21.250509262085 11.7214498519897 12.3105201721191 24.8485736846924 13.4813203811646 10.3213062286377 11.7518587112427 12.7724142074585 14.2817640304565 16.1919822692871 18.3883113861084 20.5212726593018 23.2862510681152 27.0069942474365 33.2210083007812 38.5936737060547 34.0196533203125 28.3298397064209 19.2401847839355 12.7098436355591 8.47811889648438 7.56383895874023 4.33934020996094 3.9717743396759 4.10408973693848 5.50707721710205 6.78285598754883 6.77510929107666 2.75830364227295 -1.2519611120224 -2.88033723831177 -2.78849625587463 -2.7095320224762 -2.69494318962097 -2.72581505775452 -2.56387138366699 -2.37900471687317 -1.43779575824738 4.58913660049438 8.41695976257324 12.3364086151123 10.1619634628296 7.68465662002563 1.96172249317169 1.46542823314667 0.905681431293488 -0.121839843690395 0.0317551344633102 0.0833600983023643 0.0269533768296242 2.25386905670166 1.8402065038681 3.68889880180359 2.78412222862244 1.52360427379608 0.00954899005591869 0.486193120479584 -0.119291067123413 -1.38684773445129 -0.993109583854675 -0.730397403240204 -0.441723704338074 -0.117457568645477 -0.0734422728419304 -0.128974601626396 -0.339217752218246 -0.701008260250092 -0.945396959781647 -1.1786185503006 -0.969667255878448 -0.61113977432251 0.0577065423130989 0.635475814342499 0.466167509555817 0.818137109279633 1.62086951732635 1.6931346654892
3.18219828605652 3.4517674446106 3.72049808502197 3.85513067245483 3.97785758972168 4.06078863143921 4.15264272689819 4.22796583175659 4.27516841888428 4.30479669570923 4.32982921600342 4.40597009658813 4.47895431518555 4.53998517990112 4.55424547195435 4.52856826782227 4.50559425354004 4.41549873352051 4.2963490486145 4.19982051849365 4.13028192520142 4.11294507980347 4.08127498626709 4.07663536071777 4.06921863555908 4.00690841674805 3.98133540153503 4.00906085968018 4.02285003662109 4.00886678695679 4.02166032791138 3.94848656654358 3.93000411987305 3.97952151298523 4.0498046875 4.10024738311768 4.16375303268433 4.19641494750977 4.20484256744385 4.0288200378418 4.05486249923706 4.15567207336426 4.54832649230957 4.98792791366577 5.51760864257812 5.96005582809448 7.30072450637817 4.90017175674438 2.95766925811768 2.82961654663086 3.93593645095825 3.56743860244751 3.16796970367432 1.20090878009796 1.26283407211304 1.72343349456787 2.20355272293091 2.47841119766235 2.59615683555603 2.77403020858765 2.82629036903381 2.86171507835388 2.93863296508789 2.99789023399353 3.01486039161682 3.60614061355591 4.1270432472229 4.26891613006592 3.87574315071106 4.87709093093872 3.29284071922302 3.2173593044281 3.45640778541565 3.97378897666931 4.37179803848267 4.70527744293213 5.2408504486084 5.56205701828003 5.81073522567749 6.14746046066284 6.26559019088745 6.2474513053894 6.74655961990356 8.25553131103516 9.80458927154541 11.0741701126099 12.8025255203247 13.730902671814 14.1762075424194 16.4589290618896 18.3990650177002 20.5956363677979 17.5022640228271 18.2729434967041 18.844934463501 17.7049312591553 14.9265193939209 3.873539686203 4.29963207244873 8.02621841430664 5.68890047073364 7.98744487762451 10.4480571746826 12.0499057769775 13.6519460678101 15.8375282287598 18.6372680664062 21.1363925933838 24.834264755249 28.5527763366699 32.1502952575684 33.2994995117188 21.6499576568604 19.7862224578857 15.9811401367188 9.26071548461914 5.72677278518677 2.81378960609436 2.74199342727661 3.10428285598755 3.19577074050903 4.39841270446777 3.70829510688782 5.05293416976929 2.57486653327942 -1.49892365932465 -2.77955031394958 -2.69779396057129 -2.59510827064514 -2.57986879348755 -2.57402110099792 -2.45171642303467 -2.26371145248413 -0.349699258804321 4.87350082397461 11.8436689376831 15.4085445404053 7.51711416244507 2.70806574821472 -0.863209784030914 -1.48890209197998 -1.51371085643768 -1.6661149263382 -1.05071377754211 -0.992878913879395 -0.819106221199036 -0.0891073644161224 0.620184540748596 1.67304933071136 2.2853090763092 2.71446514129639 1.60346007347107 2.45457983016968 2.4023003578186 6.60045433044434 7.06996917724609 3.57143115997314 -0.444416433572769 0.106247760355473 0.445778131484985 0.695259094238281 0.725747227668762 0.753236651420593 0.322000920772552 -0.0742909386754036 -0.183751732110977 -0.360970139503479 -0.0445353798568249 0.588522493839264 0.758047044277191 1.50584733486176 1.41494798660278 2.72246432304382
3.60747098922729 3.71958899497986 3.89049482345581 4.03446006774902 4.12499380111694 4.16850614547729 4.20269680023193 4.27394533157349 4.34799814224243 4.4045295715332 4.45065116882324 4.51312017440796 4.55526494979858 4.65877485275269 4.68948554992676 4.72338819503784 4.7620644569397 4.67932081222534 4.52735280990601 4.41603374481201 4.30686616897583 4.2119460105896 4.1958155632019 4.15500450134277 4.11946392059326 4.13059949874878 4.09308862686157 4.13457536697388 4.12848091125488 4.13803720474243 4.12124490737915 4.0818338394165 4.00899934768677 4.01090955734253 4.0825080871582 4.14361906051636 4.2130708694458 4.26411581039429 4.31609106063843 4.29110336303711 4.22936677932739 4.15040731430054 4.4372992515564 4.73909521102905 5.25391960144043 5.77719974517822 7.066321849823 5.64378499984741 3.45931029319763 3.30908536911011 3.2436306476593 2.64655423164368 1.98951494693756 1.71397662162781 1.52549004554749 1.61082231998444 1.9128919839859 2.29812407493591 2.42578482627869 2.69197988510132 2.77184462547302 2.82596683502197 2.92525696754456 3.00103712081909 3.07499861717224 3.48987317085266 3.94291925430298 5.44173574447632 4.9889817237854 3.14893937110901 3.22565937042236 3.41272783279419 3.74579524993896 4.15708112716675 4.49315547943115 5.01827716827393 5.51146793365479 5.8206000328064 6.26830148696899 6.6263861656189 6.94471025466919 7.07644653320312 7.63272428512573 8.9073429107666 10.7994441986084 12.093487739563 12.8268985748291 14.2514705657959 16.9225444793701 17.5964546203613 20.7269611358643 19.4700012207031 15.2554388046265 18.1847476959229 17.9468879699707 10.6910991668701 11.7367849349976 3.5355019569397 3.69303226470947 4.34718942642212 4.79715347290039 5.95533418655396 7.79384660720825 10.5131053924561 12.9603004455566 15.2759580612183 18.4641933441162 21.0756587982178 24.8067512512207 28.9303760528564 31.6319160461426 31.6437034606934 20.8832759857178 18.6594333648682 15.8827505111694 6.75914430618286 1.51224732398987 1.81675243377686 2.69932198524475 2.71525144577026 2.98179316520691 3.63158106803894 3.93245244026184 5.40248966217041 3.67129349708557 -1.45515727996826 -2.63032460212708 -2.55805850028992 -2.49749207496643 -2.44924855232239 -2.44510674476624 -2.28613090515137 -2.11431264877319 -0.526941359043121 4.43342018127441 12.6777286529541 11.4254236221313 0.681202948093414 -1.9894859790802 -1.5052877664566 -1.26041328907013 -1.44854545593262 -1.27327334880829 -0.925887048244476 -1.22418868541718 -0.908806145191193 -0.610050678253174 -0.0420734100043774 0.981441974639893 1.78778958320618 1.88578903675079 0.455536991357803 1.76758563518524 5.03880739212036 6.94419193267822 0.667160212993622 -2.18739438056946 -1.37637329101562 -0.522219240665436 0.537011921405792 0.907280325889587 1.20675051212311 1.43954384326935 1.35412073135376 1.29837810993195 0.766794264316559 0.230027496814728 -0.130618587136269 0.0767914280295372 0.474776715040207 0.949958503246307 0.527604222297668 2.15066576004028
3.80745840072632 3.9458224773407 4.03624820709229 4.08532667160034 4.15042018890381 4.24628877639771 4.32943391799927 4.37338256835938 4.40312004089355 4.47039842605591 4.54780626296997 4.61394309997559 4.66674709320068 4.7125997543335 4.81277418136597 4.90627717971802 4.93699836730957 4.93957567214966 4.87022018432617 4.72489547729492 4.58546924591064 4.49367189407349 4.38598442077637 4.25991773605347 4.22480583190918 4.20182943344116 4.23170614242554 4.2846736907959 4.26093769073486 4.27739429473877 4.20892143249512 4.18354463577271 4.16505718231201 4.19189977645874 4.1571249961853 4.19774484634399 4.27334213256836 4.30355167388916 4.34997749328613 4.3965277671814 4.42385387420654 4.42293739318848 4.24805116653442 4.51652908325195 5.12213945388794 5.51034259796143 7.11292791366577 6.91440773010254 3.73633909225464 3.49251651763916 3.63550043106079 3.43251466751099 3.10573625564575 2.64876198768616 2.00297808647156 1.99574410915375 1.9735940694809 2.04690313339233 2.23188257217407 2.52625465393066 2.66778445243835 2.74914216995239 2.88470149040222 3.01468515396118 3.07997131347656 3.1401526927948 3.90450620651245 5.06240224838257 4.05818128585815 3.02008962631226 3.11179661750793 3.41233420372009 4.01437997817993 4.44322204589844 4.79373645782471 5.23060750961304 5.59667491912842 6.09266805648804 6.72089242935181 7.0135612487793 7.25307512283325 7.59211301803589 7.95045375823975 9.98683738708496 10.1740636825562 10.5619802474976 12.8745546340942 15.3842992782593 19.2779407501221 22.2766742706299 21.7365398406982 17.5807285308838 12.9048528671265 12.7899332046509 10.573431968689 3.73166441917419 4.2139253616333 3.47570538520813 3.49521970748901 3.96782398223877 4.44342660903931 5.47557401657104 6.61142921447754 8.46225929260254 10.8955850601196 18.0616245269775 17.529613494873 21.0883941650391 24.2384033203125 28.1577053070068 30.3523788452148 25.9893493652344 18.8352966308594 15.2264490127563 12.9254264831543 3.46962070465088 0.670211672782898 1.44323992729187 2.61237287521362 3.35074639320374 3.02963614463806 2.93667578697205 3.34518194198608 4.02569055557251 2.90449142456055 -0.93726110458374 -2.4382791519165 -2.43226957321167 -1.98677432537079 -0.661365389823914 -2.28100776672363 -2.29827618598938 -1.96021449565887 0.117771200835705 5.36494970321655 10.7948246002197 8.15742588043213 -2.17471599578857 -2.21703386306763 -1.94420182704926 -1.11971783638 -0.918663740158081 -0.610466480255127 0.0487990044057369 0.739459156990051 0.181923508644104 -1.29742586612701 -0.185801729559898 0.115315347909927 0.152776181697845 -0.960212826728821 -1.57676553726196 1.24498665332794 2.64925312995911 -1.22102689743042 -2.66611528396606 -2.54369163513184 -2.19028854370117 -1.62627232074738 -0.0419140234589577 0.726916670799255 1.29054498672485 1.61618006229401 1.83639526367188 1.94685113430023 1.77411508560181 1.2548975944519 0.482760787010193 0.210029989480972 0.430011957883835 0.250190764665604 0.591768145561218 1.61190235614777
3.83936095237732 3.92088413238525 4.06219959259033 4.15398263931274 4.23163223266602 4.28453874588013 4.36273384094238 4.46338081359863 4.50748634338379 4.53895568847656 4.62433433532715 4.71431159973145 4.79414176940918 4.8644552230835 4.92443370819092 4.97863292694092 5.0753345489502 5.14607763290405 5.08282279968262 4.94904804229736 4.80885648727417 4.70671606063843 4.62885141372681 4.48988914489746 4.38637351989746 4.32990121841431 4.35320281982422 4.3674635887146 4.38504123687744 4.39769840240479 4.32819509506226 4.29420804977417 4.26990461349487 4.28162288665771 4.32069778442383 4.38336038589478 4.33984661102295 4.39082479476929 4.4562201499939 4.46270942687988 4.486496925354 4.54000043869019 4.57058334350586 4.65288972854614 4.77833032608032 5.02178144454956 6.626877784729 6.73313808441162 3.67621827125549 3.59460997581482 3.70041656494141 3.74876475334167 3.81203508377075 3.65749835968018 3.26309823989868 2.75170946121216 2.61755013465881 2.58759427070618 2.61515545845032 2.45511293411255 2.52433204650879 2.59879040718079 2.77252697944641 2.90674328804016 3.09071183204651 3.14640116691589 3.23583602905273 4.5710506439209 3.12750244140625 3.03895688056946 3.16950917243958 3.4965763092041 4.0309271812439 4.54884243011475 5.08949375152588 6.66622114181519 7.21855878829956 12.3945913314819 12.2210903167725 6.72135353088379 7.06094121932983 7.52654790878296 12.4668664932251 14.9278450012207 14.700496673584 9.9522180557251 11.5738306045532 14.9805088043213 18.464771270752 17.4203796386719 15.3850564956665 10.5501136779785 8.36497592926025 5.53961849212646 3.49046778678894 3.4518187046051 3.47819590568542 3.61873149871826 3.60447239875793 4.07227897644043 4.67408466339111 5.54812383651733 6.29832649230957 7.65419054031372 13.6398143768311 13.9978141784668 12.4682989120483 18.5554847717285 23.8547477722168 27.1641387939453 30.1562995910645 23.4786643981934 16.7918071746826 12.1369361877441 7.91513109207153 4.30846786499023 0.437330543994904 1.02065861225128 2.46713256835938 1.99713146686554 2.73961639404297 2.70754289627075 3.11402869224548 2.9418671131134 1.8740086555481 0.796673953533173 -1.09798979759216 -2.23928642272949 -1.132248878479 0.257014155387878 -1.34408318996429 -2.31663513183594 -1.98600828647614 -0.347267925739288 4.42773342132568 10.9768743515015 12.1429195404053 -0.0453023239970207 -1.41125404834747 -1.99522054195404 -1.68121838569641 -1.186976313591 0.0616653002798557 0.659936010837555 -0.0742223709821701 -2.10331916809082 -2.14327478408813 -2.18521451950073 -2.25938773155212 -2.32968997955322 -2.34435629844666 -2.37988662719727 -2.3849925994873 -2.37680578231812 -2.46973943710327 -2.44457411766052 -2.33350157737732 -2.09980463981628 -1.90387272834778 -0.735132277011871 0.276862621307373 0.882747888565063 1.72825515270233 1.82726407051086 2.08515429496765 2.19124937057495 2.05778884887695 2.04238867759705 1.30368304252625 0.745644629001617 0.281137973070145 -0.631891965866089 -0.0252183917909861
3.80524778366089 3.95295166969299 4.02898979187012 4.11975526809692 4.26734399795532 4.36286497116089 4.41992998123169 4.50327920913696 4.60495376586914 4.69741725921631 4.73842811584473 4.78204107284546 4.88036441802979 4.98211097717285 5.07339334487915 5.14843988418579 5.19153451919556 5.22521495819092 5.27926540374756 5.15606594085693 5.05481100082397 4.99194669723511 4.87948083877563 4.72739887237549 4.60579061508179 4.51465463638306 4.44679164886475 4.44592237472534 4.42652034759521 4.42943286895752 4.43263959884644 4.37866687774658 4.38173341751099 4.37236928939819 4.42742395401001 4.47219705581665 4.53596210479736 4.60042333602905 4.51198101043701 4.56350088119507 4.55848121643066 4.61809968948364 4.64269971847534 4.92762041091919 5.15217924118042 5.25999689102173 5.62792158126831 5.24200963973999 3.87709975242615 3.74815106391907 3.84798908233643 3.97043681144714 4.0020227432251 4.11765480041504 4.21937847137451 3.76358675956726 3.64732646942139 3.17598390579224 3.26530194282532 3.13296270370483 3.01025748252869 2.63112950325012 2.61712980270386 2.71934247016907 2.9906952381134 3.10715198516846 3.19296169281006 3.24632883071899 3.17758464813232 3.13762140274048 3.37853288650513 3.66373252868652 4.12683486938477 4.50533819198608 6.3034462928772 9.7180814743042 17.5356769561768 20.7911758422852 12.2133951187134 6.76460218429565 7.43441534042358 9.1216402053833 7.60936832427979 9.79369258880615 11.4218130111694 9.9518461227417 10.9719505310059 12.5095357894897 10.9592428207397 7.07420921325684 4.13329887390137 2.98197627067566 2.98088717460632 3.11910367012024 3.20357656478882 3.53778672218323 3.82539129257202 4.0295467376709 4.04562187194824 4.38668823242188 4.92353773117065 5.65662527084351 6.24772262573242 9.34511470794678 10.3396043777466 8.46909236907959 9.94316673278809 13.4118518829346 22.1409721374512 25.7041969299316 31.6209144592285 23.7575531005859 17.0011577606201 12.019061088562 6.52916574478149 4.0356912612915 0.498081296682358 0.415813028812408 0.818763077259064 1.2631219625473 1.65580940246582 2.57381796836853 2.59661960601807 1.74370312690735 1.10711336135864 1.73754477500916 0.826614797115326 -1.5671204328537 -2.34995460510254 -2.21149039268494 -2.3469569683075 -2.31429362297058 -2.13677263259888 -1.66121137142181 2.60310626029968 9.61642360687256 9.76296138763428 -1.0781455039978 -1.91469669342041 -2.11639976501465 -0.73783665895462 -0.198266953229904 -0.67950314283371 -1.63872468471527 -2.0185661315918 -1.88961756229401 -1.76589238643646 -1.73957908153534 -1.70722210407257 -1.90020513534546 -1.98781752586365 -2.11095857620239 -2.13294863700867 -2.15672922134399 -2.16184282302856 -2.09140276908875 -2.05917072296143 -1.87090456485748 -1.60675501823425 -1.22396612167358 0.0427596010267735 1.82900583744049 3.18560004234314 4.08511066436768 5.11296653747559 3.11120820045471 2.57281160354614 2.77565026283264 2.76588153839111 2.69411396980286 1.65611982345581 0.571569263935089 -0.57607364654541
3.65634274482727 3.77374410629272 4.00620889663696 4.15412569046021 4.25329923629761 4.40534114837646 4.50650978088379 4.60032081604004 4.65853881835938 4.75002384185791 4.85859060287476 4.96595430374146 5.01507139205933 5.05312633514404 5.16102838516235 5.25541639328003 5.32218265533447 5.39546537399292 5.41564416885376 5.36382246017456 5.30207490921021 5.20627403259277 5.1327953338623 5.08141183853149 4.93345832824707 4.80453824996948 4.73485612869263 4.64738321304321 4.5531439781189 4.93621921539307 5.1401801109314 4.45610380172729 4.4895977973938 4.46588659286499 4.52954292297363 4.58152484893799 4.6520733833313 4.69167423248291 4.6869010925293 4.64825963973999 4.70771598815918 4.76894903182983 4.730064868927 5.01537370681763 5.71101427078247 6.27908277511597 6.03279447555542 5.16123056411743 4.21485471725464 3.95995211601257 4.11059617996216 4.24171018600464 4.25579023361206 4.38426637649536 4.54452037811279 4.62714385986328 4.62461042404175 4.5309419631958 4.45738792419434 3.86837100982666 3.81348943710327 3.53168320655823 3.16913080215454 2.68024182319641 2.78826236724854 2.97329664230347 3.09584403038025 3.19607090950012 3.35064172744751 3.40346050262451 3.60613346099854 3.9748318195343 4.26965379714966 4.60004043579102 6.93745136260986 9.75649261474609 14.3287582397461 10.8887844085693 5.19471120834351 5.49803018569946 6.14977693557739 6.6357250213623 7.11271619796753 7.70324897766113 7.79179954528809 7.97938776016235 7.94001245498657 7.99609804153442 7.43174362182617 6.71572971343994 6.42803287506104 3.79583215713501 2.95150899887085 3.07370901107788 3.26023387908936 3.69762372970581 4.17140817642212 4.45086717605591 4.85047435760498 5.06157255172729 5.28290033340454 5.5923285484314 6.79811954498291 6.54893922805786 7.0751633644104 7.32776641845703 8.42850875854492 10.3936681747437 17.9919300079346 23.8690738677979 31.4889450073242 26.7111968994141 17.1521778106689 11.7410440444946 4.93632936477661 1.89930951595306 0.668917953968048 -0.0542669892311096 0.319348245859146 1.0520715713501 1.09267461299896 3.474285364151 2.47066426277161 0.873058199882507 0.422137767076492 1.84441065788269 0.696916997432709 -2.13408422470093 -2.26423525810242 -2.3314688205719 -2.29582738876343 -2.22446084022522 -2.11943769454956 -1.74833738803864 0.429981410503387 6.31143379211426 7.6228141784668 -1.05952882766724 -1.92401039600372 -1.98978328704834 -1.5925704240799 -2.08518886566162 -2.13131880760193 -2.03669691085815 -1.92367506027222 -1.5667085647583 -1.16797626018524 -0.771173179149628 -0.24247582256794 1.61851930618286 0.644965946674347 -1.7628413438797 -1.81278944015503 -1.78887689113617 -1.75170481204987 -1.69241321086884 -1.65674805641174 -1.52645766735077 -1.24993097782135 -0.993263065814972 -0.452156156301498 1.72419023513794 4.02132606506348 6.32506513595581 5.15163946151733 1.93902993202209 1.93908441066742 2.729083776474 3.5240752696991 3.72734546661377 3.32744407653809 2.3759503364563 1.345743060112
3.57522130012512 3.72266936302185 3.88000321388245 4.12291383743286 4.28363370895386 4.37376403808594 4.48662996292114 4.64974117279053 4.75356340408325 4.8526782989502 4.91505527496338 5.027259349823 5.13902854919434 5.18983602523804 5.25587940216064 5.36252307891846 5.47679662704468 5.56347894668579 5.61074209213257 5.57956314086914 5.44800901412964 5.42000389099121 5.3768630027771 5.2748761177063 5.22809600830078 5.17540740966797 5.0501823425293 4.93760061264038 5.25327205657959 5.7057728767395 5.92683982849121 4.52215099334717 4.5413966178894 4.58424520492554 4.61501026153564 4.6553807258606 4.75088167190552 4.74470663070679 4.80423545837402 4.87831687927246 4.93947792053223 4.90101766586304 4.94278001785278 5.16821622848511 6.02171087265015 6.95321130752563 6.44426012039185 5.40507221221924 4.52150106430054 4.25160694122314 4.45998477935791 4.45625162124634 4.59072971343994 4.63087177276611 4.82221221923828 4.97183799743652 5.15087127685547 5.34322547912598 5.5511269569397 5.3102855682373 5.22439908981323 4.32326173782349 3.78267526626587 3.56498575210571 3.52413010597229 2.77945113182068 2.90594005584717 3.09591197967529 3.27206802368164 3.51611137390137 3.80547976493835 4.13033437728882 4.43017911911011 4.99011278152466 5.51782083511353 8.36718463897705 11.0713348388672 8.5224027633667 4.6541633605957 5.29841613769531 5.66602230072021 6.08017539978027 6.63531637191772 7.22889280319214 7.75625944137573 7.8383960723877 8.05203247070312 8.05784797668457 8.27432727813721 8.50982570648193 8.30333518981934 7.90491485595703 7.55724763870239 4.59688806533813 3.31916189193726 3.97178745269775 4.40831089019775 4.68044710159302 5.19153881072998 5.40349197387695 5.71511268615723 5.8880410194397 7.16032457351685 7.04232263565063 6.37460327148438 6.43555498123169 7.402099609375 9.15748405456543 15.6711559295654 20.5961589813232 27.9091567993164 28.6960182189941 17.4261207580566 8.93184280395508 2.8965892791748 0.721642851829529 1.09003865718842 -0.34321591258049 -0.203698664903641 0.310816675424576 0.7719367146492 2.67697930335999 2.69447636604309 0.813666582107544 0.728489995002747 0.720457851886749 0.494996398687363 -1.83097219467163 -2.17830204963684 -2.17993640899658 -2.15559434890747 -2.1089551448822 -2.05129098892212 -1.73099756240845 -1.35225522518158 1.09486305713654 4.62183713912964 -0.324164211750031 -1.67137885093689 -1.8280576467514 -1.90801608562469 -1.94051671028137 -2.01909470558167 -1.98672556877136 -1.73119521141052 -1.33688843250275 -0.94471675157547 -0.761125326156616 1.41517996788025 1.82040202617645 0.681743800640106 -1.61746692657471 -1.65538394451141 -1.5070104598999 -1.39993286132812 -1.29932928085327 -1.20170450210571 -1.08286881446838 -0.864451825618744 -0.625245690345764 -0.391347885131836 0.403676986694336 2.77766108512878 2.55583214759827 0.848743319511414 -0.222913339734077 0.835273742675781 1.53725326061249 3.15361070632935 4.40450143814087 4.5331883430481 4.88152885437012 4.35362529754639
3.46698474884033 3.69250583648682 3.84808802604675 3.97561120986938 4.12045669555664 4.36344385147095 4.52034997940063 4.61621618270874 4.74166631698608 4.91539716720581 5.03137969970703 5.0941948890686 5.21311235427856 5.33740663528442 5.45700263977051 5.51151132583618 5.59153890609741 5.6929407119751 5.79065179824829 5.76996898651123 5.67196989059448 5.64024925231934 5.52550983428955 5.46639537811279 5.46769237518311 5.40164566040039 5.28443813323975 5.49906015396118 5.98076438903809 6.3686785697937 6.37180757522583 4.64822626113892 4.63251781463623 4.64184856414795 4.67011785507202 4.71843719482422 4.81173372268677 4.85841941833496 4.94082164764404 5.0290732383728 5.08883476257324 5.157386302948 5.21398973464966 5.46340274810791 6.22031545639038 7.21970701217651 6.75217151641846 5.0489673614502 4.63087224960327 4.68023681640625 4.86658191680908 4.97000598907471 5.19700765609741 5.07637882232666 5.1880578994751 5.29748821258545 5.42619371414185 5.66484785079956 5.95716905593872 6.1772084236145 6.43701028823853 6.07054042816162 5.00173664093018 4.67803764343262 4.35807514190674 4.22910070419312 3.68131828308105 3.09655141830444 3.13825488090515 3.44701981544495 3.71893978118896 4.05115032196045 4.38202619552612 4.54888439178467 4.79714775085449 5.83219289779663 10.6734428405762 8.85001182556152 4.67340230941772 4.94048070907593 5.22791576385498 6.05067157745361 6.49851989746094 6.91492462158203 7.35833740234375 7.5993800163269 8.20119476318359 8.63545322418213 9.12291240692139 9.25549793243408 9.95328330993652 10.4234199523926 10.1658210754395 9.3588752746582 6.27834510803223 5.95951271057129 4.66213798522949 4.73342847824097 5.11416244506836 5.32667970657349 5.89090156555176 6.47577428817749 7.54041194915771 7.74991464614868 5.77734518051147 5.88307332992554 6.87653207778931 9.12252998352051 14.2430515289307 18.3231620788574 22.3203964233398 27.5773239135742 18.3261604309082 9.68571281433105 2.01928067207336 -0.299771130084991 1.54785430431366 -0.40906634926796 -0.551304996013641 -0.0381532236933708 0.50390487909317 0.687741160392761 0.767697870731354 0.834623217582703 1.10980677604675 1.26277244091034 1.08321511745453 0.48932933807373 -0.626638054847717 -2.00529384613037 -2.05075573921204 -1.98293459415436 -1.8809380531311 -1.62844061851501 -1.34982514381409 -1.18853175640106 -0.127790093421936 -0.274846613407135 -1.42018461227417 -1.52189457416534 -1.55966699123383 -1.74265420436859 -1.77427744865417 -1.68503451347351 -1.55782961845398 -1.05546832084656 -0.812826633453369 -0.666925489902496 -0.194000050425529 -0.741370499134064 -1.06009483337402 -1.42975640296936 -1.40719258785248 -1.20021569728851 -0.985835254192352 -0.850936532020569 -0.7569699883461 -0.637731432914734 -0.491611987352371 -0.308949172496796 -0.118345759809017 0.0938233584165573 0.53394490480423 1.66923201084137 -0.259738653898239 -0.406232506036758 -0.0542753413319588 0.911015272140503 2.24174833297729 4.31260108947754 5.55611705780029 6.33710813522339 6.27413320541382
3.44861721992493 3.58788323402405 3.67787456512451 3.93122386932373 4.10364389419556 4.2246298789978 4.37016439437866 4.61339902877808 4.78487825393677 4.92430257797241 5.10237836837769 5.22492122650146 5.34366226196289 5.40979433059692 5.54739856719971 5.68724870681763 5.81118631362915 5.84697151184082 5.93551540374756 5.91656017303467 5.88046646118164 5.84522008895874 5.76060009002686 5.6389856338501 5.57573509216309 5.58767509460449 5.87942123413086 6.64245891571045 6.25643873214722 6.48810720443726 6.21950817108154 4.82077360153198 4.76718854904175 4.6603045463562 4.6752142906189 4.74395847320557 4.82781934738159 4.94326972961426 5.02744722366333 5.1926097869873 5.24572372436523 5.31896543502808 5.40181922912598 5.54730129241943 6.53066205978394 7.30212116241455 6.26814985275269 4.78453826904297 4.75231742858887 4.82385396957397 5.20699214935303 5.55186891555786 5.5341362953186 5.73463249206543 6.00307035446167 5.77561950683594 5.85970878601074 6.08145093917847 6.1197624206543 6.46079444885254 6.84428405761719 7.04272317886353 6.63530826568604 6.68648958206177 5.9426212310791 5.75854158401489 5.36379098892212 5.75930500030518 4.81707572937012 5.14069366455078 4.2919020652771 3.91069555282593 4.07929801940918 4.47442770004272 4.62857723236084 6.41905689239502 12.1483469009399 7.03764152526855 4.60617208480835 4.77803468704224 5.0599536895752 5.44732332229614 5.93954563140869 6.9144434928894 7.37053298950195 7.71204900741577 8.06469535827637 8.73365783691406 9.42311000823975 10.1981592178345 11.0603923797607 11.7144660949707 12.2284326553345 11.8831491470337 12.7994222640991 12.7805433273315 8.72262477874756 9.14515399932861 6.75548648834229 6.27116060256958 7.54172134399414 7.95900106430054 9.7239294052124 7.91549158096313 5.98411655426025 5.98013782501221 6.801025390625 9.10349655151367 13.3131656646729 17.7114295959473 20.8014659881592 24.9007320404053 21.5461883544922 14.9541845321655 6.90120410919189 -0.230434268712997 0.539955735206604 0.408912241458893 -0.558291137218475 -0.260939419269562 0.13646000623703 0.270101398229599 0.648465573787689 0.94057035446167 1.01178359985352 1.37341332435608 1.7603348493576 1.62122964859009 1.69967794418335 1.01622176170349 0.21353055536747 -1.57780301570892 -1.52228307723999 -1.6365954875946 -1.38921678066254 -1.11645996570587 -0.949581146240234 -0.0949476510286331 -1.14219105243683 -1.28636682033539 -1.32032692432404 -1.48209178447723 -1.48054671287537 -1.32212042808533 -1.1606764793396 -0.952972292900085 -0.763563215732574 -0.607416331768036 -0.628315210342407 -0.724574685096741 -0.683701455593109 -0.761908173561096 -0.788989067077637 -0.173817783594131 -0.675601124763489 -0.501898765563965 -0.357399582862854 -0.178500831127167 0.530514776706696 -0.0200374498963356 0.23146715760231 0.460224658250809 0.55195164680481 0.494052439928055 0.356977492570877 0.164827898144722 -0.0592037104070187 0.386438965797424 1.42200922966003 2.87024927139282 4.96396017074585 6.93890237808228 8.37356281280518
3.27013397216797 3.41725277900696 3.67826056480408 3.84079337120056 3.93411135673523 4.18947410583496 4.34519720077515 4.53222417831421 4.7904806137085 4.96253204345703 5.08220720291138 5.24084234237671 5.42963027954102 5.56932353973389 5.69330549240112 5.76102733612061 5.92014837265015 6.07475137710571 6.15542554855347 6.0482816696167 5.98563194274902 5.99303388595581 5.95476007461548 5.84651803970337 5.80664300918579 5.72017669677734 5.91887378692627 6.84141302108765 6.02139377593994 5.3812108039856 5.2833251953125 5.10163497924805 5.07613039016724 4.98975086212158 4.90773010253906 4.85993194580078 4.91733503341675 5.00914430618286 5.13362407684326 5.27262163162231 5.39552640914917 5.53914213180542 5.5646800994873 5.59129095077515 5.58529615402222 7.36144018173218 5.71008491516113 5.02560043334961 5.00122117996216 5.1228461265564 5.61139917373657 5.81098937988281 6.04004621505737 6.36483240127563 6.41964387893677 6.59558820724487 6.38472938537598 6.74156665802002 6.70330858230591 6.7523832321167 7.01014518737793 7.48888444900513 7.73010206222534 8.29468727111816 8.03978157043457 8.07729148864746 6.64166259765625 7.16080856323242 7.25219106674194 8.99511432647705 9.16444301605225 11.5365018844604 7.76461410522461 4.1058406829834 4.32802438735962 6.05254411697388 5.26138591766357 4.65395975112915 4.76341962814331 4.86466789245605 4.95958614349365 5.01701641082764 5.61311388015747 6.37178182601929 6.88965892791748 8.08340835571289 8.43406009674072 8.83266067504883 9.65801048278809 10.701376914978 11.8107500076294 12.8871765136719 13.9224309921265 15.691614151001 16.2164669036865 16.2573127746582 18.1710338592529 17.6942710876465 14.8201026916504 15.0205230712891 9.61134243011475 7.46791076660156 7.53469657897949 5.7646803855896 5.84910917282104 6.50017070770264 7.42539691925049 9.15334606170654 12.791672706604 18.897481918335 21.5491771697998 24.5950984954834 23.6505794525146 19.3394031524658 7.30930519104004 -0.534629285335541 -0.492504060268402 1.39384758472443 0.121224611997604 -0.474379599094391 -0.237453103065491 0.0602558739483356 0.679986417293549 0.998432457447052 1.09092164039612 1.40139806270599 2.00888109207153 2.27334904670715 3.49759674072266 3.75922274589539 4.81687879562378 3.82839584350586 1.94815719127655 -1.31112396717072 -1.48599100112915 -1.11071300506592 -0.83696973323822 -0.778506815433502 -0.860979974269867 -0.981149733066559 -1.11630964279175 -1.21762788295746 -1.18676173686981 -1.00879526138306 -0.816157460212708 -0.592008411884308 -0.482425838708878 -0.422299891710281 -0.434321969747543 -0.458769738674164 -0.254324525594711 0.813995957374573 1.43555891513824 3.50511956214905 5.08216619491577 3.66661977767944 0.111006066203117 0.282309383153915 0.273777723312378 0.294377088546753 0.556551873683929 0.940293312072754 1.06523156166077 0.956126630306244 0.791301667690277 0.696192264556885 0.470820933580399 0.393983066082001 0.853569686412811 1.85183167457581 3.29484105110168 4.75942850112915 7.08119440078735
3.05810856819153 3.27009868621826 3.50759196281433 3.67359232902527 3.92667508125305 4.0770902633667 4.34323453903198 4.5058765411377 4.63513517379761 4.82452964782715 5.09926748275757 5.28151369094849 5.41443252563477 5.59731388092041 5.79678201675415 5.9508638381958 6.07522010803223 6.12932062149048 6.23274040222168 6.21661520004272 6.14605283737183 6.15796041488647 6.13102674484253 6.08387756347656 6.00861263275146 5.97954130172729 6.04122877120972 6.64236259460449 6.2996711730957 5.62304210662842 5.4472336769104 5.41950607299805 5.40174055099487 5.28262567520142 5.15597581863403 5.14611482620239 5.1997389793396 5.20341014862061 5.2806134223938 5.39928245544434 5.52290868759155 5.6488208770752 5.71350860595703 5.7319164276123 5.77057600021362 6.19378614425659 5.62860441207886 5.32396841049194 5.36459255218506 5.74544334411621 5.96624565124512 6.11215448379517 6.457932472229 6.65392303466797 7.04811859130859 7.05367469787598 7.54436922073364 7.80312347412109 7.56019258499146 8.2350549697876 7.90493488311768 7.94847440719604 8.19972515106201 8.61400604248047 8.96887969970703 9.57206153869629 8.84905242919922 9.3433837890625 9.15968894958496 9.4105920791626 10.3316736221313 14.1235361099243 7.28786563873291 5.89639186859131 4.94651174545288 4.37287139892578 4.45889091491699 4.68895578384399 4.89641714096069 5.0065598487854 5.06982564926147 5.1364860534668 5.50411987304688 6.08744955062866 6.8913631439209 7.64936065673828 8.95435523986816 9.53916263580322 10.2574501037598 11.1639995574951 12.460018157959 13.9922313690186 15.7812824249268 16.9489879608154 18.9066581726074 21.654993057251 21.7350597381592 27.8326892852783 30.0400257110596 26.875 9.3822774887085 7.19442272186279 5.87171363830566 5.21435213088989 5.56557369232178 6.56478595733643 7.46421051025391 9.34243202209473 12.9620866775513 18.7818622589111 22.9740371704102 28.499174118042 25.8469467163086 16.4373893737793 6.21607160568237 0.151091143488884 -1.28347754478455 0.0626311749219894 -0.791660726070404 -0.805647671222687 -0.399510264396667 0.149810135364532 0.86080002784729 1.28477418422699 1.15908968448639 1.40339660644531 1.791139960289 2.60928797721863 3.92353868484497 4.61571931838989 6.78639793395996 6.02127885818481 0.558080077171326 -1.51361501216888 -1.68639624118805 -1.23134684562683 -0.825176775455475 -0.692748308181763 -0.662103116512299 -0.744436502456665 -0.839225947856903 -0.903295934200287 -0.848183214664459 -0.687506318092346 -0.43361821770668 -0.178336784243584 -0.0549507699906826 0.0253483299165964 0.246187195181847 0.100962430238724 0.461111545562744 1.14088988304138 2.595534324646 5.25241136550903 5.17145347595215 0.133119449019432 0.265675038099289 0.584737062454224 0.867113292217255 0.923897564411163 0.967611730098724 1.2796847820282 1.41878736019135 1.39523839950562 1.23761296272278 1.10416448116302 1.00726878643036 0.855206072330475 0.709459066390991 1.42594981193542 1.97419083118439 3.06675171852112 4.47213363647461
2.99815464019775 3.20739674568176 3.35725784301758 3.5025577545166 3.81120014190674 4.07196426391602 4.22173452377319 4.33932685852051 4.6233696937561 4.79626131057739 4.93343591690063 5.15024137496948 5.44352245330811 5.63501358032227 5.78652429580688 5.99285125732422 6.19285774230957 6.29843139648438 6.2558650970459 6.30248403549194 6.35890007019043 6.38561105728149 6.30145359039307 6.27650260925293 6.18827152252197 6.17269849777222 6.43022727966309 6.5879111289978 6.54177522659302 6.34172344207764 5.68690490722656 5.6220178604126 5.54270124435425 5.41568326950073 5.30977058410645 5.3112645149231 5.36114120483398 5.40309810638428 5.43763875961304 5.50955057144165 5.61715412139893 5.77710151672363 5.97082042694092 6.07481145858765 6.14081287384033 6.15258550643921 5.98642158508301 5.7976188659668 5.92552804946899 6.29893016815186 6.45364856719971 6.62630319595337 6.85006618499756 7.08041858673096 7.33562326431274 7.75719213485718 8.3239860534668 8.3930139541626 9.07091808319092 9.33293724060059 9.22696876525879 8.86491966247559 8.92244052886963 9.15302276611328 8.70728397369385 9.21036338806152 9.78100395202637 9.80356216430664 9.6644172668457 10.3695154190063 11.0124502182007 12.3657932281494 5.79625034332275 6.68980741500854 7.26726007461548 6.38122415542603 4.23639535903931 4.56353616714478 4.90787076950073 5.01832866668701 5.19964790344238 5.52089023590088 5.89553594589233 6.46082639694214 6.95166540145874 7.76698160171509 8.45917701721191 9.34022808074951 10.8202056884766 11.7324066162109 12.9105005264282 14.5857629776001 16.1056213378906 18.7157936096191 21.4220485687256 23.7115287780762 30.0949802398682 31.212028503418 21.9247379302979 13.7186498641968 7.28891086578369 7.62207365036011 5.83456754684448 4.15637159347534 5.31201267242432 6.1160044670105 7.39356422424316 9.27632904052734 13.562554359436 18.5880222320557 25.6723594665527 29.4662914276123 17.0302696228027 9.14349842071533 5.63906526565552 -1.13205862045288 -1.30482590198517 -1.25695133209229 -0.820885837078094 -0.767661452293396 -0.29728576540947 0.262107372283936 0.70935732126236 1.19961667060852 1.42171275615692 1.10954391956329 1.33672940731049 2.48609137535095 4.22305154800415 5.57448577880859 5.61902141571045 3.6400682926178 -0.564396679401398 -1.99685657024384 -1.82295024394989 -1.37655925750732 -0.814246237277985 -0.57439136505127 -0.528156220912933 -0.52164101600647 -0.536129295825958 -0.564687967300415 -0.433038383722305 -0.415195167064667 -0.170527532696724 0.172443956136703 0.367837101221085 0.819545984268188 0.959616541862488 1.8290376663208 2.84611296653748 3.74181413650513 3.35707831382751 2.80290508270264 1.18968749046326 0.423160761594772 0.587030827999115 0.882296979427338 1.22648966312408 1.40396165847778 1.39805400371552 1.5231556892395 1.68787121772766 1.68786430358887 1.60311412811279 1.54289829730988 1.26243805885315 1.23763465881348 1.1479686498642 1.03338003158569 0.911914885044098 1.87583947181702 2.6669454574585
3.01575875282288 3.22237396240234 3.33606553077698 3.45802426338196 3.63413119316101 3.86018323898315 4.05524444580078 4.33626651763916 4.4953818321228 4.63816547393799 4.93560028076172 5.1189603805542 5.26076889038086 5.52378225326538 5.83178806304932 6.03100872039795 6.24190902709961 6.3986554145813 6.438880443573 6.44793653488159 6.39379072189331 6.49497413635254 6.56569576263428 6.52738094329834 6.35653066635132 6.39332818984985 6.52659368515015 6.54900026321411 7.02783012390137 7.19964218139648 6.45332050323486 5.67638826370239 5.68826103210449 5.58384704589844 5.59814310073853 5.65600156784058 5.69818735122681 5.89422845840454 5.97277450561523 6.03638410568237 6.00467538833618 6.08934164047241 6.24407005310059 6.41131973266602 6.53748416900635 6.592200756073 6.5200309753418 6.40157175064087 6.49973440170288 6.723228931427 6.92809009552002 7.12116575241089 7.29080104827881 7.55628776550293 7.8038477897644 8.36666679382324 8.6366662979126 9.1628360748291 9.82472991943359 10.1237030029297 10.1444358825684 9.59680366516113 10.4640808105469 9.47902393341064 9.46560668945312 9.98354434967041 9.75088882446289 10.603796005249 13.2169008255005 14.4412536621094 13.0051774978638 12.6276969909668 8.15068626403809 6.08892488479614 6.45261144638062 5.93777227401733 3.82479929924011 4.11881589889526 4.73852920532227 4.939049243927 5.38590621948242 5.64049530029297 6.16143274307251 6.85273790359497 7.4249267578125 8.02154541015625 8.66675472259521 9.53233909606934 10.3475399017334 11.6942262649536 13.3478784561157 14.5569753646851 15.8502607345581 18.409688949585 19.4519100189209 23.5408630371094 29.4779453277588 19.0013465881348 8.06101226806641 2.77404236793518 1.37209892272949 -0.527578711509705 1.17451965808868 2.74800443649292 4.29115438461304 5.17839860916138 7.21239328384399 9.86090469360352 13.5884847640991 17.5457744598389 25.603063583374 23.0466327667236 12.2159013748169 10.0082015991211 4.89454317092896 -1.11513090133667 -1.11832344532013 -1.06891298294067 -1.05641961097717 -0.441862940788269 0.470804274082184 1.15640687942505 0.809789836406708 1.13187026977539 1.4916045665741 1.64121460914612 0.965880453586578 1.60465037822723 3.04077219963074 3.66141271591187 1.82672464847565 1.32252109050751 -2.00261402130127 -1.99502885341644 -1.89298725128174 -1.52526473999023 -0.996245086193085 -0.480102717876434 -0.344070702791214 -0.287265777587891 -0.208755776286125 -0.220859602093697 -0.106428511440754 0.0384714342653751 0.157073199748993 0.540554821491241 0.705578923225403 0.693844497203827 0.734075903892517 2.44976091384888 3.5518798828125 6.71208906173706 7.54411363601685 0.565304577350616 0.702243506908417 0.869425117969513 0.950528085231781 1.14111542701721 1.43125259876251 1.61422681808472 1.67688059806824 1.76750230789185 1.81077492237091 1.85791349411011 1.86479377746582 1.80472576618195 1.58986556529999 1.43847441673279 1.48865723609924 1.77526378631592 1.61762642860413 1.30320739746094 1.19391322135925
2.95878124237061 3.17638254165649 3.31716394424438 3.43535733222961 3.53767323493958 3.65363025665283 3.86789512634277 4.11137247085571 4.33553218841553 4.62880849838257 4.79498720169067 4.96561431884766 5.29008865356445 5.48669338226318 5.77210521697998 6.08303594589233 6.26179933547974 6.33643913269043 6.4352240562439 6.53779458999634 6.59904384613037 6.62087154388428 6.5746603012085 6.61823272705078 6.65055799484253 6.66004514694214 6.56622314453125 6.79138851165771 7.0797324180603 7.23170185089111 7.28949069976807 6.24370574951172 5.7470531463623 5.76381015777588 5.82322025299072 5.79010391235352 5.99998903274536 6.24842929840088 6.41182088851929 6.69768095016479 6.6888632774353 6.6898307800293 6.708083152771 6.81584596633911 6.8904881477356 6.88376426696777 6.79853868484497 6.73933458328247 7.05602884292603 7.31903791427612 7.49434328079224 7.77783632278442 8.16487407684326 8.41379070281982 8.77752494812012 9.04379653930664 9.17155170440674 9.68206596374512 10.0176649093628 10.6083879470825 10.6753664016724 11.4210224151611 11.6097049713135 12.4475173950195 13.31130027771 13.2852096557617 12.6268692016602 12.5670146942139 14.2813100814819 13.3287887573242 13.1165456771851 14.7623662948608 14.3778257369995 5.99321031570435 4.12280035018921 2.19812226295471 3.01094126701355 2.98164081573486 4.16749668121338 4.71315240859985 5.23243808746338 5.53901100158691 6.42968797683716 7.68984508514404 8.89430046081543 9.39236450195312 9.85735702514648 12.019139289856 12.901798248291 13.6574649810791 13.4767160415649 14.5142259597778 15.8824977874756 17.8414440155029 17.6047782897949 20.8257675170898 20.8109455108643 10.5220489501953 4.1351580619812 0.792537450790405 -1.12839412689209 -1.32312703132629 -0.612355470657349 1.31025803089142 2.887042760849 4.37967777252197 6.60811233520508 10.1074352264404 13.7856664657593 17.1321697235107 23.1111869812012 19.2196445465088 12.1156816482544 11.0451326370239 2.03035569190979 -1.17629933357239 -1.03423285484314 -0.970115840435028 -0.640845119953156 0.285561740398407 1.39673554897308 2.18499851226807 1.33351159095764 1.80958759784698 1.38003432750702 1.25862181186676 1.07209646701813 1.86622178554535 1.42181038856506 1.47772181034088 0.551647543907166 -0.518306910991669 -0.822131633758545 -1.94934070110321 -1.86413896083832 -1.66225242614746 -1.14214909076691 -0.547711312770844 -0.31176695227623 -0.0677293688058853 0.130253732204437 0.298116773366928 0.439349472522736 0.485536247491837 0.684391617774963 0.944573581218719 0.984883785247803 0.996503889560699 1.10034716129303 2.37243437767029 4.36802101135254 6.59969711303711 4.84680557250977 0.589949071407318 0.867802023887634 1.17918384075165 1.33131492137909 1.314044713974 1.44449520111084 1.71182382106781 1.86532485485077 1.97393453121185 2.00333595275879 1.95539522171021 1.9354887008667 1.93268060684204 1.83716452121735 2.06892442703247 1.84674882888794 1.8905942440033 1.57309281826019 1.35317730903625 0.936537742614746
2.87896203994751 3.13937401771545 3.30347561836243 3.42562222480774 3.53538584709167 3.62179040908813 3.74814701080322 3.87403154373169 4.13135719299316 4.38613128662109 4.64282703399658 4.95744228363037 5.19322824478149 5.52667427062988 5.72428560256958 5.87006187438965 6.10536861419678 6.2988076210022 6.38691377639771 6.44293975830078 6.5728120803833 6.70510816574097 6.76995372772217 6.75615692138672 6.68181180953979 6.80910205841064 6.83044528961182 6.67167472839355 6.93192195892334 7.89974880218506 7.43868780136108 6.3140344619751 5.91675519943237 5.95978403091431 5.95627737045288 6.00217580795288 6.20527267456055 6.34859418869019 6.78181266784668 7.09414672851562 7.27359294891357 7.30865621566772 7.40371990203857 7.37238359451294 7.43239402770996 7.39070892333984 7.41631698608398 7.50932455062866 7.74090433120728 8.23122882843018 8.60881996154785 8.75657844543457 8.85295391082764 9.03478908538818 9.42752742767334 9.49658107757568 9.52754211425781 9.76137638092041 10.4138469696045 11.1251592636108 11.4192667007446 12.5228891372681 13.5420770645142 15.0172433853149 14.6443786621094 13.8675298690796 16.5131568908691 12.4075365066528 12.6330137252808 11.7601356506348 10.4436521530151 11.9748849868774 14.3030433654785 9.72954082489014 8.04294395446777 6.07752132415771 5.04906320571899 1.94586038589478 2.86818480491638 4.07496881484985 4.76426219940186 5.28183603286743 5.91907691955566 7.91837406158447 9.52512073516846 11.6484966278076 14.3602991104126 14.7096042633057 20.1113243103027 20.6614246368408 17.9402961730957 17.3837280273438 14.820969581604 18.4917507171631 16.8572731018066 18.4595470428467 17.3150329589844 7.65630865097046 2.88718581199646 -0.782358407974243 -1.58612501621246 -1.58820521831512 -1.01920223236084 0.326143592596054 1.84469616413116 3.64089298248291 5.8007664680481 9.14575290679932 12.4816942214966 15.4840393066406 22.9797019958496 23.129451751709 12.2339143753052 7.15250825881958 -0.762792110443115 -1.25641858577728 -1.08060908317566 -1.01502728462219 -0.874795198440552 0.380257815122604 1.28740584850311 2.82670950889587 1.68483352661133 1.53985714912415 0.924087464809418 0.0923696160316467 0.489119857549667 1.41483807563782 0.959589898586273 -0.277485698461533 -0.928918302059174 -1.97236847877502 -1.9631016254425 -1.91710007190704 -1.89117205142975 -1.66654872894287 -1.2080614566803 -0.460668116807938 0.0319654531776905 0.224308758974075 0.461364358663559 0.749220788478851 0.905162394046783 1.1094423532486 1.24414026737213 1.31297028064728 1.45295178890228 1.48166418075562 1.46132397651672 1.75940716266632 4.12588453292847 4.96467542648315 0.774114847183228 0.859793603420258 1.09351992607117 1.3996729850769 1.50156438350677 1.60272884368896 1.64831936359406 1.76585233211517 1.90077269077301 2.07265019416809 2.09743118286133 2.05601763725281 2.05476021766663 1.96034944057465 1.96049523353577 1.94548952579498 1.85243117809296 1.72358858585358 1.6080048084259 1.27156341075897 1.25018179416656
3.05892610549927 3.19221067428589 3.40112590789795 3.55640411376953 3.62169551849365 3.63743209838867 3.72122406959534 3.83239316940308 3.95804309844971 4.11788606643677 4.42167282104492 4.85153436660767 5.17889547348022 5.35822010040283 5.58667135238647 5.88205575942993 5.93713569641113 5.9785008430481 6.21594715118408 6.42738914489746 6.53477811813354 6.52855539321899 6.711510181427 6.90996742248535 6.90525150299072 6.86561059951782 7.01193284988403 7.07050228118896 7.00819492340088 7.34177827835083 7.60227918624878 6.40289831161499 6.23604583740234 6.20805978775024 6.22319841384888 6.34571218490601 6.36505317687988 6.64595651626587 6.92443466186523 7.1952600479126 7.68120574951172 7.84895277023315 8.30480575561523 8.18120956420898 8.72431373596191 8.46734142303467 8.28764820098877 8.37953948974609 8.58891487121582 8.87278842926025 9.10250949859619 9.35616397857666 9.96259498596191 10.2818536758423 11.2141494750977 10.787335395813 11.1500339508057 11.4206666946411 12.6640043258667 12.3228015899658 13.2406997680664 14.5880146026611 15.607346534729 16.1633911132812 14.9304695129395 15.6443271636963 14.869255065918 6.59162759780884 9.61367130279541 11.0884122848511 9.33121395111084 9.78977203369141 10.1304969787598 6.96016311645508 -0.475609540939331 1.72170436382294 5.42794275283813 2.8534243106842 2.59428596496582 3.31731748580933 3.80554819107056 4.77053499221802 5.44156885147095 6.86369800567627 8.616455078125 12.0788288116455 14.7586479187012 19.9393882751465 21.9030055999756 14.3774271011353 9.70632457733154 9.14089584350586 9.96913146972656 12.4325151443481 14.0660734176636 17.1342277526855 15.9639806747437 5.63715219497681 1.80857527256012 -1.4534250497818 -1.41666769981384 -1.38144838809967 -1.22977614402771 0.0209125392138958 1.5199521780014 3.12193918228149 5.15297269821167 7.86275005340576 10.7786598205566 13.4704895019531 20.4591236114502 19.4842872619629 8.715744972229 4.81519412994385 -1.32267355918884 -1.28188228607178 -1.13848984241486 -1.04160690307617 -0.94246780872345 0.23996838927269 1.22827672958374 2.31892895698547 1.94667506217957 1.26099705696106 -0.135056734085083 0.13479109108448 0.92220538854599 2.17138266563416 0.923861265182495 -1.13715863227844 -1.63884592056274 -1.75220859050751 -1.90448582172394 -1.89718496799469 -1.84580290317535 -1.70332324504852 -1.30552816390991 -0.353590667247772 0.303182303905487 0.658567488193512 1.01670515537262 1.30796098709106 1.91696965694427 1.99863564968109 2.07134246826172 2.08375310897827 1.9249255657196 1.89594912528992 1.88603556156158 1.88117063045502 2.91410660743713 3.45550155639648 1.14705622196198 1.07588803768158 1.28670525550842 1.46458005905151 1.62916529178619 1.71117067337036 1.74866282939911 1.94931030273438 2.11974596977234 2.26306748390198 2.11676287651062 2.14051842689514 2.15653657913208 2.11616683006287 2.0980532169342 2.00696539878845 2.01243305206299 2.24297070503235 1.89057493209839 1.62614846229553 1.37781202793121
3.14663100242615 3.30564141273499 3.55300068855286 3.65370321273804 3.69094061851501 3.72236204147339 3.78969430923462 3.81252074241638 3.91880702972412 4.03221416473389 4.29493093490601 4.61512327194214 4.89732503890991 5.22761583328247 5.5518741607666 5.61463260650635 5.7099609375 5.96002054214478 6.08523797988892 6.13927459716797 6.29178619384766 6.49981737136841 6.61420679092407 6.88618135452271 7.10564136505127 7.24413824081421 7.2851128578186 7.193199634552 7.26816606521606 7.28129482269287 7.10861015319824 6.76014709472656 6.59528923034668 6.50072050094604 6.58217191696167 6.50014972686768 6.59659910202026 6.76055765151978 7.0263352394104 7.43150663375854 8.03928661346436 8.68183040618896 8.94244480133057 9.17255973815918 9.52493095397949 9.34333229064941 8.95853710174561 8.81908893585205 8.89498329162598 9.09230613708496 9.45523548126221 10.1752767562866 10.6283569335938 11.7317810058594 12.5236253738403 15.405743598938 16.403938293457 14.24755859375 15.209755897522 14.6508703231812 15.6685619354248 15.0370645523071 14.2431116104126 13.9969596862793 12.6192903518677 12.7292547225952 6.86405467987061 4.84553956985474 6.89511156082153 7.67754173278809 6.89644432067871 7.08227872848511 7.41603660583496 0.887912631034851 -1.15165078639984 -0.429213911294937 2.02313947677612 0.767317175865173 3.50350761413574 8.54419803619385 11.9552125930786 13.274266242981 5.78273105621338 6.69263744354248 10.9472808837891 16.1040267944336 12.6093559265137 16.9043979644775 17.1013126373291 6.55859184265137 7.10809803009033 8.20795154571533 9.27974224090576 12.1092891693115 13.3789348602295 11.9423990249634 7.26886701583862 0.233156010508537 -1.23804891109467 -1.3695170879364 -1.28689706325531 -1.23212361335754 -0.967707455158234 0.104008756577969 1.3847883939743 3.05457139015198 4.8781566619873 7.1047830581665 8.61023426055908 11.3787441253662 16.8434410095215 15.1728610992432 6.83659505844116 0.139809101819992 -1.36666071414948 -1.32607674598694 -1.06731808185577 -0.461936205625534 0.266402840614319 -0.529196500778198 1.07059407234192 2.30855441093445 2.64043998718262 2.4532732963562 0.902378797531128 -1.32706725597382 0.598328590393066 3.38184428215027 2.73296928405762 -1.58248627185822 -1.52532577514648 -1.5586953163147 -1.50954520702362 -1.56505060195923 -1.73395705223083 -1.60405659675598 -1.33343577384949 -0.549541354179382 0.255680620670319 1.05051040649414 1.5482212305069 2.07145428657532 2.62679958343506 2.82243132591248 3.13781762123108 2.99541306495667 2.86761593818665 2.77969145774841 2.54140162467957 2.46219110488892 2.30574870109558 2.19283270835876 1.75645434856415 1.42491865158081 1.56496381759644 1.67374217510223 1.78105735778809 1.96100556850433 2.1811945438385 2.50642085075378 2.91153764724731 2.79414439201355 3.57179665565491 3.30153751373291 2.28752732276917 2.18376564979553 2.19739151000977 2.16519713401794 2.07629537582397 2.05212092399597 2.01768064498901 1.88193237781525 1.75128424167633
3.41577458381653 3.29476952552795 3.56736922264099 3.65988969802856 3.85407829284668 4.07870817184448 3.9438738822937 3.90125942230225 3.92368507385254 4.0022611618042 4.12941265106201 4.30106687545776 4.61663150787354 4.94822692871094 5.41295099258423 5.38543558120728 5.6008734703064 5.69548082351685 5.91049861907959 6.13392496109009 6.15774536132812 6.38209772109985 6.61241054534912 6.7820143699646 7.09212017059326 7.37261772155762 7.54839611053467 7.64380741119385 7.59048461914062 7.41518831253052 7.46171951293945 7.41212177276611 7.16670274734497 6.83270168304443 6.84896945953369 6.71334743499756 6.88509464263916 7.18392372131348 7.65636777877808 7.9414644241333 8.38132953643799 8.8150053024292 9.71422290802002 10.1348447799683 10.0771865844727 10.0483551025391 9.86992263793945 10.7418689727783 10.43430519104 10.8142852783203 10.6883430480957 11.8485403060913 12.1676397323608 12.346529006958 14.3058004379272 16.4564933776855 14.6458072662354 12.6149492263794 13.4127931594849 12.6428546905518 13.1514472961426 13.1257247924805 12.0693016052246 10.6659421920776 10.7376613616943 8.21091365814209 4.73617458343506 5.06213665008545 4.4115161895752 4.1706075668335 4.2462043762207 3.85905146598816 2.36959266662598 0.890926718711853 -0.0446758903563023 2.7641327381134 3.60272264480591 3.89328169822693 6.04250478744507 7.93991947174072 17.6153430938721 17.2334384918213 12.3846855163574 4.13276958465576 8.72833919525146 13.9217252731323 7.22573947906494 6.86653757095337 9.9281005859375 5.97830963134766 5.99301338195801 7.74642705917358 9.97151374816895 14.5482988357544 14.9654722213745 6.645592212677 4.72692012786865 1.82642710208893 -0.983789920806885 -1.17977857589722 -1.1912385225296 -0.976873159408569 -0.746726751327515 0.0470733754336834 1.06037199497223 3.07159352302551 4.53867387771606 6.65397500991821 7.74675130844116 10.3053016662598 13.0173711776733 12.9101095199585 6.10767602920532 0.987989008426666 -1.22666323184967 -1.23018026351929 -1.09135663509369 -0.0081251123920083 -0.101210527122021 -1.02009737491608 -0.187933787703514 1.78639507293701 3.20424199104309 3.04664492607117 1.19895553588867 -1.03164541721344 -1.12070715427399 -0.318073481321335 -0.801755726337433 -1.74525213241577 -1.55713105201721 -1.34655976295471 -1.33046960830688 -1.29706943035126 -1.32949078083038 -1.25665295124054 -1.0733814239502 -0.547963500022888 0.130036115646362 1.16637969017029 1.99487054347992 2.51334285736084 3.00287413597107 3.47837042808533 3.72530102729797 3.74253749847412 3.74893188476562 3.80918169021606 3.80427718162537 3.68241858482361 3.40007066726685 3.46632289886475 2.63002967834473 2.56093549728394 2.46571326255798 2.26225471496582 2.18252086639404 2.45429849624634 2.68713617324829 3.16429114341736 2.89089298248291 3.14203476905823 3.99807000160217 2.77581548690796 2.01250720024109 3.07778811454773 2.19036555290222 2.22094488143921 2.16612982749939 2.17260265350342 2.0739917755127 2.04888319969177 2.04774141311646
3.53765988349915 3.8414626121521 4.14775419235229 4.09640026092529 3.94905877113342 4.16310358047485 4.4441294670105 4.63989686965942 4.60920667648315 4.52817249298096 4.5815601348877 4.45840311050415 4.63497734069824 4.8172082901001 4.86110305786133 4.99891328811646 5.17025279998779 5.48197174072266 5.76997327804565 5.98115825653076 6.20737791061401 6.23574638366699 6.25088500976562 6.64239311218262 7.06580209732056 7.35162162780762 7.65075206756592 7.83325624465942 7.91503620147705 7.95950841903687 7.90447616577148 7.69749021530151 7.62271022796631 7.46338415145874 7.20768690109253 7.30563688278198 7.5479998588562 7.75868225097656 7.97495269775391 8.68014621734619 9.36751556396484 9.59310913085938 10.0058650970459 10.4459276199341 10.6309499740601 10.5881900787354 11.2795305252075 11.859827041626 13.2088565826416 14.6538991928101 15.845552444458 15.9094114303589 13.713526725769 13.8381366729736 15.2452249526978 14.4607830047607 12.2268848419189 11.2196235656738 10.9292974472046 9.85937690734863 10.1138906478882 10.7724180221558 9.23258018493652 8.98688507080078 9.13460636138916 4.66521024703979 4.64486503601074 5.26334428787231 6.53018522262573 7.21087741851807 8.10437774658203 4.67125654220581 2.26738357543945 3.23787879943848 3.1695249080658 4.22956562042236 5.55458450317383 10.4860591888428 9.77416324615479 3.0594494342804 7.57997465133667 2.89691686630249 0.733792364597321 1.69610238075256 3.86947178840637 7.60098266601562 5.21865749359131 5.48222303390503 6.044349193573 6.99862623214722 6.95743274688721 8.81604766845703 11.9004745483398 18.0279102325439 13.9621772766113 4.37738656997681 3.83295392990112 2.00216603279114 -0.699769079685211 -0.859862506389618 -0.857218980789185 -0.710223019123077 -0.537688732147217 -0.0757918357849121 0.956834197044373 2.52323484420776 3.6587769985199 5.82462167739868 6.95765352249146 9.47654628753662 11.1090040206909 12.8205194473267 7.44935417175293 2.29785633087158 -0.214599698781967 -1.1395388841629 -1.1408942937851 0.0299468394368887 -0.307067662477493 -1.06206381320953 -0.859701037406921 0.790394961833954 3.48376822471619 2.04283905029297 -0.851770579814911 -0.964140057563782 -0.934486448764801 -0.87471467256546 -0.0434479601681232 -1.31250810623169 -1.59189975261688 -1.40479266643524 -1.28141963481903 -0.948174059391022 -0.919458389282227 -0.822707295417786 -0.572094559669495 -0.224333360791206 0.201958358287811 1.05678904056549 1.93161857128143 2.62529110908508 3.22008562088013 3.69671201705933 4.14178514480591 4.29720067977905 4.47803449630737 4.57795238494873 4.78224849700928 4.70833349227905 4.81930208206177 5.19153928756714 5.38032293319702 5.94987010955811 3.98688101768494 3.04399967193604 3.81308650970459 4.17632102966309 3.70161557197571 3.40819644927979 3.28852105140686 3.13875198364258 3.03519582748413 2.67124581336975 2.72019004821777 3.98857283592224 2.04964995384216 2.19315481185913 2.24222254753113 2.26482939720154 2.24918842315674 2.29187560081482 2.19904470443726
3.62471699714661 3.97615933418274 4.31281328201294 4.8080997467041 4.84995126724243 5.50135660171509 5.06298923492432 5.31930065155029 5.13735198974609 5.47907447814941 5.40587663650513 5.08620119094849 4.93112468719482 4.9752631187439 5.24756860733032 5.26652908325195 5.2057318687439 5.03693389892578 5.54011726379395 5.83555555343628 5.866858959198 6.01955080032349 6.31361103057861 6.48976230621338 6.72887516021729 7.23441028594971 7.69750070571899 7.89765453338623 8.12483024597168 8.26938343048096 8.3822021484375 8.28942489624023 7.99412727355957 7.91889524459839 7.96052408218384 7.90130233764648 8.25133609771729 8.53007507324219 8.73080539703369 9.38871765136719 10.0307140350342 10.5624055862427 10.4898176193237 10.6040630340576 11.067253112793 12.1556558609009 12.4492950439453 12.362587928772 14.2575435638428 15.927562713623 19.3438758850098 19.1251544952393 14.9235792160034 14.2334747314453 13.5725374221802 11.714448928833 10.0893611907959 9.04258918762207 8.05444049835205 7.46223211288452 7.91621160507202 8.46919822692871 6.94706678390503 7.52936124801636 5.26383781433105 3.87951946258545 4.74165439605713 5.70168828964233 7.5293231010437 11.2272253036499 11.2193813323975 9.51704025268555 3.42665719985962 3.23128485679626 4.80247592926025 6.74104499816895 6.47128486633301 6.13075399398804 -0.0813895985484123 -1.30637145042419 2.33640122413635 3.14564728736877 0.172037467360497 1.02656304836273 2.43903136253357 4.10489988327026 4.74740743637085 4.4795069694519 5.79457426071167 7.65516376495361 8.8159065246582 11.0824365615845 13.9482889175415 21.3368816375732 13.095929145813 4.27253103256226 4.29406023025513 0.873272478580475 -0.519582033157349 -0.503178358078003 -0.352912724018097 -0.453456789255142 -0.509219169616699 -0.331678539514542 -0.0794233679771423 1.95737302303314 2.71871542930603 4.43325042724609 6.31535291671753 8.26684284210205 9.69361019134521 13.7989645004272 8.99949359893799 1.93340909481049 0.461398661136627 -1.01992988586426 -1.25255978107452 -0.352747589349747 -0.725416779518127 -1.13350665569305 -0.967352390289307 -0.707488715648651 1.32797968387604 -0.715884625911713 -0.883935570716858 -0.903641283512115 -0.748744606971741 -0.642990469932556 -0.22789292037487 -0.825668454170227 -1.13349330425262 -1.4772914648056 -1.19149053096771 -0.903267323970795 -1.03258061408997 -0.779965758323669 -0.493304520845413 0.00562231848016381 0.533985316753387 1.14419806003571 1.88236200809479 2.50164294242859 3.20192670822144 3.77731108665466 4.29768562316895 4.71613502502441 5.10350513458252 5.21352052688599 5.60136699676514 5.71696662902832 6.29768514633179 6.8537974357605 8.58769989013672 6.96998500823975 3.89312791824341 3.04176497459412 4.22608804702759 3.64741826057434 3.65623021125793 3.94579458236694 3.68676328659058 3.27369451522827 3.08863306045532 3.13701844215393 3.22418570518494 3.23479652404785 2.73944544792175 2.91027045249939 2.21473097801208 2.25438141822815 2.31385970115662 2.4321756362915 2.46348786354065
3.79296588897705 4.10238695144653 4.54541873931885 5.06824970245361 6.01071691513062 6.40918397903442 7.10193395614624 8.186936378479 10.2003107070923 10.1565914154053 9.1283073425293 7.34246826171875 5.49512672424316 5.6823525428772 6.31786060333252 6.53881454467773 5.68245363235474 5.23973846435547 5.05735635757446 5.29301071166992 5.61529970169067 5.93157196044922 6.03621578216553 6.36225271224976 6.78938150405884 7.03655815124512 7.40726757049561 7.92173528671265 8.28006362915039 8.55729579925537 8.74075222015381 8.91477966308594 8.8949728012085 8.41912174224854 8.26464939117432 8.6877555847168 9.09687614440918 9.29105091094971 9.77508926391602 10.6281118392944 11.0415096282959 11.2476720809937 12.2286539077759 13.0318603515625 14.5643281936646 14.6285181045532 12.5406579971313 13.9610557556152 14.5367403030396 17.130163192749 17.8662662506104 14.6186962127686 9.16368007659912 9.24118137359619 9.24850177764893 8.09367942810059 7.46434020996094 6.86984348297119 6.05492258071899 6.24159669876099 7.77377414703369 7.25077819824219 6.29945278167725 5.4410572052002 3.7748281955719 3.9025502204895 3.91872119903564 6.23325395584106 8.56894302368164 7.57938623428345 5.25738191604614 4.99534702301025 0.589214682579041 2.03195714950562 3.86449384689331 4.43576812744141 -0.277085840702057 -1.91898059844971 -1.95402228832245 -1.64512848854065 0.304440408945084 0.279442667961121 -0.409022480249405 0.244852364063263 1.25766980648041 3.21224856376648 4.31360387802124 4.44830751419067 5.44466733932495 6.59521198272705 9.02891063690186 11.3373985290527 13.6552867889404 22.2087116241455 17.6677837371826 5.33443927764893 3.42257618904114 -0.288947224617004 -0.465825170278549 -0.427164912223816 -0.16679023206234 -0.1037807315588 -0.170852810144424 -0.310811996459961 -0.217293471097946 1.17055869102478 1.9321813583374 3.37009000778198 5.10834121704102 6.80536651611328 9.03544521331787 13.0581550598145 9.52699947357178 2.4412157535553 -0.835802555084229 -1.39884757995605 -1.37885558605194 -1.19489300251007 -1.09041953086853 -1.12294244766235 -0.972959697246552 -0.820099651813507 -0.616624057292938 -0.459221988916397 -0.680234491825104 -0.628913819789886 -0.482627898454666 -0.516149818897247 -0.504358530044556 -0.585957527160645 -0.702975392341614 -0.85657811164856 -0.816355407238007 -0.847315967082977 -0.876511752605438 -0.573178827762604 -0.278851360082626 0.269989997148514 0.95845091342926 1.69469308853149 2.06981205940247 2.67033123970032 3.0860059261322 3.70803546905518 4.29051828384399 4.84104251861572 5.2105884552002 5.82648944854736 6.32185554504395 6.51626348495483 7.29331922531128 8.46040439605713 9.1483097076416 7.27157545089722 5.49848651885986 4.33165311813354 4.51266860961914 3.35823893547058 3.55834865570068 3.52372336387634 3.8809552192688 3.84862804412842 3.51519751548767 3.03619766235352 2.77015781402588 2.56251811981201 2.49162125587463 2.77051544189453 2.05436062812805 2.10636448860168 2.16212034225464 2.40248227119446 2.59394335746765
4.51292181015015 4.35925674438477 4.9490532875061 5.7897047996521 6.8231029510498 8.58157730102539 12.6453561782837 11.7311916351318 9.71533393859863 9.43741512298584 5.87487745285034 5.14958429336548 6.00008869171143 6.27954053878784 7.16218233108521 7.49792623519897 7.1545147895813 5.74959945678711 4.98685359954834 4.79058933258057 5.13501310348511 5.39668083190918 5.85594034194946 6.26507616043091 6.31858253479004 6.83672380447388 7.48063278198242 7.90351295471191 8.32216835021973 8.64891910552979 8.81923961639404 9.32197284698486 9.48286819458008 9.3368444442749 9.33474349975586 9.45733642578125 9.79193592071533 10.1895551681519 11.0619325637817 11.804388999939 13.32190990448 14.4649286270142 15.5944795608521 16.7889862060547 13.9179754257202 13.2245264053345 12.3453435897827 12.524621963501 15.5887460708618 20.5238609313965 16.9938087463379 11.7748003005981 7.9543776512146 7.85688257217407 8.54765319824219 8.10496425628662 6.99824905395508 6.60384750366211 6.18897819519043 6.4050726890564 6.63686275482178 4.94752788543701 5.81814384460449 4.21961307525635 3.85210227966309 4.28046417236328 4.2713942527771 4.53282403945923 3.96644401550293 3.20827722549438 2.6175377368927 1.87501382827759 0.920762956142426 1.15047025680542 1.53903031349182 1.18148219585419 -0.948904752731323 -1.70583665370941 -1.9536041021347 -1.70512449741364 -1.58532810211182 -1.35709297657013 -0.994809865951538 -0.414165884256363 0.6140096783638 2.10068917274475 3.90187859535217 4.36580467224121 5.04403495788574 5.44913768768311 7.50940942764282 8.56911754608154 12.0371713638306 18.8182144165039 16.3575782775879 5.01260900497437 1.65862584114075 -0.501931309700012 -0.450800687074661 -0.364855170249939 -0.118863202631474 -0.0103624798357487 -0.0580095462501049 -0.00887660775333643 0.16522353887558 0.798748195171356 1.77855658531189 2.93861842155457 4.22298669815063 5.15662717819214 7.35422325134277 10.5826511383057 9.87115097045898 3.75671005249023 -1.20197546482086 -1.38070797920227 -1.33543705940247 -1.31109988689423 -1.29294729232788 -1.13361513614655 -0.875384449958801 -0.787684917449951 -0.561661958694458 -0.388645440340042 -0.431844800710678 -0.267521262168884 -0.162364020943642 -0.185020238161087 -0.340401321649551 -0.45683166384697 -0.443255573511124 -0.451955825090408 -0.136647343635559 -0.143015131354332 -0.236644014716148 -0.364030450582504 0.0884699299931526 0.738081276416779 1.40043115615845 1.98761534690857 2.58120322227478 3.12278032302856 3.40697407722473 3.80470609664917 4.2675518989563 4.71208095550537 5.29677057266235 5.86667919158936 6.52614974975586 7.31662940979004 8.23585891723633 9.31368160247803 10.1781787872314 9.19734287261963 6.82766103744507 5.5757884979248 5.89600944519043 4.10410022735596 3.52620601654053 3.98530459403992 4.44256591796875 3.22104668617249 2.65582680702209 2.45109295845032 2.67227411270142 2.9843544960022 3.03997349739075 2.5740282535553 1.81869578361511 2.05997395515442 2.22428154945374 2.27364778518677 2.40865349769592
4.71570825576782 5.36725616455078 6.08862400054932 6.17537546157837 7.55476665496826 9.55277633666992 8.80761623382568 5.19893026351929 6.24861145019531 7.65435457229614 3.47843933105469 4.30205917358398 5.37613534927368 6.83857345581055 8.46435928344727 9.16946983337402 9.00945377349854 6.70027875900269 4.9042854309082 4.81831121444702 4.48507881164551 4.87539529800415 5.29543209075928 5.62481737136841 6.14638710021973 6.67774248123169 7.36247110366821 8.00569343566895 8.20342254638672 8.48024654388428 8.97497653961182 9.31284999847412 9.75235557556152 10.1543941497803 10.2741994857788 10.5568685531616 11.08327293396 11.2987976074219 11.9976015090942 13.056300163269 15.2965879440308 16.8741474151611 20.8273162841797 17.8497619628906 14.5924835205078 14.0433673858643 16.1623210906982 17.6050071716309 17.1423358917236 15.1606531143188 8.68358898162842 6.24923229217529 4.96304035186768 4.8738112449646 5.54224061965942 5.97438812255859 5.69494485855103 6.16696166992188 5.86534738540649 5.83191013336182 5.4806079864502 5.27468013763428 6.27799940109253 3.98874044418335 3.96426844596863 4.44182777404785 4.62519931793213 5.00936985015869 4.56082105636597 3.89930987358093 3.32138586044312 2.68945169448853 2.03302645683289 2.41703677177429 2.77023720741272 2.01746988296509 1.60130190849304 1.00479459762573 0.91657680273056 -0.321332037448883 -0.99103456735611 -1.19523370265961 -0.930299937725067 -0.632923185825348 0.261809200048447 1.44659233093262 3.12123489379883 3.70739245414734 4.88997983932495 5.22859191894531 6.4631724357605 7.87169027328491 8.6296968460083 12.5962371826172 15.1327571868896 6.42472743988037 1.01974534988403 -0.588571310043335 -0.48618683218956 -0.378241032361984 -0.0656438618898392 0.134774565696716 0.0907753333449364 0.180811643600464 0.430793315172195 0.810373187065125 1.05834245681763 2.43896198272705 3.46665668487549 4.17467021942139 6.23856592178345 7.92238569259644 8.68472862243652 2.9857223033905 -0.925642848014832 -1.08458089828491 -1.03804349899292 -1.11978375911713 -1.11487996578217 -1.05000722408295 -1.00760781764984 -0.674009621143341 -0.343087136745453 -0.20430126786232 -0.0580167025327682 -0.00245233904570341 0.0409412793815136 0.139158755540848 0.0793085768818855 0.16024312376976 -0.191406935453415 0.0988646075129509 0.387497097253799 0.420504361391068 0.505069732666016 0.501914918422699 1.0348207950592 1.42874431610107 1.8578782081604 2.5182900428772 3.10641884803772 3.46436357498169 3.95836472511292 4.26117134094238 4.29069232940674 4.4949836730957 5.17128658294678 6.13248109817505 6.93765306472778 7.55503034591675 8.50565242767334 8.71691703796387 10.6792058944702 11.3839159011841 7.56943893432617 5.53441286087036 4.35552883148193 3.67612409591675 3.87343621253967 4.58557939529419 3.72597026824951 2.24669361114502 2.07816290855408 2.30827808380127 2.58051538467407 3.39337348937988 3.07811546325684 2.00922799110413 1.71118831634521 1.85514056682587 2.01595616340637 2.30280494689941 2.38009452819824
4.75702667236328 5.59517526626587 6.31019258499146 7.53267240524292 8.27059936523438 8.03452682495117 5.61066198348999 4.21360969543457 4.78938627243042 5.81735038757324 3.14108943939209 3.5101478099823 4.7827615737915 5.90713024139404 7.40283203125 10.2236490249634 10.5633792877197 7.53599691390991 4.30784368515015 4.36316585540771 4.40043258666992 4.47182369232178 4.58985996246338 5.09798860549927 5.59290838241577 6.56808233261108 7.24012279510498 7.63751697540283 8.23738098144531 8.69721698760986 9.03479766845703 9.43563079833984 9.67817687988281 10.6065015792847 11.3152303695679 12.1735067367554 12.5814332962036 14.0706748962402 14.8144254684448 14.9899597167969 16.7083492279053 18.0395240783691 19.3060626983643 13.1263484954834 11.9770479202271 12.138671875 11.8490219116211 8.21066761016846 5.98845243453979 6.22002363204956 4.5431170463562 3.20290803909302 3.16966533660889 3.00535297393799 3.03635501861572 2.96761298179626 2.90805721282959 3.36624789237976 4.34627056121826 4.59642457962036 4.73707389831543 4.62371826171875 3.73844504356384 3.86165380477905 4.05851888656616 4.56423330307007 4.7261528968811 5.19198131561279 5.24133110046387 4.93360424041748 5.20543766021729 4.87046766281128 4.27743768692017 4.52635383605957 4.81526231765747 5.86011457443237 5.41122245788574 5.45729160308838 5.68251132965088 4.27388906478882 4.63970565795898 4.02042770385742 4.9487361907959 -0.545785665512085 -0.136742427945137 1.0614994764328 2.52946829795837 3.15756273269653 4.23989295959473 4.65725946426392 6.18898868560791 7.56954860687256 8.04610443115234 8.79980850219727 11.3793611526489 8.92309379577637 1.8792690038681 -0.673180818557739 -0.557583749294281 -0.371125638484955 -0.0305083617568016 0.194040909409523 0.274198949337006 0.446532130241394 0.694941461086273 0.943089365959167 1.25116753578186 1.41470074653625 2.94120097160339 3.6584165096283 5.52660894393921 6.63191080093384 8.27679252624512 3.98561215400696 -0.59688001871109 -0.635953426361084 -0.539656281471252 -0.614520251750946 -0.547644853591919 -0.508315026760101 -0.347516685724258 -0.213246077299118 -0.0601295866072178 0.0118123982101679 0.308440297842026 0.371882081031799 0.393394589424133 0.357690244913101 0.824850738048553 1.10575211048126 1.21133661270142 1.44311201572418 1.31663405895233 1.67447745800018 1.73347353935242 2.1538405418396 2.40247797966003 2.97327423095703 3.31339311599731 3.8360071182251 3.78331613540649 4.14126062393188 4.26135540008545 4.45831155776978 4.67759704589844 5.33377456665039 5.77681398391724 6.99617528915405 7.67276906967163 8.61368846893311 8.51759433746338 8.52995109558105 10.2338218688965 9.56842517852783 7.21613788604736 6.4779224395752 5.96362972259521 4.57747888565063 2.93273758888245 3.77419519424438 2.34216785430908 2.34808278083801 2.25972199440002 2.41524076461792 2.84378886222839 3.36568975448608 2.551509141922 1.80531370639801 1.59789621829987 1.65609276294708 1.86718773841858 2.12824511528015 2.46153283119202
5.53538131713867 5.81588363647461 6.97101354598999 7.68477153778076 9.53551387786865 12.7524127960205 10.067852973938 4.26168060302734 5.89552211761475 4.08381319046021 3.18557381629944 3.41945338249207 3.99419021606445 5.00313901901245 6.72222089767456 8.85373497009277 7.68421077728271 5.27690172195435 4.00019550323486 4.1655387878418 4.2853569984436 4.42558574676514 4.50688409805298 4.72627925872803 5.3324122428894 5.9312891960144 6.50189685821533 7.56517934799194 8.05188941955566 8.31187629699707 9.21533489227295 9.85697555541992 10.419490814209 10.8200483322144 11.5364274978638 12.9129943847656 14.4060583114624 15.7899179458618 21.3428802490234 24.0569610595703 21.2049522399902 17.5169429779053 14.4624309539795 10.5115537643433 9.11471843719482 6.44231081008911 4.78647661209106 3.69286155700684 3.73652386665344 3.74668979644775 3.57790231704712 3.58756470680237 3.4746253490448 3.23873901367188 3.17338109016418 3.06415510177612 3.11396884918213 2.9185619354248 3.03239798545837 3.1180465221405 3.25511717796326 3.28901934623718 3.50190043449402 3.72768139839172 4.16919851303101 4.63677930831909 4.98720741271973 5.51047325134277 5.71177101135254 6.21544313430786 7.26592540740967 7.43561840057373 9.01855754852295 9.50979900360107 9.15744400024414 11.5047292709351 12.6878366470337 14.623272895813 10.9903163909912 8.16821575164795 7.9721508026123 4.95797824859619 4.02165794372559 -0.902165114879608 -0.426232099533081 0.168876588344574 1.91764235496521 2.64930415153503 3.70632696151733 4.05328750610352 5.45664024353027 7.38931322097778 7.89133596420288 8.63811588287354 9.2132043838501 9.00960731506348 4.63014030456543 -0.602901995182037 -0.620445489883423 -0.405331045389175 -0.108025074005127 0.168917179107666 0.337306171655655 0.571188569068909 0.858973205089569 1.12935757637024 1.37981009483337 1.56791281700134 2.31863021850586 3.06506013870239 4.92299938201904 6.79352998733521 7.97799348831177 4.76399230957031 -0.397106379270554 -0.177405551075935 0.0601536184549332 0.359363108873367 0.100954875349998 0.155829146504402 0.0934811905026436 0.235429957509041 0.356120675802231 0.29546907544136 0.446722358465195 0.677670180797577 0.839375376701355 1.19051682949066 1.66857469081879 1.88690829277039 2.46604895591736 2.36952805519104 2.72549676895142 3.21618604660034 3.42069864273071 3.69957828521729 3.97130060195923 4.03582525253296 4.41345739364624 4.62612438201904 4.62750768661499 4.9952597618103 4.86092472076416 5.03145217895508 5.5716667175293 6.1685848236084 6.78384637832642 7.98205471038818 8.09619426727295 8.14832019805908 6.92201375961304 6.97476005554199 7.84844636917114 7.57394695281982 7.86002445220947 7.95572328567505 5.53452777862549 2.25699377059937 1.02288901805878 1.44695210456848 1.65429866313934 2.33017683029175 2.52078747749329 3.02746319770813 2.88163781166077 3.38207292556763 2.53207397460938 1.4988272190094 1.37520086765289 1.5133570432663 1.72618937492371 2.01325678825378 2.28698301315308
7.95310401916504 8.00545787811279 9.43389987945557 10.6746835708618 11.4865579605103 10.8128318786621 6.36505317687988 2.82571625709534 3.90157127380371 3.58658528327942 3.56351780891418 3.67807412147522 4.95332956314087 7.61417865753174 6.43295431137085 6.96786832809448 8.06894111633301 5.74230289459229 3.86312198638916 4.01814365386963 4.20097923278809 4.31984519958496 4.47772169113159 4.55064725875854 4.69674730300903 5.12418746948242 6.00464344024658 6.73997020721436 7.15059661865234 8.34127044677734 8.99118518829346 10.1486101150513 10.7475557327271 11.1863384246826 12.1418914794922 12.891149520874 14.2711591720581 18.1483173370361 22.1859550476074 14.7646427154541 11.6610946655273 11.3056383132935 10.5939655303955 6.63560485839844 3.61875009536743 3.58466386795044 3.61800837516785 3.68324947357178 3.70147657394409 3.7125678062439 3.8241720199585 3.90364551544189 3.80863189697266 3.67597365379333 3.50746870040894 3.48809552192688 3.36887502670288 3.292240858078 3.18243932723999 3.1083128452301 3.20113396644592 3.28823947906494 3.44973540306091 3.72589921951294 4.45340299606323 5.01917934417725 5.88586187362671 6.42838859558105 6.72813081741333 7.58639192581177 8.52403926849365 9.69599437713623 12.0143985748291 14.9437494277954 20.4428253173828 15.9243831634521 10.8539619445801 8.57753849029541 3.70265436172485 2.26760244369507 3.9283549785614 4.70282363891602 6.38570785522461 -1.20117294788361 -0.818850100040436 -0.285254776477814 0.879382729530334 2.25843501091003 3.0957350730896 3.51849007606506 4.74004411697388 6.52939987182617 7.2334418296814 9.54822254180908 9.34452629089355 9.39541053771973 5.22621583938599 -0.422427833080292 -0.584265828132629 -0.355865061283112 -0.191683411598206 -0.00586318364366889 0.300726890563965 0.742951691150665 1.10873556137085 1.41937148571014 1.63610112667084 1.75617241859436 1.81558835506439 2.10531330108643 3.75969195365906 6.29900121688843 7.68768501281738 4.18608283996582 -0.215272307395935 -0.0432249121367931 0.196451663970947 1.06371307373047 1.61366903781891 1.62351429462433 0.928257942199707 0.557891070842743 0.628168046474457 0.627511560916901 0.597521066665649 0.789567410945892 1.44307911396027 1.93087720870972 2.21614122390747 2.37537980079651 2.82296252250671 3.06316781044006 3.58885717391968 3.84009623527527 4.25397396087646 4.50012302398682 4.51323223114014 4.84550428390503 4.97713232040405 5.03506898880005 5.48119640350342 5.69367027282715 5.90801286697388 5.83386278152466 6.5253791809082 6.84109497070312 8.03626251220703 8.35746765136719 9.0751256942749 8.48320198059082 5.55278539657593 5.18530082702637 5.59601640701294 5.88664484024048 6.6206750869751 5.36573123931885 2.93882608413696 1.6657098531723 0.675369501113892 1.05955266952515 2.33941555023193 2.18286347389221 3.3553318977356 3.64172291755676 4.39157915115356 4.75741147994995 3.13401365280151 1.46471393108368 1.13041496276855 1.40738654136658 1.61027455329895 1.84319257736206 2.06511926651001
10.7742910385132 13.7081747055054 14.3040952682495 9.73265647888184 7.63384962081909 5.41385078430176 5.0248064994812 3.35353183746338 2.83935713768005 3.90870785713196 3.9895646572113 4.38148260116577 6.31443357467651 8.83931732177734 5.98305416107178 5.01433658599854 6.84175443649292 3.94297218322754 3.88420605659485 3.96354818344116 4.13050413131714 4.30326747894287 4.39803600311279 4.49201250076294 4.6347713470459 4.66125059127808 5.24062347412109 6.042151927948 6.91163492202759 7.74757480621338 9.43959045410156 10.1921157836914 10.5940952301025 11.8797454833984 11.9673728942871 13.8331489562988 16.6170558929443 16.5503349304199 12.6161632537842 8.54859828948975 6.24148178100586 3.64046573638916 3.60101294517517 3.56841349601746 3.44139647483826 3.46988701820374 3.717609167099 3.78897142410278 3.83433508872986 3.85858607292175 3.87221217155457 3.97747325897217 4.2222261428833 4.10891103744507 4.15424299240112 4.00860023498535 3.82371807098389 3.79323935508728 3.66003704071045 3.57310676574707 3.3769154548645 3.48569321632385 3.79869103431702 4.13120222091675 4.88330888748169 5.48459959030151 6.36857414245605 6.86392307281494 7.31400394439697 8.20369625091553 9.97152519226074 11.9652185440063 13.2366733551025 16.683464050293 15.2546110153198 5.40774297714233 3.82795357704163 3.33484673500061 2.56839847564697 2.09821128845215 2.53049302101135 2.6431999206543 2.72182846069336 -1.58292555809021 -1.14082145690918 -0.657383441925049 -0.173865124583244 1.67298352718353 2.75368762016296 3.237229347229 4.20040369033813 5.69027996063232 6.49706029891968 8.83493423461914 9.7993049621582 12.1665468215942 7.75770998001099 -0.0319724306464195 -0.433945655822754 -0.305674403905869 -0.153800517320633 0.0178003087639809 0.343371778726578 0.786282479763031 1.24884462356567 1.5377459526062 1.74479031562805 1.83492588996887 1.90418577194214 1.97030222415924 2.91899967193604 4.38222122192383 5.88368272781372 1.69846534729004 0.243036314845085 0.250174194574356 0.610152065753937 1.64689028263092 2.40683937072754 2.90311002731323 2.68395018577576 2.39587473869324 2.79629254341125 1.23904180526733 1.18114244937897 1.50256204605103 1.74892151355743 1.8644951581955 2.1575813293457 2.35736465454102 2.67779874801636 2.96683645248413 3.29085683822632 3.5726912021637 4.24456977844238 4.47171688079834 4.9586296081543 5.05515956878662 5.44721269607544 5.93549299240112 6.16892957687378 6.37087488174438 6.53009510040283 6.77527809143066 7.46082830429077 7.85692548751831 8.22129726409912 9.24338340759277 9.79782009124756 7.65740966796875 4.30714273452759 4.42871713638306 4.98295021057129 5.86418104171753 5.3224573135376 4.15263652801514 3.03226780891418 2.60219526290894 0.441056340932846 -0.340574592351913 1.32959163188934 4.52330493927002 6.11505460739136 3.94000697135925 5.32658672332764 3.8405122756958 0.192946031689644 0.546361029148102 0.811427533626556 1.17509949207306 1.5143951177597 1.60059416294098 1.89684236049652
15.6456890106201 12.1387643814087 8.58922100067139 5.27961254119873 4.56000089645386 4.62808465957642 5.06841373443604 3.58048510551453 2.42671847343445 3.47452187538147 4.39958477020264 4.79730939865112 6.8669228553772 7.94798231124878 4.14581441879272 3.69295740127563 3.87353658676147 3.87849307060242 3.93910360336304 3.94669461250305 4.16912460327148 4.36531543731689 4.52582979202271 4.59495449066162 4.69081449508667 4.71264696121216 4.79139804840088 5.61893033981323 6.69579315185547 7.68182945251465 8.5533447265625 9.90933609008789 11.3621454238892 11.3008298873901 11.2961053848267 14.3083229064941 14.8282089233398 10.2615270614624 6.29989194869995 3.85412192344666 3.70029735565186 3.65158843994141 3.65741086006165 3.71900629997253 3.83097720146179 3.8748950958252 3.77822279930115 3.8449649810791 4.09215974807739 4.12014150619507 4.15377283096313 4.22615575790405 4.33901929855347 4.57262134552002 4.64812898635864 4.49207401275635 4.56776285171509 4.3793773651123 4.25825691223145 4.23356580734253 3.96013808250427 3.91324186325073 4.10110855102539 4.58149862289429 5.23235607147217 5.62349414825439 6.32201862335205 6.66749238967896 7.2701210975647 8.4005069732666 10.5273408889771 13.1029834747314 15.8668994903564 16.6926822662354 11.932635307312 3.72383499145508 2.78416085243225 2.08200526237488 3.09127187728882 2.13538765907288 0.739845454692841 1.15094947814941 0.901876628398895 -1.6874440908432 -1.4549685716629 -0.914517045021057 -0.410897731781006 0.654851973056793 2.36766171455383 3.15053224563599 3.83345651626587 4.82080173492432 6.18899154663086 8.0784387588501 9.9290132522583 10.002272605896 7.25982713699341 -0.275003582239151 -0.32725977897644 -0.209700003266335 -0.0673934295773506 0.0785225853323936 0.418650031089783 0.768899083137512 1.17525780200958 1.43213856220245 1.68364143371582 1.81827926635742 1.98385858535767 2.05441856384277 2.70221519470215 3.05802750587463 4.56912612915039 1.85205590724945 1.20808506011963 1.03347611427307 1.59353840351105 2.47407102584839 3.51942491531372 3.90701651573181 4.50356578826904 5.03427839279175 4.98239994049072 5.28448057174683 5.59540224075317 3.00545310974121 1.7667772769928 1.92032206058502 2.02876257896423 2.14287495613098 2.48661184310913 2.80848360061646 3.02631950378418 3.33577799797058 3.75956439971924 4.04993772506714 4.88637828826904 5.48106479644775 5.88740873336792 6.23145055770874 6.90677404403687 7.03768301010132 7.61725330352783 7.64350843429565 7.85204839706421 8.17536163330078 8.56920528411865 9.22488212585449 8.68589210510254 5.52361822128296 4.30423831939697 4.78596353530884 5.25447034835815 5.28879165649414 4.1392183303833 2.66283702850342 1.82733488082886 -0.495123147964478 -0.500259935855865 -0.355635315179825 -0.219414278864861 1.33224737644196 0.833098530769348 -0.186877235770226 0.0795029550790787 -0.233755677938461 -0.335113137960434 0.206289052963257 0.64473682641983 0.908816158771515 1.12394571304321 1.39444291591644 1.73093152046204
