NCOLS 173
NROWS 31
XLLCORNER 353792
YLLCORNER 6699808
CELLSIZE 16 
NODATA_value -3.4e+38 
1.12134659290314 1.22192013263702 1.28236472606659 1.60128319263458 1.70146310329437 1.80880331993103 1.90205454826355 2.03331112861633 2.31939363479614 2.48780703544617 2.64598083496094 2.8124213218689 3.0667667388916 3.09131836891174 3.23629856109619 3.39555096626282 3.3807487487793 3.50949001312256 3.66429495811462 3.83741879463196 4.04203128814697 3.42089366912842 3.56611657142639 3.69924592971802 3.84956359863281 2.92678880691528 2.77752137184143 2.7669563293457 2.7611141204834 2.3665726184845 1.89894115924835 1.66073191165924 1.47039318084717 1.27259075641632 1.30317318439484 1.36057770252228 0.914177179336548 1.0056734085083 1.20379602909088 1.62485110759735 1.61824238300323 0.912764191627502 0.937242925167084 1.01009953022003 1.08381354808807 1.25658702850342 1.47251653671265 1.54050040245056 1.55776429176331 1.58684802055359 1.48644638061523 1.58176267147064 1.70523345470428 1.8253515958786 1.95187330245972 1.8159567117691 2.00783061981201 2.23599624633789 2.51867628097534 2.84798288345337 2.82966542243958 3.27754402160645 3.77379846572876 4.33557987213135 4.37068939208984 5.13258838653564 5.98493003845215 7.01819896697998 9.05835342407227 6.08345365524292 4.92358541488647 1.19061744213104 -0.463223725557327 -0.376877158880234 -0.247640788555145 -0.12819130718708 -0.0497609525918961 0.162537351250648 0.347196280956268 0.365410536527634 0.464006930589676 0.818919956684113 0.966937005519867 1.01042449474335 1.06806981563568 1.27073347568512 1.58959066867828 1.67411851882935 1.80008792877197 1.95108032226562 2.63110566139221 3.11389827728271 3.42844557762146 4.72949695587158 6.36860609054565 7.42999505996704 8.79100894927979 19.9462280273438 28.8614120483398 20.6229877471924 8.08653163909912 -0.431796371936798 0.603820979595184 2.43516159057617 1.23123896121979 -1.11287546157837 -0.982389032840729 -0.78102719783783 -0.573124468326569 -0.412248849868774 2.40505027770996 4.27531433105469 5.08590412139893 6.82773113250732 9.97269344329834 18.9171009063721 18.8101654052734 11.6751022338867 2.43027997016907 -0.734760880470276 -0.337204933166504 0.130548492074013 0.439271718263626 0.575850486755371 0.646118223667145 1.06486666202545 1.44587993621826 1.71617126464844 2.00679922103882 2.22745871543884 2.40531063079834 2.30415034294128 2.49250030517578 2.61094427108765 2.69583582878113 2.76684951782227 2.41932606697083 2.48507046699524 2.54355382919312 2.44059491157532 2.04528760910034 2.10746145248413 2.17148208618164 2.24238514900208 1.64320623874664 1.23844432830811 1.26892507076263 1.30216217041016 1.18676853179932 1.39889991283417 1.65674686431885 1.02080035209656 1.13853144645691 1.71533334255219 2.06544208526611 2.23219156265259 0.870577216148376 0.104230679571629 0.205852165818214 0.336803317070007 0.496519923210144 0.639718651771545 0.919620335102081 1.18368661403656 1.3218846321106 1.64583241939545 2.09616947174072 2.27933549880981 2.32334852218628 2.27633452415466 2.2212598323822 2.23298192024231 2.26417851448059
0.955735385417938 1.11725902557373 1.19831466674805 1.38229298591614 1.53889322280884 1.63500726222992 1.6999055147171 1.79562306404114 2.19811654090881 2.33996796607971 2.50664710998535 2.69088578224182 3.04313230514526 3.13105225563049 3.26796245574951 3.41893982887268 3.60709953308105 3.75805926322937 3.90776538848877 4.08425855636597 4.31747722625732 4.32425165176392 4.57603216171265 4.81699371337891 5.10896348953247 4.09500694274902 4.30192995071411 4.57382535934448 4.91284656524658 5.51897764205933 3.16640186309814 1.4155148267746 1.1586434841156 1.44198644161224 1.67292261123657 1.96508824825287 1.51816773414612 1.45334374904633 1.05586063861847 1.83542561531067 2.1476891040802 1.13971257209778 0.629555284976959 0.692189693450928 0.74973863363266 0.983748972415924 1.16398417949677 1.22340226173401 1.22864365577698 1.36445140838623 1.55973136425018 1.66303646564484 1.80395936965942 1.93820977210999 2.0824248790741 2.0193817615509 2.2509651184082 2.53428220748901 2.90912246704102 3.31824851036072 3.35525298118591 3.79706406593323 4.31103992462158 4.88819932937622 5.04388189315796 5.8663444519043 6.92546558380127 8.09408378601074 9.70082759857178 9.44947338104248 8.2103385925293 -0.672255396842957 -0.623424053192139 -0.518036007881165 -0.328429102897644 -0.15264493227005 -0.0593466870486736 0.047383826225996 0.0674206763505936 0.0800351873040199 0.0661548599600792 0.235348895192146 0.423061281442642 0.439659506082535 0.464530915021896 0.613478541374207 1.06908690929413 1.26488494873047 1.35375893115997 1.45597660541534 1.85737895965576 2.32779717445374 2.55738258361816 2.85045027732849 4.26171445846558 5.08406019210815 6.01586580276489 9.88381671905518 16.1390247344971 13.6357040405273 10.9648094177246 4.42309761047363 1.67162418365479 0.801627457141876 1.82090258598328 -0.00286867935210466 -0.524714708328247 -0.380365639925003 -0.166638508439064 0.0357077866792679 1.26674437522888 2.80227470397949 3.94860076904297 5.98257541656494 15.9321517944336 23.8331146240234 17.4854373931885 7.34271144866943 -0.0204692054539919 0.340147018432617 0.55134916305542 0.863781273365021 2.09115791320801 1.15385496616364 1.21968901157379 1.56628513336182 1.88781046867371 2.11717128753662 2.31432867050171 2.47943830490112 2.55089950561523 2.64826464653015 2.83536314964294 2.96730613708496 3.05224967002869 3.12807703018188 2.86731100082397 2.94345903396606 3.01332688331604 3.09078884124756 2.71514391899109 2.79150819778442 2.87819814682007 2.9636857509613 2.8453688621521 2.40500521659851 2.48043775558472 2.56757044792175 2.66055035591125 1.94071364402771 1.43792545795441 1.46289134025574 1.32655930519104 1.49948513507843 1.77001976966858 1.84580719470978 1.85062432289124 0.68045973777771 0.0848690718412399 0.172626107931137 0.302125573158264 0.444799780845642 0.870473802089691 1.10624027252197 1.31126189231873 1.57087302207947 1.86153542995453 2.15752100944519 2.46610617637634 2.50961232185364 2.51075172424316 2.45081830024719 2.45994353294373
0.730440676212311 0.995359480381012 1.1618629693985 1.29667234420776 1.45901584625244 1.52719974517822 1.59128892421722 1.65467917919159 1.87874615192413 2.02347183227539 2.16658711433411 2.32392644882202 2.87374782562256 3.04177832603455 3.13497447967529 3.27438473701477 3.47653555870056 3.75611233711243 3.87975001335144 4.04627275466919 4.22671985626221 4.58449840545654 4.86174583435059 5.16695404052734 5.54668998718262 5.60640668869019 6.00932550430298 6.56392860412598 7.49356746673584 8.64572811126709 5.52237176895142 6.82621622085571 0.164962261915207 0.596692740917206 1.43060970306396 1.99009585380554 1.95005559921265 2.07331371307373 0.658167064189911 1.13180649280548 1.7235289812088 1.98021197319031 0.40212419629097 0.443246781826019 0.529050469398499 0.583957731723785 0.796641170978546 0.821658670902252 0.846912145614624 1.08687686920166 1.25193405151367 1.30076515674591 1.41365265846252 1.54481959342957 1.88453352451324 2.23344254493713 2.49127721786499 2.82119250297546 3.25810861587524 3.69693732261658 3.78606510162354 4.22264289855957 4.74448680877686 5.3900990486145 5.68632555007935 6.50209045410156 7.8797173500061 9.8403787612915 10.4168548583984 12.6666078567505 7.5940055847168 -0.293285757303238 -0.784680843353271 -0.69200325012207 -0.496620148420334 -0.220357000827789 -0.073699027299881 0.0726134777069092 0.078665092587471 0.0963755026459694 0.0910728499293327 0.0996574088931084 0.150121033191681 0.175058528780937 0.237522348761559 0.157775640487671 0.300736129283905 0.54240220785141 0.572424232959747 0.615905046463013 0.887672603130341 1.5730357170105 1.87302124500275 2.04055452346802 2.96324586868286 3.79411816596985 4.49776983261108 5.33904504776001 7.69055366516113 12.1394901275635 14.1931562423706 5.22154664993286 1.51635766029358 2.26755833625793 -0.21128411591053 -0.172842934727669 -0.0948953926563263 0.0350397787988186 0.23405621945858 0.53120356798172 1.08581364154816 1.73557996749878 2.85400247573853 4.24052715301514 13.9863224029541 23.2710285186768 7.19061708450317 2.23194599151611 1.63337957859039 3.81929349899292 2.8099250793457 1.58989202976227 3.17687654495239 1.83419787883759 1.86037635803223 1.92317497730255 2.24818420410156 2.42497968673706 2.59181547164917 2.63132977485657 2.73139119148254 2.90311908721924 3.08020567893982 3.21622538566589 3.30959725379944 3.25169324874878 3.23702692985535 3.32124543190002 3.40091228485107 3.49093437194824 3.20356798171997 3.29183483123779 3.3827428817749 3.48649740219116 3.58798432350159 3.18069076538086 3.29289031028748 3.4106011390686 3.51342415809631 3.3639862537384 2.87265992164612 2.9607195854187 3.06176543235779 2.19187617301941 1.64939939975739 1.67156589031219 1.72493469715118 1.54199361801147 0.795652210712433 0.289233773946762 0.221698969602585 0.420966297388077 0.673902809619904 1.09136545658112 1.31815218925476 1.57736885547638 1.86799573898315 2.16995859146118 2.48157501220703 2.58812212944031 2.63884806632996 2.61694526672363 2.66067457199097
0.4046531021595 0.753593385219574 1.01522052288055 1.28298056125641 1.3776957988739 1.46847212314606 1.5224426984787 1.57741546630859 1.71165859699249 1.83027184009552 1.97179794311523 2.12794971466064 2.46643161773682 2.68273782730103 2.77125334739685 2.87356662750244 2.97781252861023 3.57319140434265 3.69909453392029 3.82444715499878 3.95969200134277 4.3086838722229 4.69206571578979 4.97586536407471 5.32006692886353 6.11651945114136 6.66281652450562 7.32499599456787 8.12328243255615 9.24833011627197 11.0313301086426 13.5571098327637 -0.0476441420614719 0.120990611612797 0.860662817955017 1.63016879558563 2.05256319046021 1.56564962863922 0.560012817382812 0.348529398441315 0.751585066318512 1.11251163482666 0.27554839849472 0.282339751720428 0.388783365488052 0.446020424365997 0.924877524375916 0.59896183013916 0.616914749145508 0.666347324848175 0.918716669082642 0.973065376281738 1.04099953174591 1.15216779708862 1.55449783802032 1.85435378551483 2.05948829650879 2.33021664619446 2.75072407722473 3.64799332618713 4.15153646469116 4.6320915222168 5.23434400558472 5.86104011535645 6.37629127502441 7.47748184204102 9.01230907440186 11.1714296340942 11.9922714233398 13.974308013916 6.6091456413269 -0.89990246295929 -0.818227708339691 -0.712997198104858 -0.600458920001984 -0.334298223257065 -0.0875574573874474 0.0504030808806419 0.0575779117643833 0.118421651422977 0.09812131524086 0.133342653512955 0.172441214323044 0.226412028074265 0.392115026712418 0.120074547827244 0.175371393561363 0.036472138017416 0.0791005566716194 0.128162294626236 0.165653616189957 0.434123158454895 0.811037302017212 0.871165096759796 1.4149397611618 2.55266785621643 3.11616635322571 3.76090383529663 5.37279176712036 10.285120010376 10.7854042053223 5.16113376617432 1.35708236694336 1.11154210567474 0.0729662999510765 0.17919710278511 0.309022277593613 0.452772736549377 0.625882208347321 0.966643691062927 1.22260701656342 1.48145222663879 2.00851011276245 3.07263326644897 3.55826640129089 4.18037366867065 4.64557361602783 8.71970462799072 12.5187501907349 8.02073574066162 2.40549564361572 2.72034454345703 2.88251447677612 2.69282579421997 2.3282470703125 2.301926612854 2.39627003669739 2.56963920593262 2.68185329437256 2.8790066242218 3.05446457862854 3.22521448135376 3.39874410629272 3.48632979393005 3.4168975353241 3.42023992538452 3.51461100578308 3.60952234268188 3.6938533782959 3.62735509872437 3.61212134361267 3.70825958251953 3.81633424758911 3.92543864250183 4.0462327003479 3.74214148521423 3.85123491287231 3.98477077484131 4.11758422851562 4.25239229202271 3.81405806541443 3.95250463485718 4.08912658691406 3.88680291175842 3.34288382530212 3.47117686271667 3.61079812049866 3.76369976997375 2.62598276138306 1.97044062614441 2.09807944297791 2.31255054473877 2.23676753044128 1.41726934909821 1.32348132133484 1.56398332118988 1.80608594417572 2.05593538284302 2.29487633705139 2.39138340950012 2.5775625705719 2.695885181427 2.74355220794678
0.22547248005867 0.485362976789474 0.816427767276764 1.15388071537018 1.27818727493286 1.34996628761292 1.39201259613037 1.45496726036072 1.6649090051651 1.71549272537231 1.83407723903656 1.9942923784256 2.26539635658264 2.47382020950317 2.64184594154358 2.69080400466919 2.77778244018555 3.10886907577515 3.18674826622009 3.25441813468933 3.32558679580688 3.49332046508789 4.45108985900879 4.70570087432861 5.00591945648193 5.85360193252563 6.45906448364258 6.92335605621338 7.53141117095947 8.69092464447021 12.7125873565674 16.2887573242188 0.286423444747925 -0.0280922092497349 0.672341406345367 0.92710143327713 0.944678366184235 1.63571357727051 0.545046329498291 0.24795988202095 0.259462684392929 0.222376957535744 0.242578238248825 0.262017279863358 0.352714955806732 0.376432865858078 0.433455646038055 0.604558229446411 0.521395444869995 1.28765630722046 0.632865786552429 0.652054190635681 0.800411522388458 0.882640182971954 1.01595520973206 1.38793241977692 1.59007525444031 1.83556973934174 2.21023011207581 3.16977620124817 3.61781740188599 4.06872797012329 4.5879921913147 5.96634531021118 6.90209865570068 8.11974334716797 9.68523597717285 11.8607749938965 13.6448440551758 14.8751840591431 4.83154249191284 -1.00295829772949 -0.700638234615326 -0.56078052520752 -0.458574295043945 -0.405460596084595 -0.128108024597168 0.0237086229026318 0.0746331438422203 0.0922074764966965 0.0835144594311714 0.124815285205841 0.13382688164711 0.245830655097961 0.401458293199539 0.138693556189537 0.0920708701014519 0.0664887577295303 0.115373231470585 0.162951424717903 0.209636196494102 0.266163051128387 0.315889954566956 0.357255816459656 0.404121547937393 0.73803174495697 1.38441705703735 1.71329689025879 2.03069615364075 5.50117015838623 9.02954864501953 7.50267744064331 3.21074438095093 0.254681766033173 0.365688592195511 0.532324194908142 0.689883470535278 0.872589647769928 1.04174852371216 1.22953748703003 1.42571675777435 1.68880558013916 2.02822470664978 2.60269093513489 2.78362441062927 2.83942127227783 2.83088612556458 5.92916393280029 11.0359687805176 9.60144233703613 2.81318616867065 3.44126296043396 4.64361000061035 4.07301568984985 2.76932978630066 2.70092535018921 2.80263018608093 2.87338161468506 3.03589391708374 3.19530487060547 3.27493739128113 3.35939264297485 3.50887870788574 3.59359812736511 3.67600202560425 3.77270197868347 3.88040995597839 3.91172885894775 3.81665301322937 3.83691620826721 3.94324016571045 4.05744791030884 4.17820930480957 4.28299570083618 4.19844055175781 4.19779062271118 4.33809423446655 4.48305034637451 4.63963317871094 4.79131889343262 4.44007062911987 4.60671997070312 4.78341865539551 4.93048715591431 4.45597553253174 4.63371753692627 4.8266429901123 5.03631639480591 4.76641750335693 4.14878511428833 4.35245037078857 4.62783050537109 5.03736782073975 3.59388017654419 3.18564176559448 3.66508746147156 3.38157677650452 2.07161259651184 2.10657858848572 2.26030158996582 2.38745903968811 2.4955198764801 2.55113434791565
0.188489407300949 0.336806118488312 0.630627453327179 0.985785901546478 1.14476990699768 1.1923440694809 1.25680315494537 1.33370077610016 1.56282079219818 1.57167220115662 1.64534163475037 1.77954745292664 2.16228151321411 2.36267256736755 2.58225584030151 2.64253783226013 2.72105026245117 2.89987635612488 2.94718098640442 2.99498772621155 3.03716659545898 3.19021701812744 3.82121562957764 4.0125994682312 4.23566150665283 4.69126796722412 5.90819692611694 6.37103223800659 6.81539916992188 7.42095184326172 11.6734189987183 16.0675926208496 5.77401351928711 0.180015966296196 0.820649206638336 1.31359708309174 1.34754753112793 1.40817034244537 2.09091234207153 0.949775516986847 1.11971807479858 0.627357184886932 0.28163668513298 0.343234539031982 0.7318235039711 0.763909757137299 0.388217061758041 0.413826644420624 1.3026750087738 0.417090475559235 0.476575970649719 0.581219017505646 0.641065537929535 0.660481214523315 0.745677649974823 1.05865228176117 1.26853847503662 1.50685906410217 1.83514511585236 2.32905101776123 2.85772109031677 3.18984770774841 3.5442156791687 5.02361536026001 5.78633069992065 6.78437805175781 7.96076488494873 9.35595512390137 14.9114360809326 16.1713008880615 4.38123035430908 -1.0771598815918 -0.65922224521637 -0.491913974285126 -0.393573790788651 -0.308296918869019 -0.048355720937252 0.137151598930359 0.171960160136223 0.178017809987068 0.119503051042557 0.202930897474289 0.303885936737061 0.133489936590195 0.200424253940582 0.0855139046907425 0.169237941503525 0.124414257705212 0.175620004534721 0.223295390605927 0.276874184608459 0.336606293916702 0.414701521396637 0.473299205303192 0.493496239185333 0.521918416023254 0.55466103553772 0.580368220806122 0.604295074939728 0.630540311336517 3.08728671073914 4.94999885559082 3.90955924987793 0.586122930049896 0.685052275657654 0.818627774715424 0.9788738489151 1.19013178348541 1.34144461154938 1.49720275402069 1.68406569957733 1.94929122924805 2.22879528999329 2.61242914199829 2.94473552703857 3.06275749206543 3.13785481452942 3.20255088806152 3.21783399581909 3.40765595436096 3.32546019554138 5.05849075317383 4.94353103637695 3.29224586486816 3.16428017616272 3.21182227134705 3.26674246788025 3.33483552932739 3.43536067008972 3.48765826225281 3.63761711120605 3.72316956520081 3.8580584526062 3.9411141872406 3.91023659706116 3.91178488731384 3.98588418960571 4.08280801773071 4.20292186737061 4.24229669570923 4.35924339294434 4.49656677246094 4.52706670761108 4.40064573287964 4.46915102005005 4.6169114112854 4.76834726333618 4.93810701370239 5.05059003829956 4.94697904586792 5.00555896759033 5.18758726119995 5.38869524002075 5.55403804779053 5.18006038665771 5.39525890350342 5.63520574569702 5.89486598968506 6.10862112045288 5.63934421539307 5.96235227584839 6.35834360122681 6.85399198532104 6.583909034729 6.30881118774414 7.12704944610596 7.74685287475586 5.45349454879761 5.58387470245361 6.86208486557007 8.9351863861084 8.26949119567871 4.66983604431152
0.206250891089439 0.266657441854477 0.462643027305603 0.784811973571777 1.0496152639389 1.11724627017975 1.21141755580902 1.31126248836517 1.44601845741272 1.45371031761169 1.46517896652222 1.56183779239655 1.91382837295532 2.09674668312073 2.31002116203308 2.51360535621643 2.56240916252136 2.82277822494507 2.87024331092834 2.90279912948608 2.95905542373657 3.14406037330627 3.51765084266663 3.77359414100647 3.87645840644836 4.0451545715332 4.814866065979 5.21139287948608 5.51760530471802 5.73684501647949 7.50746440887451 10.9377899169922 11.2785520553589 0.410844326019287 0.600208163261414 1.14628934860229 1.33667242527008 1.50247836112976 1.67185437679291 1.83684134483337 2.04642724990845 2.15737867355347 1.86098420619965 2.38610124588013 3.04142141342163 3.94970536231995 2.65983486175537 0.363567411899567 0.400097787380219 0.494092494249344 0.536904036998749 0.54740697145462 0.579765260219574 0.607116281986237 0.628071844577789 0.844549536705017 1.04601097106934 1.29549264907837 1.68007135391235 2.01740288734436 2.32977437973022 2.55935788154602 2.84951233863831 3.52734541893005 4.14295673370361 4.84708833694458 5.17910480499268 6.5313572883606 10.3790082931519 12.8366327285767 3.32464218139648 -0.887484014034271 -0.578210890293121 -0.443113058805466 -0.394074887037277 -0.190266609191895 0.0434141829609871 0.216854214668274 0.264013648033142 0.27295196056366 0.18399079144001 0.191168367862701 0.192278876900673 0.198382049798965 0.296181678771973 0.201940536499023 0.0966455042362213 0.182995900511742 0.247240632772446 0.293785005807877 0.35666298866272 0.415489912033081 0.482660561800003 0.534554958343506 0.587582111358643 0.605549395084381 0.628409147262573 0.645788311958313 0.677560389041901 0.709196627140045 0.744311988353729 0.783468663692474 0.826809644699097 0.865115821361542 0.921054661273956 1.01436746120453 1.15171980857849 1.36053609848022 1.52961134910583 1.74474108219147 2.00402092933655 2.15741086006165 2.43737244606018 2.73891925811768 3.03304243087769 3.21619009971619 3.28203940391541 3.33414244651794 3.36743021011353 3.41294717788696 3.47606372833252 3.54457545280457 5.14556455612183 3.52871298789978 3.54265165328979 3.60948061943054 3.66649770736694 3.71633839607239 3.7594997882843 3.77027106285095 3.9424569606781 4.09355688095093 4.2278413772583 4.23342370986938 4.37262535095215 4.50889444351196 4.4874324798584 4.54654312133789 4.60167026519775 4.54331016540527 4.53890037536621 4.64348030090332 4.78825855255127 4.95691156387329 4.94446849822998 5.11424779891968 5.29163455963135 5.3157696723938 5.18069124221802 5.34052419662476 5.54586505889893 5.71340942382812 5.82395887374878 5.69038867950439 5.82179689407349 6.09598112106323 6.36408805847168 6.63761806488037 6.85806655883789 6.57323217391968 6.98509788513184 7.4727725982666 8.04615783691406 8.38897132873535 8.26023292541504 9.13558292388916 10.1950025558472 9.71492099761963 10.8964738845825 13.1808624267578 16.8838176727295 18.0149326324463 16.7173118591309
0.88751208782196 0.23688143491745 0.35217273235321 0.625580430030823 0.917399108409882 1.07753002643585 1.17411243915558 1.25645649433136 1.36775302886963 1.96064615249634 1.40072023868561 1.4237869977951 1.64355373382568 1.79617822170258 1.97468280792236 2.20766735076904 2.79621577262878 2.59583497047424 2.63193798065186 2.66721296310425 2.72970461845398 2.89670395851135 3.42982506752014 3.68097543716431 3.60163640975952 3.86512470245361 4.30751705169678 4.6451416015625 4.9703893661499 5.21515226364136 5.89358425140381 7.85162830352783 7.66382789611816 2.62878751754761 0.671648681163788 0.878221333026886 1.09884488582611 1.44463193416595 1.9139552116394 2.16218161582947 2.3545355796814 2.694669008255 3.27545022964478 3.88556432723999 4.85632991790771 6.40680885314941 6.28484058380127 6.96097326278687 0.0091681657359004 0.186905488371849 0.415175288915634 0.534913122653961 0.573083579540253 0.609270989894867 0.701058447360992 0.807461977005005 1.07059562206268 1.30979430675507 1.54867923259735 1.76651525497437 1.87962019443512 2.38494324684143 2.90408182144165 3.17209100723267 3.64664912223816 3.77434802055359 3.66189932823181 5.40289115905762 4.04492139816284 4.76681184768677 4.82763624191284 -0.660728394985199 -0.507949948310852 -0.349688112735748 -0.256457448005676 -0.0870910659432411 0.116558790206909 0.263280153274536 0.292881965637207 0.245409727096558 0.281342715024948 0.288651973009109 0.295515984296799 0.303081035614014 0.359700351953506 0.195810362696648 0.19920539855957 0.233013302087784 0.303876250982285 0.372040838003159 0.440006732940674 0.5038081407547 0.554909706115723 0.60205215215683 0.64858740568161 0.679425179958344 0.692572474479675 0.704362809658051 0.738957464694977 0.775834679603577 0.804215908050537 0.848794758319855 0.902959704399109 0.956559658050537 1.03066122531891 1.1408725976944 1.2934889793396 1.46673667430878 1.65037155151367 1.92539823055267 2.23867225646973 2.59391140937805 2.73645639419556 2.93044948577881 3.14397048950195 3.24918818473816 3.31612706184387 3.36922264099121 3.44349884986877 3.52120661735535 3.60036849975586 3.67987990379333 3.74765062332153 3.77440214157104 3.76014614105225 3.81675362586975 3.8983941078186 3.93554925918579 3.95120024681091 4.05001592636108 4.18804883956909 4.35253810882568 4.45169925689697 4.536705493927 4.68487644195557 4.83749723434448 4.91275405883789 4.95546388626099 5.00291061401367 5.17312574386597 5.3485221862793 5.29562044143677 5.34414386749268 5.39950180053711 5.33314037322998 5.34833431243896 5.55944967269897 5.7845139503479 5.69967651367188 5.90209484100342 6.10366249084473 6.08660650253296 5.90017986297607 6.16114044189453 6.47597026824951 6.8176441192627 7.06281423568726 7.16391563415527 6.98193740844727 7.3685154914856 7.86628532409668 8.41435050964355 9.09814357757568 9.46021270751953 9.60037708282471 10.5696706771851 11.7232618331909 12.2636957168579 13.6316680908203 16.0034503936768 19.8359107971191 20.4066467285156 20.8192691802979
1.07764947414398 0.272502332925797 0.343981146812439 0.479841023683548 0.72918164730072 1.01176846027374 1.14889848232269 1.2108062505722 1.28240013122559 1.64687180519104 1.83741474151611 1.35322189331055 1.49286782741547 1.6107143163681 1.77990901470184 2.01687216758728 2.99201464653015 2.29193139076233 2.33573460578918 2.38606834411621 2.43460035324097 2.66507649421692 3.04743432998657 3.08863592147827 3.16341090202332 3.40522623062134 4.08768796920776 4.41458082199097 4.77892732620239 5.09844207763672 6.27017259597778 7.91780042648315 4.85518312454224 2.57875752449036 0.700086891651154 0.540121018886566 0.679888069629669 1.04104089736938 1.51598513126373 1.99877274036407 2.20124673843384 2.81003451347351 3.28317975997925 3.79082942008972 4.84245491027832 6.33425521850586 9.53708648681641 11.144115447998 0.670584678649902 -0.508666634559631 0.10673488676548 0.420145958662033 0.62654972076416 0.894028127193451 1.75043928623199 1.36932897567749 0.969580590724945 1.03726530075073 1.35843122005463 1.70955955982208 2.23952746391296 3.09726333618164 3.35913777351379 3.56841492652893 2.17611908912659 2.13269734382629 3.22811317443848 4.80672073364258 1.89384055137634 2.14268279075623 3.6424605846405 -0.468389868736267 -0.361501663923264 -0.21925912797451 -0.134606018662453 0.0453594550490379 0.216339021921158 0.313710689544678 0.326006084680557 0.308746427297592 0.316978752613068 0.325110018253326 0.334437906742096 0.275180757045746 0.308622866868973 0.313900828361511 0.31674799323082 0.320638984441757 0.360866487026215 0.438570380210876 0.519394814968109 0.587430655956268 0.631904006004333 0.665423572063446 0.696933686733246 0.72908228635788 0.757660031318665 0.77596116065979 0.807215869426727 0.843461096286774 0.86653596162796 0.908115923404694 0.974953413009644 1.03832376003265 1.12181508541107 1.24127590656281 1.40993642807007 1.57809638977051 1.75893247127533 2.06964755058289 2.47874116897583 2.8647301197052 3.03610491752625 3.11974310874939 3.22390460968018 3.29177451133728 3.29456162452698 3.40469336509705 3.48068761825562 3.56094264984131 3.6438512802124 3.72691941261292 3.80186486244202 3.90007829666138 3.9999041557312 4.10318660736084 4.16625642776489 4.1986780166626 4.21602964401245 4.29815435409546 4.4290828704834 4.55060434341431 4.60676670074463 4.69663858413696 4.90070247650146 5.03960180282593 5.17603874206543 5.23115158081055 5.35011863708496 5.53074932098389 5.71016216278076 5.77034330368042 5.81015300750732 5.96750020980835 6.20859241485596 6.16277647018433 6.22362184524536 6.28785705566406 6.16404724121094 6.26160335540771 6.45175361633301 6.71726512908936 6.95037078857422 6.71139717102051 7.01700687408447 7.410475730896 7.48279809951782 7.42481708526611 7.81512880325317 8.39517498016357 8.82953357696533 9.3014554977417 9.7410945892334 10.2524709701538 11.4116401672363 11.9831228256226 12.7763738632202 13.7771368026733 16.0915584564209 18.7111377716064 18.7045993804932 18.2972393035889 16.4852123260498
0.943682849407196 0.337644547224045 0.35878387093544 0.457517862319946 0.626076281070709 0.8613161444664 1.07269644737244 1.14811253547668 1.24672603607178 1.32716643810272 1.54320847988129 1.39963710308075 1.4044930934906 1.50777459144592 1.66374182701111 2.87594699859619 1.93808722496033 2.08953261375427 2.15412974357605 2.2096688747406 2.82146763801575 2.72150301933289 2.51635670661926 2.57749509811401 2.64463067054749 2.91981029510498 3.52273797988892 3.77602934837341 4.0957202911377 4.61190032958984 5.72564077377319 6.3786153793335 6.47427415847778 1.59769976139069 0.262072831392288 0.321840167045593 0.375890672206879 0.631016850471497 1.07337152957916 1.5827454328537 1.82567417621613 2.02668285369873 2.68862223625183 3.24367594718933 3.83455967903137 4.60717725753784 9.38303279876709 12.0137901306152 3.54098153114319 -0.667142748832703 -0.613527297973633 -0.131819635629654 0.646583616733551 1.26443231105804 2.07690072059631 2.44711327552795 3.34630227088928 0.537109673023224 0.80864429473877 1.44357573986053 2.27298665046692 2.63218235969543 3.0966169834137 2.72196650505066 1.05347394943237 1.0292546749115 1.24065542221069 1.3533935546875 0.989097535610199 1.44290018081665 1.74135315418243 -0.214646205306053 -0.124174855649471 -0.00331391673535109 0.0308609381318092 0.200462847948074 0.347443550825119 0.39359524846077 0.401813447475433 0.342764467000961 0.347208708524704 0.356375336647034 0.366059392690659 0.34374138712883 0.351549804210663 0.360927522182465 0.370908349752426 0.373641043901443 0.425983965396881 0.506279706954956 0.578389048576355 0.641758680343628 0.696149408817291 0.732933640480042 0.764366805553436 0.788082897663116 0.844605624675751 0.867773354053497 0.886578738689423 0.928223311901093 0.94403737783432 0.979176759719849 1.0431717634201 1.11851048469543 1.22740423679352 1.3364394903183 1.49482107162476 1.69021427631378 1.87013447284698 2.21344709396362 2.78008198738098 3.04825520515442 3.19916749000549 3.2790687084198 3.3486602306366 3.3093376159668 3.379399061203 3.45385670661926 3.533278465271 3.6172661781311 3.70216083526611 3.71897625923157 3.84239363670349 3.93857383728027 4.04008054733276 4.14695405960083 4.24339246749878 4.36242437362671 4.48385524749756 4.61283397674561 4.73819541931152 4.80066585540771 4.85209274291992 4.99147796630859 5.14739513397217 5.37876272201538 5.51107120513916 5.5545015335083 5.76380109786987 5.74066781997681 5.93297243118286 6.07152843475342 6.11659145355225 6.3237190246582 6.56556177139282 6.64262008666992 6.72708082199097 7.01296472549438 7.31171560287476 7.62079000473022 7.44944715499878 7.43566417694092 7.42498016357422 7.3115816116333 7.76911401748657 8.0517406463623 8.75269031524658 9.14803600311279 8.77112865447998 9.00383377075195 9.69119930267334 10.3248357772827 10.4198474884033 11.4735736846924 13.8858432769775 15.3369054794312 15.1077251434326 14.7837266921997 17.9543876647949 18.4410533905029 17.1456985473633 16.0883026123047 12.05482006073
1.15388643741608 0.422508299350739 0.426544576883316 0.486756831407547 0.609037637710571 0.818280816078186 1.00276362895966 1.09208405017853 1.22139203548431 1.28363132476807 1.35305869579315 1.3838347196579 1.42761600017548 1.57812917232513 1.68950366973877 2.00249242782593 1.7649073600769 1.84504044055939 1.9279533624649 2.15255212783813 2.31105184555054 2.12273573875427 2.30735397338867 2.41138744354248 2.71059918403625 2.52657127380371 2.8554322719574 3.02100419998169 3.24527430534363 3.85333919525146 4.92054796218872 5.60869169235229 5.92385292053223 0.620957970619202 0.514067232608795 0.59104996919632 0.588088691234589 0.685666143894196 0.816649496555328 1.04328346252441 1.26278495788574 1.45941519737244 2.1492121219635 2.68730568885803 3.13228750228882 3.74755263328552 6.44619369506836 8.21334934234619 6.02133178710938 4.46975231170654 -0.828911304473877 -0.750316023826599 -0.194864705204964 0.67487621307373 1.56218910217285 3.00055646896362 4.1701283454895 0.207891270518303 0.525089621543884 1.4014710187912 2.23270225524902 2.30918049812317 2.18641543388367 1.06802237033844 0.901799440383911 0.952333569526672 1.03251087665558 1.26266479492188 1.70455300807953 2.60516357421875 -0.0713519975543022 0.061697781085968 0.178524747490883 0.311229526996613 0.341691195964813 0.516593873500824 0.638030469417572 0.588602483272552 0.595712304115295 0.44877290725708 0.428042709827423 0.437279671430588 0.447850078344345 0.377642661333084 0.38815450668335 0.400063306093216 0.407660394906998 0.419594675302505 0.463266968727112 0.563815891742706 0.63221275806427 0.690972089767456 0.753712117671967 0.801166951656342 0.835020542144775 0.891583681106567 0.96170437335968 1.01654553413391 1.04417085647583 1.04558718204498 1.04783999919891 1.07217836380005 1.13503265380859 1.23339176177979 1.32664465904236 1.42605900764465 1.59405779838562 1.80296862125397 2.05038928985596 2.41766571998596 2.81027364730835 3.13534426689148 3.31923604011536 3.3891327381134 3.39444184303284 3.43719267845154 3.51278948783875 3.59338855743408 3.67648243904114 3.76272034645081 3.72014880180359 3.81209826469421 3.90531778335571 4.00731658935547 4.11036586761475 4.1416072845459 4.28079080581665 4.39434003829956 4.52419090270996 4.66068649291992 4.80082511901855 4.93422079086304 5.09315061569214 5.26139163970947 5.422034740448 5.60148334503174 5.72645711898804 5.81483030319214 6.0522780418396 6.27673959732056 6.41011190414429 6.54227685928345 6.79303979873657 7.0743932723999 6.96721935272217 7.01849174499512 7.46716594696045 8.00013637542725 8.06038665771484 7.95160150527954 7.95656776428223 8.2268238067627 8.51382732391357 8.91358280181885 9.41812610626221 9.28851985931396 9.46154308319092 9.97410774230957 11.0191888809204 11.6916284561157 12.0329427719116 12.5919456481934 14.8374853134155 15.7896509170532 17.6280899047852 17.258092880249 14.9854793548584 12.3450136184692 13.4280872344971 15.0129270553589 15.777738571167 12.0736303329468 7.45988702774048
1.39032626152039 1.03493428230286 0.509211242198944 0.54022878408432 0.644694447517395 0.815634250640869 0.981555283069611 1.11010408401489 1.22633504867554 1.27795875072479 1.40967798233032 1.50772142410278 1.77202641963959 1.84782683849335 2.86872506141663 1.66038596630096 1.70532560348511 1.75252771377563 1.82169711589813 2.04583716392517 1.90304136276245 2.11761021614075 2.27346396446228 2.33161783218384 2.37180042266846 2.48393487930298 2.43185925483704 2.53595089912415 2.62451386451721 2.95189309120178 3.85454940795898 4.31012916564941 4.28089714050293 1.53429472446442 0.961641669273376 0.9728724360466 0.99024373292923 1.00565361976624 0.764194905757904 0.887864410877228 1.2452894449234 1.42746186256409 1.62220621109009 1.99325549602509 2.23610949516296 2.56536746025085 4.01017761230469 5.6973123550415 6.15753269195557 4.81007099151611 0.276593178510666 -0.56002151966095 -0.4618299305439 0.116714052855968 0.809300363063812 2.11956715583801 2.94170212745667 0.0919491723179817 0.309277683496475 0.651273846626282 1.62057650089264 2.57714867591858 1.355055809021 0.90462726354599 0.739439845085144 0.786626398563385 0.94329971075058 1.59680593013763 2.36763429641724 4.20339107513428 0.330959975719452 0.383767336606979 0.67094099521637 0.860256612300873 1.04840230941772 1.30327975749969 1.78280770778656 1.85981845855713 1.89566314220428 1.63454353809357 1.04534041881561 0.73308914899826 0.668558597564697 0.496340930461884 0.47568416595459 0.486274510622025 0.494734525680542 0.507095217704773 0.502212226390839 0.603086292743683 0.682241022586823 0.745324552059174 0.801623344421387 0.858750879764557 0.916783630847931 0.9744912981987 1.07894909381866 1.14113807678223 1.17559385299683 1.18207347393036 1.18545997142792 1.21011805534363 1.26232242584229 1.34631502628326 1.44410014152527 1.57415461540222 1.74259793758392 1.92075383663177 2.23895263671875 2.57588911056519 2.91242551803589 3.22224116325378 3.33263516426086 3.40149521827698 3.47690582275391 3.55470895767212 3.63556265830994 3.71915221214294 3.80822253227234 3.81294369697571 3.87644696235657 3.97678112983704 4.08041381835938 4.18114042282104 4.13269424438477 4.24283075332642 4.36056232452393 4.48845863342285 4.62150955200195 4.75995254516602 4.82134294509888 4.98514032363892 5.15275239944458 5.31598663330078 5.47879648208618 5.63585233688354 5.82234001159668 5.97774362564087 6.28242254257202 6.52269315719604 6.57122182846069 6.7853889465332 7.03508567810059 7.33077192306519 7.56568956375122 7.68615913391113 8.09827423095703 8.6091947555542 9.14472103118896 8.9189624786377 9.53355598449707 10.3888187408447 10.4226779937744 9.49888610839844 9.95858287811279 10.9726533889771 13.6781549453735 13.3701791763306 15.8315258026123 17.057825088501 15.1537885665894 12.3241739273071 13.7861175537109 17.3963146209717 16.571704864502 15.1513452529907 14.6680250167847 10.9978199005127 9.92020988464355 11.1594305038452 11.080174446106 9.11895561218262 4.81820964813232
1.41037452220917 1.49204528331757 0.582337260246277 0.601722002029419 0.696167409420013 0.816965043544769 0.965430796146393 1.09953558444977 1.27014935016632 1.47516071796417 1.58466935157776 1.60815680027008 2.27705788612366 4.11113786697388 1.96783661842346 1.60393464565277 1.6444718837738 1.67192447185516 1.74144852161407 1.86774253845215 1.9554762840271 2.03937578201294 2.09653663635254 2.40675783157349 2.41723036766052 2.18663382530212 2.05946636199951 2.1546802520752 2.17758989334106 2.15141320228577 2.5971953868866 3.53324508666992 3.99871802330017 1.81065392494202 1.63912749290466 1.6690593957901 1.69552564620972 1.58397901058197 1.28580904006958 1.09801352024078 1.19908237457275 1.27142000198364 1.3267537355423 1.77502834796906 2.04636979103088 2.33827900886536 2.74618482589722 4.05393266677856 4.53075075149536 3.57989954948425 1.04446613788605 -0.108403719961643 -0.0855110213160515 -0.000294868426863104 0.253711074590683 0.602386832237244 0.967704772949219 1.13946676254272 0.0645533800125122 0.121373750269413 0.87796151638031 1.50209248065948 1.38949346542358 1.7338604927063 1.51282215118408 -0.123581312596798 0.223385348916054 0.697872698307037 1.77504885196686 3.47776675224304 3.36390447616577 0.710905849933624 1.10837292671204 1.50119817256927 1.7570915222168 2.18948602676392 2.67335867881775 2.90163707733154 2.96527576446533 2.61623072624207 1.99180376529694 2.03808164596558 2.08344483375549 2.13382148742676 1.83569228649139 1.16805803775787 0.73222690820694 0.746171593666077 0.552564680576324 0.658618986606598 0.741429448127747 0.807528913021088 0.866332054138184 0.933595240116119 1.00010395050049 1.06942844390869 1.1467353105545 1.23199427127838 1.26586163043976 1.29023563861847 1.31713318824768 1.36105000972748 1.43675291538239 1.51460981369019 1.6264922618866 1.77750408649445 1.91920101642609 2.12640476226807 2.46057105064392 2.77919673919678 3.05835461616516 3.25003051757812 3.32150149345398 3.37451410293579 3.49102926254272 3.56742382049561 3.64874458312988 3.73217535018921 3.82318782806396 3.91804194450378 4.01517057418823 4.11880493164062 4.22698593139648 4.2297682762146 4.32594394683838 4.44373655319214 4.58179712295532 4.72517490386963 4.84173393249512 4.80665397644043 4.96834230422974 5.13985872268677 5.32527160644531 5.43818092346191 5.56774520874023 5.63036632537842 5.81895160675049 6.06321668624878 6.27756500244141 6.43070840835571 6.64352655410767 6.89283466339111 7.15936422348022 7.4453592300415 7.77695608139038 7.93643712997437 8.34561443328857 8.82108402252197 9.37298774719238 9.62344741821289 10.2656288146973 11.2465019226074 12.026611328125 12.4834785461426 13.9621610641479 15.9876556396484 18.9091300964355 17.5060405731201 12.161169052124 10.8391904830933 12.4118938446045 11.6452798843384 12.0478544235229 14.4263639450073 13.0218057632446 10.9458208084106 9.41632556915283 9.44208335876465 6.20349359512329 4.23955917358398 6.17963647842407 9.18001842498779 1.14174723625183
0.671947240829468 1.04407012462616 0.673589169979095 0.695269405841827 0.765278100967407 0.846768796443939 0.94203108549118 1.07005453109741 1.27209639549255 1.48708987236023 1.67158818244934 1.89759480953217 2.35156965255737 2.03932952880859 1.62393152713776 1.62122189998627 1.64779043197632 1.67460000514984 1.72800862789154 1.81935477256775 1.90871596336365 1.98857164382935 2.09671425819397 2.44343852996826 2.8851306438446 2.28406143188477 2.13067841529846 2.13717842102051 2.21098160743713 2.0294246673584 1.83516311645508 2.40016460418701 2.74069309234619 2.26723098754883 1.8034884929657 1.81527888774872 1.83094024658203 1.82973444461823 1.79945456981659 1.82763373851776 1.92070245742798 2.03030586242676 1.9506539106369 1.64700663089752 1.63630998134613 1.85486197471619 2.13292646408081 2.95209050178528 4.4761266708374 5.03468894958496 2.2427077293396 0.34015366435051 0.200883030891418 0.300566554069519 0.47965931892395 0.0298733711242676 0.355698019266129 0.845953047275543 0.148419678211212 -0.0646126046776772 0.178090021014214 0.706802904605865 0.972791850566864 1.37741100788116 1.04122960567474 0.0790132060647011 0.750997602939606 1.00085067749023 1.03265190124512 1.69914650917053 2.22500348091125 1.15151178836823 1.55597031116486 2.19471383094788 2.54372620582581 2.70818591117859 3.04260516166687 3.22428631782532 3.29327893257141 3.32433867454529 3.10563588142395 3.17891812324524 3.25262045860291 3.32917642593384 2.93733620643616 2.24826288223267 2.29432463645935 2.34537172317505 2.01443862915039 1.28686892986298 0.931590974330902 0.882754266262054 0.963761508464813 1.04304087162018 1.10047090053558 1.15299260616302 1.2442991733551 1.32185387611389 1.35173296928406 1.38161861896515 1.46974766254425 1.55480229854584 1.65599799156189 1.74287343025208 1.83794498443604 2.03575134277344 2.31036162376404 2.50709342956543 2.738041639328 2.98442482948303 3.15976119041443 3.2301914691925 3.26866483688354 3.40540957450867 3.48079299926758 3.56004452705383 3.64262890815735 3.72861313819885 3.78583335876465 3.89515566825867 4.02505588531494 4.12786149978638 4.23853254318237 4.35651111602783 4.4786114692688 4.60530138015747 4.74275922775269 4.88764715194702 4.89925146102905 5.05386781692505 5.22361898422241 5.41302442550659 5.59681272506714 5.67988586425781 5.63564109802246 5.78987312316895 5.95721912384033 6.07630825042725 6.26271963119507 6.34031343460083 6.54251527786255 6.80735683441162 7.09141206741333 7.41951894760132 7.63949823379517 8.0206937789917 8.40254306793213 8.82998561859131 9.35499954223633 9.86244010925293 10.410605430603 11.2261400222778 12.288703918457 13.5398626327515 15.2912168502808 16.8133182525635 19.4222507476807 23.2349700927734 15.6217603683472 7.05570983886719 6.95215463638306 9.19505405426025 9.33753776550293 10.2299737930298 10.170690536499 11.508358001709 4.09898853302002 3.38058471679688 1.90617597103119 0.246554866433144 1.35757386684418 2.71016311645508 -0.794748961925507
0.70472115278244 0.740142703056335 0.758633375167847 0.786026477813721 0.842065930366516 0.899786114692688 0.96369594335556 1.06964373588562 1.26050007343292 1.46303689479828 1.7073689699173 1.96998560428619 2.90887999534607 1.72524011135101 1.72573494911194 1.75765597820282 1.7774715423584 1.80381488800049 1.69939434528351 1.7886917591095 1.84792876243591 2.01651287078857 2.08091402053833 2.13232517242432 2.49020671844482 2.55147767066956 2.21402335166931 2.07634925842285 2.32489442825317 2.15527367591858 1.66787648200989 1.7027223110199 1.85444521903992 1.83465814590454 1.7473384141922 1.75244879722595 1.75773644447327 1.91760444641113 1.95365285873413 1.98582303524017 2.03873634338379 2.13849997520447 2.18326616287231 2.22848105430603 2.31040143966675 2.39833998680115 2.26929664611816 1.95192837715149 3.09599041938782 4.02170467376709 2.93247818946838 1.35121202468872 0.902480185031891 0.932948708534241 0.487941801548004 0.527594149112701 0.613580048084259 0.400106757879257 0.258005917072296 0.166754245758057 0.167481169104576 0.464561730623245 0.579241752624512 0.945977210998535 0.0115036033093929 0.499813407659531 1.24665606021881 1.29396378993988 1.33451342582703 1.2226048707962 1.28874242305756 1.67855715751648 2.11798763275146 2.61608719825745 2.98939561843872 3.15631484985352 3.38447713851929 3.6992654800415 3.78869700431824 3.84062814712524 3.49345278739929 3.52853727340698 3.61271286010742 3.69314336776733 3.72874784469604 3.51008248329163 3.59811854362488 3.68571305274963 3.25753307342529 2.50377035140991 2.57683110237122 2.6525251865387 2.73711133003235 2.35137343406677 1.4997763633728 1.26348638534546 1.33751618862152 1.40439808368683 1.46694087982178 1.53453552722931 1.63937878608704 1.73630559444427 1.84287536144257 1.93551826477051 2.19269442558289 2.58948731422424 2.81600689888 2.91330862045288 3.03365707397461 3.14370465278625 3.21036243438721 3.2724130153656 3.31363773345947 3.38974761962891 3.46657466888428 3.54584670066833 3.62973570823669 6.49470567703247 3.67413902282715 3.75052881240845 4.02178287506104 4.13059711456299 4.22847461700439 4.37300634384155 4.49572896957397 4.62576389312744 4.76088857650757 4.90681886672974 5.07189321517944 5.23213768005371 5.40951299667358 5.60519075393677 5.77503204345703 5.73654413223267 5.8718204498291 6.02670478820801 6.19310569763184 6.25969076156616 6.25260305404663 6.46383094787598 6.6871657371521 6.98648262023926 7.14869403839111 7.35336923599243 7.634108543396 8.04526233673096 8.45805835723877 8.90304946899414 9.4225435256958 9.77359962463379 10.435510635376 11.1082134246826 11.9240789413452 12.7839107513428 14.0332851409912 15.4129934310913 17.0901412963867 20.6191101074219 25.3126335144043 8.72855281829834 5.48843908309937 6.10274648666382 6.66748666763306 8.01474571228027 8.72200298309326 10.3617658615112 3.09123754501343 1.78396046161652 -1.19890570640564 -1.45829796791077 -1.2033988237381 -1.02831375598907 -0.879302859306335
0.733581781387329 0.776056826114655 0.815043449401855 0.850844144821167 0.902929246425629 0.95671021938324 1.01079404354095 1.09302628040314 1.23325192928314 1.39383435249329 1.57580769062042 2.93952226638794 2.38416218757629 1.76530766487122 1.79994487762451 1.81467020511627 1.82723951339722 1.8526908159256 1.81877684593201 1.84653198719025 1.86672461032867 1.97181820869446 2.13852858543396 2.1759238243103 2.34364628791809 2.62521600723267 2.19206261634827 1.97413349151611 2.13848805427551 2.29093527793884 1.64402163028717 1.64449524879456 1.6521155834198 1.66240680217743 1.72951900959015 1.74038553237915 1.75600898265839 1.82513320446014 1.86893332004547 1.90662503242493 1.94288694858551 1.99293375015259 2.25648355484009 2.34875774383545 2.43562197685242 2.52725148200989 2.54208469390869 2.59367680549622 2.6846296787262 2.79441690444946 2.75378060340881 2.69142174720764 1.88378167152405 1.5177366733551 1.55783832073212 1.65298557281494 1.80740869045258 1.24153304100037 0.874212920665741 0.974909901618958 1.03684794902802 0.730614125728607 0.895912110805511 0.544978022575378 0.418792426586151 0.895375490188599 1.4975460767746 1.68684244155884 1.73915016651154 1.56024348735809 1.56701529026031 2.01553320884705 2.48410129547119 2.86154723167419 3.33502459526062 3.56324052810669 3.72185206413269 3.86753249168396 3.95585441589355 3.97154903411865 3.86917924880981 3.99092149734497 4.1098427772522 4.22300815582275 4.29686832427979 3.92020702362061 3.99383187294006 4.09738683700562 4.13201665878296 3.9131383895874 4.0310115814209 4.15458536148071 4.2779746055603 3.76821064949036 2.93295884132385 3.03525757789612 3.14654231071472 3.26346206665039 2.80094480514526 1.79240942001343 1.80855071544647 1.93037390708923 2.07578945159912 2.25940799713135 2.65665316581726 3.1326105594635 3.19830107688904 3.25670862197876 3.30174708366394 3.36929368972778 3.35368275642395 3.29147553443909 3.36876773834229 3.44792437553406 3.52854633331299 3.86508250236511 4.80594730377197 8.60905647277832 3.58487939834595 3.64120173454285 4.000657081604 4.07257890701294 4.26807498931885 4.38661241531372 4.51275491714478 4.64713716506958 4.78646039962769 4.92312049865723 5.09238243103027 5.25443363189697 5.43860340118408 5.63657379150391 5.74288558959961 5.85039281845093 5.98676872253418 6.135910987854 6.30032300949097 6.26281404495239 6.39482164382935 6.5816478729248 6.8697338104248 7.18289232254028 7.32040882110596 7.55012607574463 8.00037288665771 8.51962852478027 9.021409034729 9.16541957855225 9.40705299377441 10.2514190673828 10.7453269958496 11.3714456558228 11.8805198669434 12.0858144760132 12.9289979934692 13.9365997314453 15.3601245880127 15.7941703796387 17.5065975189209 15.4934358596802 5.66311073303223 4.24797964096069 4.02445030212402 4.87583160400391 5.45285081863403 6.47382926940918 4.59818553924561 1.89490485191345 -1.94215130805969 -1.73739802837372 -1.45798766613007 -1.1956844329834 -1.02507340908051
0.754162132740021 0.814450621604919 0.864985346794128 0.908861815929413 0.955535113811493 1.01667022705078 1.07213819026947 1.12267053127289 1.22146046161652 1.33913624286652 1.51769638061523 2.64603137969971 1.62612020969391 1.67300856113434 1.67263078689575 1.67698729038239 1.69807159900665 1.85046601295471 1.87297630310059 1.89857733249664 1.92288959026337 1.94847750663757 2.04063606262207 2.24738597869873 2.22251415252686 2.42729377746582 2.50240969657898 1.81466603279114 2.07452797889709 2.16296696662903 1.71264541149139 1.76122856140137 1.76950585842133 1.75543880462646 1.7499623298645 1.72882270812988 1.75434768199921 1.78373396396637 1.87678039073944 1.93631291389465 2.00869250297546 2.06008839607239 2.15473175048828 2.17839407920837 2.25557827949524 2.3154501914978 2.63568830490112 2.73403024673462 2.83618187904358 2.97608733177185 3.10860514640808 3.1659882068634 2.90520668029785 2.9725239276886 3.10695242881775 3.3027937412262 3.88493156433105 2.45226740837097 2.03836011886597 2.31298446655273 2.66584873199463 1.7962384223938 1.43068540096283 1.63894510269165 2.00978302955627 1.85413253307343 1.54837203025818 1.87580180168152 1.92684280872345 1.9338698387146 1.83801364898682 2.03636956214905 2.51085138320923 2.97825765609741 3.39619207382202 3.81504607200623 4.08033180236816 3.95316290855408 3.95410656929016 3.96185302734375 3.93161988258362 4.06685018539429 4.2064208984375 4.35308408737183 4.41674709320068 4.36534214019775 4.56934833526611 4.71755504608154 4.77735185623169 4.35283660888672 4.48066854476929 4.61541175842285 4.75277662277222 4.79719257354736 4.58440494537354 4.73809671401978 4.91639566421509 5.09449338912964 4.5007119178772 3.56492972373962 3.71834468841553 3.86183333396912 3.33139729499817 2.66202425956726 3.0456805229187 3.37284231185913 3.46018934249878 3.53153419494629 3.48558855056763 3.44324040412903 3.50783324241638 3.58973932266235 3.65582942962646 3.70515131950378 3.78955841064453 4.26133584976196 6.05173444747925 7.88668060302734 3.59106874465942 3.75880551338196 4.06261253356934 4.15337991714478 4.27213668823242 4.39429426193237 4.52435255050659 4.65945863723755 4.71588659286499 4.96711301803589 5.13027048110962 5.30226993560791 5.48552846908569 5.66388177871704 5.72283554077148 5.79609155654907 5.90475368499756 6.05596256256104 6.1691107749939 6.34835624694824 6.50346803665161 6.71353483200073 6.93653440475464 7.2721734046936 7.40150165557861 7.85599851608276 8.33124256134033 8.8720531463623 9.33174991607666 9.59566783905029 10.3661584854126 11.2825765609741 11.8916664123535 12.0863056182861 13.1392297744751 13.8835334777832 15.5469417572021 14.5132789611816 13.5837268829346 14.4754266738892 14.0064373016357 13.7019453048706 8.63924789428711 2.4327073097229 2.14466381072998 2.56464743614197 3.23042130470276 3.5941596031189 3.14035058021545 1.42208111286163 -2.08251547813416 -1.80668985843658 -1.51087534427643 -1.17493677139282 -0.898559808731079
0.746005237102509 0.863825082778931 0.926637947559357 0.949634492397308 1.01107144355774 1.07324492931366 1.12873530387878 1.17707908153534 1.24750566482544 1.35701060295105 1.81817257404327 2.38594174385071 3.09465551376343 1.58281302452087 1.58793354034424 1.60035395622253 1.61006498336792 1.66813588142395 1.73390233516693 1.74769532680511 1.7731591463089 1.95349979400635 1.97593951225281 2.11459493637085 2.27290487289429 2.23961138725281 2.27821040153503 1.90190315246582 2.08907055854797 1.94451832771301 1.89975559711456 1.91538524627686 1.81531190872192 1.83251416683197 1.84463763237 1.82929611206055 1.84644603729248 1.86704111099243 1.86839032173157 1.92325818538666 1.99622201919556 2.05721831321716 2.15500831604004 2.33661031723022 2.45388436317444 2.55302619934082 2.69262480735779 2.85138463973999 2.73912739753723 2.92415452003479 3.08321833610535 3.14769577980042 3.42471313476562 3.61301827430725 4.03715848922729 4.75851583480835 6.1235237121582 6.00078201293945 4.48535251617432 3.48147773742676 3.9157977104187 3.35433459281921 3.59881043434143 4.38696098327637 5.68958616256714 5.6480975151062 2.95672750473022 1.75645136833191 1.88008654117584 1.99549496173859 1.99833536148071 2.10124683380127 2.37056970596313 2.72160124778748 3.08856534957886 4.26767635345459 5.01781797409058 4.09410905838013 3.87664937973022 3.90821981430054 4.00977516174316 4.14421415328979 4.24300003051758 4.36716794967651 4.48325681686401 4.53224515914917 4.80104112625122 5.01784420013428 5.045814037323 4.99924993515015 5.15163469314575 5.30770206451416 5.47075700759888 5.54818677902222 5.09590435028076 5.26823425292969 5.45587015151978 5.64833450317383 5.71203517913818 5.55320072174072 5.78666639328003 6.02926874160767 5.32288694381714 4.31726121902466 4.5584921836853 4.81269884109497 4.99731016159058 4.29971837997437 3.62356996536255 3.70423054695129 3.78718852996826 3.87519216537476 3.96623039245605 3.91601252555847 4.28872156143188 5.18303394317627 7.715491771698 4.7120680809021 3.85039973258972 4.00974416732788 4.11471080780029 4.23657894134521 4.36219310760498 4.49305582046509 4.63453388214111 4.72543811798096 4.83568143844604 4.99309635162354 5.16310167312622 5.33730602264404 5.50315999984741 5.51337051391602 5.69320726394653 5.75575590133667 5.85137224197388 5.96440887451172 6.08265924453735 6.23427486419678 6.42805194854736 6.65186548233032 6.90342140197754 7.11783266067505 7.57520818710327 7.99167156219482 8.42437362670898 8.92788505554199 9.51453399658203 10.1042785644531 10.8945055007935 11.8354253768921 12.2809934616089 13.1786890029907 14.3034467697144 15.656192779541 17.6093826293945 16.1581058502197 16.3116226196289 9.36693572998047 9.58563804626465 10.0987644195557 4.95192384719849 1.24186170101166 1.71319735050201 2.63385844230652 3.27170634269714 1.14417779445648 0.0696132555603981 -0.901401340961456 -1.83046174049377 -1.63469696044922 -1.45318531990051 -1.12176918983459 -0.747270822525024
0.717625916004181 0.894591569900513 0.993037223815918 1.02440202236176 1.08131277561188 1.14862215518951 1.21606612205505 1.27712345123291 1.30228197574615 1.39479827880859 2.03103446960449 1.92348480224609 2.09587812423706 1.53149044513702 1.5426629781723 1.5421496629715 1.54587554931641 1.57073521614075 1.64595997333527 1.66033148765564 1.68067193031311 1.74375295639038 1.82363128662109 1.86473298072815 2.63368129730225 2.27034068107605 2.10785579681396 2.00099611282349 2.0117621421814 2.02063512802124 2.02794456481934 2.03591012954712 1.97707211971283 2.0025417804718 2.03647065162659 2.08290672302246 1.90526461601257 1.93372225761414 1.97521662712097 2.03362274169922 2.05780577659607 2.12737679481506 2.20501232147217 2.2521116733551 2.35411214828491 2.47743988037109 2.59757518768311 2.74698925018311 3.06522107124329 3.28147745132446 3.4805064201355 3.64530611038208 3.24657416343689 3.42613339424133 3.78878879547119 4.48297119140625 5.56306934356689 8.43466377258301 10.5949230194092 2.87660145759583 3.54233360290527 5.40383434295654 6.98761224746704 8.85933017730713 11.3717555999756 9.65693664550781 7.14014720916748 1.38823068141937 1.59229218959808 1.78516125679016 1.95492303371429 2.16757369041443 2.36427688598633 2.63099718093872 4.80894899368286 6.01738166809082 5.29478025436401 3.99130916595459 3.7489902973175 3.80110454559326 3.92446064949036 4.05311727523804 4.1996488571167 4.3394889831543 4.53745174407959 4.81857776641846 5.11056709289551 5.21143388748169 5.27192354202271 5.3185019493103 5.48180055618286 5.64930868148804 5.82269525527954 5.85955429077148 5.87196350097656 6.07024097442627 6.27771282196045 6.50489139556885 6.59763193130493 6.15421152114868 6.41976261138916 6.70207834243774 6.75348663330078 6.65540933609009 6.99169158935547 7.37657451629639 7.7821946144104 6.87348890304565 5.85038995742798 6.26556348800659 6.75293779373169 7.02322387695312 6.05359029769897 5.55407333374023 7.11939239501953 7.25349760055542 7.63026809692383 3.98819208145142 3.87830233573914 4.18291711807251 4.49531888961792 4.63601970672607 4.72417116165161 4.83610391616821 4.82579851150513 4.79695701599121 4.95778846740723 5.13437414169312 5.30185413360596 5.45446538925171 5.52576541900635 5.63708209991455 5.70217037200928 5.7380838394165 5.80768728256226 5.73269891738892 5.97879981994629 6.11608028411865 6.31783723831177 6.56628847122192 6.84233283996582 7.16388988494873 7.52771902084351 7.99754190444946 8.46421718597412 8.99290180206299 9.46233558654785 10.1860656738281 10.9410467147827 11.8593101501465 12.687424659729 13.9677324295044 15.3505325317383 17.4162139892578 18.6131343841553 18.6545715332031 17.6688861846924 8.0999755859375 4.47784423828125 4.9841103553772 0.00527290580794215 0.499847888946533 -0.957680881023407 -0.316658020019531 0.304022520780563 -1.18407690525055 -1.6127724647522 -1.609055519104 -1.56815528869629 -1.40343940258026 -1.00413954257965 -0.416576594114304 0.63363116979599
0.686171650886536 0.889272630214691 1.03136301040649 1.0996230840683 1.14997708797455 1.22974526882172 1.29673886299133 1.36343884468079 1.37841367721558 1.46185040473938 2.21823811531067 1.58318698406219 2.01146984100342 1.87308549880981 1.75345861911774 1.4958438873291 1.49543738365173 1.50665366649628 1.56053400039673 1.592120885849 1.60650229454041 1.62643003463745 1.72122204303741 1.78195130825043 1.85299324989319 2.1625828742981 2.45041394233704 2.47368049621582 3.14007806777954 3.9224488735199 1.98113977909088 2.04601359367371 2.07126116752625 2.11476016044617 2.16581320762634 2.19476914405823 2.13380193710327 2.19043278694153 2.26301455497742 2.31734609603882 2.37763142585754 2.18215775489807 2.28667330741882 2.39459729194641 2.5085301399231 2.50635504722595 2.6293203830719 2.78296637535095 2.9442982673645 3.13572669029236 3.29516124725342 3.39216661453247 3.70750617980957 3.91538405418396 4.37642812728882 5.0868353843689 6.29101610183716 6.65127849578857 7.05392074584961 2.40087199211121 3.29584574699402 4.32839155197144 6.37461233139038 8.75966930389404 11.1289205551147 13.6847372055054 14.8076877593994 0.988604187965393 1.2120680809021 1.40980100631714 1.76163589954376 2.0911180973053 2.314288854599 4.59392166137695 7.4781608581543 6.44678688049316 5.72427463531494 3.44655060768127 3.52984690666199 3.63702940940857 3.7645058631897 3.91040110588074 4.10621881484985 4.29525327682495 4.50209617614746 4.87452220916748 5.24527168273926 5.40863132476807 5.5722131729126 5.73796796798706 5.91494369506836 5.98314332962036 6.05650520324707 6.12325191497803 6.26686716079712 6.49475240707397 6.68869256973267 6.92062425613403 6.9606237411499 7.07041120529175 7.37103891372681 7.69712924957275 7.80823993682861 7.40289258956909 7.77378368377686 8.18732261657715 8.63729286193848 8.70822906494141 8.8445873260498 9.43059062957764 10.1096239089966 10.9016189575195 9.56231498718262 8.51746463775635 9.03139972686768 9.12219619750977 7.12807512283325 3.91051268577576 3.979407787323 4.2854380607605 4.60781860351562 4.79499197006226 4.87481069564819 4.94024324417114 5.2221474647522 5.45497035980225 5.55497884750366 5.61280345916748 5.70050144195557 5.61748886108398 5.61338949203491 5.76582145690918 5.86649036407471 5.87726020812988 5.77869319915771 5.82245540618896 5.93868923187256 6.08935403823853 6.27590465545654 6.52794361114502 6.59713268280029 7.07235383987427 7.36583662033081 7.79818773269653 8.29798603057861 8.79461288452148 9.51350498199463 10.2529811859131 10.9910230636597 11.8569269180298 12.531229019165 13.694543838501 14.8324337005615 16.2740802764893 20.5519008636475 24.9702568054199 12.5648670196533 7.18026304244995 3.7584981918335 -1.79070210456848 -1.64945983886719 -1.47380697727203 -1.45486330986023 -1.21209514141083 -0.900427520275116 -0.680162131786346 -0.626571476459503 -0.0329808667302132 0.226608708500862 0.515992224216461 1.39285814762115 2.87447166442871 3.19684076309204
0.759489953517914 0.915186047554016 1.07359099388123 1.17324256896973 1.2664407491684 1.35197389125824 1.3912672996521 1.44618058204651 1.48659789562225 1.57148885726929 2.04605555534363 2.16622042655945 3.54055953025818 1.5211626291275 2.15580558776855 1.80010485649109 1.63527679443359 1.48365306854248 1.49483680725098 1.535569190979 1.55790221691132 1.58353710174561 1.63273477554321 1.68765664100647 1.77873289585114 1.80401790142059 1.92197024822235 1.99441528320312 1.91179096698761 2.07048964500427 1.71437561511993 1.77818977832794 1.85554206371307 1.87779664993286 1.90624463558197 2.20634126663208 2.25044226646423 2.31440901756287 2.38595628738403 2.45847988128662 2.49739933013916 2.50007629394531 2.62345194816589 2.77367210388184 2.9113826751709 3.01489663124084 2.87003374099731 3.08783078193665 3.38238573074341 3.16057443618774 3.31176257133484 3.26382088661194 3.3063530921936 3.53898882865906 3.72322368621826 4.31633329391479 5.21144771575928 7.12248086929321 8.04262065887451 1.35213601589203 2.62755608558655 3.43215727806091 4.44214487075806 6.20478200912476 8.41841602325439 11.9502487182617 12.3193483352661 0.94343376159668 1.08936858177185 1.387371301651 1.65008807182312 2.02568125724792 4.4515323638916 7.28156471252441 9.61532688140869 11.0173330307007 3.50738143920898 3.22789978981018 3.37354350090027 3.51571178436279 3.61591863632202 3.73840951919556 3.93976211547852 4.2304220199585 4.50021982192993 4.8796591758728 5.24321222305298 5.43199443817139 5.58622741699219 5.75245189666748 5.92501020431519 6.14341163635254 6.34298181533813 6.55985450744629 6.78976821899414 7.03811931610107 7.10830736160278 7.1914587020874 7.3348503112793 7.6472282409668 7.88828229904175 8.17550086975098 8.23119640350342 8.50479888916016 8.93125152587891 9.40294647216797 9.9178409576416 10.046838760376 10.2098150253296 10.596137046814 11.4330396652222 12.394645690918 11.3977403640747 11.4523639678955 12.1724090576172 13.2501039505005 10.9397249221802 9.47223472595215 11.2280693054199 16.4795303344727 18.4283142089844 14.0380706787109 6.72364091873169 4.83201456069946 5.08537340164185 5.61436033248901 5.84814882278442 5.81616687774658 6.00155019760132 6.20058155059814 6.28370380401611 6.29863262176514 6.32928562164307 6.08827829360962 5.97110509872437 6.03308343887329 6.11205863952637 6.28681993484497 6.42361164093018 6.46483039855957 6.70279312133789 6.95296096801758 7.19798612594604 7.54488945007324 8.12584686279297 8.51614570617676 9.22548389434814 10.0845813751221 10.8793020248413 11.3821907043457 12.4012861251831 13.6299962997437 14.701301574707 16.1242008209229 17.2683506011963 17.8662071228027 15.0323123931885 8.61441135406494 0.246459022164345 -2.39871883392334 -2.15283012390137 -1.80005133152008 -1.49793481826782 -0.950661420822144 -0.0214967243373394 0.774616897106171 1.11477386951447 1.34341168403625 1.36079704761505 1.36135065555573 1.66018784046173 5.03718280792236 8.3979024887085
0.864083886146545 0.950285077095032 1.11296141147614 1.24365365505219 1.3630553483963 1.45538485050201 1.53065168857574 1.55945408344269 1.6199152469635 1.71060001850128 1.87303578853607 1.90167486667633 2.4409704208374 1.97926032543182 2.28974866867065 2.06407761573792 2.03923416137695 1.52814662456512 1.52507710456848 1.52808558940887 1.54367089271545 1.56388092041016 1.57814526557922 1.62394106388092 1.65322148799896 1.66940593719482 1.73521161079407 1.66678535938263 1.69198787212372 1.66138076782227 1.70736956596375 1.63656711578369 1.73255693912506 1.74645745754242 1.76351940631866 1.86647403240204 1.96952402591705 2.0163631439209 2.06914281845093 2.1183488368988 2.5420229434967 2.64141058921814 2.77313661575317 2.93128108978271 3.10319447517395 3.15567874908447 3.31256604194641 3.56475973129272 3.90793752670288 4.05019903182983 3.92878413200378 4.00721025466919 4.31914615631104 4.88577270507812 3.52993750572205 3.91255927085876 4.37521696090698 4.82196664810181 6.57602453231812 1.61867225170135 1.694011926651 1.90478086471558 2.54269075393677 3.8973286151886 6.55228281021118 6.30024337768555 6.66055059432983 2.19502258300781 1.22850322723389 1.48996663093567 2.07009220123291 3.24808692932129 5.52578353881836 8.95149993896484 11.7121534347534 15.6035900115967 3.20534801483154 3.16758918762207 3.44894790649414 3.63335847854614 3.76533818244934 3.79994702339172 3.84243321418762 4.06276273727417 4.39827632904053 4.82492589950562 5.19065475463867 5.44064855575562 5.58994436264038 5.7572603225708 5.93281126022339 6.13231039047241 6.34028720855713 6.55367851257324 6.78365612030029 7.03065061569214 7.35132455825806 7.62985038757324 7.9386510848999 8.28202342987061 8.37422275543213 8.50036716461182 8.95190048217773 9.44827842712402 9.86721801757812 10.1724700927734 10.5232992172241 11.0426397323608 11.8697814941406 13.7726383209229 17.0014133453369 15.3952198028564 12.389063835144 11.6469631195068 12.1763677597046 13.3885831832886 14.1222715377808 14.0228548049927 15.5232305526733 19.9024314880371 23.8244552612305 17.7364521026611 3.2592613697052 2.76439476013184 3.30158185958862 4.4373083114624 5.26269435882568 5.82557392120361 6.24589061737061 6.57439565658569 6.72068881988525 6.63341808319092 6.79961538314819 6.91561985015869 7.03276586532593 6.91814708709717 6.81736040115356 6.85258626937866 6.66174650192261 6.85535430908203 7.19293928146362 7.33129835128784 7.38276863098145 7.5833477973938 7.79982471466064 8.4107084274292 9.27591991424561 10.0931453704834 10.7481260299683 11.2533016204834 12.3004293441772 13.5495910644531 15.160472869873 16.519998550415 15.4707260131836 15.3365488052368 14.2456684112549 5.22300958633423 -2.47771430015564 -2.28522086143494 -2.01436448097229 -1.16997563838959 -0.224699020385742 0.763323247432709 1.51778328418732 1.65229392051697 2.16734194755554 2.48851609230042 2.63385844230652 1.65740978717804 1.7337304353714 1.9991682767868 2.79864144325256
0.959427356719971 1.01041316986084 1.16169202327728 1.30636596679688 1.4580545425415 1.566974401474 1.66540825366974 1.69551920890808 1.7441440820694 1.82360982894897 1.95995342731476 2.07935619354248 2.23530673980713 2.26388931274414 2.30877423286438 2.21655321121216 2.26725816726685 2.10103487968445 1.64348375797272 1.63101732730865 1.62273001670837 1.62603962421417 1.57259428501129 1.65095579624176 1.58455109596252 1.61369919776917 1.63991498947144 1.69122087955475 1.67729985713959 1.68813014030457 1.7245090007782 1.70799279212952 1.7284027338028 1.63918054103851 1.6327155828476 1.66108047962189 1.79270720481873 1.82533228397369 1.86639821529388 1.90290558338165 2.06525111198425 2.21766924858093 2.30388855934143 2.40842318534851 2.54563879966736 3.25591564178467 3.48076915740967 3.76310563087463 4.11428642272949 4.26607179641724 4.68216133117676 5.16296768188477 5.78174161911011 6.64815759658813 5.86896324157715 4.03798913955688 1.92091524600983 3.51792168617249 5.24910068511963 1.87642276287079 1.92542326450348 2.05227303504944 2.16963386535645 2.96732211112976 5.1734504699707 2.40776705741882 1.93844401836395 1.9335572719574 1.85418307781219 2.0627863407135 2.84544968605042 4.02424001693726 6.63389778137207 10.5075988769531 13.0860023498535 15.8381452560425 4.25744962692261 3.24925875663757 3.39584732055664 3.59842419624329 3.75838851928711 3.84284043312073 4.004638671875 4.22994756698608 4.58426189422607 4.94989013671875 5.2325963973999 5.39557981491089 5.54186391830444 5.70490550994873 5.88154172897339 6.07434511184692 6.34915351867676 6.5586142539978 6.78229331970215 7.0214581489563 7.34238767623901 7.61571168899536 7.93040180206299 8.26844787597656 8.72965335845947 9.14794921875 9.60524082183838 10.1081590652466 10.779393196106 11.0275926589966 11.4693937301636 12.9535055160522 15.9345617294312 20.2641105651855 21.1783447265625 20.3990077972412 12.4798631668091 11.5694408416748 12.2466840744019 15.4010171890259 18.1171531677246 17.5294456481934 14.9017963409424 16.5942821502686 18.0956382751465 19.0590305328369 10.4974870681763 1.11382722854614 1.75503087043762 3.11839127540588 4.48419809341431 5.33592319488525 6.059814453125 6.60689640045166 6.67527532577515 7.03188037872314 7.25439882278442 7.37357473373413 7.52044534683228 7.48699235916138 7.29388380050659 7.57690858840942 7.9183874130249 8.28723239898682 8.26103687286377 8.16877460479736 8.13768672943115 7.99921703338623 8.84051704406738 9.22640419006348 9.77210712432861 10.1391324996948 10.2445983886719 11.662558555603 12.9173059463501 14.1239776611328 15.5721416473389 15.3958377838135 14.7367630004883 12.8536825180054 8.90993976593018 0.137368500232697 -2.50479030609131 -2.33145618438721 -1.73393142223358 -0.512241899967194 0.721955418586731 1.75384426116943 2.51762747764587 3.19922041893005 3.83498024940491 4.22089624404907 3.62779402732849 2.84446358680725 1.56113135814667 0.690553307533264 -0.269845128059387
1.0723682641983 1.11008405685425 1.2379652261734 1.39668691158295 1.522305727005 1.66340363025665 1.76215302944183 1.8290901184082 1.86780643463135 1.9495507478714 2.047847032547 2.27183437347412 2.35289406776428 2.36398911476135 2.48336219787598 2.37866878509521 2.51752996444702 2.50476837158203 1.78658282756805 1.78645873069763 1.71396040916443 1.70670771598816 1.70617842674255 1.69542598724365 1.660001039505 1.65358579158783 1.59222006797791 1.62097096443176 1.62117111682892 1.79388189315796 1.66050565242767 1.77827119827271 1.81124746799469 1.96533977985382 1.51820635795593 1.520148396492 1.62640082836151 1.66513931751251 1.69190561771393 1.72050714492798 1.79566359519958 1.98195195198059 2.0508987903595 2.12326002120972 2.21092629432678 2.53532528877258 2.75293898582458 2.94837212562561 3.18680429458618 4.51230955123901 5.07452058792114 5.7517523765564 6.66684627532959 7.78230094909668 8.38905143737793 6.38214349746704 2.04216718673706 1.66282677650452 1.92710983753204 1.93215990066528 2.04141521453857 2.18776798248291 2.35397529602051 2.52042245864868 2.66338300704956 2.77337884902954 2.76807475090027 2.80657148361206 2.90952491760254 3.25439763069153 3.62827086448669 4.53320646286011 7.41992902755737 10.8944149017334 13.0321674346924 14.2386741638184 3.51893544197083 3.30240368843079 3.3592586517334 3.43069005012512 3.52221393585205 3.73724770545959 4.04366540908813 4.33200263977051 4.70811176300049 5.07120227813721 5.40656614303589 5.64978790283203 5.80033922195435 5.84812545776367 5.93312644958496 6.11731576919556 6.2937479019165 6.50146913528442 6.72304439544678 6.96122550964355 7.27791309356689 7.57959508895874 7.88085651397705 8.38643646240234 8.99476432800293 9.6904354095459 9.94401264190674 10.9789619445801 12.2441368103027 13.2533931732178 14.4935255050659 17.1435813903809 20.83815574646 24.5871238708496 22.469898223877 27.9308605194092 11.8546056747437 11.5115060806274 12.2718372344971 16.5804347991943 18.9711933135986 18.6558780670166 18.4214820861816 13.2093591690063 14.5303621292114 14.5157318115234 8.23585605621338 1.3443169593811 0.53985595703125 1.737624168396 3.66365575790405 5.004065990448 5.78525161743164 6.02311658859253 6.70838499069214 7.10402488708496 7.44178152084351 7.59242057800293 7.76038408279419 7.57820892333984 7.7966742515564 8.11551761627197 8.41730403900146 8.77182769775391 8.89203834533691 9.040696144104 9.53552341461182 10.203104019165 10.4556484222412 10.4657049179077 10.3943586349487 11.707389831543 13.6839418411255 15.597375869751 15.6472253799438 14.5835304260254 12.2837829589844 11.1705713272095 11.4034385681152 8.1716480255127 1.79324042797089 -2.99159574508667 -2.72582674026489 -2.40913510322571 -1.63982284069061 -0.419299423694611 0.587436854839325 2.25472545623779 2.92172193527222 3.53446388244629 4.24148797988892 5.61589622497559 7.20938730239868 3.62504553794861 1.10741817951202 1.28162145614624 -1.84992682933807
1.22576236724854 1.24119544029236 1.3320232629776 1.45121419429779 1.57827055454254 1.70800125598907 1.84517478942871 1.92510342597961 1.97595202922821 2.05905961990356 2.14370489120483 2.36392450332642 2.45073294639587 2.48083972930908 2.74161982536316 2.39539194107056 2.52389025688171 2.59194016456604 1.92269003391266 1.92097866535187 1.8927766084671 1.81691336631775 1.85038626194 1.8854444026947 1.79153835773468 1.76317930221558 1.78192043304443 1.77872514724731 1.76472949981689 1.72413778305054 1.71166908740997 1.69959390163422 1.76263654232025 1.85552322864532 1.55521237850189 1.52789664268494 1.47858548164368 1.5450941324234 1.57405972480774 1.58596563339233 1.59119236469269 1.7547607421875 1.82115340232849 1.87496900558472 1.9313542842865 2.10672974586487 2.36292910575867 2.51881074905396 2.72966933250427 3.38952708244324 3.81368207931519 4.30881643295288 4.95434904098511 7.10343456268311 8.7880859375 10.2141389846802 1.65338921546936 1.37202382087708 1.66610717773438 1.88930928707123 2.03925085067749 2.15961408615112 2.37128925323486 2.51741361618042 2.68994092941284 2.98046064376831 3.37202191352844 3.67117595672607 3.96341562271118 4.25032663345337 4.47987413406372 6.20536136627197 8.5087251663208 10.9847822189331 11.806921005249 11.966682434082 4.29245710372925 3.37263989448547 3.37565684318542 3.33901000022888 3.40267062187195 3.6384859085083 4.01097822189331 4.34669733047485 4.78593397140503 5.25349473953247 5.70892953872681 5.94210243225098 6.05329942703247 6.17567777633667 6.36599206924438 6.40628671646118 6.53131818771362 6.73456192016602 6.79051351547241 7.03850221633911 7.27564001083374 7.52371692657471 7.91134834289551 8.44922351837158 9.05242729187012 9.74875736236572 10.7163152694702 11.7265186309814 12.9324340820312 14.4038457870483 16.4212017059326 19.3706893920898 23.0637035369873 25.4481449127197 26.9124889373779 31.2686252593994 10.5589952468872 11.543571472168 13.0098628997803 17.2859363555908 18.6050796508789 18.0331439971924 15.3240804672241 12.8536787033081 11.5203132629395 10.6809539794922 13.3476591110229 2.33239507675171 -0.323065042495728 0.310427814722061 1.3771116733551 3.46272683143616 5.07367658615112 5.9359712600708 6.65677165985107 7.18041038513184 7.52704238891602 7.59420680999756 7.82505035400391 7.66786050796509 7.85470914840698 8.14540481567383 8.42067050933838 8.79983901977539 8.93834781646729 9.61831378936768 10.2584590911865 11.0746145248413 11.2116050720215 12.1555337905884 13.5713405609131 15.5974607467651 18.5665016174316 18.0813369750977 18.0812644958496 10.5543985366821 7.04011154174805 5.71718788146973 5.29174041748047 2.89882445335388 -2.84306645393372 -3.0642101764679 -2.80518865585327 -2.20800089836121 -1.62910187244415 -0.687011361122131 0.487792909145355 1.6963769197464 2.16835641860962 2.62634778022766 3.06567740440369 5.24821996688843 6.72482585906982 6.15969324111938 0.582267224788666 -1.06519556045532 -1.74894607067108
1.36674845218658 1.34330976009369 1.42720007896423 1.57164227962494 1.70631194114685 1.85827016830444 1.90622055530548 1.99691677093506 2.06497287750244 2.13559484481812 2.2390604019165 2.5298764705658 2.87380766868591 2.69524502754211 3.2889301776886 2.42785358428955 2.41081476211548 2.42402124404907 2.21298670768738 2.07422804832458 2.05378079414368 1.9666600227356 1.96689748764038 2.01857995986938 1.99724233150482 1.91680765151978 1.94280385971069 1.96336686611176 2.0094690322876 1.89408838748932 1.90225517749786 1.93412864208221 1.9256854057312 1.85591518878937 1.7582905292511 1.74209225177765 1.63783276081085 1.71128582954407 1.79582703113556 1.78042030334473 1.6312780380249 1.50798082351685 1.60554397106171 1.64258062839508 1.69847369194031 1.74418473243713 1.97717499732971 2.11306190490723 2.29401993751526 2.73203063011169 3.15109014511108 3.50816822052002 3.89836454391479 5.29096174240112 6.07786560058594 6.40386390686035 3.41276049613953 1.30167353153229 1.55333197116852 1.7866827249527 1.92964375019073 2.03804731369019 2.21287059783936 2.39458632469177 2.59433770179749 2.99017524719238 3.51130318641663 3.82440495491028 4.06511306762695 4.5857138633728 5.44729948043823 7.57347536087036 9.60157680511475 11.4822425842285 12.06662940979 10.3387107849121 3.87814927101135 3.34936356544495 3.33873653411865 3.37544870376587 3.43886947631836 3.67032909393311 4.05423307418823 4.43417263031006 4.89937448501587 5.44195938110352 5.94266510009766 6.19452524185181 6.30475521087646 6.48565244674683 6.69229745864868 6.82777452468872 6.89941692352295 7.06535339355469 7.31598854064941 7.5821361541748 7.61852502822876 7.71595621109009 7.98877859115601 8.3473424911499 8.90343475341797 9.55121421813965 10.7696466445923 11.7879161834717 13.0061664581299 14.6240844726562 16.9082012176514 19.9465274810791 23.3017101287842 24.0688152313232 31.0186939239502 26.1067371368408 9.21478939056396 9.26668930053711 12.0684404373169 14.83385181427 18.8028697967529 17.5845890045166 14.9937992095947 15.5371417999268 8.33382129669189 6.71234178543091 6.2079758644104 1.08554232120514 -0.652627289295197 -0.286415696144104 0.170709505677223 1.14875018596649 3.60086727142334 5.74906826019287 6.54661226272583 9.32191562652588 9.7407922744751 8.0958833694458 7.78014278411865 7.63541126251221 7.75027561187744 7.97364234924316 8.31685543060303 8.00831031799316 8.81527805328369 9.53835868835449 10.2646999359131 11.0921669006348 11.4241542816162 12.5902605056763 14.1545143127441 16.1710643768311 18.6955680847168 19.7824478149414 21.3705825805664 3.60657429695129 2.70974063873291 3.50440096855164 -0.6811563372612 -2.66047501564026 -2.9815411567688 -3.04204964637756 -2.49379014968872 -1.87911331653595 -1.45181477069855 -0.744407773017883 0.19632351398468 0.614538788795471 0.846393942832947 1.07369899749756 1.96353876590729 3.47552108764648 4.79780864715576 5.20198392868042 0.0154908690601587 -1.78186774253845 -1.56681835651398
2.24356698989868 1.44852805137634 1.53764677047729 1.63565587997437 1.77497756481171 1.8959733247757 1.99044191837311 2.12561678886414 2.22266364097595 2.3056492805481 2.4008846282959 2.6997709274292 3.07455110549927 2.77353858947754 3.57589888572693 2.5172164440155 2.45060396194458 2.55905795097351 2.19910764694214 2.19891715049744 2.1654965877533 2.12995839118958 2.12231278419495 2.1727283000946 2.19516825675964 2.11255764961243 2.22657203674316 2.12198519706726 2.17299962043762 2.17135143280029 2.10124397277832 2.15938091278076 2.22445034980774 2.23915147781372 2.04729914665222 2.07850813865662 2.05977201461792 2.04402279853821 1.81351745128632 1.87041389942169 1.72063851356506 1.63682448863983 1.5877947807312 1.73106133937836 1.8866560459137 1.52769136428833 1.59359908103943 1.73958933353424 1.88246488571167 2.09030699729919 2.58675074577332 2.85582852363586 3.11812162399292 3.59809184074402 4.77648401260376 5.7522554397583 3.87208461761475 1.12654232978821 1.39483070373535 1.56353378295898 1.70850896835327 1.8328093290329 1.88708162307739 2.22083234786987 2.49337673187256 2.83879065513611 3.22722506523132 3.54970049858093 4.00754404067993 4.4563512802124 5.30710887908936 7.72185134887695 9.91773700714111 13.0350456237793 10.0412378311157 10.0639915466309 3.9353654384613 3.13523507118225 3.30171966552734 3.3553569316864 3.43909692764282 3.63514757156372 3.90775179862976 4.23306560516357 5.02116394042969 5.65995407104492 6.16023540496826 6.39875650405884 6.52248382568359 6.7162504196167 6.92700958251953 7.1080527305603 7.19101285934448 7.42444658279419 7.68677711486816 7.96694135665894 8.11618518829346 8.22945785522461 8.56202030181885 8.92686939239502 8.96920680999756 9.53761386871338 10.4244804382324 11.4057292938232 12.5756921768188 13.9984216690063 16.7417850494385 19.3209457397461 23.7062110900879 21.3103733062744 26.0690536499023 29.6087951660156 15.1404581069946 7.9186897277832 9.48664951324463 12.3599710464478 14.3561925888062 17.4089908599854 15.1801891326904 14.9613828659058 16.3903846740723 2.23644709587097 2.32928586006165 2.14438796043396 -1.03244495391846 -0.816315472126007 -0.650956451892853 0.116864621639252 1.46764969825745 4.56478500366211 6.9287314414978 10.6522798538208 13.7058553695679 10.0572385787964 6.69524765014648 6.98756504058838 7.35031938552856 7.7074761390686 7.58417367935181 8.29258346557617 8.95394515991211 9.79254531860352 10.3105411529541 10.0388345718384 11.7134981155396 13.7757396697998 16.1189060211182 15.7224216461182 16.5318946838379 17.5621662139893 15.1011962890625 4.10283422470093 -1.79501664638519 -1.77868592739105 -1.76409924030304 -1.6616382598877 -1.83136594295502 -2.04111814498901 -1.36112463474274 -0.645376741886139 -0.372162908315659 -0.391710519790649 -0.0306085329502821 0.183673024177551 0.45585697889328 0.791636824607849 1.47993671894073 1.6769335269928 1.65793430805206 0.946687340736389 -1.73534560203552 -1.59707224369049 -1.40823411941528
3.44668030738831 1.57243895530701 1.63651466369629 1.70747542381287 1.79624819755554 1.88457858562469 2.0284903049469 2.17357397079468 2.29315733909607 2.38143610954285 2.48271727561951 2.83783292770386 3.04783964157104 2.95052337646484 3.10025358200073 3.4656400680542 2.42166209220886 2.3156750202179 2.27762961387634 2.28687691688538 2.2793173789978 2.26109409332275 2.27988123893738 2.31252145767212 2.32038760185242 2.32244777679443 2.3619339466095 2.34727573394775 2.36613488197327 2.41248106956482 2.30128884315491 2.39569616317749 2.48576712608337 2.53711342811584 2.43392825126648 2.4021635055542 2.48065280914307 2.5353536605835 2.31596636772156 2.518141746521 2.58901381492615 2.4407422542572 2.28967356681824 2.1340434551239 2.14289522171021 1.54925656318665 1.37794005870819 1.36375939846039 1.60078847408295 1.76314306259155 2.02222299575806 2.28012633323669 2.44746279716492 2.88206481933594 3.072181224823 3.61469841003418 4.35484266281128 1.92680728435516 0.998724579811096 1.0231739282608 1.1164835691452 1.264240026474 1.63094234466553 2.0069317817688 2.21543550491333 2.38236141204834 2.71628499031067 2.94687247276306 3.89045095443726 4.35943746566772 5.35152244567871 7.16492509841919 11.7105684280396 16.0874824523926 7.16192054748535 5.33721876144409 4.9351110458374 4.07967567443848 3.14877223968506 3.16747283935547 3.23634266853333 3.36131381988525 3.56798219680786 4.10111856460571 5.11082077026367 5.76730346679688 6.2923321723938 6.55477619171143 6.74478673934937 6.94656944274902 7.16133451461792 7.36794328689575 7.43027257919312 7.67432165145874 7.94446802139282 8.23678779602051 8.44647979736328 8.64622402191162 8.99959754943848 9.38195323944092 9.55814933776855 9.848876953125 10.5370588302612 11.527756690979 12.6935653686523 14.1467237472534 16.2424049377441 18.8711624145508 21.5286693572998 22.4116954803467 24.1051235198975 23.6693572998047 20.6906108856201 7.65316009521484 8.18785858154297 9.72561168670654 11.3228073120117 13.0324869155884 14.8259201049805 19.1645259857178 25.9154224395752 6.29617404937744 0.40875256061554 0.602946817874908 -1.12909495830536 -1.00866103172302 -0.789368867874146 -0.47200483083725 0.682146847248077 3.43455076217651 8.25277137756348 13.229344367981 17.6894931793213 14.6813898086548 10.2082509994507 5.41469526290894 5.99512767791748 6.74549055099487 7.4374418258667 8.24120998382568 8.9212818145752 9.69794940948486 9.52994251251221 10.9927816390991 13.1543884277344 16.3497772216797 16.5529651641846 15.5202512741089 14.3388500213623 10.1360445022583 10.2804250717163 -1.40722751617432 -1.35152852535248 -1.12978708744049 -0.541153430938721 -1.27460610866547 -1.33399212360382 -1.08166909217834 -0.24292841553688 0.760252058506012 1.33880352973938 1.06673502922058 1.1703405380249 1.39987921714783 0.892938375473022 0.63199907541275 1.1782054901123 1.13890695571899 0.109200932085514 -0.911999106407166 -1.67022490501404 -1.54186618328094 -1.3545902967453
3.01458787918091 1.72431969642639 1.71086931228638 1.7486926317215 1.81511449813843 1.87533938884735 2.00803065299988 2.14433121681213 2.27594900131226 2.37923979759216 2.47697234153748 2.92865419387817 3.23612689971924 3.07512331008911 3.2832932472229 4.15459680557251 2.44464445114136 2.4475531578064 2.45013046264648 2.46588730812073 2.39780521392822 2.36881494522095 2.36641049385071 2.42480182647705 2.45933413505554 2.47086954116821 2.52651882171631 2.55145192146301 2.57713031768799 2.53218340873718 2.52012133598328 2.64671277999878 2.7465672492981 2.84962773323059 2.79427599906921 2.70603370666504 2.87865042686462 2.95125985145569 2.96514105796814 3.30967140197754 3.16903328895569 3.23123383522034 2.86213088035583 1.98925888538361 1.87124669551849 1.5387282371521 1.53880286216736 1.47551834583282 1.5251476764679 1.6098484992981 1.63752233982086 1.87917566299438 2.01581978797913 2.4237756729126 2.06152582168579 2.68517231941223 3.28175473213196 2.41343951225281 1.41127836704254 1.25582194328308 0.964361131191254 0.894371271133423 1.09050953388214 1.68552958965302 2.08887147903442 2.39976453781128 2.83891534805298 2.93607449531555 3.14125776290894 3.65413689613342 4.42734909057617 5.57507133483887 10.4964036941528 14.5928440093994 6.85426712036133 4.38087749481201 4.28191566467285 3.87795901298523 3.88987040519714 3.09678387641907 3.10107183456421 3.1934700012207 3.53736686706543 4.12189292907715 5.0626015663147 5.73114442825317 6.355637550354 6.64337205886841 6.84185743331909 7.04063844680786 7.24868106842041 7.47911977767944 7.67780542373657 7.93147039413452 8.21071434020996 8.51042175292969 8.7557487487793 8.9420919418335 9.30333805084229 9.69762706756592 10.0037622451782 10.5166120529175 11.0914154052734 11.5844287872314 12.7681331634521 14.2435846328735 16.4097881317139 18.7821273803711 20.6007480621338 21.7660541534424 24.5331897735596 26.1169376373291 17.419412612915 10.8056907653809 7.9580774307251 9.01827239990234 10.1579303741455 10.9637441635132 13.2680635452271 18.7307376861572 26.9958934783936 8.2975549697876 -1.07992541790009 -0.286270171403885 0.42097795009613 -1.04674327373505 -0.979920268058777 -0.40309464931488 0.620643198490143 3.00944948196411 6.8147759437561 11.5701513290405 16.7294368743896 19.2445259094238 22.1940765380859 3.69978189468384 4.17668724060059 5.1883339881897 6.25710344314575 7.21356391906738 8.10950183868408 8.55131816864014 9.32883930206299 10.305495262146 12.0208711624146 14.2427053451538 14.9667739868164 19.0086135864258 9.03010749816895 7.17372798919678 -1.37247216701508 -1.255939245224 -0.0237007550895214 2.32931303977966 0.32710787653923 -1.22684800624847 -0.970418155193329 -0.36853015422821 0.490051865577698 1.66930890083313 2.11969971656799 2.31919574737549 2.73380279541016 3.16715574264526 3.07718062400818 2.14784646034241 2.58906960487366 3.08855843544006 3.34820294380188 1.68924844264984 -1.3681892156601 -1.59132146835327 -1.39181876182556
6.10975408554077 4.32607555389404 2.00900030136108 2.21563291549683 1.83266019821167 1.87485098838806 2.00244116783142 2.11944937705994 2.24433517456055 2.35298490524292 2.46589326858521 2.9764358997345 3.35694813728333 3.03180718421936 3.20507264137268 4.03146457672119 2.82829475402832 2.53014755249023 2.53228139877319 2.55231022834778 2.50032258033752 2.53075361251831 2.55564332008362 2.60053634643555 2.64942717552185 2.56880664825439 2.63342070579529 2.67585563659668 2.70612359046936 2.68331527709961 2.70975041389465 2.84011149406433 2.97215175628662 3.10062551498413 3.00972819328308 3.05704879760742 3.21558737754822 3.38356590270996 3.29806733131409 3.45892548561096 3.6358015537262 5.1469874382019 3.12276554107666 2.77754282951355 2.05735182762146 1.46156334877014 1.55953586101532 1.56069934368134 1.49273455142975 1.64510011672974 1.76573121547699 1.86026990413666 1.81937384605408 2.00291013717651 2.00980544090271 2.1227662563324 2.19462704658508 3.10478901863098 1.58233654499054 1.55778920650482 1.50673818588257 1.54686379432678 1.60166132450104 1.8268917798996 2.27545261383057 2.54017114639282 2.78142309188843 2.9228241443634 2.9756031036377 3.01890087127686 3.11443448066711 3.89315462112427 6.83859252929688 9.49953746795654 7.29394197463989 3.70999193191528 3.15414690971375 5.72960329055786 7.03684663772583 4.01693344116211 3.07462882995605 3.27097535133362 3.69009613990784 4.34221601486206 5.02973794937134 5.67086839675903 6.29793787002563 6.59143590927124 6.82496976852417 7.07105445861816 7.33225965499878 7.62300682067871 7.93453311920166 8.27382183074951 8.47892093658447 8.81996631622314 8.9512243270874 9.25018119812012 9.70437240600586 10.1959104537964 10.7505226135254 11.0644874572754 11.3961267471313 11.8531818389893 12.8735036849976 14.8402986526489 16.9891815185547 19.3048419952393 20.5962944030762 21.055534362793 21.4930305480957 22.5835781097412 17.6933898925781 10.05699634552 9.23049259185791 9.74996662139893 10.9070682525635 11.7916297912598 13.7855062484741 17.0578937530518 23.5454406738281 8.27449417114258 2.76958274841309 4.1726016998291 1.71920990943909 -1.00308835506439 -1.24375474452972 -1.01499378681183 0.205896928906441 1.82521426677704 4.75805807113647 8.92420291900635 12.4064931869507 19.4791088104248 26.0861148834229 6.62615585327148 2.48867392539978 3.50388765335083 4.490647315979 5.62339687347412 6.51928281784058 6.83837604522705 7.69801330566406 8.62764739990234 10.5513381958008 12.1646203994751 14.1241502761841 17.1621704101562 8.85884189605713 -1.42178082466125 -1.80590999126434 -1.10491442680359 0.469742566347122 2.60326862335205 3.03094840049744 -1.17741894721985 -0.773762047290802 -0.0407526604831219 0.773789584636688 1.79704988002777 2.64321255683899 3.24786448478699 3.84496355056763 4.43557357788086 4.0240626335144 4.60256052017212 5.59155225753784 6.54327583312988 6.61832237243652 5.49213743209839 2.09500241279602 -1.87296855449677 -1.67432284355164
2.17533254623413 4.79234886169434 6.04548645019531 3.94266629219055 1.9383807182312 1.95151555538177 2.01718711853027 2.11948394775391 2.24277424812317 2.36779165267944 2.50249671936035 2.90789699554443 3.21545600891113 2.99305701255798 3.03508949279785 3.21190857887268 4.06998491287231 2.51840853691101 2.51740002632141 2.53778314590454 2.59106159210205 2.6203191280365 2.63494062423706 2.67786693572998 2.74023747444153 2.71311473846436 2.78807258605957 2.85503959655762 2.89214992523193 2.84825968742371 2.84289360046387 2.94256663322449 3.08320116996765 3.2244279384613 3.26666164398193 3.43446111679077 3.6419370174408 3.79048562049866 3.75115394592285 4.07718086242676 4.49115467071533 4.76185655593872 5.36374664306641 3.48968529701233 2.2908251285553 1.4976646900177 1.53112173080444 1.50110697746277 1.52089369297028 1.63105750083923 1.76158797740936 1.82727217674255 1.93277299404144 1.93152761459351 2.10349035263062 2.47013640403748 1.989377617836 1.91049957275391 2.23837018013 1.64635193347931 1.66617953777313 1.72087955474854 1.97417068481445 2.10617566108704 2.30138564109802 2.56507515907288 2.72268414497375 2.84239482879639 2.88454151153564 2.94817018508911 3.03878617286682 3.16573476791382 3.20586681365967 3.4654426574707 4.41680335998535 4.667724609375 5.04061222076416 6.22940063476562 6.35188007354736 3.18188810348511 3.06188130378723 3.23702549934387 3.76145911216736 4.43883466720581 5.04849529266357 5.70992469787598 6.27904796600342 6.608154296875 6.85728693008423 7.07516384124756 7.39656925201416 7.69044065475464 8.00235176086426 8.34505844116211 8.72127246856689 9.13255310058594 9.58341026306152 10.0740356445312 10.6166286468506 10.869553565979 11.3034343719482 11.6805400848389 12.552098274231 13.442325592041 14.2425661087036 15.0224647521973 17.1688404083252 18.615966796875 20.4272708892822 23.2284755706787 17.2145957946777 17.2405300140381 12.4482879638672 11.1986198425293 10.7830410003662 12.1452178955078 14.0373792648315 15.8819274902344 17.1800212860107 16.6199779510498 17.0932312011719 8.26653480529785 6.77860498428345 5.37612962722778 1.64629423618317 1.48220276832581 -1.88762903213501 -1.61324787139893 -0.482094019651413 0.8708615899086 3.58494997024536 6.68839359283447 9.80017948150635 13.3778524398804 19.6512355804443 13.3368988037109 2.19653916358948 2.23571157455444 2.65304374694824 3.21445035934448 4.35387372970581 5.10471773147583 6.07143020629883 7.49974536895752 9.57004737854004 11.2584476470947 13.3819637298584 14.168360710144 5.30606985092163 -2.32299375534058 -2.1170802116394 -1.20823049545288 0.0410494282841682 0.127587720751762 -0.838031768798828 -1.32465982437134 -0.59283858537674 0.0564576610922813 0.773816645145416 1.45407247543335 2.22827482223511 2.72679781913757 3.78810095787048 4.45580720901489 5.27427387237549 6.13543891906738 7.11267423629761 8.1866340637207 8.85834980010986 7.75877475738525 3.48869562149048 -1.23399698734283 -2.08338499069214
