NCOLS 174
NROWS 32
XLLCORNER 353840
YLLCORNER 6700112
CELLSIZE 16 
NODATA_value -3.4e+38 
5.24770975112915 4.50838851928711 4.28212738037109 2.3819477558136 2.58531427383423 2.92763352394104 5.74432563781738 6.67932367324829 7.37122106552124 6.50091409683228 4.91404390335083 2.24429082870483 1.60995900630951 2.53172373771667 4.04209470748901 1.86038386821747 10.9410829544067 13.4316606521606 9.67909908294678 7.95874357223511 18.9912376403809 15.4018650054932 28.7385444641113 3.08676815032959 3.09397912025452 5.03659677505493 3.09926605224609 3.22929883003235 3.26625847816467 3.82728147506714 3.85337352752686 4.3347339630127 4.75748634338379 4.64707517623901 6.01097726821899 5.7392520904541 6.79455757141113 6.5313024520874 6.83796691894531 8.16518020629883 8.87549304962158 8.21982097625732 8.16771697998047 8.99532794952393 7.49688673019409 8.26422309875488 4.65697574615479 6.46445846557617 6.65416669845581 6.50590896606445 8.13354778289795 8.92101287841797 15.8998985290527 16.7227172851562 20.4907321929932 17.743127822876 22.4633102416992 22.9761085510254 16.4984722137451 2.3127384185791 2.08696603775024 2.2029128074646 5.90825986862183 7.2024130821228 2.28305554389954 20.5386238098145 7.03294277191162 9.13581466674805 14.6458940505981 5.92047357559204 1.44843542575836 3.07391119003296 2.97121286392212 2.20910263061523 6.73248291015625 5.31992053985596 6.92826318740845 10.6701555252075 11.5346918106079 6.65745878219604 10.1550455093384 3.31558299064636 7.16746091842651 8.64281558990479 11.3634004592896 14.5342044830322 19.8926105499268 28.2900085449219 40.9819602966309 37.6857566833496 13.9353828430176 32.5908393859863 37.7944068908691 24.7190170288086 13.7183399200439 20.548189163208 16.2586994171143 20.5636692047119 6.30349349975586 6.29385423660278 7.54716539382935 9.65621852874756 22.263765335083 6.30509614944458 13.0720500946045 14.2918539047241 7.7973256111145 4.72165298461914 8.71728801727295 12.5982294082642 14.3793544769287 12.979866027832 40.1170196533203 31.3868923187256 9.88065910339355 6.75498342514038 8.46325206756592 6.46000862121582 -0.0784299746155739 2.08964848518372 13.0480613708496 13.4113349914551 0.328773856163025 -4.54205513000488 -4.0441722869873 -3.15250635147095 -1.12277567386627 10.0398817062378 14.9269342422485 23.9928016662598 5.90593767166138 3.41256070137024 4.52796697616577 11.8747806549072 24.7019653320312 25.0276012420654 14.8053293228149 20.9942455291748 22.9417781829834 3.93700742721558 6.73132801055908 -1.18253898620605 1.58028161525726 4.48080062866211 5.2755880355835 4.03355932235718 1.21058797836304 -0.392196089029312 -0.724857091903687 -0.291741698980331 1.41937744617462 18.07275390625 9.15766906738281 8.35775566101074 10.1336069107056 12.6653337478638 14.0711641311646 21.3283653259277 23.2500514984131 27.2145500183105 25.2786293029785 23.7543392181396 22.7269077301025 20.2515296936035 13.0410852432251 12.3373250961304 13.6801414489746 8.02518463134766 9.77829170227051 7.15439224243164 7.29055213928223 6.52448129653931 9.71826839447021 7.20804309844971
4.25818729400635 4.39219570159912 3.84140419960022 2.38570880889893 2.71641850471497 2.73773217201233 6.12574625015259 6.03461694717407 7.05696439743042 4.00690746307373 4.64310359954834 1.54529881477356 1.88215255737305 2.4296452999115 3.74388003349304 5.90663909912109 10.7504959106445 9.48256587982178 9.85808086395264 13.2387104034424 10.0409469604492 2.60524868965149 19.8945751190186 21.285270690918 4.60407876968384 9.88152885437012 2.52537941932678 2.89097595214844 3.3578462600708 3.49603271484375 3.41848921775818 3.970454454422 4.43767786026001 5.17162656784058 5.48768043518066 6.01232528686523 6.21747732162476 6.09316778182983 6.99833822250366 7.85552072525024 7.26925182342529 7.04797410964966 7.94941520690918 6.76113271713257 7.44882678985596 5.06294107437134 4.82328414916992 6.07181262969971 5.77981376647949 7.27213144302368 7.2099986076355 8.14479064941406 12.8156023025513 13.6428327560425 13.544056892395 14.9582929611206 16.9006233215332 14.257472038269 16.7210865020752 20.2899856567383 6.93389129638672 3.05616784095764 15.4844150543213 10.4360046386719 5.21994018554688 7.44267272949219 7.4635181427002 6.96035194396973 25.0002174377441 32.871265411377 16.1426258087158 17.6686000823975 1.79577267169952 2.63194465637207 3.31738805770874 4.89744997024536 4.50270748138428 5.8424015045166 5.59638690948486 4.47522926330566 4.28299522399902 4.51402997970581 7.57169723510742 9.25160694122314 9.50551128387451 10.8714771270752 16.5669765472412 25.8101654052734 30.6866645812988 31.8724613189697 26.3300933837891 30.5053615570068 29.9967613220215 19.3862705230713 15.6239280700684 21.1188697814941 14.3445768356323 12.8083515167236 10.9285678863525 7.15345096588135 8.78720855712891 9.22534561157227 16.5382900238037 4.99605178833008 9.13394165039062 17.7665348052979 11.8937950134277 3.81079339981079 2.95510959625244 8.96930980682373 12.026406288147 24.1759834289551 29.3642730712891 33.6853256225586 26.8682670593262 21.7653465270996 9.38946151733398 18.5534706115723 6.7891058921814 5.66895246505737 9.03681755065918 8.13951587677002 5.79584884643555 -4.12559080123901 -2.24025106430054 -2.82627820968628 -1.64705061912537 6.2704029083252 6.23282337188721 10.2897672653198 19.4374389648438 4.58329391479492 4.90420532226562 1.75423085689545 18.1553859710693 22.0813426971436 19.4730911254883 19.6830425262451 24.1118564605713 15.2961091995239 12.4822769165039 2.57756400108337 2.46393465995789 -1.14966511726379 8.61020755767822 3.24835133552551 2.84017777442932 8.70141315460205 0.640657305717468 0.968608200550079 1.69026863574982 6.88011884689331 2.9364652633667 7.63796281814575 9.44425773620605 10.6483449935913 16.5649852752686 15.9491577148438 19.8659286499023 23.3864974975586 21.8788528442383 20.833911895752 19.9444808959961 13.791934967041 10.6121978759766 9.70287799835205 12.3443374633789 7.68244314193726 5.00780487060547 4.33507299423218 4.57763719558716 7.18640422821045 5.33035373687744 3.83095407485962
4.21852397918701 3.96894550323486 2.22895359992981 2.50562977790833 2.54300975799561 5.10005712509155 5.94541168212891 6.53994798660278 5.73718595504761 4.28801202774048 1.89692139625549 1.71653151512146 1.9462753534317 3.54345345497131 2.32400941848755 7.25245809555054 9.46448135375977 6.83675289154053 7.45571613311768 10.8022623062134 32.8032417297363 12.9746379852295 12.7653999328613 13.6641187667847 3.62780261039734 15.3560256958008 0.579801499843597 0.579805374145508 3.0961012840271 3.14218735694885 3.5234682559967 3.78627991676331 4.53919124603271 4.74068403244019 4.64190673828125 5.60666704177856 5.49384117126465 5.75745630264282 6.4215612411499 7.32186698913574 6.79747724533081 6.60631132125854 7.45611381530762 6.25285339355469 6.99762487411499 4.46725606918335 5.54169750213623 5.51341342926025 5.43196058273315 6.77318239212036 7.32022571563721 10.0902967453003 10.6922998428345 11.1111640930176 12.2335653305054 12.1999568939209 14.6661882400513 10.6254034042358 12.2476930618286 17.8743286132812 19.7060146331787 9.45848846435547 5.56181859970093 4.1300253868103 9.76491260528564 4.32687759399414 4.93083906173706 4.97618341445923 16.0111389160156 22.0564498901367 21.4900302886963 21.6406383514404 6.18042373657227 2.06163668632507 2.13334226608276 3.70900797843933 4.07398319244385 3.80528402328491 4.09875822067261 6.66595697402954 9.2368106842041 8.6051082611084 6.71217679977417 7.76043462753296 10.5874843597412 12.8873014450073 13.8554010391235 19.3287906646729 22.1287422180176 28.1290111541748 28.478536605835 27.0749359130859 23.0253620147705 18.7781429290771 15.9186878204346 16.7259006500244 24.2218647003174 18.2697792053223 17.6482086181641 12.7338619232178 8.14628505706787 9.87953758239746 20.9283885955811 8.3430290222168 8.84882640838623 20.7728290557861 12.8881702423096 8.47243022918701 7.3106107711792 9.24505043029785 7.8790168762207 21.2704162597656 23.7373676300049 26.891092300415 13.3077096939087 32.9024696350098 22.3038177490234 20.3909759521484 8.99975776672363 6.09746360778809 9.13725757598877 8.34120655059814 7.37902212142944 -2.27468109130859 -0.246303007006645 -2.00734734535217 0.793594002723694 14.7820301055908 25.8735752105713 1.30097830295563 26.1973323822021 11.6918687820435 15.0669136047363 7.69895601272583 10.5166387557983 12.1902084350586 11.1563510894775 14.467719078064 16.3811988830566 7.71036767959595 3.91294860839844 0.857334077358246 -0.913231670856476 0.360734730958939 0.362210243940353 -2.00021767616272 -1.9235999584198 4.60018062591553 5.88136148452759 0.534110128879547 1.57768249511719 2.33094191551208 6.80584764480591 8.21142482757568 8.98664569854736 11.3525247573853 15.0272550582886 15.5612411499023 18.5195388793945 17.5406379699707 16.9569301605225 16.3436279296875 15.3713102340698 10.7213258743286 9.92872142791748 11.0069437026978 6.73996686935425 3.88845920562744 3.95873761177063 3.80016779899597 5.47128295898438 5.27772235870361 4.81569337844849 3.12654519081116
4.10086536407471 3.56691837310791 2.18377232551575 2.42191958427429 2.28241562843323 5.34431934356689 3.86532020568848 6.23580932617188 3.50094795227051 4.10123252868652 1.36732447147369 1.69771671295166 2.87388372421265 1.74341404438019 5.4944167137146 8.14262199401855 6.75779056549072 5.87590360641479 8.79942035675049 5.99350118637085 22.3881549835205 10.3477649688721 9.11366081237793 4.18213844299316 3.39017343521118 26.6879081726074 0.00977400969713926 0.623314678668976 2.79968023300171 2.83860445022583 3.34401369094849 3.60141682624817 4.23394203186035 4.17306661605835 4.88778400421143 4.91072750091553 5.25625085830688 5.64951229095459 6.62502574920654 6.16142511367798 5.97683048248291 6.75507020950317 5.87317705154419 6.30335903167725 4.24810314178467 5.04848909378052 5.31002330780029 5.06149435043335 6.15521717071533 6.13973236083984 6.86824941635132 8.97618770599365 9.41202068328857 10.1327028274536 10.7778129577637 12.2164306640625 10.0959930419922 9.9606409072876 10.4004993438721 13.1700649261475 14.0136871337891 20.0279083251953 18.865592956543 11.2157440185547 3.65895509719849 3.49652338027954 3.24508547782898 8.23217964172363 13.183892250061 13.4192667007446 11.0605926513672 11.3139209747314 28.1251602172852 21.8057651519775 14.0479125976562 6.83172178268433 7.688889503479 3.94882941246033 5.71135711669922 10.2542495727539 15.270902633667 22.5836544036865 14.4945421218872 8.71349143981934 9.87821960449219 11.8167381286621 13.1527786254883 13.7641611099243 18.5402374267578 16.4988384246826 21.3681259155273 16.0657730102539 18.1735057830811 15.5419454574585 15.036919593811 11.67724609375 9.66014003753662 6.49316501617432 6.67793989181519 6.96303129196167 6.6305890083313 9.4199275970459 6.71487760543823 7.42183637619019 8.29044246673584 11.3706350326538 18.1039257049561 7.26889085769653 8.27306652069092 5.52377128601074 13.1259651184082 11.5387029647827 23.1253337860107 37.7219734191895 26.2758808135986 31.8651123046875 21.8363399505615 22.7213268280029 18.1300182342529 8.76189994812012 7.30236768722534 4.49585771560669 5.89965534210205 -2.1657509803772 0.839814960956573 2.3299548625946 7.689621925354 24.4056644439697 33.0347518920898 29.829568862915 7.04267263412476 7.53142976760864 15.3156366348267 11.8276071548462 11.3960380554199 10.9983491897583 10.7906999588013 10.9666519165039 5.97423410415649 7.2095775604248 12.3081674575806 11.6979188919067 10.5577392578125 1.47199892997742 -1.03115963935852 -2.77864336967468 -1.21034836769104 9.71751308441162 18.3485317230225 28.9755554199219 22.0800895690918 1.73574686050415 5.96990919113159 7.93706750869751 8.80420303344727 12.5807905197144 12.1214485168457 14.1441631317139 16.6916065216064 15.8541069030762 15.3945322036743 14.9334545135498 10.6356706619263 9.25778484344482 10.0490970611572 6.00641012191772 6.56318998336792 3.28768944740295 2.98778390884399 3.09181523323059 5.11179161071777 3.81985783576965 2.65249156951904 3.3250789642334
3.73353576660156 2.12269711494446 2.30753612518311 2.30204153060913 5.07165336608887 18.3738288879395 5.76394462585449 5.04476976394653 3.77088475227356 1.6706622838974 1.63440728187561 1.77194857597351 2.79796528816223 3.74279046058655 7.37315702438354 5.94987440109253 3.53339600563049 5.78408622741699 7.79025602340698 15.2392606735229 8.82743453979492 7.33763551712036 7.65392780303955 3.39068031311035 5.89358329772949 33.0540428161621 28.0630912780762 2.43994116783142 2.45017552375793 2.90880966186523 3.14759802818298 3.65334367752075 3.60700368881226 4.09109783172607 4.58450269699097 4.56682205200195 4.9531044960022 5.98985242843628 5.60264348983765 5.48282289505005 6.16232204437256 5.40060138702393 5.71589851379395 4.53063440322876 3.88988065719604 4.88381719589233 4.66864347457886 5.69993543624878 5.67906188964844 6.28325796127319 7.60258483886719 8.2828893661499 8.82681846618652 9.13631153106689 8.42597389221191 10.7964649200439 8.63302230834961 8.8886547088623 10.0576152801514 10.1361284255981 5.98448753356934 13.9574127197266 12.6982831954956 6.65557813644409 3.37347960472107 3.16392016410828 3.0242657661438 6.21651554107666 10.2220115661621 10.672269821167 12.1003017425537 10.2345199584961 18.1155738830566 18.430534362793 8.00114917755127 3.738609790802 9.56819343566895 14.4396152496338 6.88198137283325 11.3869819641113 9.58333683013916 17.053861618042 17.2350311279297 9.28621292114258 9.62862014770508 11.5952663421631 8.9852237701416 7.92487335205078 15.2318706512451 14.178656578064 32.1339263916016 12.681939125061 15.4249181747437 11.5420360565186 12.3178882598877 20.311128616333 9.59310626983643 8.18792724609375 6.27207565307617 6.4185357093811 7.3032283782959 14.9610614776611 5.46031522750854 6.00317287445068 7.07345581054688 5.73327541351318 2.93956923484802 -0.430830776691437 5.57619047164917 2.05791163444519 4.72780847549438 11.4724216461182 10.1076364517212 26.8463821411133 25.1278667449951 23.1606845855713 38.6427803039551 26.3926372528076 23.5752716064453 11.8042573928833 8.30445671081543 5.46246194839478 2.07765626907349 -0.352233231067657 1.166907787323 15.7088832855225 11.8781833648682 25.3641662597656 35.7328338623047 46.3630561828613 26.3434982299805 10.5307931900024 7.34042167663574 9.96590232849121 8.8100700378418 9.75379753112793 17.316535949707 20.5320281982422 20.1766242980957 14.2814884185791 18.3040866851807 12.0765628814697 14.4912567138672 5.92279195785522 -1.97150158882141 2.94938588142395 1.79974579811096 28.0640735626221 28.1662254333496 20.2055072784424 35.6571311950684 5.79249048233032 6.17228603363037 7.53582811355591 10.741623878479 10.3899841308594 11.9901456832886 14.0435028076172 13.3156929016113 12.9347162246704 12.692816734314 9.52245616912842 9.43388271331787 7.98628044128418 9.59807968139648 6.38915157318115 3.87403750419617 2.74161100387573 2.5897490978241 4.17642784118652 4.02403211593628 3.63164043426514 2.81574273109436 3.04293274879456
3.36981987953186 2.08340239524841 2.28014779090881 4.30130290985107 4.90253591537476 11.9050207138062 4.63448810577393 3.08884263038635 3.64569973945618 1.21305537223816 1.64357376098633 2.59280824661255 1.64687025547028 4.62209224700928 6.68568325042725 5.07802629470825 5.13404273986816 6.72230672836304 4.55064058303833 12.5498151779175 7.79319143295288 6.62226724624634 4.00158929824829 2.98056697845459 11.3489542007446 22.4103870391846 18.512866973877 2.29617476463318 2.5512068271637 2.64353632926941 2.88958978652954 3.37437987327576 3.25911998748779 4.04612827301025 4.08431816101074 4.3704776763916 4.62670564651489 5.62916231155396 5.29601240158081 5.13674783706665 5.77019500732422 5.10225582122803 5.38589954376221 3.63810634613037 4.45491361618042 4.69515228271484 4.48595190048218 5.38336753845215 5.73093938827515 6.57350873947144 7.47075605392456 6.85234689712524 8.13338470458984 8.32992649078369 9.18366813659668 7.38910007476807 7.2283616065979 7.98473930358887 8.73645114898682 8.88624000549316 9.52766990661621 8.55627632141113 6.48047065734863 3.48806071281433 3.27403497695923 2.79966521263123 4.25806617736816 7.0257568359375 7.4351487159729 6.47013282775879 9.3476734161377 13.2421579360962 14.0459442138672 28.4862003326416 13.1782989501953 7.39572143554688 15.8334398269653 4.43831491470337 7.11473369598389 8.61002826690674 9.915846824646 11.6487064361572 8.23547267913818 9.66521835327148 9.76386451721191 10.3891305923462 8.23009872436523 8.00765323638916 10.771354675293 13.3170318603516 12.9288578033447 14.8876056671143 15.5864496231079 8.81070899963379 8.31058788299561 14.2608880996704 19.2754802703857 7.0875997543335 11.2201738357544 5.34029150009155 4.80103874206543 18.6232452392578 7.17392301559448 6.26106357574463 12.573691368103 15.1136045455933 41.1923751831055 2.384113073349 2.48451781272888 1.76653897762299 1.28076314926147 2.66120457649231 8.00883102416992 14.1985082626343 21.8102436065674 21.6138401031494 24.0529861450195 29.0040740966797 20.7658882141113 20.5029945373535 21.4844875335693 20.4433860778809 3.94442820549011 2.95297336578369 1.71734321117401 5.7278528213501 15.5953149795532 24.1108722686768 16.882625579834 35.6976509094238 33.1473121643066 25.7144145965576 14.4908475875854 9.40413093566895 8.57038688659668 9.8272647857666 19.4506397247314 24.8566627502441 24.1811504364014 20.5910949707031 14.9303359985352 13.5455617904663 13.2675609588623 15.9156894683838 9.92393016815186 11.7151880264282 7.23272895812988 14.5165109634399 13.501989364624 9.32676792144775 26.2082824707031 6.27847623825073 4.51762342453003 7.57470417022705 10.1714992523193 10.0697984695435 11.9861164093018 11.3683528900146 11.0139112472534 10.7883148193359 10.844352722168 8.63922691345215 8.09911918640137 8.72863006591797 5.5714259147644 6.27842903137207 4.95483350753784 3.16851663589478 2.73188877105713 4.11320066452026 3.01824951171875 1.66769814491272 2.14115691184998 3.06510543823242
2.04142189025879 2.22659492492676 2.22632169723511 4.69816970825195 7.07241725921631 5.16482973098755 2.81008124351501 3.38808608055115 1.52670407295227 1.5465704202652 1.6202050447464 2.49892854690552 3.09965991973877 5.76683664321899 4.85092163085938 4.3910813331604 5.9905571937561 3.98917675018311 10.0257959365845 6.89065980911255 5.66839790344238 5.85636043548584 3.28799629211426 4.25825071334839 14.7778825759888 11.795973777771 2.15664005279541 2.10830783843994 2.42667984962463 2.52436971664429 2.86101317405701 2.93895649909973 3.23727083206177 3.76561045646667 3.81242084503174 4.12388372421265 5.05518817901611 4.76997089385986 4.69970464706421 5.28529262542725 4.72669124603271 4.96333360671997 3.98395347595215 3.48461747169495 4.36215782165527 4.15880155563354 4.95115423202515 4.92856931686401 5.41610336303711 6.01395654678345 6.91279172897339 7.32932138442993 7.54349040985107 8.06782627105713 6.45149087905884 5.10317659378052 6.33379697799683 7.09653806686401 7.44010639190674 6.58632326126099 7.88195133209229 7.13960790634155 3.58302927017212 3.25492715835571 3.10229969024658 3.49594187736511 4.18295383453369 6.14038753509521 6.54828596115112 6.86758995056152 5.08478164672852 10.6415758132935 11.1815710067749 29.7787475585938 25.583122253418 16.9759254455566 4.45276784896851 5.07477045059204 4.310142993927 7.23666477203369 8.20925331115723 11.795841217041 7.50512647628784 8.44914436340332 8.33385372161865 7.61943054199219 6.75422668457031 8.54589080810547 10.1059141159058 9.68763065338135 10.3528327941895 9.45967864990234 27.067476272583 7.51047039031982 8.16766929626465 6.10097980499268 18.1062183380127 21.3913650512695 20.8880233764648 27.4144515991211 12.0820808410645 16.204496383667 5.97211313247681 11.6909627914429 18.5978012084961 12.6563987731934 9.71239852905273 2.07338523864746 21.5958862304688 0.924804151058197 0.81096613407135 1.52061283588409 5.99291276931763 11.1961584091187 18.3939437866211 18.2692775726318 19.2488498687744 16.0899925231934 25.8204517364502 18.8967514038086 18.7851829528809 23.874547958374 11.9538669586182 8.41301250457764 2.93879628181458 3.04874897003174 14.8881702423096 19.9129295349121 23.3605194091797 26.7943058013916 39.6868057250977 14.8851461410522 12.4408702850342 19.7252502441406 8.86047744750977 13.2278709411621 18.7405281066895 17.9765911102295 21.9276180267334 17.8599624633789 18.0424175262451 13.8840446472168 15.9492378234863 19.9763813018799 10.3873538970947 23.2677135467529 12.2324819564819 15.113166809082 12.2518997192383 17.9476490020752 5.33229970932007 4.55561780929565 6.83551120758057 8.96151161193848 8.70532894134521 9.87105083465576 11.1525707244873 10.6915273666382 10.2087240219116 10.0210037231445 7.78744602203369 7.35044622421265 7.03774166107178 8.30061149597168 5.85582876205444 4.22090673446655 4.93505477905273 4.27188682556152 3.90423655509949 2.70226860046387 1.62667429447174 1.5946192741394 2.19154906272888 2.10953521728516
1.95664072036743 2.16530752182007 4.1075587272644 4.64081335067749 6.11687421798706 4.21403980255127 3.1133234500885 1.40318930149078 1.02764022350311 1.54529535770416 2.30929684638977 1.56137454509735 3.73678660392761 5.39418029785156 4.19509410858154 4.62051296234131 5.58325481414795 3.78449773788452 8.75281429290771 5.00397682189941 5.27451515197754 3.8455958366394 2.91374087333679 7.69086265563965 12.1105146408081 9.63169288635254 2.07921862602234 2.28287553787231 2.28725790977478 2.2184739112854 2.66593194007874 2.62919950485229 3.17161107063293 3.26122164726257 3.48460483551025 3.81519985198975 4.75969314575195 4.42460870742798 4.38249683380127 5.04163694381714 4.50721836090088 4.70317029953003 3.17675852775574 3.90801000595093 4.1324725151062 3.94738793373108 4.69738817214966 5.00091934204102 5.32719135284424 6.24616670608521 5.63279151916504 6.83796977996826 7.00984048843384 7.42828416824341 6.14205837249756 5.44352579116821 5.86674070358276 6.11837911605835 6.08589029312134 6.3741569519043 3.23725318908691 1.32537400722504 3.23387384414673 3.15532803535461 3.1415638923645 3.83238935470581 5.01459884643555 4.96363258361816 4.15128326416016 5.88464021682739 8.011399269104 8.48721313476562 12.3010454177856 19.3577709197998 15.6926765441895 19.4190101623535 11.6030111312866 18.0909862518311 9.15513038635254 6.28640985488892 7.49507808685303 6.82970571517944 6.64308929443359 7.32281637191772 7.8191294670105 6.95554780960083 8.74458026885986 11.4453058242798 13.7053098678589 8.46486759185791 8.88780212402344 7.33236598968506 7.4936203956604 7.12201499938965 8.77611351013184 9.58666229248047 13.4739198684692 8.26822853088379 22.8573532104492 29.815767288208 22.0122756958008 18.3173370361328 12.7672519683838 12.8484411239624 16.1882476806641 33.0891571044922 29.2701530456543 30.3572082519531 27.294677734375 25.8229961395264 4.08464908599854 6.84191083908081 6.74192237854004 13.3277931213379 14.841649055481 22.3398265838623 14.7934303283691 14.6486968994141 14.9289131164551 37.109691619873 25.0237636566162 45.3352203369141 20.6564083099365 15.6122312545776 2.97466349601746 11.785961151123 15.2179584503174 2.24835920333862 9.64244556427002 24.7336864471436 42.6357040405273 28.1995506286621 9.99104595184326 9.59385299682617 9.39969253540039 10.8846759796143 15.3495121002197 17.0288867950439 16.2017059326172 15.1739864349365 12.9199199676514 14.1153392791748 21.733642578125 28.0606708526611 18.350944519043 21.2916679382324 11.6823406219482 10.1270380020142 3.83621048927307 15.7091264724731 16.0762596130371 10.1317720413208 7.37622308731079 8.6267204284668 8.8523530960083 9.94712924957275 9.63643646240234 8.95359039306641 8.74114990234375 8.90395069122314 7.46476316452026 6.39091873168945 7.5487642288208 5.38334274291992 3.65694737434387 3.87410116195679 3.44393014907837 4.01147747039795 3.39540934562683 2.77701449394226 1.26833128929138 1.13924026489258 1.66147172451019 2.9000678062439
2.04839968681335 2.08455944061279 4.46166229248047 5.48015117645264 4.88062858581543 2.58573198318481 3.00702691078186 0.959421515464783 1.49066960811615 1.55004596710205 2.27340722084045 3.15523767471313 4.79935503005981 3.89414954185486 3.44188523292542 5.2655463218689 3.50968766212463 7.58980226516724 5.57534742355347 4.7115626335144 3.76193737983704 2.79301619529724 3.66838932037354 9.88602256774902 7.79230308532715 2.01970720291138 1.92673277854919 2.19638466835022 2.19463324546814 2.38628101348877 2.33516597747803 2.52837038040161 2.95692586898804 3.03785443305969 3.25601410865784 4.17263793945312 4.02147769927979 3.93996524810791 4.52248907089233 4.16319227218628 4.38135147094727 3.02244544029236 3.01641345024109 3.83285689353943 3.68608117103577 4.37147903442383 4.36323165893555 4.75218391418457 5.69574117660522 5.30535125732422 6.18529033660889 6.35263061523438 6.64775466918945 5.47591161727905 4.89880561828613 5.26352787017822 5.21041250228882 4.92376470565796 3.02409291267395 1.94022929668427 24.6840362548828 1.52716600894928 1.88030028343201 1.62380683422089 3.3254759311676 4.56208801269531 4.22205495834351 3.20232582092285 4.24784994125366 3.22158455848694 6.70085906982422 7.22810316085815 12.4030418395996 13.643515586853 9.30303859710693 12.2838926315308 7.20172262191772 11.5972032546997 15.2715358734131 5.79913330078125 14.3205213546753 9.54790687561035 6.38243007659912 7.41976451873779 6.87152099609375 9.11885643005371 7.93554496765137 9.43528747558594 11.1509380340576 8.23877620697021 8.71592426300049 5.63194942474365 5.28872394561768 14.0286245346069 4.61965465545654 5.24721908569336 6.19196081161499 7.53914976119995 14.1070337295532 6.51940536499023 14.7134037017822 11.4302568435669 8.90740871429443 10.2308053970337 20.212272644043 30.7112216949463 30.0602474212646 30.8724308013916 37.3956680297852 46.748462677002 21.9832420349121 9.75998687744141 8.41205215454102 9.34003353118896 14.0694284439087 15.3396310806274 30.3382358551025 14.3026475906372 24.0701904296875 30.7118072509766 29.6097602844238 33.467643737793 28.6734161376953 3.73371148109436 3.02821564674377 11.0982666015625 8.05108451843262 3.91409754753113 5.61663818359375 20.4898834228516 30.9950046539307 46.293285369873 25.8500576019287 8.27469921112061 10.0730199813843 12.6991004943848 14.4346914291382 13.9190502166748 13.1182107925415 14.0351419448853 10.3632917404175 14.8619298934937 19.2029800415039 29.213342666626 15.0897808074951 18.3577442169189 12.9920358657837 17.4205284118652 12.4901609420776 5.01418256759644 14.2278985977173 6.20682668685913 7.76458358764648 7.90900754928589 8.9430685043335 9.62084197998047 9.00837421417236 8.63629150390625 8.39961910247803 6.83811521530151 6.36018371582031 6.87624502182007 4.5568151473999 5.23761701583862 3.21885323524475 3.31375908851624 2.9915931224823 3.68232035636902 2.63132977485657 1.56780767440796 1.29182600975037 1.34397745132446 1.78670966625214 2.19423055648804
1.94384288787842 3.77654361724854 4.35979223251343 4.77440738677979 3.94403672218323 2.83588838577271 1.20913779735565 1.37870645523071 1.42625439167023 2.1102294921875 2.40548324584961 4.40752649307251 3.49785542488098 2.53524780273438 3.73930692672729 4.86465978622437 6.92395114898682 5.19080781936646 4.16123676300049 4.35101556777954 3.12519407272339 3.48479700088501 6.19316434860229 8.82616424560547 6.91144323348999 1.95839953422546 2.0981273651123 2.06098866462708 2.20600605010986 2.10779571533203 2.16358184814453 2.56736183166504 2.61685395240784 2.90417098999023 3.03000164031982 3.92230582237244 3.76775574684143 3.85671758651733 4.26320838928223 3.55385375022888 4.05533695220947 2.87750816345215 3.61480379104614 3.45238018035889 3.46143174171448 4.18256998062134 4.43859958648682 4.63814878463745 5.42824697494507 5.66138601303101 5.79641103744507 4.88701725006104 6.22216176986694 5.01917028427124 4.26683855056763 4.64287757873535 4.8502311706543 17.8657627105713 18.1568336486816 2.36847710609436 7.08814382553101 1.69931983947754 5.11024475097656 2.50198459625244 2.77295136451721 2.33217549324036 3.98947358131409 3.50133776664734 2.27232933044434 4.72775602340698 5.55279541015625 7.25428342819214 10.6547298431396 8.08072662353516 8.07553100585938 5.25765085220337 7.44048404693604 5.88550138473511 24.5270938873291 5.14049291610718 11.6480474472046 21.0390701293945 6.2815113067627 6.24011516571045 5.77258682250977 12.485424041748 8.24735450744629 8.42268466949463 6.31615352630615 8.20676326751709 11.4319477081299 5.23278760910034 5.93149423599243 18.548885345459 4.10068511962891 3.84444618225098 4.28238439559937 4.92957925796509 4.63343811035156 4.07382488250732 5.24615287780762 3.4225127696991 7.77156972885132 9.37834644317627 20.6411037445068 21.9446277618408 20.7061557769775 24.4900398254395 24.4995365142822 39.0689964294434 35.2174377441406 35.1332168579102 25.9466667175293 13.6796007156372 14.5332927703857 14.8765573501587 27.6713886260986 15.7916193008423 19.5033626556396 19.8939628601074 23.3305759429932 23.0821914672852 40.4552688598633 17.2456359863281 4.6642804145813 18.4174289703369 6.61750411987305 5.46366167068481 9.06657981872559 10.6582946777344 23.2793197631836 34.7257270812988 44.4172744750977 33.5811614990234 27.319164276123 13.7032632827759 14.3345766067505 14.2561550140381 12.8306016921997 27.8375225067139 13.3728733062744 37.0349578857422 28.1234569549561 31.7281665802002 13.3818578720093 11.4472160339355 8.56405353546143 13.2713203430176 7.94493961334229 9.19009971618652 6.4576997756958 7.20567464828491 7.42108058929443 8.00929260253906 8.8117208480835 8.84916305541992 8.20888996124268 7.8783392906189 6.82530927658081 6.80066537857056 5.74544668197632 6.70764684677124 4.91803789138794 3.34095883369446 2.93095231056213 2.59489822387695 3.38704824447632 3.06571507453918 2.52068328857422 1.1665073633194 0.859998047351837 1.33253657817841 1.76475191116333 2.31582117080688
1.8435925245285 4.09555196762085 3.91056132316589 4.56316041946411 2.40818476676941 2.80284452438354 0.954059600830078 1.42227411270142 1.95672214031219 0.827378451824188 2.83111429214478 4.17571306228638 3.20763468742371 3.3800356388092 4.28019332885742 3.04298400878906 6.45392942428589 4.91813707351685 4.14393091201782 3.60181713104248 2.78925275802612 5.6015157699585 7.8048267364502 6.29510068893433 2.46253347396851 1.81639206409454 2.03116798400879 1.98830926418304 2.10290837287903 1.97089564800262 2.31709241867065 2.29651498794556 2.53777432441711 2.67570853233337 3.48036432266235 3.29526352882385 3.19867610931396 3.81643581390381 3.58751606941223 3.6807177066803 2.61160850524902 3.10220170021057 3.34639763832092 3.21491885185242 3.80231595039368 3.95987343788147 4.18908309936523 4.9711275100708 4.60930776596069 5.37198972702026 5.53085517883301 5.58580017089844 4.49344825744629 3.72521281242371 4.09226417541504 4.3102388381958 4.01690816879272 9.92924213409424 9.15264320373535 5.55006217956543 14.2058839797974 6.42862319946289 10.4961462020874 2.04375195503235 2.31554365158081 3.03076314926147 1.77295100688934 3.27090048789978 3.77772450447083 3.99256634712219 4.8058443069458 7.08983182907104 9.01284122467041 6.72970676422119 5.88407039642334 4.20769214630127 5.2846155166626 6.11690616607666 4.74947118759155 6.37275791168213 8.97657108306885 25.3329830169678 6.59823322296143 5.77175760269165 5.45830202102661 6.76880216598511 8.2422924041748 7.29443693161011 6.22463321685791 5.47062635421753 4.86815071105957 4.4268102645874 5.43942737579346 4.41818428039551 3.10856413841248 2.99804282188416 2.20553278923035 3.12553334236145 5.14028549194336 4.430748462677 2.58897614479065 4.53184270858765 5.84406757354736 4.26048612594604 9.49345397949219 17.7765998840332 15.2481155395508 19.3361167907715 23.2205104827881 21.9027576446533 23.4114952087402 22.6766738891602 24.7548980712891 10.3643445968628 12.9152812957764 12.2928371429443 18.8773517608643 13.4911346435547 13.3140048980713 18.2760581970215 18.8170204162598 18.7994918823242 29.6918849945068 39.2589416503906 7.86605405807495 35.2512893676758 21.6326580047607 17.79225730896 7.61441993713379 9.67123222351074 13.4425935745239 18.0311088562012 36.2772941589355 35.5827674865723 27.6781787872314 31.3231143951416 23.2633228302002 16.2446250915527 20.4377250671387 27.4415493011475 16.0344429016113 29.610782623291 24.560920715332 23.3170738220215 11.9922103881836 7.89504718780518 9.29269123077393 18.0278816223145 4.04056930541992 8.61176586151123 5.85999393463135 7.14702701568604 7.35556650161743 8.16364288330078 8.24871349334717 7.90146684646606 7.64842653274536 7.64288425445557 6.60232782363892 6.07747793197632 6.35324048995972 4.25465440750122 4.83016490936279 2.94126844406128 2.66806149482727 2.47490644454956 3.25637483596802 2.33135867118835 1.38915073871613 1.08232736587524 1.22255051136017 1.59780526161194 1.51952803134918 2.23209881782532
3.86905550956726 3.64563727378845 4.34257888793945 3.76846694946289 2.79436540603638 2.45762705802917 2.08131194114685 1.40056383609772 1.95355069637299 2.10501384735107 3.7593891620636 3.06798410415649 2.64595890045166 3.84182095527649 2.68618178367615 5.69266557693481 4.68093013763428 3.72995781898499 3.91380643844604 3.03764748573303 3.11548328399658 6.96588468551636 5.70251321792603 3.04609942436218 2.99014377593994 2.00386905670166 1.92577564716339 2.01336526870728 1.87298011779785 1.93929946422577 2.20571041107178 2.17347550392151 2.39288949966431 3.06887483596802 2.8786518573761 2.87094736099243 3.39266085624695 3.2211058139801 3.35339426994324 2.82480478286743 2.48132729530334 3.07080125808716 2.94476056098938 3.46544742584229 3.46429061889648 3.75011658668518 3.86347246170044 4.55212926864624 4.78077173233032 4.94710922241211 4.94355726242065 3.98346066474915 3.21426057815552 3.40955924987793 3.74979901313782 3.88283610343933 7.21543264389038 7.65803384780884 15.0931901931763 13.2911796569824 1.34647297859192 7.11797380447388 0.570263743400574 1.59528803825378 8.74181461334229 16.3828048706055 2.25328969955444 3.2410454750061 1.80967485904694 1.65411794185638 4.25005102157593 6.40363931655884 5.55695199966431 4.89535808563232 3.82720327377319 4.2308611869812 5.08840703964233 25.738208770752 9.89008617401123 6.78530311584473 11.1190595626831 13.933876991272 10.9977684020996 4.98643016815186 6.13977003097534 6.91597270965576 6.98073244094849 5.31147003173828 6.24030303955078 7.8188042640686 4.03797245025635 4.83892583847046 10.3855772018433 5.24283027648926 2.65547227859497 1.77791500091553 1.70017647743225 1.37310469150543 2.75469088554382 1.34929585456848 2.05302047729492 2.1891086101532 2.83583617210388 13.9569177627563 10.4494352340698 14.4812965393066 15.3331098556519 10.5655536651611 16.5439491271973 17.5529022216797 13.9967098236084 16.7779731750488 29.6033668518066 12.4697551727295 12.3783826828003 10.5196332931519 12.3722724914551 13.3044710159302 12.6487522125244 13.4146318435669 15.1859579086304 20.5524024963379 21.8810653686523 30.6651782989502 19.6840591430664 33.4857597351074 30.8289947509766 23.6267471313477 22.5091514587402 10.7410907745361 16.6223163604736 24.3530101776123 24.3428173065186 25.4145965576172 33.2684936523438 28.9522953033447 27.1904010772705 25.9095611572266 23.067892074585 30.5181465148926 17.6828460693359 21.4831409454346 18.0922451019287 16.3963184356689 10.350567817688 7.91788053512573 8.95953464508057 1.272096991539 2.31566524505615 5.06956148147583 6.54872846603394 6.90401744842529 7.42432641983032 8.02065944671631 8.10689353942871 7.60002899169922 7.40950298309326 6.66329193115234 6.6091513633728 5.60780954360962 6.29544162750244 4.62489128112793 3.11466312408447 2.54013347625732 2.34525799751282 3.07568264007568 2.75992488861084 2.21947932243347 0.959622383117676 0.574407935142517 0.618665337562561 1.42119705677032 1.96026647090912 2.23583555221558
3.76636052131653 4.10166931152344 3.58201789855957 2.40746426582336 3.39661312103271 3.42996621131897 2.24171018600464 1.8965380191803 0.820218443870544 2.60054850578308 3.75497841835022 2.93074083328247 3.04515695571899 3.74865460395813 2.60726618766785 5.29444169998169 3.55715250968933 3.67828488349915 3.47223019599915 2.72029733657837 4.84868001937866 6.45416402816772 5.28606843948364 2.82444024085999 3.2367799282074 1.92448365688324 1.88498032093048 1.96123206615448 1.7987425327301 2.06751227378845 2.0087366104126 2.1736581325531 2.25320339202881 2.89763951301575 2.6907525062561 2.664217710495 3.16368627548218 3.0054943561554 3.0600368976593 2.29841041564941 2.70800423622131 2.91416144371033 2.80012106895447 3.28476095199585 3.4458909034729 3.44791793823242 4.07358455657959 3.78887057304382 4.36602640151978 4.54699087142944 4.50405168533325 3.62606000900269 2.97187542915344 3.27082562446594 3.43655729293823 3.09485149383545 5.32453012466431 5.61104297637939 9.9481840133667 30.8532028198242 7.21401691436768 29.9814834594727 15.0033330917358 0.995130956172943 2.13080620765686 10.2810878753662 1.07496774196625 11.3511648178101 6.85979652404785 3.29408836364746 4.47686529159546 4.19585275650024 3.64823865890503 2.86632370948792 3.50281190872192 4.75608491897583 5.2959566116333 16.3665428161621 6.16245889663696 6.26309251785278 10.1831188201904 9.16444110870361 15.5666704177856 4.74622678756714 6.04194688796997 15.7285270690918 8.62298679351807 5.45330572128296 4.77504682540894 7.91378164291382 4.57679557800293 10.2875051498413 23.4648265838623 16.5193252563477 1.95394992828369 1.25685620307922 1.10873544216156 1.04362273216248 0.751020312309265 -0.858861029148102 1.11986148357391 1.85429120063782 4.64820528030396 9.36461448669434 11.606538772583 17.7890510559082 24.1717109680176 16.1953315734863 10.2963218688965 8.19716644287109 8.51335144042969 17.4475574493408 21.4105701446533 11.7506113052368 9.11495113372803 9.92495918273926 8.36339855194092 11.927264213562 11.1264896392822 6.7219090461731 13.2057981491089 17.8019180297852 20.7495098114014 23.2011394500732 23.8517036437988 21.8600177764893 23.3710765838623 29.071949005127 8.99638748168945 8.94863414764404 16.8121223449707 20.7834205627441 20.6396522521973 22.3219661712646 24.3775424957275 25.9379463195801 32.9896545410156 29.9981498718262 27.7603225708008 25.0111656188965 13.7269868850708 16.9500389099121 16.051305770874 10.5265760421753 7.77331590652466 8.16849613189697 26.4119739532471 33.175838470459 2.54010772705078 3.93508625030518 6.39963483810425 6.63542413711548 7.45743465423584 7.56851768493652 7.24345397949219 6.99595928192139 7.02580976486206 6.27761316299438 5.78502750396729 5.98841094970703 4.08129262924194 4.48415422439575 2.72917079925537 2.45496654510498 2.26401352882385 2.96285057067871 2.1169376373291 0.847053647041321 0.815372109413147 -0.159743383526802 1.23395943641663 0.73215240240097 1.12582314014435 1.51990079879761
3.29680275917053 3.98689746856689 2.23765397071838 2.66135787963867 1.91044330596924 1.9184159040451 2.05526447296143 1.89358901977539 1.95127975940704 3.54545855522156 2.81971049308777 2.41285824775696 3.50253057479858 2.39438247680664 4.78868961334229 4.05922508239746 3.38968372344971 3.39143633842468 2.93222713470459 2.87581300735474 5.96702766418457 4.90807628631592 2.10275411605835 2.50985240936279 3.34386682510376 2.71210408210754 1.93716859817505 1.77643930912018 1.78892469406128 1.99238753318787 1.93456363677979 2.07620453834534 2.64500451087952 2.42070627212524 2.39557409286499 2.83164715766907 2.68713760375977 2.6938316822052 2.2411060333252 2.03927564620972 2.6859142780304 2.58655691146851 3.00661706924438 2.99009251594543 3.19091248512268 3.22739195823669 3.77138209342957 3.88836002349854 4.01734924316406 3.92424869537354 3.1468460559845 2.58826947212219 2.81164813041687 2.94074559211731 2.73870873451233 3.84693026542664 4.21818828582764 6.10796976089478 6.67048311233521 20.6734180450439 3.94047164916992 19.9859199523926 27.3234233856201 10.3382577896118 1.66274428367615 13.2446956634521 1.37013971805573 15.7279005050659 10.5222005844116 3.13410472869873 3.67749261856079 4.25628328323364 15.4818964004517 2.98643088340759 3.99464058876038 4.96211194992065 9.61598587036133 8.04208183288574 13.2643480300903 7.59176206588745 7.37944936752319 5.95863914489746 29.2810573577881 5.3810977935791 6.27078723907471 7.01026248931885 9.29538154602051 5.22008085250854 4.30649185180664 9.04237461090088 7.45460796356201 5.93811798095703 28.0140266418457 28.4682464599609 19.5992469787598 5.03283786773682 0.369363874197006 0.757863521575928 4.92775011062622 0.196540370583534 -0.579308867454529 -0.425746113061905 2.41760587692261 5.79585886001587 10.2497444152832 17.6962566375732 25.3418312072754 24.0418167114258 5.71392059326172 7.33443975448608 10.5161142349243 12.0068950653076 11.251368522644 19.2522239685059 8.11896800994873 6.45295858383179 5.57507944107056 7.19938182830811 6.24840831756592 7.0120906829834 7.03987407684326 14.3134183883667 18.304666519165 16.6686954498291 21.041051864624 19.4661235809326 20.9188232421875 33.0416145324707 34.4438247680664 15.4992370605469 16.9964485168457 16.2765922546387 16.7917461395264 19.0497894287109 20.950382232666 22.7942562103271 22.934362411499 22.7508869171143 23.4151000976562 37.2829132080078 15.9708671569824 12.2392148971558 12.381778717041 9.85577487945557 7.81320524215698 16.1867065429688 12.8259744644165 26.0245838165283 15.3750524520874 5.59581851959229 6.24560976028442 6.71868419647217 7.27399158477783 7.38793134689331 6.96121740341187 6.65632677078247 5.88070726394653 5.44499349594116 5.19422245025635 5.79664325714111 4.31462097167969 2.91275405883789 2.34086203575134 2.14353179931641 2.79495000839233 2.02354216575623 1.19525516033173 1.42150604724884 -2.00560617446899 -2.30104351043701 -1.2217253446579 -1.10976052284241 1.00859749317169 2.92613458633423
3.69161486625671 3.19987463951111 2.46029281616211 1.42461884021759 1.50766360759735 1.37418568134308 1.89066326618195 1.40680944919586 2.37440896034241 3.40927076339722 2.68691349029541 2.79104042053223 3.38855838775635 4.4419584274292 3.83713531494141 3.12265157699585 3.24167847633362 3.27786874771118 2.71981263160706 4.29693984985352 5.57262372970581 4.58800220489502 1.95310974121094 2.31008243560791 2.63725280761719 3.0809760093689 2.28166365623474 1.7446608543396 1.94270193576813 1.8389185667038 1.96114385128021 1.98572742938995 2.51987099647522 2.27568459510803 2.25253319740295 2.66348314285278 2.52926445007324 2.57226133346558 1.87257075309753 2.17584872245789 2.5303168296814 2.43261933326721 2.78032755851746 2.96176409721375 2.97225570678711 3.44840407371521 3.19118809700012 3.58751249313354 3.68804931640625 3.52282238006592 2.76709151268005 2.19739198684692 2.39117908477783 2.53704404830933 2.43862867355347 2.9387583732605 3.23407363891602 4.77077579498291 12.4377679824829 4.34787893295288 12.6382942199707 5.91237163543701 18.2085590362549 15.1060562133789 1.25472569465637 10.7203998565674 7.84230184555054 1.65011298656464 5.56982755661011 3.39375567436218 3.60600614547729 3.49689340591431 4.71785974502563 2.55543279647827 4.46429204940796 4.85497188568115 8.16688346862793 5.76453161239624 8.62156295776367 16.2322158813477 5.60755491256714 9.93535804748535 25.9605693817139 16.6020755767822 6.74578142166138 6.43907594680786 10.567006111145 7.70436143875122 4.11102056503296 4.11162948608398 12.2430038452148 13.2101945877075 25.8217678070068 17.4068412780762 20.5674591064453 9.25034618377686 1.59353566169739 -1.23574650287628 -1.63508212566376 -0.694579660892487 -0.679549098014832 0.142234683036804 1.92119061946869 5.5375828742981 11.1716060638428 15.813157081604 14.4086351394653 21.3247051239014 18.6761722564697 8.09078121185303 10.8300294876099 10.1630001068115 12.094780921936 22.4523983001709 6.49173879623413 4.546226978302 4.24423503875732 5.51888990402222 21.6774101257324 12.5359487533569 11.6574192047119 14.2108240127563 14.3605871200562 17.2349224090576 16.0561332702637 15.1657133102417 18.8292999267578 25.7153854370117 26.9648742675781 14.3635187149048 16.2285461425781 15.4842023849487 15.6483917236328 15.9060354232788 16.8519115447998 19.5111198425293 18.0224437713623 20.6283664703369 19.3382453918457 27.0449714660645 24.8177471160889 13.5312509536743 9.5425329208374 6.42389535903931 28.80078125 39.9554862976074 17.0870342254639 10.6837310791016 13.66441822052 5.74371576309204 6.11099243164062 6.64989376068115 6.80981826782227 6.46593046188354 6.27072286605835 6.44687080383301 5.78321695327759 4.90597295761108 5.47059440612793 4.11003732681274 2.85427188873291 2.5305507183075 2.02184152603149 2.59977269172668 2.38554883003235 1.94589626789093 1.04712069034576 36.7699203491211 31.0564956665039 -1.7975070476532 -1.76189088821411 -1.81044125556946 0.226991578936577 0.759844362735748
3.63825058937073 1.91848683357239 2.38232445716858 1.03429591655731 1.33832311630249 1.73332786560059 1.84538722038269 2.30693697929382 3.19177532196045 2.52801752090454 2.1881468296051 3.15039443969727 2.14969801902771 4.27626085281372 3.59775471687317 3.07205724716187 3.22172713279724 2.4855363368988 4.00275659561157 5.13277006149292 4.32371664047241 1.94802963733673 1.91750156879425 2.04394698143005 2.11816835403442 2.22392249107361 2.377605676651 1.96381604671478 1.90551817417145 1.79666674137115 1.89563465118408 2.38101124763489 2.13733267784119 2.0918083190918 2.42105555534363 2.31794738769531 0.825384020805359 1.63569009304047 1.80918920040131 2.27630519866943 2.18007230758667 2.55102801322937 2.52626061439514 2.75458097457886 3.11738181114197 2.90356302261353 3.27260422706604 3.3578884601593 3.14136338233948 2.40548872947693 1.991379737854 2.04832148551941 2.18188214302063 2.15851640701294 2.58256030082703 2.33575105667114 3.44442844390869 4.49467706680298 9.83130645751953 2.39516758918762 10.1411123275757 11.3389081954956 3.94747042655945 22.1760425567627 1.40309071540833 6.9319224357605 22.1471748352051 8.58706760406494 3.10332655906677 4.86355972290039 3.89379119873047 3.17587471008301 13.6372442245483 3.36594223976135 4.67125558853149 6.83607244491577 6.03906345367432 6.13571548461914 6.85000419616699 25.4718246459961 5.43355178833008 10.6061983108521 15.9857711791992 16.0324401855469 6.6578893661499 5.64904642105103 10.7176237106323 17.1555633544922 3.60768175125122 3.74116015434265 12.5621099472046 11.0302772521973 23.4009075164795 27.6805820465088 20.599666595459 15.0753183364868 11.5711450576782 3.592125415802 -1.01094281673431 -0.734212815761566 -0.576066315174103 0.030800174921751 2.61466932296753 7.33540773391724 9.8526611328125 11.6825389862061 9.86605644226074 19.9112186431885 9.8138313293457 8.80000686645508 9.71973705291748 10.3444786071777 12.2792625427246 13.7767486572266 24.4963817596436 4.05842018127441 3.62003874778748 4.40417242050171 4.45086908340454 18.068962097168 6.93085193634033 12.8378276824951 12.9797601699829 15.7630519866943 15.0549755096436 15.5986890792847 18.2229061126709 19.2934379577637 13.2139854431152 14.6982097625732 14.0256061553955 14.0421495437622 14.3080368041992 14.7881565093994 15.2879800796509 16.3394870758057 17.6424961090088 17.1514949798584 18.4926700592041 15.5045175552368 17.2936191558838 10.2467994689941 16.3266315460205 7.65271663665771 17.7530384063721 33.2103805541992 14.8247289657593 9.3460865020752 6.39188957214355 5.74739599227905 6.0492467880249 6.18322229385376 6.09670066833496 6.06496429443359 6.08356380462646 5.47198390960693 4.99528741836548 5.16334056854248 3.6087327003479 3.9893262386322 2.54651522636414 3.3687219619751 1.91306233406067 2.438321352005 1.80885875225067 1.11338877677917 1.01510071754456 29.0550518035889 31.4268054962158 13.7315940856934 -0.0207888446748257 -2.73958992958069 -2.16956305503845 -0.125085756182671
2.96315288543701 2.16281199455261 0.987853050231934 1.24694693088531 1.28070020675659 1.73429906368256 1.80097317695618 3.12436962127686 2.42296147346497 1.94839346408844 2.6282901763916 3.09025597572327 3.92086863517761 3.36180305480957 2.89900898933411 3.11836552619934 2.73636150360107 2.51559543609619 4.88402700424194 4.093581199646 1.98796474933624 1.8975590467453 1.969402551651 1.88433825969696 1.9137579202652 1.76481831073761 1.86653935909271 2.05426120758057 1.79040026664734 1.84798526763916 1.8340836763382 2.29918098449707 2.05846977233887 2.22042369842529 2.32198548316956 25.2884006500244 1.05855822563171 0.463305532932281 2.01906156539917 1.94735646247864 2.08871293067932 2.36801743507385 2.50352549552917 2.44660186767578 2.83468413352966 2.94151639938354 3.0588743686676 2.37194538116455 2.89122033119202 2.18628621101379 1.88139820098877 1.88803052902222 2.0273175239563 1.96299123764038 2.30315351486206 1.78014707565308 3.55604696273804 7.33193922042847 1.92557549476624 7.14428853988647 3.17944502830505 9.23372173309326 0.96321964263916 21.608081817627 4.23480796813965 1.76475250720978 14.6074476242065 18.3974475860596 3.32519626617432 3.17170548439026 8.65708923339844 2.62279176712036 1.94823956489563 3.24599528312683 4.51793432235718 6.16162729263306 5.49644756317139 6.25180530548096 7.23259449005127 3.96304655075073 6.04696083068848 10.4483680725098 14.0177669525146 21.038366317749 19.8350677490234 17.1439838409424 15.951114654541 17.9571590423584 18.5804424285889 4.12029695510864 9.28573989868164 9.40559768676758 15.6791152954102 26.5701599121094 22.6557731628418 20.3701362609863 5.96963024139404 2.06919836997986 -1.19828736782074 -1.01987206935883 -1.20235884189606 0.418413311243057 3.1557514667511 7.02848434448242 9.05381202697754 9.26766204833984 10.3413963317871 8.04629039764404 7.63293123245239 9.06924533843994 9.73727607727051 9.96035289764404 24.6226348876953 6.33208084106445 4.30445384979248 9.96912288665771 2.23961329460144 2.88318753242493 3.54256749153137 3.97333264350891 10.3026142120361 10.6404399871826 12.3733625411987 11.8059349060059 9.98894786834717 13.8017921447754 15.7929954528809 17.163537979126 13.2948894500732 13.0212841033936 12.8848752975464 13.2919282913208 13.2674865722656 13.4778280258179 13.6814098358154 15.1560640335083 14.5684776306152 14.7297744750977 15.4842224121094 12.9390211105347 10.8316688537598 8.77225208282471 12.0708694458008 15.2833995819092 23.7385673522949 20.7399883270264 21.2523097991943 12.0768804550171 9.19316387176514 5.893470287323 6.02261257171631 6.04790496826172 5.72861528396606 5.61750364303589 5.35700941085815 5.33497905731201 4.51335287094116 5.00016117095947 3.80041003227234 2.65921449661255 2.39377641677856 5.12149477005005 4.05625915527344 2.15919542312622 1.73173463344574 0.813657522201538 16.8531322479248 29.9806156158447 37.4294281005859 41.7980804443359 38.4923362731934 25.7586078643799 -1.17930138111115 -0.338174700737
1.81700658798218 2.15668153762817 0.750959515571594 1.17237079143524 1.61248409748077 0.817366421222687 2.13038992881775 3.01450324058533 2.35231399536133 2.56182074546814 2.98191070556641 1.89451098442078 3.77557969093323 3.18173670768738 2.90876698493958 3.05453491210938 2.44353008270264 3.61805629730225 4.62761545181274 3.87698817253113 1.89292776584625 1.77061855792999 1.90732109546661 1.82562386989594 1.84600746631622 1.68850922584534 1.87743973731995 1.7829612493515 1.84052157402039 1.80629801750183 2.20889973640442 1.96044921875 1.93288052082062 0.531674325466156 0.985623121261597 0.0271886307746172 -0.144336760044098 -0.209006458520889 1.87885403633118 1.80893933773041 2.15069961547852 2.31870436668396 2.27595448493958 2.52497386932373 2.34508037567139 2.71275281906128 2.8255980014801 2.61769413948059 2.00492715835571 1.72830963134766 1.76135516166687 1.89317345619202 1.83487844467163 2.11308979988098 1.74514973163605 2.25645804405212 3.03657555580139 6.17216396331787 1.70853734016418 6.24490165710449 6.64400005340576 16.6798629760742 1.00045299530029 14.6065244674683 13.4616069793701 8.95661544799805 5.77494859695435 7.88900375366211 15.3348579406738 3.98732161521912 15.1253356933594 24.527027130127 5.17551946640015 3.23965811729431 4.99778842926025 5.13966655731201 5.75869798660278 6.32780933380127 9.40479946136475 4.77137994766235 7.25065660476685 12.1615314483643 6.87568616867065 12.8323926925659 15.4204750061035 13.532751083374 16.3573169708252 19.3915786743164 18.9754276275635 4.1158013343811 5.69107055664062 15.2443943023682 15.5398197174072 25.5846920013428 31.6212139129639 22.1585292816162 17.1945896148682 14.2845029830933 -1.00268280506134 -0.13895907998085 1.2550448179245 -0.541115641593933 3.73411703109741 4.09908771514893 8.74271869659424 8.9786262512207 9.35805797576904 7.89014339447021 9.06113433837891 9.0178108215332 9.3186559677124 7.40573978424072 26.9709415435791 20.3812465667725 4.83343648910522 2.46161484718323 2.73416256904602 2.97590732574463 3.10142087936401 3.47209525108337 4.23551559448242 7.55359506607056 9.73783874511719 9.72108268737793 10.6067543029785 10.8537616729736 12.3988361358643 11.2992105484009 12.6362867355347 12.3306360244751 12.5559482574463 13.0371246337891 12.7235898971558 13.062783241272 12.4939603805542 14.3097696304321 13.5438642501831 13.1176471710205 13.1524648666382 10.7494783401489 8.77906322479248 9.38204383850098 6.92620468139648 14.1388063430786 20.3612155914307 15.4214725494385 12.7490282058716 8.34151268005371 8.92593193054199 7.5588173866272 5.9011492729187 5.57550668716431 5.3547043800354 5.29769325256348 5.01040554046631 4.59754753112793 4.75068950653076 3.36941647529602 3.70829486846924 2.39586138725281 2.46616697311401 3.9907591342926 5.6436185836792 4.36179971694946 2.1040472984314 2.0296995639801 14.1682529449463 25.5613098144531 21.9766693115234 38.6015205383301 35.9102630615234 32.0868377685547 30.3137683868408 4.85159540176392
2.0998477935791 0.935151219367981 0.673553287982941 1.08653044700623 1.52414166927338 1.59035134315491 2.8265962600708 2.22018766403198 1.9588075876236 2.91063547134399 2.67290616035461 3.51859498023987 3.05785226821899 2.78552031517029 2.97957158088684 2.60802268981934 2.38911151885986 4.32531976699829 3.68784880638123 1.89197313785553 1.78106355667114 1.90849411487579 1.8234498500824 1.81882381439209 1.66371667385101 1.64878225326538 1.80304253101349 1.71620845794678 1.79091393947601 2.16855621337891 1.90952706336975 1.86466324329376 32.6402397155762 0.606229066848755 -0.40136131644249 -0.440737307071686 -0.62705272436142 -0.831903338432312 -0.346776008605957 1.91311621665955 1.95801544189453 2.17231297492981 2.08810567855835 2.34839296340942 2.37568283081055 2.50099277496338 2.30541014671326 1.79000115394592 1.44903135299683 1.63097977638245 1.64852690696716 1.79383337497711 1.94902539253235 1.67936515808105 1.60476088523865 2.56623506546021 4.85950708389282 1.64373552799225 5.14256143569946 2.26695346832275 14.1878881454468 26.3186626434326 4.50136518478394 9.35671520233154 8.8105297088623 7.67678928375244 2.72075510025024 3.03818559646606 9.27071952819824 4.87465476989746 9.79481410980225 17.0580444335938 21.3361682891846 4.6673698425293 4.80741262435913 5.11507225036621 5.79192399978638 4.75508260726929 14.0019445419312 4.667076587677 9.66518115997314 13.8078384399414 8.09703540802002 9.04090976715088 9.37526702880859 9.52605056762695 15.2227563858032 18.1666889190674 22.8790798187256 14.8341197967529 8.093186378479 11.4628572463989 17.55251121521 20.882625579834 36.352954864502 28.8389225006104 14.0720024108887 14.8051414489746 -0.502477884292603 1.35115480422974 -0.263923466205597 1.34021627902985 1.45198202133179 4.31260204315186 6.60902118682861 5.66267871856689 6.25593852996826 7.03198766708374 7.44636487960815 7.02291488647461 12.4049272537231 10.7267227172852 7.8419451713562 6.36294984817505 11.9703407287598 1.99889051914215 7.04453897476196 2.14735627174377 2.79154944419861 3.76693892478943 4.77589511871338 9.34037494659424 8.68080234527588 8.59488201141357 8.595778465271 9.62149238586426 10.8832483291626 10.7878332138062 11.0977125167847 11.6206331253052 12.1662731170654 12.2386512756348 12.3648853302002 12.1589679718018 12.9614181518555 12.4278888702393 12.9667768478394 12.0569200515747 10.8680124282837 8.84372997283936 8.3329496383667 8.58060550689697 11.18381690979 16.6123008728027 12.9154138565063 13.3291330337524 9.9108190536499 7.56139326095581 7.55439424514771 7.50078248977661 5.96053457260132 5.43468284606934 5.063796043396 4.78069829940796 4.85565090179443 4.15549278259277 4.62614393234253 3.54594469070435 2.49161028862 2.13596677780151 2.75466394424438 3.40724658966064 4.81716394424438 4.81880187988281 3.55901646614075 11.6714105606079 16.8316860198975 27.0340118408203 17.2811145782471 30.8442687988281 28.679615020752 26.3356704711914 26.3284664154053 10.1517305374146
2.05396318435669 0.717094898223877 1.01032829284668 1.38279211521149 0.69061279296875 1.85375213623047 2.71465373039246 2.14998459815979 2.31735849380493 2.82987070083618 2.40514183044434 3.39235401153564 2.72867441177368 2.81025362014771 2.92946648597717 2.33083200454712 3.23945021629333 4.10132360458374 3.49802660942078 1.91009426116943 1.90317714214325 1.82268118858337 2.10334324836731 1.77980470657349 1.60913395881653 1.75611770153046 1.65892684459686 1.72968983650208 1.7266845703125 2.11473059654236 1.85933697223663 1.79020702838898 29.1183223724365 32.2211647033691 2.12460732460022 17.7639026641846 5.89271402359009 -0.483532667160034 -0.339364260435104 0.0848226696252823 1.96547102928162 1.92069113254547 2.17040634155273 2.01033926010132 2.27911305427551 2.30824136734009 2.07907485961914 1.599360704422 1.45627498626709 1.50350177288055 1.6724945306778 1.64037978649139 1.82939469814301 1.61463797092438 1.91148197650909 4.12962532043457 1.78592205047607 4.26700353622437 1.86388826370239 4.88316106796265 12.3663177490234 17.3841762542725 7.28554487228394 2.28387784957886 1.35779798030853 15.0209341049194 2.42796039581299 5.46780872344971 1.81159198284149 5.85659027099609 9.89534664154053 11.0180797576904 15.5497531890869 4.69883584976196 4.92759656906128 3.63480043411255 3.73864531517029 6.80963277816772 4.62198257446289 5.70785570144653 5.39218425750732 7.8429741859436 6.62547922134399 7.31209802627563 7.69617080688477 8.78850650787354 12.337456703186 16.4298286437988 24.4494514465332 12.9314641952515 10.8201398849487 10.5170106887817 15.7049932479858 15.8702125549316 28.2163715362549 38.2515869140625 28.7103157043457 19.8745403289795 8.36226844787598 9.09768104553223 5.790207862854 1.02461624145508 2.76516437530518 3.52318501472473 4.72540283203125 5.70546579360962 6.54013919830322 5.68453502655029 6.37484979629517 6.58634471893311 6.72839164733887 5.69789028167725 9.6790771484375 4.4949893951416 2.72765707969666 1.53386092185974 0.48241600394249 2.26912212371826 2.91881036758423 3.24284791946411 4.32517242431641 3.63490581512451 7.63716077804565 8.00876617431641 8.47303104400635 8.71681594848633 9.18408203125 10.0858430862427 10.160213470459 11.2029943466187 11.699028968811 11.569673538208 11.3845691680908 11.1048383712769 12.1909980773926 12.0681037902832 11.5592660903931 10.6110849380493 8.94178867340088 7.98243522644043 7.03178977966309 6.46506404876709 13.8267469406128 15.006516456604 10.9963512420654 8.81863594055176 6.46799993515015 6.9785852432251 6.46515083312988 6.65095710754395 6.29805946350098 5.30111455917358 4.98967313766479 4.55905628204346 4.12367725372314 4.30539417266846 3.12969875335693 3.46341395378113 2.25491786003113 2.09480977058411 2.46900248527527 3.38145279884338 3.77155470848083 4.01472997665405 3.66534304618835 10.7071475982666 17.6389064788818 31.2014808654785 23.7125091552734 26.4720458984375 24.7137451171875 23.6600341796875 15.0680341720581 9.44944000244141
0.876345217227936 0.653934717178345 1.01765835285187 1.36705446243286 1.3583128452301 2.5120005607605 1.99373936653137 1.73026204109192 2.52206182479858 1.84555816650391 3.20335912704468 2.82073569297791 2.75084590911865 2.87406635284424 2.21301746368408 2.2881543636322 3.86325240135193 3.30310654640198 1.82832515239716 1.73756659030914 1.86612188816071 1.78072285652161 1.79279780387878 1.61471045017242 1.57953774929047 1.69274377822876 1.57295322418213 1.64592361450195 2.00314426422119 1.76521193981171 1.71740090847015 13.77024269104 18.947624206543 38.1918983459473 8.14333248138428 20.1252765655518 12.575291633606 2.65267109870911 0.06389269977808 -0.391472280025482 0.283303886651993 1.76065218448639 2.00549578666687 2.07414317131042 2.16816520690918 1.87396240234375 1.37723875045776 1.17437958717346 1.35189771652222 1.39835274219513 1.56594455242157 1.63232219219208 1.47651875019073 1.61381590366364 2.14037895202637 3.84517073631287 1.54054415225983 3.98337459564209 4.03582239151001 5.50074338912964 10.7239179611206 7.02638578414917 14.9269361495972 24.346887588501 4.68512773513794 23.6696300506592 8.7470760345459 1.68928802013397 0.42947980761528 2.62089204788208 6.8508186340332 8.61886978149414 4.46372175216675 3.29417538642883 2.30356192588806 3.30324864387512 4.62543869018555 5.10259914398193 4.27306079864502 5.09665822982788 6.51599025726318 6.2826132774353 5.97040224075317 6.3054666519165 5.89737987518311 8.50433540344238 10.4270792007446 15.4972295761108 19.3569831848145 10.1529426574707 13.9720621109009 10.5488700866699 13.1904811859131 18.0266819000244 27.1954231262207 33.4983253479004 23.2255229949951 23.513635635376 23.7905025482178 26.247013092041 24.791051864624 6.70252513885498 3.06943249702454 4.95974397659302 4.02279472351074 5.1955304145813 18.0412979125977 6.05659294128418 6.3014030456543 6.60658311843872 12.5720777511597 9.28053188323975 20.8209705352783 21.4888229370117 5.07694911956787 3.18010711669922 0.926573514938354 2.20382833480835 3.42475080490112 3.54691553115845 4.66080141067505 4.46035528182983 5.27499341964722 7.42468404769897 8.27923011779785 8.32570266723633 8.759108543396 9.28899574279785 10.2443895339966 10.8665771484375 11.0238189697266 11.1445465087891 10.9468593597412 11.0740594863892 11.090612411499 11.5529718399048 10.5766725540161 9.71754455566406 7.98780632019043 7.51044464111328 6.34804344177246 9.8760347366333 12.808614730835 10.7071552276611 9.88586044311523 6.34800910949707 6.07389354705811 5.88931083679199 6.02057361602783 5.92260789871216 5.94176244735718 5.15963888168335 4.49347829818726 3.95445442199707 3.71573424339294 4.12688827514648 3.21752381324768 2.32720255851746 2.02505564689636 2.03172874450684 2.498046875 3.05009293556213 3.28628921508789 1.33538913726807 4.57408905029297 7.30282926559448 10.537013053894 12.20423412323 21.2217254638672 19.797456741333 16.2547969818115 19.9713535308838 8.1408576965332 7.29087018966675
0.621285796165466 0.992907881736755 1.3396782875061 0.582907378673553 1.67472469806671 2.42832684516907 1.90238964557648 1.9996737241745 2.43416094779968 3.08135914802551 2.69694566726685 2.61901569366455 2.80912208557129 2.47026586532593 2.25121593475342 2.95787525177002 3.68999147415161 3.15890502929688 1.77918863296509 1.85196793079376 1.77364897727966 1.72402048110962 1.91454231739044 1.74750018119812 1.69259750843048 1.5644805431366 1.58940577507019 1.54195642471313 1.84419417381287 1.61023426055908 1.62718224525452 11.9016914367676 18.9875030517578 30.2335739135742 3.33180522918701 3.60159039497375 9.80490684509277 4.86655139923096 -0.586724519729614 -0.401563912630081 -0.144038245081902 1.78478944301605 1.72702980041504 1.98756170272827 2.02690935134888 1.73217332363129 1.25717222690582 1.2030713558197 1.24284827709198 1.42795670032501 1.41159403324127 1.49534010887146 1.39729881286621 1.78302919864655 3.20271301269531 1.45918273925781 3.44803214073181 1.5463011264801 3.7005307674408 7.47712659835815 8.52466773986816 4.67152214050293 9.04993629455566 15.621862411499 2.24630665779114 16.5178050994873 38.35791015625 12.7560195922852 0.220677137374878 0.586838126182556 3.23134136199951 6.12685489654541 2.68361806869507 7.53308248519897 18.0731620788574 13.4540348052979 4.77152156829834 4.05831432342529 14.1228532791138 4.47382307052612 6.09162044525146 5.17851209640503 5.21204519271851 5.00810527801514 5.84695434570312 7.29129648208618 9.24190425872803 11.2636566162109 19.8934135437012 9.25246810913086 11.6421184539795 12.0135326385498 11.5609273910522 20.44801902771 19.8346691131592 44.3278732299805 33.7059936523438 26.2686080932617 29.0366382598877 27.9525413513184 25.0973682403564 15.0944395065308 13.1730308532715 7.77290010452271 4.59230852127075 4.70023965835571 5.55901479721069 5.87579441070557 10.3791379928589 16.7391109466553 29.3225402832031 29.7528705596924 23.3120174407959 27.2074928283691 11.4876823425293 9.19895076751709 1.90792214870453 8.21710395812988 2.73067378997803 3.05974173545837 3.72450566291809 5.25510501861572 4.16814088821411 5.67135715484619 7.76652193069458 7.99509859085083 8.60043621063232 9.04716110229492 9.87665176391602 10.4558219909668 10.469274520874 10.3001661300659 10.1226377487183 10.4413757324219 10.812816619873 10.2604703903198 9.54922103881836 7.94863939285278 7.06695795059204 5.97397947311401 7.48400545120239 11.3972015380859 9.53496074676514 8.86516380310059 7.29101705551147 5.63978624343872 5.73298454284668 5.85994720458984 5.7723331451416 5.35184335708618 4.98043966293335 4.90948820114136 4.46820116043091 3.69173145294189 3.97606992721558 3.01168179512024 2.0897912979126 1.99684822559357 1.85880422592163 2.35434818267822 2.11849641799927 1.70325136184692 0.381302863359451 3.3791811466217 6.36970186233521 5.07882261276245 6.69129800796509 7.237060546875 9.41809844970703 17.4511852264404 15.8387212753296 9.11007690429688 7.09334850311279 8.215500831604
0.630842208862305 0.999667882919312 1.31886494159698 1.58560180664062 2.26437258720398 1.77196514606476 1.49226379394531 2.23333787918091 1.56022703647614 2.94054698944092 2.64838361740112 2.64158821105957 2.76097273826599 2.21390128135681 2.85708570480347 3.52307224273682 3.00974750518799 1.74721598625183 1.66438615322113 1.80018317699432 1.72646999359131 1.90165174007416 2.04957270622253 1.88207423686981 1.87825322151184 2.05948972702026 1.53521656990051 1.73922169208527 -0.942939460277557 -0.494059175252914 -0.444352328777313 8.99603271484375 16.5026245117188 36.4788589477539 38.8577156066895 -0.942912399768829 3.2919487953186 9.32159423828125 3.09318470954895 -0.687613546848297 -0.663837194442749 0.0916921943426132 1.77989041805267 0.215066567063332 -0.343281388282776 1.13910138607025 1.13196086883545 1.15800786018372 1.3055465221405 1.29492712020874 1.34033691883087 1.28693807125092 1.26432394981384 1.6378710269928 2.95148539543152 1.34359312057495 3.22645235061646 3.15416502952576 3.07470846176147 6.37259531021118 3.71362614631653 5.42957353591919 9.55013656616211 21.6342296600342 10.9004831314087 4.5470495223999 16.0951614379883 1.87721884250641 0.156386360526085 1.44586455821991 1.71965444087982 1.73703229427338 2.45343494415283 20.7605876922607 14.297947883606 4.39959764480591 4.09668111801147 5.5515923500061 15.004017829895 5.71249628067017 5.85802841186523 4.56493377685547 5.07381439208984 4.50283908843994 4.02743625640869 5.58223009109497 8.73418045043945 9.43215179443359 18.839563369751 19.0274868011475 11.5916471481323 17.9444122314453 13.5619449615479 15.2420320510864 18.8344821929932 28.68430519104 25.6910552978516 22.5237236022949 21.8549213409424 21.5879535675049 24.5502128601074 18.1853427886963 8.33129978179932 11.4442539215088 4.46909666061401 5.03862333297729 5.55112886428833 14.4196128845215 7.59768390655518 11.058051109314 15.8300294876099 18.1697807312012 24.558910369873 25.7192974090576 27.8243808746338 15.0719804763794 8.570631980896 15.7043657302856 18.5541877746582 6.25204420089722 4.03168773651123 14.2706155776978 4.68594837188721 5.60519981384277 6.36353492736816 7.86052227020264 8.45883750915527 9.12273216247559 9.63493633270264 9.77154541015625 9.69671726226807 9.69856929779053 9.81802082061768 9.95322799682617 10.386305809021 9.485107421875 8.73603439331055 6.87023019790649 5.65897560119629 5.21845245361328 8.08255290985107 10.6468915939331 8.91246891021729 6.50011873245239 5.28098249435425 5.50316572189331 5.65544462203979 5.58561134338379 5.31965589523315 5.05423307418823 4.83181667327881 4.39595222473145 3.92156338691711 3.95938611030579 2.80009412765503 3.00330996513367 1.90355288982391 1.79329895973206 1.77493941783905 2.28466796875 0.973605573177338 0.617749869823456 16.5776386260986 5.71249294281006 19.2349510192871 10.5376129150391 9.30419063568115 20.3593196868896 8.29188537597656 5.20409345626831 8.16187858581543 5.74115800857544 7.29711437225342 6.39338779449463
0.935016334056854 1.25158369541168 1.20918142795563 2.1703188419342 1.67034637928009 1.3275443315506 1.7284597158432 2.12433815002441 2.67795419692993 2.45988583564758 2.53223204612732 2.70513105392456 2.10199499130249 2.17642402648926 3.38851284980774 2.89796161651611 1.72143316268921 1.63375222682953 1.76381313800812 1.7047997713089 1.72245872020721 1.68832230567932 2.25752425193787 2.51712155342102 2.08349084854126 1.86370253562927 2.992995262146 48.0200309753418 4.50569534301758 -0.961702883243561 -0.490801393985748 10.910548210144 2.32347655296326 0.161497458815575 9.74431991577148 0.462101757526398 -0.445924520492554 -0.191729933023453 8.84214115142822 -0.769378900527954 -0.638277292251587 -0.132846042513847 30.1782989501953 34.7274627685547 1.45960760116577 0.963855147361755 1.07961106300354 1.11442422866821 1.26480352878571 1.24071180820465 1.26236748695374 1.17524230480194 1.37776064872742 2.42655801773071 1.26223576068878 2.66355538368225 1.41709125041962 2.90539264678955 5.16830110549927 5.38635778427124 2.88642716407776 4.0495810508728 7.40021705627441 13.25159740448 8.30393123626709 41.3891944885254 24.0994205474854 -0.241570234298706 0.56704306602478 1.5940283536911 13.1866998672485 19.2695732116699 11.7373285293579 5.51090240478516 4.88286352157593 3.63362693786621 3.98484230041504 5.01422166824341 4.76076793670654 5.60278511047363 4.48623323440552 4.87044334411621 4.01899766921997 3.28074097633362 3.7257125377655 3.89562821388245 6.02791309356689 8.07512950897217 12.7979068756104 17.1585464477539 11.7024898529053 12.6171035766602 14.8308944702148 14.2271137237549 17.1432247161865 19.6587162017822 22.9876384735107 18.6854362487793 14.3554525375366 18.411060333252 16.2225685119629 11.2102308273315 8.74491596221924 21.3737678527832 17.1257095336914 10.2970552444458 9.69631195068359 7.37533712387085 15.3148584365845 21.4016704559326 15.2356586456299 16.2335433959961 19.9657096862793 26.5324554443359 26.9170112609863 30.1335029602051 11.3042221069336 11.9276390075684 16.7383975982666 9.38116073608398 4.38789892196655 11.0681400299072 5.0769681930542 5.67768812179565 4.6542763710022 5.41965055465698 8.48810768127441 8.96579456329346 9.23386859893799 9.45730018615723 9.37488174438477 9.2586841583252 9.35252952575684 9.76589775085449 9.21388149261475 8.33078479766846 7.14202404022217 6.45451545715332 5.44759845733643 6.12040138244629 9.64457893371582 8.08536052703857 7.39609861373901 6.06186151504517 5.31437635421753 5.3828911781311 5.51720905303955 5.451575756073 5.0860390663147 4.72682905197144 4.39719200134277 4.30779075622559 3.61024236679077 3.90338158607483 3.00123381614685 2.70922231674194 1.76968586444855 1.67938959598541 2.11991381645203 17.8052597045898 12.1632223129272 1.01174986362457 16.1437034606934 11.4786195755005 9.84707069396973 7.01936769485474 7.83134937286377 12.926549911499 3.15357160568237 12.6650047302246 3.3876371383667 0.574374198913574 0.89843487739563 7.09286689758301
1.16994428634644 0.514052271842957 1.50246107578278 2.11972618103027 1.64381730556488 1.6434131860733 1.94885122776031 1.29784107208252 2.54559516906738 2.35891366004944 2.18619775772095 2.08035850524902 2.13791418075562 2.66466069221497 3.27306151390076 2.78831100463867 1.67875909805298 1.73149371147156 1.67077267169952 1.67061042785645 1.68804836273193 1.57901918888092 2.2045361995697 2.96474099159241 2.86223101615906 2.84436702728271 2.90986585617065 42.9643745422363 22.7504463195801 -0.611259520053864 -0.646456003189087 2.48952841758728 38.594367980957 39.6345024108887 15.3718328475952 -1.00791966915131 -0.650266826152802 3.05653095245361 9.80818271636963 3.87717461585999 -0.387415289878845 -0.0757646337151527 0.163667723536491 22.837984085083 1.01792526245117 1.03058791160583 1.05280077457428 1.17062294483185 1.1330269575119 1.17114067077637 1.14415192604065 1.11499106884003 2.02901268005371 1.18651509284973 2.1455512046814 1.27640199661255 2.47225642204285 4.28386688232422 4.34450006484985 2.69618487358093 2.843101978302 5.50155830383301 8.11090660095215 6.31811809539795 2.99014520645142 28.5370197296143 41.7108345031738 17.3561058044434 1.16034877300262 11.6709127426147 22.8834686279297 17.2877197265625 13.6807861328125 16.0526828765869 3.84521269798279 3.61497282981873 4.13117170333862 3.99197053909302 5.37177848815918 4.99041175842285 4.66900253295898 5.23122262954712 3.16429781913757 3.46617031097412 6.16572046279907 4.16214418411255 5.96983909606934 8.96597957611084 9.47616004943848 11.3386840820312 18.0055866241455 15.3749771118164 15.9319858551025 15.465950012207 27.2910213470459 17.277982711792 23.6130180358887 34.9261093139648 20.3731651306152 17.2684574127197 15.3854598999023 6.07405519485474 8.5690975189209 17.7431602478027 19.4611377716064 14.1170310974121 8.294114112854 23.6050758361816 16.3051147460938 18.0589027404785 12.4246559143066 15.2688856124878 21.4602565765381 23.190055847168 23.3909549713135 14.1457509994507 12.6276168823242 4.69528865814209 4.000084400177 3.85378670692444 5.58120250701904 4.47684955596924 5.4662971496582 23.443286895752 10.1561794281006 5.86294364929199 5.59219408035278 8.73677730560303 8.86087322235107 8.81993103027344 8.66206455230713 8.95065593719482 9.20676136016846 8.7830867767334 8.41519260406494 6.80832624435425 6.32410287857056 5.20984315872192 4.66891956329346 8.81796836853027 8.43996810913086 6.68295049667358 5.48047304153442 4.96087646484375 5.19055366516113 5.3112530708313 5.24555492401123 5.01392841339111 4.77579641342163 4.59346723556519 4.16817426681519 3.7287974357605 3.76950287818909 2.71519351005554 2.91670346260071 1.88051211833954 1.72193312644958 1.61158967018127 2.00271773338318 10.172191619873 1.99700212478638 3.89903235435486 5.9642219543457 12.7367467880249 4.82011842727661 12.4758901596069 8.74028396606445 13.9836702346802 5.79236602783203 2.01251268386841 10.7589464187622 2.99714517593384 1.5346394777298 4.30704784393311
1.13321733474731 1.12932658195496 2.03208041191101 1.5897411108017 -0.0850201174616814 1.91260206699371 1.20887684822083 2.32971143722534 2.144855260849 1.78922879695892 2.00472688674927 1.42819893360138 1.79973268508911 3.16757559776306 2.71715688705444 1.67297899723053 1.58207845687866 1.69223749637604 1.6389707326889 1.69584035873413 1.71615529060364 1.6824254989624 1.91357803344727 2.49756026268005 3.36520838737488 3.04077291488647 24.5425357818604 41.2977256774902 15.113899230957 -0.68681800365448 -0.572575986385345 0.505373239517212 25.8944931030273 28.0415153503418 45.5069351196289 29.6254177093506 20.2524585723877 6.43868350982666 -0.923212707042694 -0.848499178886414 -0.296850919723511 -0.599886894226074 -1.05932211875916 0.91587895154953 0.842601001262665 0.993354201316833 0.981693267822266 1.12346887588501 1.13119781017303 1.07117772102356 1.02385413646698 1.03864347934723 1.84386992454529 1.10952258110046 1.99462330341339 1.98739445209503 1.37820720672607 3.72128558158875 2.16612076759338 2.13716959953308 2.14961075782776 4.44387531280518 6.03254127502441 5.09545707702637 18.7062740325928 34.2230377197266 33.0487442016602 21.8468246459961 2.51025819778442 3.86880970001221 9.33568382263184 8.76429843902588 8.1509895324707 16.5409698486328 3.31033968925476 3.51403522491455 20.3726959228516 4.52837562561035 5.2285852432251 4.10682439804077 4.48981285095215 20.0564422607422 4.92460870742798 3.29558229446411 11.0485620498657 8.99947834014893 7.76554679870605 8.56737232208252 9.52524471282959 10.6975765228271 12.6811809539795 19.0445518493652 14.7437648773193 15.0689630508423 17.0472507476807 19.355131149292 24.1999969482422 25.2062110900879 17.3162631988525 19.833101272583 11.663293838501 16.5735130310059 14.9557037353516 13.0162410736084 8.51956272125244 20.6968688964844 20.2475700378418 9.97139358520508 9.48957061767578 9.3924732208252 10.5216093063354 16.1443672180176 17.5163230895996 18.1348419189453 15.2368583679199 7.49722957611084 19.3579082489014 11.9409084320068 23.7513561248779 4.06583118438721 4.15507841110229 4.61570310592651 5.07584953308105 6.74758625030518 9.63544750213623 5.29194784164429 6.11882734298706 6.02958250045776 8.63411521911621 8.58325481414795 8.47449779510498 8.53381061553955 8.90342330932617 8.14048767089844 7.50504112243652 6.32355308532715 5.94049787521362 5.01307916641235 6.25720262527466 8.37245845794678 6.98126363754272 5.4785795211792 4.70280694961548 4.99844646453857 5.04617166519165 5.16130447387695 5.10137796401978 4.78659915924072 4.43610715866089 4.15460634231567 4.06675624847412 3.40563535690308 3.66990208625793 2.83317136764526 1.96598589420319 1.68759369850159 1.59141564369202 1.95778143405914 6.35865545272827 8.64033126831055 -0.556112885475159 1.71711874008179 4.55742406845093 9.35076141357422 11.4710559844971 9.51562309265137 7.00295639038086 11.6779909133911 19.6273880004883 1.63100123405457 4.80324506759644 0.376639008522034 3.46278834342957 4.96949052810669
0.349596589803696 1.39886713027954 2.00482225418091 31.6704711914062 0.142342388629913 2.1275646686554 -0.0371805056929588 2.27071976661682 1.60273778438568 1.79571831226349 0.941529989242554 1.35659849643707 2.55529117584229 3.08985757827759 2.63107085227966 1.6651017665863 1.69345927238464 1.62397813796997 1.53831624984741 1.6590348482132 2.09249091148376 1.67857480049133 1.63453137874603 2.07818675041199 3.23569202423096 3.64530181884766 21.2745018005371 41.0223426818848 22.0600814819336 4.57050180435181 -0.668013095855713 13.833740234375 16.5098247528076 17.8861827850342 32.4094619750977 11.6374578475952 28.1749744415283 28.1760101318359 6.12455415725708 -0.537794053554535 7.74426794052124 14.4323196411133 -0.467944234609604 0.847141325473785 0.861117899417877 0.881971657276154 1.06922399997711 1.07342255115509 1.06219661235809 1.02082002162933 0.968033730983734 1.51683104038239 0.99969345331192 1.65435039997101 1.10422682762146 1.79374265670776 3.02407765388489 2.9004590511322 1.77403879165649 1.41111290454865 3.37115836143494 4.19642353057861 4.01057863235474 1.76204168796539 18.175386428833 30.6409282684326 28.5673370361328 26.5375385284424 1.31878662109375 6.33890819549561 7.88610887527466 7.66031837463379 5.89533805847168 16.4935111999512 2.81256675720215 3.73019909858704 8.11597347259521 4.49750280380249 4.38761186599731 4.31552219390869 3.7651355266571 13.3099126815796 8.98233699798584 3.80207061767578 8.04448127746582 7.46687412261963 7.54988574981689 8.67667484283447 9.5767765045166 10.4503383636475 12.9338474273682 14.0418872833252 14.6582298278809 18.199275970459 20.88596534729 18.4299049377441 18.3038291931152 17.1148948669434 18.4339618682861 33.7569198608398 22.3864421844482 13.7497749328613 16.8791942596436 19.1924076080322 17.9617519378662 12.08021068573 10.5696239471436 7.74709415435791 8.25069999694824 15.5922498703003 13.9808387756348 14.0464353561401 15.2310676574707 13.4026308059692 10.7338924407959 8.33786201477051 13.9829902648926 7.88628387451172 16.4377365112305 21.8082885742188 21.1949024200439 10.2339735031128 15.948938369751 5.37815570831299 20.2307300567627 5.19585227966309 5.09590482711792 6.09008359909058 8.07617473602295 7.96952772140503 8.21896934509277 8.44375038146973 8.07033252716064 7.54381418228149 6.30733251571655 5.8594069480896 4.83278894424438 4.75546598434448 7.72457933425903 6.4453296661377 5.75083494186401 4.70964574813843 4.8241868019104 4.66142416000366 4.95496129989624 4.89844083786011 4.69239377975464 4.4602689743042 4.17721843719482 3.89522838592529 3.4775493144989 3.52018809318542 2.5579981803894 1.66170430183411 1.76026153564453 1.61923229694366 1.51572751998901 1.90481626987457 5.13581848144531 31.3647804260254 0.276219040155411 2.2395761013031 4.04517698287964 10.8730640411377 7.41027498245239 12.9116678237915 7.46014833450317 4.24429941177368 0.33105593919754 -1.23600435256958 -1.5013370513916 -0.765277147293091 0.0937255397439003 3.04657506942749
0.782097339630127 1.86396658420563 1.53194653987885 31.8079090118408 0.56179940700531 29.0023765563965 0.708022356033325 2.00798916816711 1.66909384727478 0.786998450756073 1.18429470062256 1.59989392757416 2.97071933746338 2.60390996932983 1.47430896759033 1.72080683708191 1.7282475233078 1.60347902774811 1.62731063365936 1.54080080986023 1.74934339523315 1.60611915588379 1.51512491703033 2.11265182495117 2.5717146396637 16.6986083984375 20.4581565856934 37.1197052001953 43.6978569030762 42.3231430053711 19.2698593139648 11.7842273712158 12.9849290847778 21.0036926269531 8.74666404724121 16.6181621551514 25.5448207855225 32.3837623596191 12.4056510925293 -0.406629621982574 1.41997146606445 6.83953905105591 -0.664357841014862 0.849101901054382 0.752335786819458 0.743810713291168 0.802620649337769 -0.827443242073059 0.936178982257843 0.891145288944244 0.8802570104599 1.37743473052979 0.897775113582611 1.50432050228119 1.41739785671234 1.05185043811798 2.57243537902832 1.34110939502716 1.40812456607819 2.4921863079071 1.41971242427826 3.11735343933105 1.61796462535858 10.6451721191406 16.5214824676514 24.5736541748047 20.1855430603027 32.0654029846191 13.5486726760864 1.57221388816833 6.14743661880493 4.39645910263062 4.77830505371094 27.2662715911865 3.02343654632568 4.94888257980347 7.24778032302856 3.85567021369934 3.86197471618652 4.19752788543701 8.49307918548584 12.2149934768677 11.4934186935425 3.63312649726868 4.23384094238281 6.98703622817993 7.49675035476685 8.74540424346924 9.52362060546875 10.5545339584351 12.0854063034058 13.0689096450806 14.4500579833984 16.0720806121826 15.5981712341309 15.5407743453979 18.6903190612793 12.6398086547852 13.2773942947388 18.554744720459 13.5841474533081 14.3965625762939 17.9861373901367 20.4408569335938 11.6945667266846 8.60309791564941 8.85593414306641 6.8507227897644 7.01779222488403 10.374457359314 10.0569324493408 10.9891576766968 10.2007484436035 8.2000036239624 7.09700632095337 10.5992050170898 6.86770009994507 11.8672323226929 15.1127147674561 17.448751449585 10.5277414321899 5.06323862075806 11.7683334350586 6.16886520385742 9.40227794647217 25.1856422424316 8.31589889526367 5.62764644622803 5.63995409011841 7.77012252807617 7.82566022872925 8.17964363098145 7.48869276046753 6.90145301818848 5.84770393371582 5.49792146682739 4.64677095413208 5.47588682174683 7.35010623931885 6.12720537185669 4.33265542984009 4.49746990203857 4.70675277709961 4.73120021820068 4.82724380493164 4.76441621780396 4.40219736099243 4.12538862228394 3.72187304496765 3.29052901268005 3.10716986656189 3.36345863342285 25.1606884002686 0.2193673402071 -0.233093544840813 0.327204257249832 0.17712177336216 -0.303658813238144 2.94892430305481 38.9117965698242 30.9870777130127 19.8451766967773 6.97624540328979 5.72841691970825 4.86490058898926 4.71188545227051 0.835150957107544 2.2498607635498 -0.886836230754852 -1.9955952167511 -1.79847085475922 -1.69582319259644 0.0171751715242863 0.945642590522766
-0.539844870567322 1.70921194553375 0.123015142977238 24.4945507049561 1.85434317588806 2.73583936691284 1.49699532985687 1.03578460216522 1.66422414779663 0.766829907894135 1.45364594459534 2.23656177520752 2.87385582923889 2.52217936515808 1.213418841362 1.56166470050812 1.70529818534851 1.62238776683807 1.51825702190399 1.51059567928314 1.60222733020782 1.5142856836319 1.54535210132599 1.95723819732666 2.41804695129395 14.6636877059937 20.5949573516846 26.1085033416748 31.3972949981689 30.1748542785645 10.1200466156006 10.210973739624 10.8106393814087 25.5233383178711 10.6381130218506 15.2016344070435 21.9508743286133 33.4497718811035 22.2170162200928 3.58434534072876 3.81863117218018 24.1934185028076 -0.180520370602608 3.26501965522766 2.58086276054382 0.564444184303284 35.6501579284668 -1.06186735630035 -0.403720289468765 0.821416854858398 1.11941611766815 0.850091457366943 1.21229803562164 0.914010167121887 1.09690308570862 1.93151903152466 1.7074122428894 1.05986833572388 0.784785985946655 1.97025954723358 2.09735012054443 2.16081595420837 5.77014875411987 10.6127710342407 19.6585254669189 15.3080415725708 16.2736358642578 22.7367630004883 33.1180381774902 4.08742046356201 3.44811630249023 3.57916140556335 5.96590328216553 23.094274520874 3.95385432243347 4.32729816436768 20.2990970611572 3.31961369514465 3.21021604537964 3.53242349624634 6.94710254669189 8.44493579864502 16.676815032959 11.5544481277466 5.37331247329712 6.67423248291016 7.59208679199219 8.36387252807617 9.494309425354 10.9199590682983 11.8255367279053 12.4527778625488 14.1483402252197 14.4646902084351 14.3121557235718 14.6687469482422 22.594705581665 13.2560691833496 10.2839612960815 9.4423999786377 12.3919057846069 15.8900203704834 14.0919160842896 11.444935798645 7.61750078201294 8.90116596221924 18.6292991638184 19.0575199127197 11.0994024276733 16.071361541748 10.9100713729858 9.86664867401123 7.24906778335571 6.5011944770813 7.35953998565674 15.2182140350342 11.5188493728638 13.1084794998169 17.5800819396973 29.1063442230225 17.0107574462891 14.2965888977051 8.49659633636475 15.1627769470215 16.1338691711426 12.7816390991211 22.0702533721924 11.7590303421021 5.92401266098022 6.37387323379517 7.73680877685547 7.46154832839966 6.98077869415283 5.63001823425293 5.25740480422974 4.44066476821899 4.15575218200684 6.86301803588867 5.71434640884399 5.01684904098511 4.21933126449585 4.54430484771729 4.55755853652954 4.6403636932373 4.5814733505249 4.30179929733276 3.96364378929138 3.82648921012878 3.57133960723877 2.92630171775818 3.13049745559692 2.40578198432922 33.7355270385742 13.8520822525024 -0.176171466708183 0.552261829376221 13.6851577758789 -0.106283575296402 1.56001019477844 16.3505687713623 11.7208690643311 8.80127143859863 4.53696012496948 4.05547571182251 3.31676292419434 0.1406339854002 0.8441042304039 -1.12808752059937 1.71667635440826 2.19932198524475 -2.30497312545776 -1.83329713344574 -0.698552966117859 1.18899714946747
1.38830840587616 0.22033129632473 12.4370565414429 10.2393617630005 28.75657081604 20.4068756103516 1.41303443908691 1.32623684406281 1.88763201236725 1.10175049304962 2.09553909301758 2.66477227210999 2.45571374893188 1.15245759487152 1.15714120864868 1.48886549472809 1.74875473976135 1.84617948532104 1.48632943630219 1.58251142501831 1.50792992115021 1.56146192550659 1.51039791107178 1.90738487243652 12.5572366714478 13.7639131546021 18.3990783691406 22.2901039123535 22.072078704834 12.3642616271973 9.01291275024414 9.39229202270508 13.5308218002319 17.6309604644775 10.4630527496338 12.5606489181519 19.6644039154053 23.3316745758057 24.3003368377686 39.5722770690918 16.072847366333 12.0588817596436 0.348204970359802 5.79027509689331 8.9497709274292 0.875648140907288 39.3595352172852 -0.950560927391052 0.583393454551697 0.714862644672394 0.98421049118042 0.667916357517242 1.03824400901794 0.765288591384888 1.0741845369339 0.969547390937805 0.721383094787598 0.799849271774292 1.38931047916412 -0.0968374535441399 1.6392138004303 1.14527201652527 8.2562952041626 11.3669090270996 16.7286834716797 13.3674011230469 14.9802846908569 9.29767894744873 5.61403322219849 2.26218056678772 3.33232021331787 3.68628883361816 11.2801380157471 16.1565189361572 3.9292266368866 4.04756689071655 8.09381294250488 13.1067895889282 3.53983974456787 5.18635559082031 5.0554780960083 6.82320356369019 11.071720123291 7.4840784072876 6.20962238311768 6.69513750076294 7.6004958152771 8.31926441192627 9.95332908630371 10.7861976623535 11.3905735015869 11.7443084716797 13.1848163604736 12.9057016372681 12.8349275588989 13.3180770874023 15.3281831741333 15.1330757141113 19.6512908935547 11.0119667053223 9.14839935302734 9.23437786102295 7.66097974777222 6.18021535873413 6.56484794616699 7.60244274139404 8.76437854766846 19.1616878509521 11.7388153076172 13.2228412628174 10.8092088699341 22.4023189544678 10.0820436477661 10.3628835678101 10.2498064041138 20.6630554199219 15.6599578857422 13.867959022522 15.866418838501 22.6665706634521 19.163257598877 22.64967918396 17.7504692077637 18.1141586303711 26.0293292999268 14.7019443511963 21.4947319030762 19.5294170379639 6.02988958358765 5.89023733139038 6.52275705337524 6.86427450180054 6.36028623580933 5.21928644180298 4.31323957443237 3.67384815216064 4.85152959823608 6.562668800354 5.45414924621582 3.86722946166992 4.2074236869812 4.4076976776123 4.43637847900391 4.38938903808594 4.18898010253906 3.95902991294861 3.81378865242004 3.40758371353149 2.97135734558105 2.95912432670593 2.05715084075928 7.68848609924316 25.4646892547607 36.0331993103027 22.1027812957764 5.29486846923828 7.27912092208862 -1.08041930198669 -1.12558305263519 4.14993810653687 3.2565290927887 3.46937346458435 2.5596559047699 2.71909260749817 1.93278634548187 0.558398604393005 -0.898741960525513 -1.74094438552856 -2.57985043525696 -2.36565780639648 4.86389923095703 -1.75844943523407 -0.856930732727051 0.0146655300632119
0.0951038673520088 -0.313010334968567 9.69530010223389 1.64070868492126 18.681468963623 3.83891606330872 8.373948097229 0.390168249607086 -0.478754609823227 1.61439311504364 2.54597663879395 2.30556535720825 1.09643614292145 1.10390448570251 1.0975182056427 1.10752844810486 1.60674393177032 1.77261006832123 2.0630784034729 1.9999760389328 1.83221685886383 2.08166766166687 1.83150506019592 10.9699592590332 10.8327960968018 14.1125440597534 17.0113983154297 18.602611541748 18.5438404083252 8.6958646774292 6.77370834350586 5.23107767105103 12.5320167541504 12.4587669372559 9.64652538299561 14.1239414215088 16.2830123901367 20.6943302154541 27.878589630127 17.7950553894043 10.3965501785278 19.8363628387451 2.19761848449707 6.03364038467407 11.2248277664185 1.84327387809753 1.9900119304657 15.8187170028687 0.378851771354675 0.529733598232269 0.402925431728363 0.815071284770966 0.293556749820709 0.61098176240921 0.809759855270386 0.608534693717957 0.555616796016693 0.320748150348663 18.068244934082 0.7639981508255 1.16396737098694 5.62847518920898 9.51357460021973 13.8019027709961 2.16168332099915 2.53275394439697 1.14413166046143 0.933518469333649 1.08058989048004 1.78168511390686 3.40300703048706 3.27944183349609 9.56439208984375 3.2162549495697 3.95433115959167 3.70391774177551 2.72253108024597 14.4036474227905 3.37850260734558 2.55750441551208 5.24106788635254 6.82391834259033 4.77202177047729 5.00817966461182 5.83750152587891 6.26162719726562 7.40565395355225 8.28718948364258 9.42528629302979 10.2378664016724 10.7702331542969 11.95814037323 11.9787569046021 11.8172254562378 11.7415981292725 12.4327154159546 11.3264198303223 11.1192054748535 14.3965539932251 16.6348133087158 21.9006671905518 20.053295135498 19.506986618042 11.6474390029907 5.98016834259033 6.03846406936646 12.3166341781616 13.206109046936 19.7489852905273 17.2411308288574 11.4384126663208 20.872631072998 17.1745986938477 12.5244369506836 12.3293504714966 11.0909767150879 11.7788200378418 12.5386247634888 13.9772777557373 12.6302394866943 11.2430906295776 14.3032712936401 11.5230293273926 12.4643459320068 15.8429832458496 13.2670192718506 11.0463676452637 5.34544897079468 5.1194806098938 5.27620506286621 4.685471534729 4.53901958465576 5.21812534332275 4.89103126525879 4.11473941802979 4.45627880096436 6.13974714279175 5.11384057998657 4.43053770065308 3.94071984291077 4.23357629776001 4.20641899108887 4.25073909759521 4.19181108474731 3.9578537940979 3.64435791969299 3.35291361808777 3.24100995063782 2.61742258071899 2.78180003166199 2.04006433486938 11.432505607605 13.9698352813721 13.1779413223267 10.8424377441406 -0.343904256820679 -0.897372961044312 -1.4029792547226 -0.39748603105545 1.3519024848938 1.90891516208649 1.84714257717133 2.11092019081116 0.81624835729599 -2.42114877700806 -1.6517459154129 -2.46491098403931 -3.22572469711304 -3.48718667030334 -1.76170349121094 -2.73104929924011 -2.74145197868347 -1.39548766613007 0.00944819021970034
28.6994361877441 6.1769061088562 7.54849910736084 10.5902519226074 10.2443609237671 8.78339385986328 28.7113628387451 29.2246990203857 2.75208950042725 3.07935786247253 2.60097312927246 2.26906657218933 1.03090846538544 1.0595201253891 1.08307456970215 1.07055866718292 1.47209775447845 1.30342876911163 1.87079453468323 2.00162577629089 1.92859041690826 0.115655496716499 0.355358570814133 10.1016454696655 12.3480663299561 12.568510055542 15.0172853469849 15.2981672286987 9.84392738342285 18.1173858642578 15.7364387512207 10.8941211700439 10.6428861618042 8.06610107421875 8.66962051391602 12.5102586746216 12.2839727401733 18.1906871795654 19.7971935272217 19.3331050872803 18.7422676086426 11.7757759094238 3.40234613418579 6.20421838760376 41.5504875183105 42.5574188232422 9.12565231323242 2.36277508735657 0.275690644979477 -0.175435528159142 0.567973792552948 0.155137717723846 0.567346036434174 1.94773268699646 0.515468299388885 0.223623529076576 2.55227255821228 0.73063850402832 10.3504705429077 0.95867520570755 0.929888963699341 6.29595565795898 11.6383724212646 1.38541543483734 0.448004275560379 0.858361542224884 3.31812310218811 0.866636335849762 1.13731932640076 1.19819819927216 3.38270354270935 6.2594108581543 24.8797550201416 2.6675283908844 3.54260468482971 2.67279291152954 2.55200934410095 1.87595903873444 1.8368421792984 2.23911309242249 2.74296569824219 3.29530692100525 3.96681594848633 4.52961397171021 4.72241067886353 5.48231172561646 7.34192848205566 8.70845699310303 9.4419116973877 9.948899269104 10.8742427825928 11.2143993377686 10.9051551818848 10.5851078033447 10.8318281173706 10.7857522964478 10.5314073562622 9.88624668121338 8.66556167602539 12.4695272445679 12.9702415466309 11.4300127029419 10.7610530853271 20.2820091247559 16.1856517791748 6.6982479095459 6.54005765914917 8.22139549255371 9.48892784118652 10.2574129104614 12.6896438598633 20.1150436401367 13.2409954071045 9.33222961425781 10.7614498138428 9.42400074005127 9.86020660400391 10.8892707824707 12.1195163726807 9.79065322875977 9.3347053527832 9.48439407348633 9.42820262908936 11.3907461166382 7.33056449890137 7.49691915512085 5.13894271850586 5.16851139068604 4.92951631546021 4.65740060806274 4.45656251907349 3.66832613945007 3.48319864273071 3.90856194496155 3.32891821861267 5.7475438117981 5.06990385055542 4.10456991195679 3.61505055427551 4.08277130126953 3.88613772392273 4.07332181930542 4.0037989616394 3.80040526390076 3.58931493759155 3.28261256217957 3.07925248146057 2.64930605888367 2.63116455078125 1.79980909824371 3.31836199760437 1.87611889839172 7.12990045547485 6.24060726165771 0.912690460681915 -1.03882884979248 -1.45176863670349 -1.67458748817444 -1.81531774997711 -0.257233142852783 0.467551052570343 -0.160116299986839 0.2390246540308 -0.618593096733093 -2.66968464851379 -3.37641930580139 -3.92068314552307 2.41953682899475 -3.68727874755859 -3.16620469093323 20.9829921722412 17.8831443786621 -1.05021643638611 -0.680754661560059
