NCOLS 174
NROWS 32
XLLCORNER 353952
YLLCORNER 6701136
CELLSIZE 16 
NODATA_value -3.4e+38 
0.865181803703308 4.93353605270386 20.1355056762695 9.10219192504883 20.9412078857422 7.71081352233887 12.6637706756592 11.0032739639282 5.76094102859497 3.09789991378784 3.39612889289856 1.30239415168762 1.47387504577637 11.2356634140015 2.2078857421875 2.94301986694336 3.61416912078857 13.8046913146973 4.25698614120483 3.39059138298035 4.82592582702637 3.79597616195679 5.38134670257568 4.56608486175537 4.40690755844116 4.45694398880005 4.304123878479 26.1507339477539 24.4084892272949 3.69390559196472 7.5759220123291 6.48171091079712 5.16371631622314 11.3044919967651 20.4880809783936 7.19332981109619 17.1943206787109 6.82921409606934 5.80569934844971 4.98924875259399 3.35986948013306 6.47042512893677 33.0866432189941 17.431619644165 10.410306930542 2.6120138168335 0.363395243883133 0.712286472320557 0.764290511608124 0.923207104206085 1.4122953414917 1.00261604785919 1.02287542819977 1.19604456424713 8.87336730957031 46.2615585327148 6.52824115753174 22.5009613037109 11.8845691680908 36.6719551086426 44.3761138916016 32.0547866821289 16.4842090606689 32.7966613769531 25.4760913848877 30.2091541290283 13.6050710678101 27.9222793579102 16.101167678833 16.2025947570801 16.4025249481201 16.4318027496338 16.4771251678467 14.2789278030396 12.6971082687378 12.82493019104 13.1460113525391 13.1561441421509 13.2363634109497 12.3605155944824 10.9132413864136 8.3237133026123 6.26488780975342 5.38736343383789 4.59319591522217 3.54137945175171 4.42049407958984 4.44117069244385 3.74061107635498 4.48422908782959 2.13947224617004 2.03601050376892 1.85545301437378 1.38122117519379 8.03877353668213 5.48190259933472 17.102180480957 5.06789636611938 6.60773468017578 6.43682384490967 6.36319541931152 6.50669050216675 6.15401315689087 5.06677389144897 4.09766578674316 2.99314212799072 2.22379922866821 1.29583919048309 1.81696248054504 1.62137448787689 3.03966426849365 10.4634885787964 5.25325536727905 7.82374334335327 4.80304574966431 0.336983919143677 6.23821449279785 6.07868242263794 3.70658087730408 5.73981714248657 7.49048328399658 6.09506416320801 3.37588953971863 3.40929937362671 18.6962375640869 6.04679441452026 1.37511491775513 6.66665840148926 5.44561147689819 4.85953235626221 2.46051406860352 1.99783384799957 1.80918514728546 1.79347038269043 3.3537425994873 3.31618857383728 3.3153178691864 3.44038963317871 3.07869696617126 3.35625004768372 3.41303062438965 3.44382548332214 4.07601499557495 3.17280387878418 2.40881538391113 23.9115390777588 21.4766521453857 32.8966369628906 24.255184173584 15.7248067855835 13.9008636474609 17.4347724914551 23.8607883453369 19.7493724822998 5.0360631942749 4.00764417648315 3.95567488670349 3.52986979484558 3.15264201164246 6.16696691513062 5.74746370315552 3.70187425613403 4.17531585693359 3.5835485458374 1.2532422542572 0.976385354995728 0.863273918628693 22.2265205383301 13.8656625747681 2.03025794029236 3.41807913780212 4.4090838432312 4.71356248855591 4.81140661239624
-1.48115491867065 0.680657923221588 0.825378119945526 7.22172260284424 6.64126777648926 24.0585670471191 11.6186389923096 6.7510404586792 5.07913303375244 7.68356657028198 1.74074029922485 1.0808013677597 4.05288362503052 1.40638446807861 2.04044079780579 1.75537860393524 1.66112005710602 2.58502125740051 3.21891832351685 3.30583024024963 2.46938514709473 2.72813868522644 3.11579036712646 3.40967559814453 2.75425791740417 4.32340145111084 18.9837474822998 7.6730694770813 8.50400638580322 1.65410029888153 1.59316372871399 2.85146450996399 4.34035873413086 2.5641028881073 2.85878705978394 4.37968254089355 6.40591192245483 4.13916063308716 2.52744054794312 2.43385696411133 12.2226295471191 7.77144575119019 7.6466236114502 9.87825393676758 2.18792700767517 0.667847037315369 3.04486465454102 6.4938645362854 10.425106048584 8.26991367340088 0.674150705337524 7.11091470718384 18.8349075317383 13.7885141372681 4.69367551803589 13.4036350250244 21.2718677520752 22.6614170074463 44.0407333374023 24.1808929443359 29.8197536468506 25.0375652313232 30.8381519317627 17.6272125244141 12.7372236251831 24.0506000518799 26.7221698760986 15.4021816253662 14.4918603897095 14.7687635421753 14.9499397277832 15.0391855239868 14.5075511932373 12.0982160568237 11.8149137496948 11.8527603149414 12.0360450744629 11.9822826385498 11.9397373199463 11.2704620361328 9.83865928649902 7.54977369308472 5.79152011871338 5.02907180786133 4.24322700500488 3.27366042137146 3.96108293533325 3.69945406913757 3.24690937995911 3.98969841003418 2.05905532836914 1.91245186328888 1.77453553676605 31.3445949554443 5.38794088363647 5.27227163314819 8.43958377838135 4.70046234130859 6.31425809860229 6.20645523071289 6.13595771789551 6.27635478973389 5.92971897125244 4.88693571090698 3.95391321182251 2.88449478149414 2.158855676651 1.18008482456207 1.68036913871765 1.50384080410004 2.54316520690918 8.772705078125 4.05417490005493 3.83260750770569 15.6243829727173 21.2384910583496 5.60719442367554 28.8767986297607 11.3630933761597 3.54794001579285 5.88340950012207 5.42313766479492 3.1889488697052 3.19957375526428 15.080753326416 2.91092371940613 6.47414779663086 12.014778137207 4.32055282592773 3.87865447998047 2.23460960388184 1.79673552513123 1.62120985984802 1.49153065681458 3.28130483627319 3.2463641166687 3.24547624588013 2.75976943969727 2.92891788482666 3.27651500701904 3.34361481666565 2.80050802230835 3.83997249603271 2.96255922317505 2.2848699092865 15.5809984207153 19.0248107910156 20.7936668395996 21.4831085205078 15.6123876571655 13.2408742904663 14.9859266281128 18.358959197998 13.4584484100342 4.10738754272461 3.84447073936462 3.80691003799438 3.3903911113739 3.02518153190613 5.71843671798706 5.37655448913574 3.47562313079834 3.91992735862732 3.38564467430115 1.12969732284546 0.891707122325897 0.855546176433563 8.94489860534668 0.465567618608475 2.01160836219788 3.31837272644043 4.28022050857544 4.57208204269409 4.65912246704102
0.349100321531296 -0.00754944421350956 3.42130589485168 3.16757082939148 8.62714004516602 12.1809864044189 9.79366779327393 5.97661447525024 8.47166919708252 5.92102527618408 2.93632578849792 0.742462694644928 0.821318387985229 1.15824973583221 1.39415609836578 1.55181646347046 4.72933197021484 1.56094813346863 2.74509382247925 4.35296010971069 1.75471067428589 1.84420120716095 1.4635261297226 2.38121271133423 1.73948693275452 2.40537238121033 2.32763028144836 0.485522538423538 0.588535904884338 0.574268817901611 0.558339774608612 1.78236162662506 2.78921627998352 10.0954647064209 2.5383620262146 6.90758562088013 1.58764326572418 5.11718845367432 8.16162014007568 6.08047246932983 2.93869709968567 5.51125621795654 5.8558201789856 4.26629257202148 1.32816123962402 0.301393985748291 0.2994564473629 11.6877517700195 0.666253268718719 0.83222633600235 0.513644993305206 9.10398197174072 14.7774209976196 12.2539443969727 5.47392082214355 15.5099868774414 36.814323425293 12.4574279785156 36.3975219726562 24.2202014923096 24.1043548583984 21.10693359375 12.3229351043701 16.0751476287842 37.8830795288086 18.7855930328369 14.2677011489868 12.5641384124756 13.0810375213623 13.5018262863159 13.8096942901611 13.9244041442871 13.2028570175171 11.3841648101807 10.9799757003784 11.0809631347656 11.1874561309814 11.1822814941406 10.9265956878662 10.3996429443359 8.98745250701904 6.91798114776611 5.37311983108521 4.69987154006958 3.92972421646118 3.04543590545654 3.53321623802185 3.32485675811768 2.774977684021 3.57849526405334 1.9803946018219 1.54120171070099 1.76916790008545 17.1300983428955 4.07012462615967 5.07768249511719 4.74455976486206 15.535457611084 5.95856475830078 5.83183574676514 5.91512823104858 6.05861330032349 5.71926832199097 4.72049283981323 3.82503032684326 2.78157424926758 2.09715366363525 1.0877046585083 1.56637537479401 1.40240216255188 2.23467230796814 7.5337085723877 3.23173713684082 2.63742995262146 7.37236642837524 9.86125946044922 4.93900394439697 15.5145721435547 25.160493850708 3.23146796226501 2.07205057144165 4.85906028747559 3.01633787155151 2.72896432876587 10.2090969085693 1.47213637828827 13.3809661865234 6.30116701126099 3.6265127658844 3.23652338981628 2.04722547531128 1.63840365409851 1.46940279006958 1.35513126850128 3.21047019958496 2.86598420143127 2.67923474311829 2.6445472240448 2.83328747749329 3.20791816711426 2.80121660232544 2.37902235984802 3.60377669334412 2.79774951934814 2.17251825332642 11.8059301376343 15.418776512146 18.182056427002 17.4800300598145 13.0978593826294 10.5111875534058 12.9379606246948 14.9152936935425 10.1848516464233 3.95947909355164 3.71340417861938 3.66580176353455 3.26058316230774 2.90946388244629 5.30635929107666 5.02183151245117 3.29837131500244 3.69033789634705 3.21168112754822 1.04409050941467 0.843703508377075 0.84339302778244 0.190423145890236 27.9999141693115 1.10040748119354 3.24616432189941 4.16460752487183 4.46069002151489 4.51934146881104
-1.488645195961 -0.74286687374115 0.147434920072556 0.927027940750122 3.54506039619446 6.84732532501221 9.77555274963379 23.2692775726318 3.79303765296936 14.1294641494751 15.2182664871216 8.48472213745117 15.0949001312256 0.84551727771759 1.28652238845825 1.28393352031708 1.15079951286316 1.48532021045685 2.5795316696167 1.91463017463684 3.92458629608154 1.45844841003418 1.35248816013336 1.89893078804016 1.42639589309692 0.893897891044617 0.960429489612579 0.369583308696747 2.53049039840698 -0.120879866182804 -0.0799185037612915 0.114495404064655 1.22477686405182 2.46850943565369 2.02260088920593 6.10569429397583 32.1714134216309 14.2769775390625 16.3757400512695 3.72596454620361 20.9078617095947 9.77500057220459 12.4549465179443 3.43158602714539 1.30329179763794 8.87584781646729 7.22996854782104 5.62088251113892 24.0390129089355 8.70049285888672 12.8684520721436 5.88063955307007 31.8246154785156 31.1254138946533 24.9083576202393 12.8031940460205 25.1899719238281 48.633716583252 24.4488182067871 26.5031414031982 19.4283905029297 19.8895492553711 19.5889549255371 28.0922756195068 21.8290214538574 15.3173141479492 12.4375495910645 11.670446395874 11.9038000106812 12.4161758422852 12.8332586288452 12.9436807632446 12.3198862075806 10.6883554458618 10.2762804031372 10.4498090744019 10.589298248291 10.4755516052246 10.1144161224365 9.67895984649658 8.33691024780273 6.44396591186523 5.04727602005005 4.41593265533447 3.63712048530579 2.83305811882019 3.12945461273193 2.96962833404541 2.35078263282776 3.14390468597412 1.33044648170471 7.43360614776611 1.7310928106308 11.6111125946045 3.9277982711792 4.8972373008728 19.0953731536865 9.3127269744873 5.52798748016357 5.4040584564209 5.68990135192871 5.83431148529053 5.50705003738403 4.55296850204468 3.69950652122498 2.68452644348145 2.03674364089966 1.01498091220856 1.45857167243958 1.3334596157074 2.01683330535889 6.60865068435669 2.70123600959778 1.35036516189575 5.16392612457275 3.33383274078369 4.50604486465454 7.21445369720459 13.3162450790405 4.53851795196533 30.2385501861572 1.590292096138 2.43685913085938 2.53636598587036 7.69133281707764 1.15480542182922 6.84273862838745 4.74313402175903 3.07413673400879 2.7645959854126 1.8908007144928 1.52518343925476 1.35562837123871 1.23281145095825 2.54307889938354 2.50278639793396 2.5944356918335 2.58347606658936 2.76611161231995 2.64208364486694 2.62114262580872 1.81937563419342 3.42590427398682 2.64390730857849 2.07930946350098 9.51348781585693 12.9553165435791 14.4329681396484 14.7235670089722 11.304801940918 9.03590869903564 11.3866281509399 12.5256147384644 8.17189311981201 3.82808303833008 3.59174013137817 3.54004955291748 3.146244764328 2.8103883266449 4.96510028839111 4.71130609512329 3.1399257183075 3.49334740638733 3.03864812850952 0.975878715515137 0.80717933177948 0.817339718341827 4.05733633041382 0.463481485843658 0.831256628036499 1.89608240127563 2.51061820983887 4.33615016937256 4.43508577346802
-1.80780577659607 -0.935766160488129 -0.222297534346581 0.289760708808899 0.644773602485657 2.96882700920105 7.51229333877563 10.7573900222778 33.7167625427246 5.8036904335022 12.6149606704712 5.53502416610718 10.4207773208618 21.9736423492432 15.6105842590332 16.054069519043 1.29207456111908 1.37925624847412 1.86446177959442 1.58611989021301 1.59893298149109 2.98372077941895 1.15013790130615 12.0064401626587 1.32394409179688 9.57985782623291 0.595948994159698 5.70752573013306 0.482665777206421 -0.439085841178894 -0.40354785323143 -0.519388139247894 0.0407877899706364 0.240835800766945 1.07483458518982 3.39755725860596 5.81290054321289 2.69471859931946 6.63447284698486 27.2359752655029 12.6962242126465 15.7493009567261 5.95429754257202 19.9252853393555 16.5889701843262 1.81253981590271 28.8284606933594 6.2184362411499 36.8249244689941 7.98541450500488 2.29133892059326 1.15644943714142 12.6982793807983 24.1899662017822 34.3399391174316 34.5637817382812 20.444709777832 32.7422981262207 21.9572734832764 18.4716053009033 17.5805892944336 20.1942119598389 27.9803981781006 15.8401002883911 15.1737194061279 12.9558601379395 11.4309902191162 11.0056476593018 11.0220441818237 11.5225687026978 11.9431400299072 12.0584735870361 11.4776811599731 10.096287727356 9.67454624176025 9.89199352264404 10.0397882461548 9.86736297607422 9.41328716278076 9.08561611175537 7.81588554382324 6.10421180725098 4.81410980224609 4.20025491714478 3.39537858963013 2.64125943183899 2.77203345298767 2.65868496894836 1.98616349697113 2.79287052154541 18.7273998260498 5.13580656051636 1.42519009113312 8.68627548217773 3.79906797409058 4.72754240036011 8.72119140625 10.4556179046631 9.75754642486572 8.95617771148682 5.48453855514526 5.62544012069702 5.29729080200195 4.39328765869141 3.57306408882141 2.58570265769958 1.97728276252747 0.987388014793396 1.36789810657501 1.29889619350433 1.8214920759201 5.86534070968628 2.33020186424255 0.594803154468536 1.81223464012146 0.63071995973587 4.14959907531738 7.7153148651123 9.02821159362793 20.0588111877441 10.8012142181396 21.7864952087402 1.64355218410492 1.76044738292694 3.7360897064209 0.996480882167816 5.12327814102173 3.81014847755432 2.69270825386047 2.38220834732056 1.7303432226181 1.39580965042114 1.24156761169434 1.13315510749817 2.30284810066223 2.4316143989563 2.22238087654114 2.24765300750732 2.708815574646 2.30022525787354 1.97106945514679 1.23349118232727 3.29385709762573 2.50342583656311 1.9869110584259 7.94030714035034 11.1487627029419 12.4396877288818 12.6868782043457 9.92197132110596 7.93982362747192 10.1524171829224 10.7824363708496 6.84738683700562 3.7031466960907 3.48010730743408 3.41961121559143 3.03437733650208 2.71041107177734 4.66075754165649 4.43972635269165 2.98372268676758 3.31614542007446 2.88534283638 0.883446156978607 0.730537056922913 0.223465338349342 4.83833789825439 29.3928928375244 3.20760679244995 1.85894548892975 11.6942281723022 2.73081398010254 4.30969762802124
1.25624203681946 10.4660091400146 3.95596551895142 -0.359964460134506 0.189174041152 1.14615678787231 5.58533239364624 18.6868858337402 21.5954856872559 21.6887493133545 9.58931732177734 5.83183908462524 5.13573789596558 6.32962083816528 7.32374238967896 3.43402457237244 25.9995555877686 16.4879894256592 1.74460124969482 1.64249455928802 10.0137548446655 10.1199369430542 1.06049430370331 0.973393321037292 1.29294776916504 3.55972504615784 7.91855621337891 4.60466241836548 -0.00157762842718512 -0.618851542472839 4.73352146148682 18.7544441223145 3.93569159507751 0.815059781074524 4.97734832763672 2.46167588233948 3.7920823097229 1.95426499843597 5.2353982925415 23.6345710754395 23.2240390777588 9.69314193725586 3.5321843624115 3.27872490882874 1.24761855602264 8.11687660217285 6.97110176086426 6.47923994064331 14.841947555542 47.702808380127 47.6835784912109 42.7853393554688 12.2110843658447 20.8865928649902 29.2972183227539 23.5097408294678 18.1394557952881 23.0353603363037 16.9130535125732 16.1805744171143 20.0059986114502 17.3399276733398 16.6505966186523 13.8019037246704 12.3492870330811 11.8523626327515 10.6497840881348 10.4257669448853 10.2917766571045 10.7573223114014 11.1419849395752 11.2134456634521 10.7196388244629 9.55540657043457 9.14297294616699 9.40996646881104 9.55556678771973 9.32976627349854 8.82937145233154 8.58262538909912 7.38636255264282 5.81239223480225 4.64549589157104 4.05125665664673 3.23662805557251 2.51987719535828 2.5514760017395 2.45418548583984 1.76983034610748 2.46302580833435 8.6889820098877 3.0716917514801 7.94234991073608 6.14507150650024 3.23087191581726 4.55955410003662 6.56601476669312 7.13874816894531 5.46742296218872 5.32022905349731 5.2799859046936 5.43344163894653 5.12075853347778 4.24578475952148 3.45682501792908 2.48780298233032 1.9138799905777 0.955479621887207 1.32243800163269 1.26681709289551 1.66146945953369 5.27165174484253 0.391906678676605 0.589419364929199 1.36656785011292 4.38115978240967 3.914306640625 5.93647861480713 7.04070997238159 9.26809883117676 20.6518421173096 8.0411548614502 1.23225319385529 5.55380249023438 9.10012149810791 13.1772003173828 4.07420492172241 3.16861176490784 2.39672303199768 2.13064312934875 1.61836802959442 1.2901303768158 1.12148797512054 1.02564334869385 1.29095661640167 1.54967021942139 2.10779619216919 1.81978690624237 2.48433899879456 1.09790575504303 1.6229442358017 1.11051142215729 3.14529252052307 2.37897205352783 1.90245008468628 6.81847429275513 9.78801345825195 10.9331855773926 11.1440687179565 8.83802700042725 7.07353639602661 9.15653514862061 9.43877601623535 5.88407421112061 3.5812463760376 3.37375855445862 3.30393695831299 2.93069410324097 2.6177990436554 4.38295793533325 4.19617700576782 2.85636973381042 3.15683245658875 2.7542986869812 1.7577166557312 2.20129704475403 17.2329387664795 31.474946975708 16.990306854248 32.4172248840332 26.3438377380371 2.37683820724487 30.2499828338623 4.19261407852173
0.470316261053085 7.25913763046265 1.62422633171082 9.32823848724365 11.8810272216797 21.4731006622314 5.05425214767456 6.5035605430603 9.13682556152344 7.42118978500366 8.06337261199951 9.60686588287354 15.3171901702881 2.15735983848572 1.48302733898163 10.5118923187256 11.2854099273682 4.17574596405029 1.65473926067352 1.22707140445709 5.17499208450317 1.02948272228241 7.12083053588867 0.829985678195953 16.5053672790527 3.60657954216003 4.14668846130371 1.09124660491943 8.77270126342773 8.43191528320312 10.9408531188965 2.18466138839722 -0.12629272043705 0.107790276408195 0.733022093772888 1.06787753105164 3.1491322517395 27.6580486297607 24.2248649597168 12.2080221176147 18.9225578308105 7.60048246383667 22.7093067169189 1.13080585002899 -0.0889167860150337 -0.149865508079529 9.48691082000732 12.4512786865234 17.5553283691406 22.0184078216553 25.2647705078125 25.984489440918 10.9001274108887 18.7502193450928 20.3222579956055 10.8073825836182 15.5244798660278 14.9797954559326 27.9523277282715 28.4126167297363 15.9763269424438 15.3744630813599 12.8410387039185 12.2808713912964 11.4742164611816 11.1337051391602 10.0572319030762 9.90384006500244 9.63943862915039 10.1594133377075 10.5025234222412 10.5039291381836 10.022533416748 9.01703357696533 8.64021492004395 8.97516632080078 9.14667320251465 8.85585594177246 8.36036014556885 8.14398956298828 6.99938917160034 5.55187082290649 4.47773551940918 3.92885804176331 3.14354205131531 2.4738187789917 2.4791042804718 2.39734816551208 1.61322546005249 2.25685214996338 5.30671834945679 1.90930140018463 3.43966364860535 5.48547649383545 12.2643537521362 4.3875412940979 4.77679824829102 5.57837057113647 5.2829270362854 5.15443181991577 5.10859823226929 5.23860025405884 4.95798492431641 4.10271501541138 3.34603834152222 2.40316700935364 1.85486912727356 0.920935571193695 1.2850683927536 1.23411166667938 1.52260744571686 4.77786445617676 3.3993034362793 0.576402127742767 2.87529563903809 3.07401180267334 3.65863585472107 5.48740768432617 5.76857948303223 3.88536500930786 7.13167190551758 14.5496253967285 5.57342100143433 1.24821209907532 1.61405551433563 6.73370027542114 3.39085698127747 2.71131730079651 2.13168239593506 1.89008641242981 1.51499009132385 1.20466780662537 1.03807699680328 0.952609181404114 1.03785467147827 1.09889566898346 1.3883501291275 1.27813851833344 1.49298489093781 0.80894523859024 1.51860773563385 1.0844566822052 3.01565098762512 2.26605105400085 1.82647621631622 5.95916366577148 8.71409797668457 9.73762226104736 9.93568325042725 7.96621417999268 6.36202383041382 8.32338905334473 8.41144847869873 5.14748096466064 3.4703049659729 3.27363777160645 3.19417357444763 2.83393287658691 2.53268003463745 4.14554929733276 3.9869077205658 2.73428797721863 3.0036997795105 2.69033145904541 0.799638867378235 0.644848883152008 13.5908737182617 11.0694265365601 14.6889276504517 15.0286045074463 7.06632280349731 24.9831314086914 9.73915100097656 4.07478904724121
9.16868686676025 3.0321090221405 1.35378289222717 4.69654607772827 5.64555978775024 4.2461142539978 3.77822303771973 3.43630528450012 4.06308031082153 5.68650102615356 24.2206611633301 37.4543991088867 18.5435104370117 26.3673248291016 7.38367223739624 6.33552837371826 6.65038537979126 18.38551902771 5.34299850463867 26.8397998809814 10.5758790969849 8.76762008666992 2.19569373130798 11.105544090271 1.27119243144989 11.4193258285522 1.72243714332581 2.79422068595886 7.39227294921875 8.2719783782959 6.4257984161377 20.4463977813721 15.4757661819458 8.48467922210693 10.8868637084961 20.2391719818115 12.9541721343994 20.4467792510986 12.2903451919556 23.7935161590576 15.3704242706299 7.1715030670166 6.01876735687256 10.0548372268677 9.69913005828857 18.3316020965576 5.05198526382446 6.53341484069824 10.1714773178101 26.0368118286133 28.9056797027588 24.2269325256348 41.6502799987793 17.7412433624268 14.7914009094238 10.0349445343018 9.56484985351562 29.8598651885986 16.6604747772217 16.121976852417 14.4936666488647 13.8858318328857 11.6495084762573 11.1492052078247 10.810453414917 10.4989213943481 9.50774192810059 9.49468326568604 9.20475101470947 9.63853931427002 9.98849964141846 9.95323657989502 9.4391450881958 8.51715850830078 8.15534973144531 8.55297183990479 8.75710868835449 8.45469665527344 7.96411657333374 7.762526512146 6.6696891784668 5.3362979888916 4.34340953826904 3.83011698722839 3.0780200958252 2.45060920715332 2.45327281951904 2.29662132263184 1.54396486282349 2.13094210624695 3.92768549919128 1.5268976688385 1.98734319210052 4.60191631317139 5.86911869049072 4.2311863899231 4.57596778869629 4.68440055847168 5.11850500106812 4.98754692077637 4.94136381149292 5.07772350311279 4.80638360977173 3.97434401512146 3.23538112640381 2.3169994354248 1.80797934532166 0.893058478832245 1.24715530872345 1.19943630695343 1.40209770202637 3.47751998901367 1.83707630634308 0.527657926082611 7.76299667358398 2.28146815299988 3.07646203041077 5.21048831939697 4.79364442825317 3.2043445110321 6.18257808685303 7.74434852600098 12.3173141479492 9.67685985565186 24.0984916687012 4.48415946960449 2.89728164672852 2.35911750793457 1.90491938591003 1.68777525424957 1.40301322937012 1.10239064693451 0.95191103219986 0.880029618740082 0.999604523181915 0.856794595718384 1.17762529850006 0.84171450138092 1.40544462203979 0.651064574718475 1.47185790538788 1.04038405418396 2.89431977272034 2.15920233726501 1.75257349014282 5.28810358047485 7.84263944625854 8.77280807495117 8.94540786743164 7.24755001068115 5.79277276992798 7.64706468582153 7.58879423141479 4.66393327713013 3.36872029304504 3.18254780769348 3.09670972824097 2.73776650428772 2.44362163543701 3.9204044342041 3.77944254875183 2.6108922958374 2.87787175178528 2.56284737586975 0.765467703342438 0.619411826133728 9.00198650360107 7.50148153305054 9.63565444946289 7.30724048614502 6.06550312042236 7.93668174743652 2.41020917892456 3.98572182655334
8.41654586791992 2.61406254768372 -0.862507939338684 1.97606408596039 3.55144691467285 5.62856531143188 9.87052536010742 7.39878845214844 3.51527619361877 7.55360460281372 17.4054489135742 15.1719331741333 13.1534910202026 21.8168506622314 8.85554504394531 4.06218957901001 12.1994695663452 6.97775650024414 8.07375240325928 8.08878421783447 3.79891657829285 7.50699853897095 4.14496231079102 8.28653621673584 7.53881072998047 3.60098457336426 7.02747106552124 6.59501886367798 22.473316192627 23.5756778717041 15.7424421310425 23.5004081726074 25.0149250030518 29.679386138916 29.7003021240234 31.6516304016113 33.8952445983887 22.4746990203857 21.014856338501 15.4571361541748 12.1217660903931 4.7765588760376 31.1381130218506 24.8941020965576 20.2175331115723 24.6864471435547 24.0720462799072 14.8107290267944 20.3942337036133 16.5959491729736 25.2668609619141 21.0538311004639 21.896276473999 13.5450067520142 11.7506399154663 8.82913017272949 27.8922996520996 9.49967479705811 14.9706211090088 14.787410736084 13.4142475128174 12.8145990371704 10.9522895812988 10.2010269165039 10.1139335632324 9.95501136779785 9.06670570373535 9.0932674407959 8.79364681243896 9.16255187988281 9.53355503082275 9.51367950439453 8.97062683105469 8.100266456604 7.71800994873047 8.15653038024902 8.38564872741699 8.07934761047363 7.62851858139038 7.42341995239258 6.38228130340576 5.14457178115845 4.24934959411621 3.75889468193054 3.01445436477661 2.40615749359131 2.33722329139709 2.19927406311035 1.45959746837616 2.02815103530884 3.18508982658386 1.47314703464508 1.40622735023499 3.90314340591431 3.61919522285461 4.08947896957397 4.4357762336731 4.52713632583618 4.96248579025269 4.84315776824951 4.79357051849365 4.92740392684937 4.66750192642212 3.84912633895874 3.12803626060486 2.23962044715881 1.74688303470612 0.861591994762421 1.20815229415894 1.16153025627136 0.335675150156021 2.19348549842834 16.730619430542 2.31749439239502 0.813820779323578 0.0558640994131565 2.35400986671448 4.00618410110474 3.09541487693787 2.53155088424683 10.9510164260864 4.39078950881958 4.16700506210327 5.34034967422485 12.5165529251099 3.26908993721008 2.52519631385803 2.09446048736572 1.72015225887299 1.50608241558075 1.29722893238068 1.02225089073181 0.871915638446808 0.804441750049591 0.961485326290131 0.791518032550812 1.12677001953125 0.798573970794678 1.35038101673126 0.517968833446503 1.43462562561035 0.931494772434235 2.77871513366699 2.06627893447876 1.68995976448059 4.75772380828857 7.12793350219727 7.98326635360718 8.15260601043701 6.65725946426392 5.31848430633545 7.0694522857666 6.90305423736572 4.27873754501343 3.26898431777954 3.0934009552002 3.00457453727722 2.65504765510559 2.36856079101562 3.72202324867249 3.59798264503479 2.50016593933105 2.78261160850525 2.43672490119934 0.725496470928192 0.605790615081787 6.64881086349487 20.1008853912354 5.5510082244873 3.76732492446899 1.40275740623474 2.29606318473816 18.4115333557129 2.71361541748047
7.52020406723022 3.72705554962158 30.6998882293701 1.73460698127747 2.12907409667969 8.69406986236572 3.66920304298401 6.13232660293579 3.36983323097229 14.1247930526733 9.02787685394287 28.3533554077148 21.527099609375 20.2021389007568 33.4782409667969 18.4943084716797 7.15187740325928 10.4963140487671 31.8917369842529 38.2422790527344 4.6179518699646 3.47942447662354 18.9501399993896 16.3552761077881 7.14906930923462 4.00652647018433 19.1873054504395 24.26513671875 16.6671676635742 22.2304210662842 28.6128158569336 25.5664405822754 19.9218273162842 22.5302600860596 24.1488399505615 17.9267501831055 23.1154041290283 19.811243057251 11.1705932617188 12.0092086791992 5.269850730896 35.1840896606445 18.2551822662354 22.9108695983887 44.6134262084961 24.3129940032959 21.3257255554199 14.3704509735107 19.898099899292 22.5422515869141 24.5004768371582 18.1814517974854 12.7124805450439 13.3063478469849 30.8679237365723 22.1967830657959 25.4009971618652 42.7179565429688 13.7130851745605 13.7943048477173 12.5703592300415 11.8006725311279 10.1940965652466 9.35188579559326 9.57488632202148 9.42001152038574 8.59636116027832 8.68529605865479 8.40543365478516 8.738037109375 9.11767673492432 9.10918998718262 8.60423946380615 7.77080154418945 7.35837030410767 7.77962970733643 8.02405548095703 7.71878671646118 7.30604934692383 7.11070728302002 6.11281299591064 4.96832180023193 4.1367335319519 3.6873631477356 2.94171380996704 2.34292960166931 2.21246194839478 2.08815383911133 1.35174453258514 1.89418423175812 2.49611186981201 1.40860331058502 1.35017895698547 3.34416365623474 3.1403284072876 3.94471526145935 4.29951763153076 4.39456558227539 4.81080150604248 4.68954753875732 4.64661026000977 4.78095102310181 4.52839088439941 3.72898721694946 3.03747820854187 2.1551308631897 1.6942400932312 0.825973093509674 1.15502882003784 1.12052834033966 0.212235525250435 4.71725416183472 0.058775644749403 0.970743358135223 19.2425346374512 2.10385060310364 2.14595460891724 6.72917222976685 9.25116062164307 8.08603954315186 3.91973972320557 6.87404727935791 16.7904376983643 17.6085929870605 8.45503425598145 2.56479835510254 2.18166303634644 1.85970818996429 1.5644326210022 1.40405750274658 1.19422364234924 0.932711482048035 0.800089478492737 0.740793406963348 0.930332005023956 0.753665328025818 1.08987677097321 0.75946980714798 1.28809142112732 0.468457728624344 1.20775187015533 0.851148068904877 2.59964179992676 1.98030817508698 1.62690091133118 4.33243608474731 6.55329036712646 7.32364368438721 7.47831010818481 6.14770364761353 4.91110181808472 6.56948137283325 6.33413314819336 3.95140480995178 3.17500758171082 3.00895428657532 2.91703081130981 2.57299280166626 2.2943012714386 3.53533029556274 3.40340042114258 2.37816572189331 2.67892003059387 2.34191370010376 0.710675776004791 0.658155381679535 5.44012069702148 10.3699064254761 4.33130741119385 2.67118501663208 14.4125938415527 41.4206275939941 10.4934549331665 2.58060336112976
9.40880584716797 11.314661026001 13.1713123321533 22.977596282959 16.7166633605957 9.77461338043213 2.75798654556274 8.78792190551758 13.2789640426636 21.2734851837158 18.3483276367188 20.4301242828369 9.21090030670166 15.7523126602173 17.5446968078613 11.0865545272827 26.8714561462402 10.5919933319092 30.3849658966064 13.9306039810181 20.1612949371338 12.7739276885986 8.80558776855469 6.02222728729248 3.48217368125916 7.31232738494873 7.2830982208252 13.591160774231 11.7993679046631 17.6024208068848 24.0391654968262 19.3785438537598 18.1991348266602 20.672248840332 27.2720890045166 18.804594039917 20.4433288574219 16.7113094329834 24.466251373291 11.891658782959 44.5296592712402 13.3518619537354 27.858154296875 26.9716453552246 34.8668022155762 33.8234024047852 33.7976989746094 35.8799324035645 22.370210647583 15.9880933761597 18.6634368896484 15.9006338119507 10.6144495010376 13.7427272796631 14.9777069091797 36.9145355224609 18.9161796569824 26.4928722381592 12.7116241455078 12.8885517120361 11.7390298843384 10.8783082962036 9.61311149597168 8.70036602020264 9.0364465713501 8.89694499969482 8.16612339019775 8.30560874938965 8.06782531738281 8.34825706481934 8.74197483062744 8.76375770568848 8.28496074676514 7.5007381439209 7.0429744720459 7.45006799697876 7.68481302261353 7.36270380020142 6.97846746444702 6.81453227996826 5.85610103607178 4.79349708557129 4.03940677642822 3.59655809402466 2.84347081184387 2.25913310050964 2.08312058448792 1.96514093875885 1.2279486656189 1.74063086509705 1.97384715080261 1.36220514774323 1.29483258724213 2.9036180973053 3.01858258247375 3.78949475288391 4.14328956604004 4.24575805664062 4.66579580307007 4.54806089401245 4.51044225692749 4.63377237319946 4.39284086227417 3.61058640480042 2.93982338905334 2.07986760139465 1.63979625701904 0.787316799163818 1.11850714683533 0.974820971488953 18.4980487823486 1.26020574569702 -0.244227945804596 0.128774404525757 8.25824451446533 5.32920169830322 20.5976390838623 3.91867876052856 4.66287994384766 4.0485692024231 6.58733749389648 2.04867196083069 8.55747032165527 8.96850109100342 6.31530570983887 2.16060590744019 1.96571958065033 1.65132427215576 1.42208313941956 1.36825907230377 1.18500137329102 1.41062712669373 0.7406285405159 0.693356037139893 0.9005406498909 0.713368952274323 1.04165148735046 0.724987924098969 1.22556638717651 0.462578386068344 0.917145967483521 0.47759011387825 2.19136786460876 1.75185537338257 1.49646520614624 3.97780561447144 6.04713010787964 6.77164363861084 6.9010648727417 5.69026613235474 4.56211996078491 6.13465070724487 5.84662485122681 3.66436624526978 3.0871889591217 2.93104386329651 2.83308815956116 2.49495697021484 2.21655082702637 3.35256028175354 3.22707939147949 2.29853630065918 2.57081389427185 2.25860142707825 0.693942964076996 0.579408168792725 4.58092451095581 7.1614670753479 29.4837322235107 29.6316471099854 7.38655805587769 3.43385982513428 4.25253200531006 4.68335390090942
28.2590770721436 18.4181022644043 26.1111927032471 10.6891870498657 20.3438930511475 10.9464893341064 6.85491895675659 4.84912061691284 27.1521015167236 12.6825885772705 27.9467620849609 11.3732976913452 28.5185508728027 15.3517160415649 15.8293704986572 29.832389831543 23.2916221618652 45.8737335205078 21.8765239715576 36.5494842529297 31.7696647644043 38.6047668457031 6.92718505859375 4.45226049423218 7.02928447723389 3.74133086204529 3.02317953109741 6.77083444595337 15.0053329467773 15.7848567962646 24.1382064819336 31.7252235412598 26.7081985473633 17.4423770904541 15.3290271759033 17.717264175415 16.9430885314941 14.0855674743652 10.6085996627808 7.7735538482666 22.7786445617676 37.1227798461914 16.816047668457 20.4282932281494 25.5204925537109 21.310489654541 20.3884410858154 21.1217346191406 11.0328893661499 15.6502847671509 16.0127182006836 15.3276748657227 21.2251720428467 21.4896812438965 26.5602645874023 23.1028957366943 15.5625019073486 19.4767761230469 11.8414449691772 12.0941667556763 11.0274810791016 10.1932506561279 9.08151912689209 8.15084362030029 8.55206394195557 8.44540119171143 7.78866577148438 7.97229194641113 7.77600049972534 8.01010799407959 8.40700817108154 8.42824554443359 7.97760343551636 7.24234676361084 6.76800489425659 7.15636157989502 7.37630462646484 7.03246212005615 6.66483736038208 6.51889753341675 5.63815641403198 4.64328479766846 3.91944360733032 3.45380520820618 2.69971585273743 2.15094614028931 1.93123888969421 1.80790495872498 1.08596336841583 1.58813881874084 1.60308051109314 1.3073216676712 1.24621415138245 2.5385684967041 2.89764189720154 3.64043641090393 3.98635077476501 4.09704828262329 4.51468324661255 4.39485549926758 4.37074518203735 4.49310922622681 4.2520956993103 3.49114990234375 2.83638644218445 2.0002236366272 1.58610343933105 0.754117608070374 1.05669820308685 1.76830434799194 9.21278858184814 28.3203144073486 32.4620513916016 28.7257137298584 6.14366292953491 12.1527986526489 1.55591607093811 3.76933026313782 10.2103233337402 2.85290122032166 3.84124422073364 6.18953895568848 5.84375762939453 6.14205741882324 5.13297414779663 1.87335336208344 1.78343117237091 1.51534044742584 1.34108972549438 1.25101184844971 1.03776884078979 0.804016590118408 0.729865729808807 0.659503042697906 0.874518096446991 0.672636985778809 0.994594752788544 0.693287432193756 1.18823862075806 0.436142146587372 11.6923112869263 11.6839532852173 2.08118796348572 1.63515186309814 1.391850233078 2.83682656288147 4.87400722503662 6.13104295730591 6.26266241073608 5.20848560333252 4.13357448577881 5.01483774185181 5.4156436920166 3.46985602378845 3.00262784957886 2.85019111633301 2.74420690536499 2.41539931297302 2.14706444740295 3.18908143043518 3.08518075942993 2.24004125595093 2.46293759346008 2.20663928985596 0.673846781253815 0.554954528808594 3.95271277427673 6.22249746322632 15.43128490448 1.26989948749542 12.2195243835449 12.543327331543 17.5485763549805 20.0189590454102
10.8526735305786 21.2933788299561 15.6822910308838 23.3141002655029 15.5507793426514 5.4141697883606 21.9508304595947 25.1475162506104 15.2787742614746 22.8331775665283 15.9043855667114 10.224232673645 19.5557193756104 13.7548675537109 24.3651123046875 21.8712692260742 25.788631439209 31.3554649353027 16.2915668487549 21.3294143676758 17.5275402069092 23.5668792724609 10.140380859375 28.2277145385742 6.15599346160889 11.0539417266846 21.3149070739746 40.6995811462402 17.1429080963135 26.9584980010986 23.2933101654053 23.6633415222168 15.2071161270142 16.1478328704834 14.9019212722778 12.0628709793091 14.3178405761719 12.0299949645996 13.982253074646 22.7746849060059 12.814281463623 10.5587892532349 12.8482942581177 16.8345775604248 17.3625011444092 14.7185440063477 16.4803924560547 17.2336864471436 27.8779621124268 31.7577171325684 15.6954679489136 17.9784088134766 19.2004814147949 12.7635526657104 25.0572490692139 18.6265087127686 13.3523406982422 15.5939197540283 11.1759262084961 11.4009914398193 10.422646522522 9.57933616638184 8.62385082244873 7.68893909454346 8.10975170135498 8.05545520782471 7.46762228012085 7.67856931686401 7.50211095809937 7.7095947265625 8.09498405456543 8.10811138153076 7.6663384437561 6.98586940765381 6.523024559021 6.89607763290405 7.09878969192505 6.7286639213562 6.37197780609131 6.27794551849365 5.41244316101074 4.44857788085938 3.74180674552917 3.29836201667786 2.53992486000061 2.02977418899536 1.78225946426392 1.66351211071014 0.984552085399628 1.44656848907471 1.31757462024689 1.24700534343719 1.18948340415955 2.21801328659058 2.78175950050354 3.50393748283386 3.84247994422913 3.95300245285034 4.36263132095337 4.26871395111084 4.21908473968506 4.35096597671509 4.12322807312012 3.3699631690979 2.73597383499146 1.91991937160492 1.52837145328522 0.710439801216125 1.01615118980408 0.955122113227844 5.88934993743896 14.4293193817139 16.9170227050781 14.3475542068481 4.27470397949219 6.29278945922852 6.12415885925293 2.48544001579285 2.98388648033142 2.47751259803772 10.2055730819702 10.4807739257812 4.38686370849609 4.86270666122437 4.22617197036743 1.65304696559906 1.64834070205688 1.40140640735626 1.29493916034698 1.21079242229462 1.01425230503082 0.778595507144928 0.699489653110504 0.617429554462433 0.846990048885345 0.616845846176147 1.02334034442902 0.674737155437469 1.87913060188293 0.42859223484993 5.73078393936157 5.62472152709961 10.8987112045288 4.28972911834717 3.29798436164856 4.41632413864136 4.84622383117676 5.46512031555176 5.73974227905273 4.7723560333252 3.7794029712677 4.17785501480103 4.00086355209351 2.93161177635193 2.73409605026245 2.77275729179382 2.66488766670227 2.34274554252625 2.07964992523193 3.0399055480957 2.96389818191528 2.17964124679565 2.35688495635986 2.14333152770996 0.655383825302124 0.547322273254395 3.47252106666565 5.48994207382202 10.759729385376 33.9370574951172 7.53526735305786 9.79511451721191 16.5261669158936 14.5058307647705
29.7042636871338 22.0354785919189 14.8346853256226 9.80976676940918 11.3461427688599 19.5537338256836 19.1285152435303 18.0958023071289 29.7011337280273 12.6489105224609 12.9093990325928 8.44154739379883 13.3758430480957 18.3991527557373 14.5062112808228 32.5113868713379 20.3060283660889 18.4977741241455 17.1766319274902 13.6517658233643 13.7833232879639 15.5806884765625 17.0829315185547 8.43466854095459 10.2442998886108 10.181224822998 19.0077247619629 15.3962135314941 11.5534067153931 18.2659187316895 19.7663459777832 16.3281898498535 14.8028697967529 10.9130516052246 7.79694414138794 11.381950378418 10.1433572769165 9.60173988342285 7.63680648803711 11.2520561218262 8.78193378448486 16.1293106079102 9.59477519989014 18.3853569030762 39.5054817199707 40.5352973937988 36.6104125976562 32.915340423584 32.7452011108398 23.4889698028564 23.8241233825684 16.0386047363281 19.417163848877 25.5152912139893 19.0245227813721 15.9001388549805 11.7999744415283 13.192551612854 10.5121440887451 10.7217063903809 9.89135265350342 9.07917404174805 8.2363805770874 7.32377004623413 7.72164487838745 7.69132375717163 7.20463275909424 7.41757678985596 7.2447624206543 7.41487455368042 7.79729604721069 7.79017305374146 7.35398769378662 6.72724103927612 6.27524662017822 6.65029287338257 6.83916425704956 6.44986629486084 6.10958671569824 6.02998161315918 5.12725687026978 4.21926069259644 3.57670474052429 3.16513061523438 2.41330695152283 1.92036974430084 1.68353056907654 1.51958394050598 0.91391134262085 1.30112957954407 1.24737060070038 1.18468487262726 1.12594556808472 1.91351521015167 2.67700743675232 3.36968016624451 3.71254134178162 3.81084275245667 4.22646760940552 4.13152456283569 4.10002088546753 4.19396114349365 3.99984359741211 3.25594186782837 2.63932752609253 1.8402464389801 1.46615374088287 0.670016288757324 0.973675310611725 0.917960166931152 4.07857322692871 9.28972339630127 10.702935218811 8.46174907684326 2.53523588180542 3.4342987537384 18.656925201416 27.4682884216309 2.18893384933472 1.94675886631012 5.15498638153076 5.59377002716064 3.74967336654663 4.16793012619019 3.63713407516479 1.48200619220734 1.53513932228088 1.31694352626801 1.23552870750427 1.17202281951904 0.9853156208992 0.770772993564606 0.667812585830688 0.579702913761139 0.815860867500305 1.15034973621368 0.936357319355011 0.641352474689484 1.13966822624207 0.774154841899872 4.13540744781494 3.95485973358154 5.36920881271362 1.99201536178589 1.43857264518738 5.77146863937378 3.49086451530457 4.6740870475769 5.20739412307739 4.33169651031494 2.79859352111816 4.43829488754272 3.69468975067139 2.88155221939087 2.46866011619568 2.6991229057312 2.58653783798218 2.26944804191589 2.01375770568848 2.91642236709595 2.87487435340881 2.0957202911377 2.28693270683289 2.06247568130493 0.63337230682373 0.52828049659729 3.10080075263977 4.93931674957275 8.17922115325928 18.8179054260254 6.59914255142212 5.87463092803955 8.00743293762207 10.2674236297607
22.0979442596436 15.0357828140259 13.9898366928101 9.24280071258545 21.1441650390625 38.9173736572266 21.6772804260254 16.8091506958008 20.415548324585 12.0131139755249 14.7149801254272 29.589958190918 8.50811290740967 15.1516914367676 12.508731842041 21.2670345306396 18.7745361328125 14.8946647644043 15.0427169799805 18.6439228057861 5.12603378295898 13.2900009155273 21.854621887207 19.7302665710449 22.6185073852539 11.0158672332764 15.6700458526611 12.9927949905396 18.8554668426514 13.5838794708252 13.7598247528076 21.3718795776367 12.111496925354 9.48833179473877 5.59709358215332 6.93456506729126 7.40555191040039 16.7303199768066 25.1764602661133 7.11260414123535 7.86586284637451 7.91152334213257 8.82021236419678 10.4768810272217 21.3677558898926 31.6438369750977 25.9686317443848 22.5569171905518 19.5744724273682 19.018123626709 17.3831653594971 20.5964374542236 27.1590194702148 20.7669334411621 15.1473255157471 13.5987462997437 10.3425979614258 11.2286539077759 9.84705638885498 10.1212778091431 9.38036727905273 8.60815811157227 7.88269710540771 7.00461149215698 7.39701366424561 7.36715173721313 6.94501638412476 7.193039894104 7.00131940841675 7.12970685958862 7.5031795501709 7.48729276657104 7.06524753570557 6.4724383354187 6.02573776245117 6.40960597991943 6.59703350067139 6.19923782348633 5.85958909988403 5.76333332061768 4.89472723007202 4.01334476470947 3.41571378707886 3.03162574768066 2.29610371589661 1.82146644592285 1.58835530281067 1.37703323364258 0.834477245807648 1.15971922874451 0.650565683841705 0.823665857315063 0.84104973077774 1.63313412666321 2.56183457374573 3.24300742149353 3.57485914230347 3.67761516571045 4.08286476135254 3.99618124961853 3.96859908103943 4.07686710357666 3.87357187271118 3.14805865287781 2.54820847511292 1.75769913196564 1.40483641624451 0.633753716945648 0.920892298221588 0.874203145503998 3.05632758140564 6.62073278427124 7.54099464416504 5.59114503860474 1.39670729637146 1.80380725860596 7.38211917877197 12.5545520782471 21.1373195648193 1.83507061004639 3.73834180831909 4.0872049331665 3.33523488044739 3.64240527153015 3.21204710006714 1.32469272613525 1.43864715099335 1.24365019798279 1.18769645690918 1.11498892307281 0.954721987247467 0.768333733081818 0.615079283714294 0.981948435306549 0.870864033699036 0.571159303188324 0.908230304718018 0.636587560176849 1.11226522922516 0.393796652555466 2.91519713401794 2.96364569664001 3.98189187049866 1.63303184509277 1.37178075313568 3.22852396965027 15.4435443878174 4.04863882064819 4.84803056716919 4.13132953643799 2.58520936965942 3.60551929473877 6.73436450958252 2.24565887451172 13.4632959365845 2.61583065986633 2.50261282920837 2.19528722763062 1.95823264122009 2.81053805351257 2.79993581771851 2.01253628730774 2.21358275413513 2.00878477096558 0.615442156791687 0.517243027687073 2.82189226150513 4.5001072883606 6.59420776367188 12.9286394119263 18.6576080322266 13.808632850647 5.26569223403931 8.22894668579102
7.60764312744141 13.8138027191162 28.0025405883789 14.9970693588257 8.32677745819092 16.6491107940674 25.9361114501953 29.44118309021 15.8279809951782 11.1999940872192 9.17054271697998 12.6940841674805 12.6737623214722 13.0123691558838 27.0153255462646 18.2757110595703 16.905179977417 15.7945613861084 13.7921934127808 11.9896421432495 39.9128494262695 18.1806221008301 14.055438041687 30.9898204803467 17.5422382354736 10.657057762146 14.7360687255859 16.0578479766846 11.4549980163574 16.381986618042 20.9606418609619 14.3619070053101 10.40247631073 6.60090494155884 8.13256168365479 5.95522594451904 6.22918796539307 7.00521469116211 10.5564470291138 6.59804391860962 35.2934226989746 32.1041831970215 9.47712993621826 29.9213924407959 17.2535305023193 24.9240455627441 20.6706676483154 13.8156661987305 13.6012058258057 14.0153961181641 32.1004905700684 28.6489410400391 18.3565711975098 12.2563047409058 11.400200843811 8.56315994262695 9.46986103057861 9.90928268432617 9.33601951599121 9.58877754211426 8.90617084503174 8.15338611602783 7.53982782363892 6.71793985366821 7.09544086456299 7.08466100692749 6.69075059890747 6.94846534729004 6.7608790397644 6.84509372711182 7.22258758544922 7.21470785140991 6.80079317092896 6.22363996505737 5.77448463439941 6.171799659729 6.36748933792114 5.95914936065674 5.60253286361694 5.54233121871948 4.68876838684082 3.82106733322144 3.27279257774353 2.90165090560913 2.17452502250671 1.72870552539825 1.50079333782196 1.24549424648285 0.7552130818367 1.05604565143585 0.425331830978394 0.747840583324432 0.765966296195984 1.39024722576141 2.44930601119995 3.10712647438049 3.42617988586426 3.53596258163452 3.9347562789917 3.85415959358215 3.83065867424011 3.94958400726318 3.74015021324158 3.03971338272095 2.45824193954468 1.67489242553711 1.05636823177338 0.454732269048691 0.672344386577606 0.457445353269577 2.35805559158325 4.98977088928223 5.8001766204834 4.29451513290405 1.00592958927155 1.14818608760834 4.28162908554077 6.79965591430664 8.80139827728271 17.5440921783447 3.43992948532104 3.2825825214386 2.93270254135132 3.20088577270508 2.81453347206116 1.18281006813049 1.35637712478638 1.16861116886139 1.1610027551651 1.09163212776184 0.933305442333221 0.745865881443024 0.609009742736816 0.549951016902924 0.781613409519196 0.557632446289062 0.903484165668488 0.62979257106781 1.09796440601349 0.388354659080505 2.3642430305481 2.32807636260986 2.6885552406311 1.53764140605927 1.30034995079041 2.8015468120575 9.32376480102539 3.72647666931152 4.57801675796509 3.63078570365906 12.2048854827881 13.7390050888062 2.43204116821289 32.4356575012207 7.23663949966431 2.57982468605042 2.47285604476929 2.15232586860657 1.91136753559113 2.74540328979492 2.67559123039246 1.98525249958038 2.1608510017395 1.92844724655151 0.600149214267731 0.505620718002319 2.59249973297119 4.12575483322144 5.54020929336548 9.83402156829834 9.71068096160889 7.5953221321106 4.43874740600586 6.14808034896851
6.80780935287476 24.378101348877 15.8780212402344 12.7372627258301 11.5256500244141 10.8204154968262 14.4393348693848 17.7581596374512 12.0192098617554 21.0564880371094 7.67575597763062 11.7723226547241 8.09255218505859 11.9420680999756 19.6698780059814 15.8915357589722 14.5353803634644 14.4494800567627 10.8989725112915 9.96451473236084 21.8224601745605 14.4076633453369 13.1883096694946 12.9988098144531 9.61352443695068 8.47645282745361 12.013503074646 12.5419549942017 11.1855630874634 13.0809335708618 13.2930688858032 10.6300745010376 7.6594820022583 5.96874523162842 4.59280204772949 5.1422119140625 3.68424487113953 4.84270429611206 6.10746097564697 9.89192390441895 22.7695598602295 20.606330871582 8.55282497406006 22.5036907196045 16.4665584564209 18.7345409393311 14.4968938827515 11.3975582122803 36.3648948669434 29.5278148651123 19.1429004669189 12.4760465621948 9.40784072875977 10.1930084228516 9.47659778594971 7.05089616775513 8.68778324127197 9.24593067169189 8.91876983642578 9.12918758392334 8.48583221435547 7.72938251495361 7.21197652816772 6.44662857055664 6.8064284324646 6.79827308654785 6.44723606109619 6.70751047134399 6.53261852264404 6.60361957550049 6.95773458480835 6.95494747161865 6.56871604919434 6.00137567520142 5.54993867874146 5.94643068313599 6.14030027389526 5.72643613815308 5.37880659103394 5.33911991119385 4.50533151626587 3.67251300811768 3.13488268852234 2.79007625579834 2.06083655357361 1.64385342597961 1.41728675365448 1.12392473220825 0.675297379493713 0.957199335098267 0.322327435016632 0.0295977238565683 0.684373915195465 1.29410564899445 2.3287570476532 2.94456577301025 3.28200030326843 3.40015769004822 3.78474187850952 3.70463728904724 3.68918943405151 3.80565571784973 3.61934685707092 2.91626191139221 2.36053895950317 1.58736801147461 0.988535761833191 0.39714327454567 0.617317497730255 0.374173164367676 1.82076919078827 3.98821568489075 4.67806148529053 3.54614496231079 0.847374141216278 1.00300776958466 3.03012990951538 4.18193578720093 4.33593082427979 7.05926513671875 3.0514087677002 2.7575204372406 2.73004579544067 2.87669682502747 2.50063896179199 1.04562962055206 1.30294942855835 1.10562574863434 1.11727046966553 1.06554579734802 0.902760684490204 0.720077872276306 0.601781606674194 0.916942894458771 0.865346491336823 0.638172805309296 0.886339843273163 0.620686709880829 1.08320331573486 0.717992901802063 2.05615496635437 2.01841568946838 2.27843332290649 1.5060122013092 1.26918959617615 2.57078981399536 7.62648296356201 18.3828716278076 4.10822010040283 5.0813422203064 6.11056423187256 6.83613872528076 34.6546974182129 19.1036891937256 4.49603748321533 2.50446820259094 2.39385628700256 2.11844539642334 1.89141070842743 2.63477277755737 2.60576105117798 1.92948138713837 2.10940551757812 1.87112593650818 0.569290280342102 0.492241561412811 2.37900018692017 3.831627368927 4.7485146522522 7.91886949539185 6.64509534835815 10.5577459335327 2.04775953292847 2.12859535217285
14.6429538726807 10.7782506942749 13.2643022537231 40.7027587890625 29.3372650146484 34.4429702758789 17.3613567352295 14.6133832931519 36.132381439209 8.21909046173096 26.5257301330566 10.3618831634521 15.3057327270508 11.8203411102295 12.2079544067383 12.5952959060669 12.6204805374146 11.8371505737305 20.3415050506592 20.134407043457 34.9449844360352 11.5216608047485 12.0482492446899 9.70114612579346 10.7328176498413 26.7297401428223 25.1873645782471 15.2269659042358 20.0381641387939 11.7242374420166 12.2513084411621 10.1506586074829 13.9189443588257 6.49130201339722 11.2562532424927 11.2725505828857 3.28099036216736 33.2737121582031 5.8974666595459 29.0510864257812 16.2410221099854 13.6736030578613 12.1588668823242 12.4133491516113 13.2680377960205 16.2444458007812 21.0313453674316 42.361629486084 21.8483028411865 12.2514123916626 11.4585943222046 43.1520652770996 8.86725807189941 9.75320243835449 9.29381847381592 43.5495986938477 9.41362857818604 8.8839807510376 8.53640747070312 8.75990104675293 8.11427688598633 7.35543203353882 6.89684867858887 6.19074392318726 6.55658388137817 6.52747392654419 6.19820261001587 6.48118782043457 6.30930471420288 6.37270212173462 6.72190284729004 6.70002031326294 6.3483829498291 5.81600427627563 5.35648441314697 5.728844165802 5.91042709350586 5.49839019775391 5.1649923324585 5.14884185791016 4.33579444885254 3.54612326622009 3.01515293121338 2.67922520637512 1.96938741207123 1.56161546707153 1.33399534225464 1.01634109020233 0.608306407928467 0.871574580669403 0.226878732442856 -0.0646944716572762 0.46493211388588 1.20034945011139 2.19430184364319 2.79886555671692 3.12437105178833 3.25572752952576 3.62487363815308 3.55431389808655 3.54058718681335 3.6634681224823 3.48378872871399 2.80402183532715 2.23140835762024 1.50025427341461 0.910927772521973 0.336218297481537 0.30938309431076 0.301829189062119 1.33768093585968 3.26374793052673 3.88615369796753 3.0057692527771 0.824338436126709 0.953046500682831 2.61484575271606 3.30818676948547 2.72980618476868 3.59149432182312 2.6428210735321 2.13204646110535 2.48801445960999 2.62917232513428 2.3161826133728 1.00219583511353 1.26864337921143 1.05914449691772 1.09324705600739 1.03302145004272 0.879734098911285 0.69742751121521 0.595135450363159 0.590483069419861 0.772555649280548 0.577752947807312 0.87684428691864 0.617240905761719 1.06116628646851 0.682003140449524 1.86177432537079 1.77597808837891 2.05905604362488 1.47586107254028 1.2451753616333 1.49622189998627 3.88972425460815 10.4999990463257 9.5020809173584 2.84693622589111 2.31586527824402 6.33421230316162 21.2651309967041 12.809419631958 3.53077507019043 2.47208046913147 2.36144542694092 2.07213687896729 1.84398245811462 2.56920981407166 2.53499603271484 1.88315606117249 2.05559539794922 1.83153080940247 0.551618635654449 0.469417095184326 2.19961047172546 3.59181547164917 4.24159717559814 6.63527154922485 5.93301582336426 6.55693674087524 41.7600288391113 1.48363447189331
14.5317277908325 10.2041721343994 12.6937522888184 22.0481662750244 24.565975189209 20.9140148162842 14.2276964187622 28.9224948883057 17.1503047943115 10.3684062957764 7.00640344619751 9.01481056213379 29.2135925292969 11.5168447494507 11.7294979095459 12.2944459915161 12.5513000488281 9.15384101867676 11.68590259552 9.93663692474365 19.4553852081299 22.2809066772461 12.0081472396851 36.3262748718262 18.6181182861328 20.5391025543213 19.4551277160645 20.5150184631348 15.9823837280273 10.5911569595337 11.4880685806274 8.94176578521729 7.10396099090576 6.43969488143921 19.6631031036377 5.32931280136108 21.6308631896973 18.4186687469482 19.5058784484863 18.7495918273926 13.2429761886597 5.69799423217773 8.5351505279541 22.5500011444092 26.9578304290771 12.5701999664307 17.3461170196533 25.2134895324707 9.63136672973633 10.4100503921509 10.9117860794067 10.455714225769 45.13916015625 35.4845161437988 7.32408666610718 6.75767850875854 7.35124111175537 8.51206398010254 8.20084762573242 8.40716743469238 7.80047750473022 7.02805709838867 6.61987400054932 5.94441604614258 6.31165456771851 6.29184484481812 5.97780179977417 6.25733470916748 6.09438848495483 6.14326953887939 6.49896955490112 6.46985864639282 6.12843322753906 5.62932443618774 5.17217588424683 5.5251317024231 5.69072675704956 5.2755274772644 4.94965124130249 4.95726299285889 4.17357397079468 3.43102169036865 2.90321898460388 2.57506155967712 1.87415134906769 1.48569250106812 1.25256884098053 0.918033421039581 0.551640689373016 0.80171537399292 0.150102704763412 -0.138074398040771 -0.0648193582892418 1.03182220458984 2.07300782203674 2.6757276058197 2.98645877838135 3.07939004898071 3.45747256278992 3.3880307674408 3.38350486755371 3.51334500312805 3.34615325927734 2.68214178085327 2.14291739463806 1.39624869823456 0.848281919956207 0.274056255817413 0.223832085728645 0.228871375322342 1.00683867931366 2.6286404132843 3.2574257850647 2.54017162322998 0.783669710159302 0.886423349380493 2.31192183494568 2.85203456878662 2.21665525436401 2.31188154220581 2.33423137664795 1.79823648929596 2.20471620559692 2.41643095016479 2.14171242713928 0.951860129833221 1.22909450531006 1.02004337310791 1.0506649017334 0.992611587047577 0.853303670883179 0.67602950334549 0.577714920043945 0.532478928565979 0.757097959518433 0.542012631893158 0.860878348350525 0.604784548282623 1.04249501228333 0.486142992973328 1.62897193431854 1.57163107395172 2.00965046882629 1.42992079257965 1.20646131038666 1.43719696998596 2.76633977890015 3.56498289108276 6.06724166870117 17.4719142913818 10.964241027832 3.28866457939148 14.4912014007568 9.74275493621826 2.97787094116211 2.43355226516724 2.31832695007324 2.03787231445312 1.81778991222382 2.4955415725708 2.46511054039001 1.83681857585907 2.00647807121277 1.79149913787842 0.535300254821777 0.451549470424652 2.05903625488281 3.37941837310791 3.96648859977722 5.7275857925415 5.35415029525757 5.51663255691528 23.9582710266113 28.739315032959
28.6062526702881 33.3006858825684 24.5790729522705 19.0899658203125 24.009729385376 23.3456764221191 26.0272159576416 14.8892478942871 16.0949420928955 15.4058685302734 20.1083202362061 14.5593280792236 17.8283367156982 18.3193130493164 14.441014289856 11.04017162323 12.548300743103 15.3668727874756 8.19508838653564 8.29435920715332 17.5328826904297 11.4824504852295 11.9704542160034 24.32253074646 28.6297702789307 20.2786045074463 26.4702987670898 18.2963123321533 13.9934253692627 22.5555896759033 10.9080390930176 8.67558479309082 6.71785497665405 15.8263187408447 6.72942066192627 5.3941502571106 20.805419921875 9.01209449768066 5.49586248397827 14.4405364990234 9.90225696563721 26.6227264404297 32.066478729248 19.0125598907471 20.7532329559326 33.9927978515625 14.0450601577759 9.386155128479 8.66917705535889 10.3352451324463 18.522045135498 45.5477905273438 7.30172681808472 7.6669545173645 44.4294166564941 6.16283082962036 6.61311054229736 8.18469142913818 7.84220552444458 8.09849643707275 7.51628684997559 6.75213432312012 6.38797950744629 5.72949028015137 6.08174562454224 6.0690279006958 5.77479267120361 6.04419660568237 5.89083003997803 5.92631959915161 6.28006267547607 6.25878000259399 5.92376470565796 5.43644285202026 4.99690580368042 5.34323215484619 5.49467515945435 5.06209135055542 4.73534727096558 4.76143646240234 4.00451612472534 3.30908703804016 2.80015969276428 2.47694611549377 1.77384686470032 1.40481793880463 1.17908108234406 0.815906226634979 0.366912335157394 0.734132885932922 0.0713718980550766 -0.189500749111176 -0.134988144040108 0.569482684135437 1.96250176429749 2.5703604221344 2.85933232307434 2.94647669792175 3.30580544471741 3.2260570526123 3.21430015563965 3.33671855926514 3.18201398849487 2.55360293388367 2.0544741153717 1.33328986167908 0.580006659030914 0.21665720641613 0.142662703990936 0.147151410579681 0.707566976547241 2.13893222808838 2.74369406700134 2.16591739654541 0.713418126106262 0.784817636013031 1.98907816410065 2.47703242301941 2.11491084098816 1.81996464729309 2.09177136421204 1.57402968406677 1.9614098072052 2.17832183837891 1.97567093372345 0.924129128456116 1.20379102230072 0.99250715970993 1.00507318973541 0.964589715003967 0.821468949317932 0.653312742710114 0.55487996339798 0.516461253166199 0.739242672920227 0.52167409658432 0.836895406246185 0.589537739753723 1.01869213581085 0.381384640932083 1.42872452735901 1.395099401474 1.95105814933777 1.38568496704102 1.07556247711182 1.38557028770447 2.63289523124695 3.40930438041687 3.54859757423401 1.88578057289124 1.86039757728577 2.91357851028442 10.8825302124023 7.79169225692749 2.46262764930725 2.37524127960205 2.26581358909607 1.99565756320953 1.77836108207703 2.42569375038147 2.3925633430481 1.78650605678558 1.94793999195099 1.75421261787415 0.530935525894165 0.438136637210846 1.89612448215485 3.17228293418884 3.73248624801636 5.03849935531616 4.87224435806274 4.90772867202759 16.5887279510498 27.0533447265625
24.685432434082 23.5226497650146 14.8435792922974 15.5244226455688 19.5254936218262 16.7945823669434 16.8440093994141 13.5821361541748 11.8628206253052 28.3291645050049 38.632682800293 21.8322944641113 17.0478935241699 16.124942779541 11.3993968963623 13.8173360824585 11.7137613296509 15.3824186325073 15.40305519104 22.6184692382812 12.0763273239136 10.6253423690796 13.7442817687988 19.8762073516846 22.1326026916504 19.2142086029053 19.1929759979248 12.4880399703979 10.8844213485718 20.1196441650391 18.7127285003662 34.7256240844727 24.2856903076172 11.196816444397 17.8456344604492 28.6121883392334 17.879810333252 20.27073097229 13.8624782562256 9.85630226135254 24.0560111999512 13.167236328125 21.8418865203857 16.5137500762939 17.5276775360107 21.5116653442383 9.11617279052734 8.75733184814453 8.19465255737305 38.6437339782715 34.5824279785156 9.54075336456299 14.8993673324585 7.23807954788208 6.37815952301025 42.4872665405273 4.91308546066284 7.86431789398193 7.5214319229126 7.76964616775513 7.28159475326538 6.52057313919067 6.18001556396484 5.54306364059448 5.87656736373901 5.86571788787842 5.58824634552002 5.84662866592407 5.69610214233398 5.72379541397095 6.06746101379395 6.04858255386353 5.73248863220215 5.25160503387451 4.81274557113647 5.16454458236694 5.30671119689941 4.87150192260742 4.53365802764893 4.57730484008789 3.83417582511902 3.18577480316162 2.69773888587952 2.38795471191406 1.692054271698 1.31909275054932 1.10670781135559 0.725520670413971 0.304579854011536 0.662229955196381 0.00339618581347167 -0.243584871292114 -0.189489766955376 0.493685632944107 1.85930347442627 2.44480872154236 2.7264678478241 2.81470322608948 3.16047835350037 3.07719445228577 3.05532956123352 3.16392183303833 2.92681956291199 2.4097785949707 1.62711381912231 1.25729501247406 0.505106568336487 0.160340920090675 0.0605869144201279 0.091415174305439 0.433551758527756 1.73913073539734 2.35873675346375 1.83250975608826 0.637049198150635 0.642640113830566 1.67716038227081 2.35683250427246 2.00821328163147 1.72995567321777 1.97579598426819 1.48191118240356 1.75269675254822 1.97691237926483 1.79661357402802 0.89005184173584 1.16947758197784 0.954637289047241 0.976999819278717 0.931276679039001 0.795851647853851 0.632376551628113 0.537863850593567 0.499137610197067 0.724543333053589 0.50646585226059 0.818208813667297 0.573896825313568 0.993302762508392 0.377676993608475 1.31762075424194 1.28471076488495 1.90642940998077 1.34557700157166 4.21611356735229 6.9832558631897 15.1453866958618 3.20502400398254 4.73027086257935 34.4649772644043 1.50168085098267 2.4440221786499 5.62556505203247 6.5695219039917 2.41103720664978 2.2610170841217 2.20667862892151 1.93934392929077 1.73330819606781 2.34148645401001 2.3213369846344 1.74281895160675 1.89920818805695 1.70778048038483 0.525332391262054 0.427369385957718 1.78552103042603 2.99192929267883 3.50665235519409 4.45140695571899 4.45851373672485 4.39967632293701 12.6287679672241 18.8212909698486
21.7925186157227 18.6080169677734 21.5384330749512 16.8798828125 16.4903774261475 17.072696685791 13.9791927337646 13.1045961380005 11.7569046020508 18.971399307251 25.6107616424561 18.1306381225586 16.9675178527832 12.9561738967896 25.6806964874268 31.0599689483643 38.525218963623 39.3098678588867 12.3459310531616 8.89353179931641 11.332540512085 16.3509788513184 22.7991027832031 18.9774589538574 18.8665161132812 16.9184608459473 16.7638530731201 14.6729898452759 16.2043933868408 16.6444835662842 13.76344871521 25.02197265625 28.973165512085 28.5810050964355 37.2911148071289 26.3748359680176 19.7917518615723 35.2348937988281 16.7896747589111 7.80394124984741 8.33954238891602 32.6408882141113 8.32537364959717 14.461633682251 14.9898862838745 9.41470527648926 19.5906143188477 44.0389785766602 46.3552360534668 9.1782751083374 8.6924467086792 8.39184093475342 7.14335060119629 7.08158159255981 6.33959770202637 4.71993398666382 46.1079368591309 6.60963821411133 7.22131204605103 7.45597696304321 7.01701593399048 6.34791898727417 5.9991340637207 5.3871693611145 5.70221519470215 5.67771816253662 5.42025327682495 5.66992664337158 5.50676965713501 5.51116228103638 5.85224533081055 5.82918500900269 5.53353595733643 5.07305192947388 4.62834310531616 4.96478033065796 5.11772584915161 4.69279813766479 4.36337900161743 4.39929914474487 3.67450642585754 3.06601357460022 2.58700966835022 2.29889917373657 1.62202000617981 1.25010144710541 0.706183135509491 0.644233047962189 0.110382735729218 0.591497182846069 -0.0598851852118969 -0.296160727739334 -0.243597894906998 0.429310262203217 1.75864207744598 2.30562114715576 2.59900689125061 2.67559957504272 2.16194033622742 2.0672652721405 2.32816529273987 2.7369647026062 2.79909348487854 2.00090169906616 1.31698501110077 1.15928888320923 0.444849252700806 -0.104099877178669 0.0251232553273439 0.0259876623749733 0.215794935822487 1.36497437953949 1.94109296798706 1.49000453948975 0.547021090984344 0.496777474880219 1.50946831703186 2.2159276008606 1.89730846881866 1.62619948387146 1.87626957893372 1.38826322555542 1.5704106092453 1.7741767168045 1.63828647136688 0.830635368824005 1.13578152656555 0.925148487091064 0.943926930427551 0.898096740245819 0.771561145782471 0.611150503158569 0.522573828697205 0.484108865261078 0.493449211120605 0.492846846580505 0.802155315876007 0.561559796333313 0.968427538871765 0.342453837394714 1.15834605693817 1.16144442558289 1.85369396209717 1.31109118461609 2.24320149421692 12.4092960357666 7.57149457931519 9.08944225311279 2.80892300605774 7.71429395675659 34.7884750366211 28.4746322631836 5.03383493423462 3.51275515556335 2.28845262527466 2.20779657363892 2.15509247779846 1.88821709156036 1.68566393852234 2.26331615447998 2.23879718780518 1.69501566886902 1.85020875930786 1.66141271591187 0.515215396881104 0.424023240804672 1.68855857849121 2.83223152160645 3.31904602050781 4.01444292068481 4.12106704711914 4.02877378463745 10.1836757659912 14.4059076309204
19.8867740631104 27.3327960968018 18.5315685272217 17.1263866424561 16.5671463012695 19.1815986633301 13.6711349487305 22.8397903442383 24.5885334014893 17.7953300476074 24.9957885742188 37.9329452514648 34.4718170166016 28.5697269439697 19.4541301727295 29.8391742706299 27.014741897583 29.2620487213135 49.4589500427246 31.8076477050781 34.001220703125 18.2218379974365 11.8248100280762 28.4071273803711 16.1599731445312 16.3385181427002 13.3801155090332 13.0220756530762 13.2593793869019 14.6815156936646 14.9588098526001 20.3039226531982 25.9366092681885 26.4902782440186 30.3601360321045 41.417667388916 41.4784660339355 30.8586692810059 28.1018543243408 17.5910949707031 6.56321144104004 30.6106815338135 36.7135467529297 8.83459663391113 11.1137895584106 51.0760269165039 38.1116371154785 8.57546424865723 7.25942373275757 8.31426811218262 22.885404586792 24.0737113952637 19.1707458496094 17.8762969970703 9.24810028076172 13.3842573165894 4.47487163543701 4.54455852508545 7.00309801101685 7.23460626602173 6.7970404624939 6.16120433807373 5.90355920791626 5.2504825592041 5.55109310150146 5.51482772827148 5.26219034194946 5.51024532318115 5.33603191375732 5.30010509490967 5.62154340744019 5.59948587417603 5.31476306915283 4.88308048248291 4.44091701507568 4.76778888702393 4.92032194137573 4.51898765563965 4.20394706726074 4.23774290084839 3.53219199180603 2.95176362991333 2.48120331764221 2.21068668365479 1.53477597236633 1.03330278396606 0.63301283121109 0.564327359199524 0.0657293424010277 0.52747106552124 -0.119546785950661 -0.34050390124321 -0.293258309364319 0.362986207008362 0.76982057094574 2.18966102600098 2.27393293380737 1.78081214427948 1.50968611240387 1.5473016500473 1.63326966762543 1.90155959129333 1.55693101882935 1.26794683933258 1.13634407520294 0.620207905769348 0.321784734725952 -0.235363975167274 -0.0699851363897324 -0.0391943529248238 0.159699410200119 1.19163751602173 1.59774708747864 1.15229856967926 0.417881906032562 0.312529563903809 1.40475749969482 2.1124746799469 1.79006350040436 1.51439440250397 1.7717273235321 1.29326009750366 1.36282253265381 1.56976890563965 1.50253295898438 0.792008519172668 1.10487282276154 0.898008823394775 0.909243404865265 0.864963233470917 0.745907604694366 0.591630458831787 0.503671646118164 0.46735092997551 0.468668848276138 0.477655798196793 0.782169997692108 0.547721862792969 0.939200401306152 0.325238287448883 1.02389180660248 1.0512946844101 1.80059278011322 1.27945244312286 1.48247313499451 6.48820400238037 6.77565574645996 7.14354038238525 16.8548336029053 17.8272743225098 12.3503303527832 6.9516749382019 4.62475967407227 9.46146774291992 1.86790645122528 2.12441349029541 2.10001850128174 1.83989548683167 1.64534854888916 2.18479561805725 2.15954208374023 1.63445198535919 1.78488779067993 1.60865938663483 0.492285668849945 0.417990505695343 1.59783899784088 2.6983323097229 3.13687634468079 3.66024708747864 3.83036375045776 3.69102716445923 8.53008270263672 11.6368103027344
15.8475875854492 18.2026824951172 14.2148036956787 22.238489151001 25.2077522277832 21.8952903747559 28.9072322845459 24.0933380126953 12.1406736373901 25.0879688262939 22.0871868133545 24.2517757415771 21.5020217895508 21.9036293029785 26.2790927886963 23.3276672363281 21.3189067840576 23.8417663574219 36.6645698547363 27.0845890045166 28.7091388702393 23.4615669250488 11.123556137085 15.1754560470581 29.1530780792236 25.651948928833 35.9518966674805 41.2002983093262 34.3136863708496 21.0199871063232 42.0760612487793 26.9857387542725 27.5405502319336 20.7411060333252 21.7655391693115 29.3522968292236 22.8282928466797 30.8581848144531 37.2174911499023 40.8483695983887 51.4707489013672 7.89986324310303 6.83240365982056 8.48526191711426 35.6214065551758 8.74664306640625 7.71600580215454 6.46749258041382 13.2598171234131 7.58691263198853 7.92639017105103 12.6200733184814 7.57074022293091 8.98995304107666 5.9019513130188 4.7038049697876 4.11616134643555 12.5007963180542 4.305748462677 7.07677221298218 6.63831377029419 5.99323892593384 5.77948141098022 5.20036649703979 5.41750001907349 5.36870861053467 5.126060962677 5.36281776428223 5.18355083465576 5.11085939407349 5.40079116821289 5.36038494110107 5.0888204574585 4.67215204238892 4.26097869873047 4.58809375762939 4.73485374450684 4.33483743667603 4.03689861297607 4.08064079284668 3.39370942115784 2.83914661407471 2.37858486175537 2.12216448783875 1.46194267272949 0.91005152463913 0.579638481140137 0.498477965593338 0.0139376241713762 0.181086838245392 -0.170370608568192 -0.376392036676407 -0.329569578170776 -0.0931243821978569 0.691257536411285 0.986655533313751 1.14052152633667 0.731486678123474 0.583486378192902 1.0320246219635 1.02831852436066 1.20684397220612 1.06364107131958 0.997653543949127 0.168176501989365 -0.0318540818989277 0.043432205915451 -0.378661543130875 -0.0856183469295502 -0.150068774819374 0.102256506681442 1.04740369319916 1.27232503890991 0.858904004096985 0.289533197879791 0.110380090773106 1.30212044715881 1.98256516456604 1.6834762096405 1.40994238853455 1.64646446704865 1.17628800868988 1.19447958469391 1.3249694108963 1.35178351402283 0.735832452774048 1.06151807308197 0.862683296203613 0.877948760986328 0.838734090328217 0.723315417766571 0.573150515556335 0.486108213663101 0.453675389289856 0.454356133937836 0.463706254959106 0.763241946697235 0.532257616519928 0.637273788452148 0.895351231098175 0.939894318580627 0.941202223300934 1.75855875015259 1.24382042884827 1.10761415958405 4.89246654510498 5.15534925460815 4.8210334777832 10.9759302139282 11.5467357635498 13.7149705886841 16.0913276672363 11.5468997955322 7.30965995788574 11.6599283218384 2.04967260360718 1.86823558807373 1.80135083198547 1.60914790630341 2.11921215057373 2.09565472602844 1.58032071590424 1.72774803638458 1.5552225112915 0.461444050073624 0.396397560834885 1.51914501190186 2.57625675201416 2.9837634563446 3.33895492553711 3.57539296150208 3.4143590927124 7.33383464813232 9.77795314788818
34.6317901611328 19.4374542236328 26.6053161621094 21.7804317474365 26.4910583496094 27.7830905914307 32.7222900390625 16.0838279724121 33.4296226501465 17.4716377258301 19.20143699646 18.0251846313477 16.4822044372559 16.2332382202148 17.5928630828857 18.9055290222168 17.6123790740967 20.2537536621094 29.2740077972412 21.5824909210205 23.0515937805176 23.2039012908936 31.9413146972656 23.6623458862305 18.4861392974854 28.4697895050049 36.8079452514648 30.6373596191406 29.6867923736572 35.0300483703613 28.2576789855957 37.690185546875 32.2976722717285 48.0160102844238 48.6888809204102 29.2539234161377 38.7881622314453 24.9545288085938 7.74848651885986 6.25389671325684 14.0986642837524 19.7348098754883 49.8459968566895 7.27478933334351 8.28456115722656 7.99301528930664 6.73983526229858 7.34369230270386 6.41121196746826 6.7749719619751 7.44518804550171 7.84935188293457 6.9631404876709 6.09477281570435 4.82616710662842 4.66600275039673 8.65599918365479 4.24360847473145 4.24385404586792 4.40089988708496 6.50484371185303 5.85269689559937 5.63767766952515 5.10486507415771 5.3392539024353 5.23653173446655 5.0184178352356 5.23832654953003 5.05101919174194 4.95614337921143 5.21948909759521 5.1515040397644 4.87391662597656 4.47667121887207 4.08834648132324 4.40542316436768 4.56316900253296 4.1592583656311 3.86968755722046 3.92752718925476 3.26311063766479 2.73536276817322 2.28668212890625 1.36857306957245 1.39075613021851 0.860175907611847 0.531531691551208 0.451084494590759 -0.0327919945120811 0.112787909805775 -0.207768753170967 -0.413160771131516 -0.364836037158966 -0.171306774020195 -0.70167064666748 -0.234344512224197 -0.087235689163208 0.297473579645157 0.334137320518494 0.757818818092346 0.597524702548981 0.135396257042885 -0.064066082239151 -0.152500212192535 -0.10079525411129 -0.208516210317612 -0.549970328807831 -0.436825603246689 -0.185247600078583 -0.21605409681797 0.0159917939454317 0.934831082820892 1.00197792053223 0.581278502941132 0.178000569343567 -0.0370453484356403 1.19433259963989 1.84459888935089 1.57460629940033 1.30910682678223 1.52864873409271 1.05389189720154 1.08541905879974 1.16308629512787 1.17803132534027 0.653232872486115 0.998194873332977 0.809916913509369 0.836004853248596 0.806853532791138 0.685934364795685 0.55563896894455 0.473056584596634 0.440659493207932 0.440588980913162 0.447738617658615 0.744719982147217 0.514896810054779 0.619682550430298 0.501616775989532 0.911425709724426 0.875741183757782 1.71634590625763 1.21331906318665 1.05446553230286 3.92008471488953 4.12957525253296 3.66094517707825 7.38173151016235 7.73990678787231 9.73328495025635 8.3014612197876 5.8424391746521 4.98824119567871 6.13244104385376 1.6392228603363 1.53215968608856 1.60370123386383 1.49166309833527 2.06527757644653 2.04202079772949 1.54227960109711 1.67892932891846 1.50831866264343 0.437173843383789 0.375694870948792 1.44082415103912 2.45659780502319 2.84361100196838 3.07962107658386 3.34948635101318 3.19861602783203 6.43732452392578 8.4032735824585
26.1861724853516 20.93479347229 24.5656757354736 16.2436122894287 24.6523857116699 22.6968898773193 24.8145427703857 15.4370594024658 23.2554931640625 15.4369974136353 17.060266494751 15.7121648788452 14.9311027526855 12.9873561859131 14.7421560287476 15.8459024429321 14.8659391403198 17.1355514526367 23.7095642089844 18.1111221313477 34.4196243286133 30.6895027160645 35.6763954162598 41.7284927368164 37.5214462280273 23.9821300506592 27.3187828063965 23.2486438751221 23.0580234527588 22.4812278747559 21.850435256958 25.2260837554932 14.2567586898804 12.8176164627075 17.3162822723389 18.3030109405518 15.0097284317017 14.031153678894 21.5281524658203 24.2340316772461 46.8299369812012 6.65419960021973 6.17701387405396 7.24806928634644 7.95291566848755 7.25438213348389 6.52573537826538 5.60928630828857 5.96144342422485 6.34503173828125 7.00393104553223 6.7069787979126 5.83737564086914 5.61736440658569 4.66384696960449 4.45349645614624 4.06658029556274 4.22733402252197 4.79310989379883 7.15587186813354 4.08187913894653 5.71831607818604 5.49846744537354 4.97813940048218 5.24299764633179 5.14815187454224 4.92138624191284 5.13653469085693 4.93580198287964 4.83290672302246 5.08233642578125 4.99187898635864 4.69126844406128 4.28951072692871 3.930659532547 4.22251415252686 4.3930516242981 3.99966335296631 3.72093892097473 3.78716802597046 3.13608360290527 2.64279747009277 2.2040491104126 1.26440703868866 1.32818508148193 0.807429373264313 0.482750862836838 0.410656571388245 -0.242968484759331 0.0725314021110535 -0.245774939656258 -0.439627408981323 -0.397493660449982 -0.23681104183197 -0.76511824131012 -0.78497850894928 -0.376209795475006 0.0156975761055946 0.0432888604700565 0.130931943655014 0.137258872389793 0.0626803562045097 -0.136828303337097 -0.364582777023315 -0.183354094624519 -0.729728162288666 -0.632711887359619 -0.552164018154144 -0.279289603233337 -0.344321876764297 -0.15040348470211 0.639080762863159 0.593310594558716 0.273207873106003 -0.089348316192627 -0.197958961129189 1.06490767002106 1.69951498508453 1.46481156349182 1.19887208938599 1.40550673007965 0.930625319480896 0.990058600902557 1.06479382514954 1.02668833732605 0.576575219631195 0.927156686782837 0.754005551338196 0.794695377349854 0.77133584022522 0.655388951301575 0.523881614208221 0.44669234752655 0.425424546003342 0.421549081802368 0.421361178159714 0.419870793819427 0.499729245901108 0.599481880664825 0.327991217374802 0.893101990222931 0.826730251312256 1.67769372463226 1.18210184574127 1.03074252605438 3.28217363357544 3.43416571617126 3.16486954689026 5.59124231338501 6.49543428421021 7.83623886108398 6.13094186782837 4.41530799865723 3.81237459182739 4.25670146942139 1.41356980800629 1.47328531742096 1.50958573818207 1.46443772315979 2.01115655899048 1.99057292938232 1.50984168052673 1.63367891311646 1.46667349338531 0.417597204446793 0.353070169687271 1.35043454170227 2.34947228431702 2.70947194099426 2.86557912826538 3.14914393424988 3.00185513496399 5.68545341491699 7.33589458465576
18.4721126556396 16.9021263122559 18.8431072235107 25.709716796875 20.7817249298096 18.7424392700195 20.480525970459 26.2758731842041 17.464412689209 13.4207859039307 12.6711359024048 13.4551954269409 13.5589017868042 11.6338005065918 12.6882905960083 13.6567420959473 12.6901865005493 14.6526460647583 19.274621963501 32.8394432067871 22.6331672668457 21.8903293609619 26.5546798706055 27.2448425292969 23.8973636627197 19.6603889465332 22.2566623687744 19.0740661621094 18.9479236602783 18.0541801452637 17.899393081665 20.656623840332 14.6977806091309 30.1454772949219 16.1194114685059 15.3670053482056 13.3430633544922 10.9874401092529 49.6821327209473 7.76127099990845 6.23322629928589 5.82745218276978 5.73233270645142 7.17770719528198 9.32774925231934 9.22460746765137 5.85025930404663 5.32885217666626 5.65859460830688 6.15856122970581 6.87125539779663 6.23096609115601 5.41344261169434 5.50828266143799 4.52750778198242 4.21402359008789 3.82597637176514 4.05390882492065 3.88900685310364 4.83865642547607 9.43149852752686 5.57361316680908 5.37765169143677 4.86952066421509 5.12022542953491 5.07044315338135 4.82044839859009 5.03587865829468 4.84039211273193 4.72005891799927 4.96352100372314 4.86283111572266 4.55438661575317 4.13315534591675 3.77863264083862 4.05989408493042 4.224853515625 3.84802842140198 3.58537435531616 3.65109610557556 3.01592922210693 2.55663681030273 2.12448740005493 1.18463218212128 1.27135920524597 0.762929797172546 0.436787247657776 0.373246192932129 -0.288163810968399 0.0508187524974346 -0.299405932426453 -0.800901472568512 -0.809690892696381 -0.283029586076736 -0.816786766052246 -0.837114095687866 -0.859971642494202 -0.605625748634338 -0.493894904851913 -0.369833797216415 -0.237245231866837 -0.469037801027298 -0.489899814128876 -0.472949057817459 -0.261894166469574 -0.776794850826263 -0.708720803260803 -0.653252840042114 -0.39890593290329 -0.454326599836349 -0.255757391452789 0.492378056049347 0.0496235303580761 -0.0842788368463516 -0.187305465340614 -0.377144038677216 0.899830758571625 1.50356066226959 1.29651951789856 1.04572081565857 1.22589552402496 0.764751255512238 0.875548660755157 0.986392676830292 0.907525300979614 0.502737402915955 0.872039258480072 0.698201656341553 0.736357450485229 0.709997892379761 0.612253427505493 0.487852692604065 0.416154980659485 0.386257946491241 0.365986049175262 0.287290662527084 0.357630163431168 0.322186321020126 0.544743239879608 0.189899206161499 0.869187295436859 0.773429751396179 1.63938212394714 1.15348410606384 1.00688719749451 2.81894183158875 2.94805192947388 3.05216360092163 4.43857574462891 5.53836154937744 6.55037546157837 5.11663866043091 4.02521657943726 3.33870005607605 3.22402739524841 0.99915087223053 0.906700968742371 0.904399156570435 0.922046363353729 1.96384429931641 1.94103312492371 1.473996758461 1.59805345535278 1.4382735490799 0.406571209430695 0.332438826560974 1.26409113407135 2.22787618637085 2.59041166305542 2.66657400131226 2.97046947479248 2.84035682678223 5.13910865783691 6.55081462860107
15.0976552963257 15.2072429656982 15.0124635696411 16.1036682128906 17.7923526763916 16.6361312866211 17.5031185150146 15.8080577850342 14.1328897476196 12.0910949707031 18.076587677002 11.7599401473999 12.2263879776001 11.0410194396973 11.2893505096436 12.1147317886353 11.3365125656128 13.1502904891968 16.9117088317871 20.8944683074951 19.7609958648682 18.2451190948486 20.9584941864014 20.6940727233887 17.790657043457 16.6046142578125 18.9402275085449 16.158411026001 15.8285903930664 15.1836729049683 15.0925712585449 11.6404247283936 36.0935440063477 23.6902160644531 13.0190200805664 12.1619749069214 50.0254364013672 22.1095428466797 7.38431215286255 11.2335691452026 6.05086898803711 5.66361045837402 5.50460290908813 6.45115089416504 7.20340490341187 7.20901918411255 14.9795598983765 14.8527040481567 6.20136070251465 6.70339441299438 6.36868143081665 6.16993856430054 7.23443174362183 5.27621746063232 4.44716882705688 5.53926038742065 3.70983386039734 3.93800020217896 3.66684746742249 3.7841432094574 3.61727833747864 3.82139849662781 5.26339769363403 4.77689647674561 5.01049041748047 4.95146322250366 4.75346899032593 4.91220569610596 4.74396514892578 4.61374282836914 4.83935880661011 4.74672651290894 4.44235563278198 4.00834178924561 2.52322268486023 2.92661118507385 4.06614208221436 3.69819617271423 3.44767498970032 3.50835919380188 2.89865255355835 2.27643227577209 1.79821574687958 0.252256155014038 -0.0888493582606316 -0.380304276943207 0.391084283590317 0.333001703023911 -0.303109735250473 0.0354315154254436 0.778853118419647 -0.847132563591003 -0.86159336566925 -0.321029603481293 -0.868863642215729 -0.884139060974121 -0.907944738864899 -0.634022235870361 -0.948476374149323 -0.564755141735077 -0.642790496349335 -0.85974246263504 -0.882153451442719 -0.952476024627686 -0.322750747203827 -0.852548837661743 -0.767320573329926 -0.680250704288483 -0.47441640496254 -0.549373507499695 -0.365600198507309 0.306370854377747 -0.161718681454659 -0.497432917356491 -1.97512710094452 -0.539564073085785 0.748016357421875 1.32642126083374 1.14309132099152 0.888898313045502 1.03389942646027 0.57476681470871 0.75427657365799 0.594960451126099 0.749479234218597 0.344584912061691 0.727470815181732 0.570952177047729 0.613104224205017 0.594345092773438 0.519550859928131 0.413456290960312 0.358525604009628 0.315340548753738 0.282166481018066 0.244770780205727 0.238250687718391 0.212674647569656 0.45355436205864 0.117735043168068 0.839513599872589 0.716005682945251 1.60176587104797 1.12333345413208 0.983668804168701 2.45098161697388 0.98016482591629 1.16458070278168 0.911243319511414 0.896988391876221 5.58499717712402 4.37212467193604 3.6919093132019 3.11558151245117 2.55395579338074 0.698665261268616 0.743079125881195 0.782330632209778 0.794589817523956 1.91671645641327 1.8950834274292 1.43826138973236 1.56515443325043 1.41046917438507 0.399421274662018 0.321906238794327 1.1815048456192 2.12010717391968 2.46982860565186 2.49205160140991 2.81091666221619 2.68123984336853 4.65493249893188 5.88551092147827
13.8068685531616 13.7769651412964 13.2211971282959 14.7574110031128 15.9456043243408 15.5956754684448 15.3288249969482 13.8586444854736 12.1688842773438 12.6071500778198 10.2631044387817 11.3215103149414 11.3174333572388 10.5303783416748 10.7309379577637 10.8660612106323 10.9110307693481 12.5603923797607 15.333080291748 16.6535243988037 17.253568649292 15.9306478500366 17.175142288208 16.9951038360596 15.6072406768799 15.2824773788452 16.2641296386719 13.8295297622681 13.5170698165894 13.6648530960083 13.3297672271729 37.2767639160156 13.8606443405151 11.0201625823975 49.5741958618164 11.3111763000488 11.2784776687622 9.48008155822754 8.22994232177734 6.18480014801025 5.69232797622681 7.1038932800293 14.4523286819458 11.3801870346069 10.1823320388794 7.17441368103027 8.61922645568848 6.44076585769653 6.0619330406189 16.2084903717041 21.2019596099854 29.1941318511963 19.6567611694336 20.9911861419678 25.8855381011963 4.09275722503662 3.57026028633118 3.66878843307495 9.7262659072876 7.2567663192749 3.56313681602478 3.31134462356567 3.57601618766785 4.68750333786011 4.91469192504883 4.84762239456177 4.66231679916382 4.84571409225464 4.61311054229736 4.50695705413818 4.72157859802246 4.62603616714478 4.33942174911499 3.5805196762085 31.6665725708008 31.7895736694336 3.88201284408569 3.54079747200012 3.30729246139526 3.3760039806366 2.77585101127625 2.17041063308716 1.57116794586182 0.0557256080210209 -0.181554540991783 -0.42441001534462 0.336261212825775 0.290907353162766 -0.33324870467186 0.00825120974332094 0.0283043012022972 -0.8929722905159 -0.912327766418457 -0.375324636697769 -0.936151623725891 -0.945670068264008 -0.966066300868988 -0.668693840503693 -1.00673806667328 -0.695182502269745 -0.927671015262604 -0.961858630180359 -1.06966173648834 -1.08642792701721 -1.07409846782684 -0.900480568408966 -0.809762716293335 -0.725681900978088 -0.56966495513916 -0.627595961093903 -0.455200552940369 0.114116251468658 -0.487123727798462 -0.758509993553162 -2.14081835746765 -0.659574031829834 0.611139357089996 1.17430770397186 1.00616645812988 0.743127763271332 0.85614812374115 0.445533990859985 0.242728173732758 0.370401084423065 0.587336003780365 0.205304369330406 0.567640006542206 0.405778616666794 0.451786428689957 0.444417834281921 0.380333870649338 0.280246526002884 0.227408155798912 0.152482733130455 0.125737085938454 0.101870112121105 0.110001429915428 0.107680879533291 0.353568077087402 0.0728132799267769 0.607579171657562 -0.305514603853226 1.36589515209198 0.332285225391388 0.308061003684998 0.595631778240204 9.01316452026367 2.42860007286072 0.891147434711456 0.694963574409485 0.708420276641846 0.988482117652893 3.41330790519714 2.89848971366882 2.13879442214966 0.629907548427582 0.652084589004517 0.715835452079773 0.752004265785217 1.87230813503265 1.84754633903503 1.40716314315796 1.52759110927582 1.3804943561554 0.39143505692482 0.317871004343033 1.13108813762665 2.01864385604858 2.34323024749756 2.33128476142883 2.6595311164856 2.544837474823 4.25672388076782 5.31619024276733
12.7878274917603 12.5881338119507 12.3667602539062 13.7165546417236 14.8796768188477 14.6024990081787 13.6524753570557 12.8737268447876 11.5391130447388 11.5412082672119 32.2163124084473 11.0483551025391 10.8701782226562 10.1320781707764 10.2157068252563 10.3755826950073 10.4717988967896 11.5165452957153 13.6127157211304 14.773551940918 15.2763948440552 14.294771194458 14.5566997528076 14.7797975540161 14.4156847000122 14.2260246276855 14.1755065917969 12.3669815063477 12.0980243682861 12.5231018066406 12.0912504196167 8.49507713317871 36.3839073181152 9.3543176651001 10.9494705200195 11.2698926925659 10.6816434860229 8.4744758605957 6.27130556106567 5.75163650512695 5.61586236953735 5.31698226928711 14.4044771194458 14.6312885284424 15.3029413223267 7.14976406097412 7.99702548980713 14.6061124801636 15.6028442382812 10.7752647399902 11.4167718887329 8.93090152740479 11.9240007400513 12.1062078475952 10.9644765853882 3.8376989364624 3.45505499839783 3.577143907547 9.35682106018066 13.8844766616821 17.1753692626953 2.91772270202637 3.0114049911499 3.17348265647888 4.81835985183716 4.74826049804688 4.56520414352417 4.75139999389648 4.54663848876953 4.39475631713867 4.62253141403198 4.52823305130005 3.85764598846436 3.45987033843994 12.5678052902222 16.9219779968262 2.41436266899109 2.32812714576721 3.15774822235107 3.23603582382202 2.65560245513916 2.06700921058655 1.49324214458466 -0.0931413173675537 -0.292184829711914 -0.453862726688385 0.287150979042053 0.242679357528687 -0.369336068630219 -0.0321888439357281 -0.309097230434418 -0.938991665840149 -0.971619546413422 -0.439174830913544 -1.00718665122986 -1.01709806919098 -1.0276210308075 -0.709498047828674 -1.05271792411804 -0.786707878112793 -1.10489058494568 -1.1312290430069 -1.1506986618042 -1.15605056285858 -1.14852154254913 -1.11841475963593 -1.06090915203094 -0.775484204292297 -0.658863842487335 -0.722669541835785 -0.567059993743896 -0.0513532869517803 -2.93348145484924 -2.14562201499939 2.68234658241272 -0.778080761432648 0.485540717840195 1.02569568157196 0.868490934371948 0.595783114433289 0.706601142883301 0.35596427321434 -0.419936507940292 0.252604305744171 0.4189093708992 0.0423923954367638 0.378953039646149 0.0329836644232273 0.237274512648582 0.26260107755661 0.206513553857803 0.0965542644262314 0.0244131963700056 -0.0247365534305573 -0.0513293594121933 -0.0665609985589981 -0.023230304941535 0.00369196711108088 0.255695343017578 -0.40832057595253 -0.124111101031303 5.04929542541504 1.12282526493073 23.2718124389648 23.4303131103516 16.7251319885254 22.7842693328857 13.7345371246338 21.2257957458496 18.0971355438232 8.21142482757568 27.0430889129639 3.16399598121643 2.69698119163513 1.81399691104889 0.561644434928894 0.585111200809479 0.633362352848053 0.704229354858398 1.82546055316925 1.80233955383301 1.37611317634583 1.49846506118774 1.35404670238495 0.381048023700714 0.305009722709656 1.08712553977966 1.93395924568176 2.24339294433594 2.16845273971558 2.50586771965027 2.39370775222778 3.90533137321472 4.87914228439331
11.9092559814453 11.5841016769409 11.832537651062 12.8038187026978 13.9108171463013 13.6811714172363 13.0627479553223 12.380521774292 11.1835203170776 10.9281339645386 19.3286533355713 10.5453290939331 10.4423522949219 9.83400344848633 9.76833152770996 9.82272434234619 9.87374496459961 10.5080232620239 12.2118444442749 13.2323055267334 13.6982221603394 12.9682636260986 12.6297340393066 13.7188167572021 13.3888158798218 13.2953319549561 12.9029121398926 11.7697296142578 10.998779296875 11.5621252059937 11.092399597168 8.2744140625 8.90076065063477 8.97261428833008 15.3941993713379 10.4918928146362 10.0399513244629 8.2311954498291 6.21295070648193 5.42416667938232 5.15594673156738 4.8339638710022 5.11663866043091 9.32537460327148 8.74153900146484 12.5004892349243 7.95268964767456 9.19785690307617 9.34212207794189 8.36437511444092 14.7507753372192 17.2258186340332 11.056999206543 8.94736862182617 6.0969820022583 13.924635887146 18.713493347168 15.1988935470581 8.12826251983643 11.3517274856567 3.47193074226379 8.66562175750732 2.8221595287323 3.09769439697266 3.193284034729 4.6587815284729 4.49089670181274 4.65458869934082 4.47224283218384 4.3213529586792 4.53346920013428 3.99391102790833 3.04930233955383 2.69445395469666 7.31086444854736 7.98925733566284 2.2065167427063 2.0187680721283 1.85884320735931 3.09844899177551 2.53888320922852 1.96650195121765 1.40780544281006 -0.143776372075081 -0.41347473859787 -0.485340297222137 0.226655185222626 0.182159349322319 -0.417243778705597 -0.0813276618719101 -0.496949762105942 -1.0029844045639 -1.03286528587341 -0.511716842651367 -1.08283829689026 -1.09323060512543 -1.07830965518951 -0.750930726528168 -1.10800719261169 -1.1498509645462 -1.17001616954803 -1.1839714050293 -1.20081615447998 -1.21216893196106 -1.21576499938965 -1.18077278137207 -1.12060832977295 -0.844137132167816 -0.726345419883728 -0.790814518928528 -0.645952105522156 -0.18244731426239 44.9908294677734 -2.31483316421509 6.7752366065979 -0.871223330497742 0.360591918230057 0.871369540691376 0.713355958461761 0.443818479776382 0.570129990577698 0.223646461963654 17.915412902832 3.18065690994263 -0.0423844270408154 -0.147497609257698 0.170571759343147 -0.084242157638073 -0.130500853061676 0.030607782304287 -0.588321924209595 -0.0881360098719597 -0.176804050803185 -0.222186237573624 -0.247436046600342 -0.227607056498528 -0.159229189157486 -0.126741111278534 -1.49007403850555 -1.56299102306366 -1.2563544511795 6.00308704376221 0.720051825046539 6.0059380531311 -0.578318119049072 0.0394105985760689 0.509686827659607 0.744455695152283 0.664322137832642 0.654898047447205 3.74596953392029 3.67081308364868 2.953937292099 2.50653576850891 1.51555871963501 0.506383121013641 0.54472690820694 0.598313629627228 0.687850594520569 1.77932119369507 1.76361310482025 1.35046887397766 1.46986150741577 1.32500243186951 0.377055943012238 0.293310791254044 1.03565001487732 1.86312747001648 2.13712239265442 2.03316712379456 2.38008046150208 2.28171539306641 3.61501002311707 4.49462175369263
11.1250534057617 10.7149658203125 11.3550367355347 12.099175453186 13.0547113418579 12.8598041534424 12.4936866760254 11.8887329101562 10.8440313339233 10.3809461593628 14.0534324645996 9.93578433990479 9.93926811218262 9.56503200531006 9.30893135070801 9.35085964202881 9.29914283752441 9.5608081817627 11.1628198623657 11.933723449707 12.3971166610718 11.8573017120361 11.1384201049805 12.805513381958 12.5056228637695 12.4905033111572 12.1148252487183 7.6382851600647 10.5170211791992 7.82768869400024 7.87835216522217 11.9975166320801 12.4028387069702 7.8880090713501 8.69506645202637 10.7725143432617 16.2143630981445 7.8461537361145 5.38732814788818 5.2484073638916 4.94395685195923 4.63989400863647 7.50401735305786 6.35067939758301 7.10410928726196 6.83899593353271 6.12387228012085 6.37917137145996 8.77545356750488 7.75407075881958 8.13313388824463 8.9000768661499 6.28155040740967 5.25948095321655 5.5671501159668 10.1411647796631 8.89899349212646 3.50540828704834 3.44718170166016 3.49494624137878 3.3103666305542 3.7237868309021 6.30175638198853 2.97155809402466 3.10603284835815 2.86486744880676 4.41653823852539 4.57838296890259 4.38615417480469 4.25717258453369 4.44808578491211 3.44892883300781 38.9972381591797 38.4438629150391 19.2912578582764 9.16019535064697 47.0391464233398 42.5186195373535 1.17062556743622 2.56615591049194 2.43363213539124 1.86814105510712 1.11058974266052 -0.202257916331291 -0.464693486690521 -0.531814813613892 0.169679597020149 0.115100733935833 -0.482677847146988 -0.156018286943436 -0.81013286113739 -1.08242774009705 -1.10139620304108 -0.575943052768707 -1.14556622505188 -1.16232860088348 -1.11137521266937 -0.813539803028107 -1.20408618450165 -1.21225118637085 -1.22197091579437 -1.2245762348175 -1.24579608440399 -1.26499569416046 -1.28264582157135 -1.2436763048172 -1.1751834154129 -0.893763601779938 -0.77339369058609 -0.833821833133698 -0.692999660968781 -0.263668030500412 32.5883026123047 12.3138303756714 2.32004737854004 -0.974189579486847 0.230666279792786 0.724448144435883 0.584878265857697 0.323870450258255 0.427210867404938 0.0841631963849068 13.2488327026367 -0.727810502052307 -0.309491544961929 -0.364982932806015 -0.368145048618317 -0.367951482534409 -0.314190030097961 -0.215411826968193 -1.36278510093689 -0.465615004301071 -0.507484197616577 -0.395527124404907 -0.401554554700851 -0.364585191011429 -0.298670023679733 -1.72166299819946 -1.73761796951294 -1.61315608024597 -1.53115224838257 -1.11061894893646 0.604916572570801 0.143128454685211 -0.804650604724884 -0.60302734375 0.170174300670624 0.674793362617493 0.565125524997711 0.374022662639618 0.387740850448608 19.4180698394775 1.30027937889099 2.32432627677917 1.2909904718399 0.441105544567108 0.504882335662842 0.576668918132782 0.661536991596222 1.72893083095551 1.71568667888641 1.12679278850555 1.43772685527802 0.809377014636993 0.374339014291763 0.3564493060112 0.996221125125885 1.79459249973297 2.05839610099792 1.91629981994629 2.26897931098938 2.17579102516174 3.36609244346619 4.16097545623779
