NCOLS 174
NROWS 31
XLLCORNER 353936
YLLCORNER 6700736
CELLSIZE 16 
NODATA_value -3.4e+38 
16.7728614807129 18.4721126556396 16.612886428833 18.8431072235107 25.709716796875 20.7817249298096 18.8143444061279 20.480525970459 26.2758731842041 17.464412689209 15.0368309020996 11.1629333496094 13.1719741821289 11.4643497467041 12.0910568237305 13.1126794815063 12.1786556243896 14.4625082015991 18.8857688903809 20.4316444396973 32.8394432067871 22.0007266998291 21.8903293609619 26.5546798706055 27.2448425292969 23.8973636627197 19.6603889465332 22.2566623687744 19.0740661621094 18.9479236602783 18.0541801452637 20.3734302520752 21.892728805542 14.6977806091309 30.1454772949219 16.049617767334 13.8534049987793 11.2083778381348 8.32483863830566 49.6821327209473 7.76127099990845 5.76168918609619 6.49541091918945 7.4602165222168 7.78323793411255 9.32774925231934 9.22460746765137 5.97152233123779 5.95088243484497 6.35887289047241 6.14273262023926 5.60023641586304 4.46406555175781 4.05716943740845 3.77787709236145 3.87654209136963 3.91100358963013 4.18592357635498 4.01580333709717 3.44009375572205 4.83865642547607 9.43149852752686 5.27395343780518 5.20675849914551 5.19789218902588 4.99135684967041 4.89788198471069 5.10823631286621 5.06388998031616 4.79429531097412 4.37441062927246 3.98097586631775 4.20666599273682 4.30391263961792 3.87423253059387 3.57924509048462 3.63326644897461 2.99304795265198 2.34607863426208 1.47945702075958 1.21696496009827 0.694743990898132 -0.26153439283371 0.36031436920166 0.308274537324905 -0.325802981853485 0.033418096601963 -0.70179957151413 -0.823619544506073 -0.831670999526978 -0.752506971359253 -0.382470637559891 -0.841549456119537 -0.841079354286194 -0.467909932136536 -0.34211590886116 -0.222503364086151 -0.467665255069733 -0.514326274394989 -0.537827610969543 -0.359969586133957 -0.899280667304993 -0.851715505123138 -0.894618690013885 -0.806660652160645 -0.550206303596497 -0.371014326810837 -0.304816901683807 -0.272767126560211 0.517970144748688 -0.291452556848526 0.0529137067496777 -0.246411487460136 0.740332245826721 1.38621366024017 1.16226422786713 0.891806066036224 1.05178070068359 0.640473783016205 0.681880831718445 0.563810884952545 0.244401872158051 0.529114246368408 0.308934986591339 0.378613531589508 0.440107613801956 0.492306292057037 0.47299724817276 0.396430253982544 0.364536315202713 0.355916887521744 0.369092673063278 0.391732335090637 0.398079603910446 0.353758335113525 0.542895138263702 0.771528244018555 0.541835010051727 1.59552669525146 1.35912132263184 1.13713252544403 0.768950283527374 0.841758370399475 1.7244211435318 2.70052886009216 3.0466320514679 3.08633065223694 2.70929574966431 4.36617231369019 5.48959159851074 6.42776107788086 5.06073522567749 4.19491910934448 3.30720138549805 1.48497951030731 3.22402739524841 1.96549367904663 1.94548833370209 1.2713702917099 1.60540616512299 0.902213215827942 0.420337527990341 0.342313826084137 0.24573826789856 0.245011046528816 2.1744692325592 2.35241770744324 2.54714608192444 2.6230354309082 2.96246409416199 2.83088684082031 3.08001828193665 5.12240791320801 6.52470016479492
15.0509967803955 15.2007083892822 14.6100540161133 16.2902660369873 17.9129390716553 16.7841548919678 17.6962718963623 15.8138647079468 15.8080577850342 14.1328897476196 13.5649471282959 18.076587677002 11.8204374313354 10.801157951355 11.107666015625 11.7004413604736 10.9010791778564 12.7936334609985 16.097131729126 17.9905834197998 20.8944683074951 17.8932495117188 17.387866973877 20.9584941864014 20.6940727233887 17.3239593505859 18.5815544128418 15.7416944503784 15.4939155578613 14.8775100708008 14.8693466186523 18.4032554626465 13.0691738128662 36.0935440063477 23.6902160644531 12.9975242614746 11.4387636184692 50.0254364013672 22.1095428466797 6.7760329246521 11.2335691452026 5.54924249649048 6.37924814224243 7.14427709579468 7.03483724594116 5.84416341781616 6.77762746810913 14.9795598983765 14.8527040481567 6.35312557220459 6.70339441299438 5.22106552124023 4.82401466369629 7.23443174362183 3.63202905654907 3.81129479408264 5.53926038742065 4.05097818374634 3.90625095367432 3.2408504486084 3.08071208000183 3.08672451972961 3.67106556892395 4.93298482894897 5.10772895812988 4.89778327941895 4.79175567626953 5.0347843170166 4.93767404556274 4.7002968788147 4.28611183166504 3.83670663833618 4.11648321151733 4.2070894241333 3.76000213623047 2.27354335784912 2.55027055740356 2.86797213554382 2.23953938484192 0.2099439650774 -0.14777734875679 -0.356637328863144 -0.452435404062271 0.315521329641342 0.262944519519806 -0.36623951792717 -0.0127678215503693 -0.720438361167908 -0.872676968574524 -0.826177060604095 -0.549266993999481 0.778853118419647 -0.886759698390961 -0.90811675786972 -0.910204350948334 -0.52034729719162 -0.604282915592194 -0.83836156129837 -0.896984457969666 -0.999347507953644 -0.395961225032806 -0.926859676837921 -0.876778662204742 -0.912379503250122 -0.850905954837799 -0.615879356861115 -0.421356797218323 -0.399562627077103 -0.653114318847656 0.397890567779541 -0.523205101490021 -0.24103806912899 -0.46342271566391 0.628351330757141 1.14546048641205 -0.415675550699234 0.740567862987518 0.888512551784515 0.518262445926666 0.564161002635956 0.445511728525162 -0.0185941997915506 0.333721160888672 0.141641691327095 -0.0562509335577488 0.28360453248024 0.320204973220825 0.312847822904587 0.274659842252731 0.252033591270447 0.253234803676605 0.28785040974617 0.324023187160492 0.344206124544144 0.285896778106689 0.445184946060181 0.726298272609711 0.435016751289368 1.47337067127228 0.963358342647552 1.07698237895966 0.689060866832733 0.819293737411499 1.66575372219086 2.60779666900635 2.94748973846436 2.98041868209839 1.09606599807739 1.11003315448761 0.916869103908539 0.673339545726776 4.32048034667969 3.66629076004028 3.05592608451843 2.51320719718933 0.792110979557037 1.92027676105499 1.90103495121002 1.56939470767975 1.52954530715942 0.587877869606018 0.412465274333954 0.331102877855301 0.244125664234161 0.229718521237373 2.09360980987549 2.41113972663879 2.0196385383606 2.43286538124084 2.79249906539917 2.67702674865723 2.92457365989685 4.64600610733032 5.86293363571167
13.7943429946899 13.7705726623535 14.0189418792725 14.8271837234497 16.0084037780762 15.6695957183838 15.5238475799561 14.2110347747803 12.8361768722534 12.4877920150757 13.4771461486816 9.0623893737793 11.4551620483398 10.3280639648438 10.5484046936035 10.554497718811 10.2774858474731 11.8583192825317 14.8940715789795 16.3196201324463 16.9632225036621 15.7631502151489 16.8071784973145 16.6364459991455 15.5649566650391 15.2320003509521 15.9909229278564 13.6030235290527 13.3489046096802 13.5789518356323 13.2436819076538 16.6575298309326 37.2767639160156 13.2615623474121 12.1414976119995 49.5741958618164 10.8128652572632 9.16052436828613 7.41491079330444 8.22994232177734 5.82175064086914 5.27639818191528 7.1038932800293 14.4523286819458 11.3801870346069 10.1823320388794 6.66730690002441 8.61922645568848 6.44076585769653 6.0619330406189 16.2084903717041 21.2019596099854 29.1941318511963 19.6567611694336 20.9911861419678 25.8855381011963 3.81482410430908 3.89232730865479 3.64853978157043 9.7262659072876 7.2567663192749 3.05468153953552 3.21258473396301 3.48423504829407 5.02026081085205 4.81577301025391 4.69910860061646 4.93758678436279 4.86987161636353 4.57186269760132 4.19643592834473 3.7483823299408 4.02076435089111 4.11791896820068 3.35083842277527 31.6665725708008 31.7895736694336 2.62569689750671 1.50875902175903 0.010759923607111 -0.248798593878746 -0.411391347646713 -0.499318510293961 0.260138332843781 0.220550537109375 -0.404323220252991 -0.0601339116692543 -0.750277400016785 -0.920083820819855 -0.923753678798676 -0.784489274024963 0.0283043012022972 -0.939293086528778 -0.961302220821381 -0.955938935279846 -0.632184982299805 -0.895544707775116 -0.932523310184479 -1.04664134979248 -1.07603740692139 -1.08879470825195 -0.936243772506714 -0.899514675140381 -0.964302241802216 -0.935624957084656 -0.706152200698853 -0.482038021087646 -0.452978819608688 -0.866973996162415 0.25663235783577 -0.701918840408325 -0.465688049793243 -0.648384749889374 0.458891004323959 0.970601916313171 -0.604279577732086 0.594760954380035 0.741448283195496 0.415190786123276 0.45905277132988 0.332268953323364 -0.143384203314781 0.218521058559418 -0.429919123649597 -0.297418206930161 0.100615285336971 0.160503357648849 0.135491520166397 0.113855920732021 0.101077184081078 0.116639532148838 0.162044927477837 0.200365766882896 0.220662280917168 0.128666505217552 0.268018811941147 -0.111863307654858 0.3199562728405 1.35561513900757 0.933607578277588 0.885781228542328 0.590314090251923 -0.0356983803212643 1.31558430194855 1.46961081027985 1.90052568912506 1.87112522125244 9.01316452026367 2.42860007286072 0.898016095161438 0.466546207666397 -0.351021349430084 -0.631954848766327 2.8435173034668 2.11881017684937 0.750965237617493 1.87050306797028 1.85473084449768 1.53689777851105 1.3863422870636 0.577307105064392 0.401158571243286 0.323860615491867 0.235676020383835 1.14992022514343 2.01697874069214 2.32256078720093 1.9389420747757 2.26156949996948 2.6197829246521 2.53258538246155 2.77634119987488 4.25893688201904 5.324951171875
12.781270980835 12.5787448883057 13.5990228652954 13.7487850189209 14.8900413513184 14.6291007995605 13.7248821258545 12.8730783462524 11.5736827850342 11.777982711792 12.7687520980835 32.2163124084473 11.2174301147461 10.100193977356 10.1155977249146 10.0270442962646 9.81768321990967 10.9859457015991 13.2200212478638 14.5217599868774 15.082405090332 14.1726388931274 14.2948217391968 14.7205972671509 14.3790321350098 14.1646938323975 13.9775018692017 12.2590484619141 12.0130548477173 12.4712085723877 12.0386953353882 15.1400394439697 9.46393013000488 36.3839073181152 10.2247524261475 10.9580421447754 10.8978099822998 8.7455883026123 6.4533953666687 5.55009984970093 5.10090970993042 5.15767240524292 6.00504112243652 14.4044771194458 14.6312885284424 15.3029413223267 6.65218448638916 7.99702548980713 14.6061124801636 15.6028442382812 10.7752647399902 11.4167718887329 8.93090152740479 11.9240007400513 12.1062078475952 10.9644765853882 3.57784605026245 3.76060509681702 3.56128334999084 9.35682106018066 13.8844766616821 17.1753692626953 2.85720252990723 2.99734354019165 3.62199664115906 4.73254919052124 4.61003398895264 4.83470916748047 4.7736964225769 4.50731563568115 4.10088777542114 3.99776434898376 4.0987696647644 3.36288499832153 3.23934888839722 12.5678052902222 16.9219779968262 1.03046953678131 0.449628800153732 -0.133701980113983 -0.382691293954849 -0.466759622097015 -0.546271443367004 0.206227734684944 -0.454288810491562 -0.43751260638237 -0.0967584326863289 -0.775273144245148 -0.976179659366608 -0.975476145744324 -0.970664262771606 -0.389779180288315 -0.988388478755951 -1.01620256900787 -0.998247504234314 -0.69816267490387 -1.07527005672455 -1.08984279632568 -1.10389256477356 -1.10508978366852 -0.972293376922607 -1.13206565380096 -1.14670515060425 -1.00566864013672 -0.98480349779129 -0.774816989898682 -0.541971445083618 -0.505372226238251 0.235149532556534 -1.00869166851044 -0.90723729133606 -0.728746950626373 -0.804615199565887 -1.82197403907776 -0.520122766494751 2.68234658241272 0.451603919267654 0.606670916080475 0.312778294086456 0.351894944906235 0.216292217373848 -0.246860504150391 0.138278558850288 -1.17137813568115 -0.415636479854584 -0.0888875648379326 -0.0253269281238317 -0.0748741030693054 -0.25904569029808 -0.100833766162395 -0.0515899620950222 0.00279908254742622 0.0284212473779917 0.0286716092377901 -0.04282021895051 0.0691679939627647 -0.291626393795013 0.199984043836594 1.23922634124756 0.838889956474304 0.000354622025042772 0.199491873383522 5.04929542541504 0.996971368789673 23.2718124389648 23.4303131103516 16.7251319885254 22.7842693328857 13.7345371246338 21.2257957458496 18.0971355438232 8.21142482757568 27.0430889129639 1.88945281505585 1.80467641353607 0.706570386886597 1.82118594646454 1.81165397167206 1.50601398944855 1.35665202140808 0.449095577001572 0.39045175909996 0.315510541200638 0.235225483775139 1.11109125614166 1.94161319732666 2.22652864456177 1.86663174629211 2.12274932861328 2.48425674438477 2.38471007347107 2.62554454803467 3.88606595993042 4.8596887588501
11.8969202041626 11.8449010848999 12.8023662567139 13.7129526138306 13.9077425003052 13.6813297271729 12.5959424972534 11.7214908599854 10.9479742050171 11.1420059204102 12.0651865005493 19.3286533355713 10.7780170440674 9.86478900909424 9.79438304901123 9.57109451293945 9.29249572753906 9.90538597106934 11.8434114456177 13.020058631897 13.5313854217529 12.8658285140991 12.6727914810181 13.6822385787964 13.3519372940063 13.2325639724731 12.8423357009888 11.4583225250244 11.052773475647 11.5340747833252 11.0397167205811 13.9006443023682 8.90271186828613 8.49246978759766 9.73743343353271 15.3941993713379 10.2022247314453 8.28540325164795 6.32874298095703 5.62871122360229 4.77640676498413 5.45446872711182 6.29517889022827 6.40472936630249 9.32537460327148 8.74153900146484 12.5004892349243 7.95268964767456 9.19785690307617 9.34212207794189 8.36437511444092 14.7507753372192 17.2258186340332 11.056999206543 8.94736862182617 6.0969820022583 13.924635887146 18.713493347168 15.1988935470581 8.12826251983643 11.3517274856567 3.0020706653595 8.66562175750732 2.83330368995667 3.54169082641602 3.27556371688843 4.52970838546753 4.75473308563232 4.67500972747803 4.43474626541138 4.0403995513916 3.9367995262146 3.62596368789673 2.55292558670044 2.42774677276611 7.31086444854736 7.98925733566284 0.846348822116852 0.207613661885262 -1.34146988391876 -0.562655210494995 -0.521376490592957 0.1176403388381 0.086526170372963 -0.499744832515717 -0.480614095926285 -0.135825008153915 -0.813645482063293 -1.04019629955292 -1.03901016712189 -1.02944195270538 -0.45119234919548 -1.0179957151413 -1.0756208896637 -1.05031144618988 -0.772906005382538 -1.15305542945862 -1.15912985801697 -1.1468597650528 -1.14338886737823 -1.16520822048187 -1.1778872013092 -1.18419063091278 -1.19874429702759 -0.847579419612885 -0.825280606746674 -0.594334542751312 -0.555840611457825 0.126587375998497 -1.07863819599152 -1.04405891895294 -0.901427567005157 -0.924021244049072 44.9908294677734 -0.719895005226135 6.7752366065979 0.333611994981766 0.472997635602951 0.20379576086998 0.228274971246719 -0.203166410326958 -0.341323703527451 0.0169216264039278 17.915412902832 3.18065690994263 -0.271185994148254 -0.240934282541275 -0.307229906320572 -0.371370702981949 -0.449740171432495 -0.266726493835449 -0.738433718681335 -0.145063742995262 -0.166361972689629 -0.235052451491356 -0.149535223841667 -0.450386017560959 0.0309546552598476 0.851550936698914 -0.631426811218262 -1.08761465549469 -0.770430624485016 6.00308704376221 1.13994252681732 6.0059380531311 1.18875360488892 1.24110794067383 0.890137910842896 0.72573059797287 0.252468287944794 0.438133955001831 3.74596953392029 3.67081308364868 1.68316745758057 1.53899574279785 0.867289185523987 1.76904118061066 1.3522093296051 1.47054016590118 1.32846760749817 0.434916645288467 0.36501008272171 0.31210595369339 0.233964994549751 1.06849908828735 1.88054859638214 2.13831663131714 1.78915071487427 2.00972270965576 2.34399056434631 2.25906181335449 2.50096321105957 3.60554218292236 4.47672843933105
10.8570871353149 11.3404121398926 12.082709312439 13.0170936584473 12.7894878387451 12.4649877548218 11.9076671600342 10.9265947341919 9.93499565124512 10.5744333267212 11.4395580291748 14.0534324645996 9.86796474456787 9.56369972229004 9.50639057159424 9.10300254821777 8.92393207550049 9.16428279876709 10.7219657897949 11.7073087692261 12.2195281982422 11.7620849609375 12.0184288024902 12.7686395645142 12.4671354293823 11.9847898483276 11.1639156341553 10.5869646072388 7.51046466827393 10.725061416626 7.37372255325317 7.51154232025146 11.9975166320801 12.4028387069702 8.51028442382812 8.717604637146 10.7725143432617 16.2143630981445 6.00587701797485 5.06792593002319 4.61403036117554 5.20026969909668 5.99783992767334 7.50401735305786 5.94582557678223 6.58211660385132 6.26172971725464 6.0041651725769 6.33810043334961 8.77545356750488 7.75407075881958 8.13313388824463 8.9000768661499 6.04276323318481 5.14648628234863 5.5671501159668 10.1411647796631 8.89899349212646 3.12924098968506 3.02394556999207 2.68355560302734 2.87092757225037 3.7237868309021 6.30175638198853 3.40074396133423 3.19539833068848 2.85484790802002 4.67493391036987 4.59737014770508 4.35040903091431 3.73700070381165 3.87169289588928 3.14073252677917 38.9972381591797 38.4438629150391 19.2912578582764 9.16019535064697 47.0391464233398 42.5186195373535 -1.93847322463989 -1.05016469955444 -0.565935134887695 0.0571373514831066 0.0165188349783421 -0.559323072433472 -0.215619772672653 -0.234348118305206 -0.849335312843323 -1.1041407585144 -1.12131762504578 -1.11467564105988 -0.532489717006683 -1.0705578327179 -1.1394180059433 -1.09563505649567 -0.832779943943024 -1.21479463577271 -1.20730030536652 -1.20400011539459 -1.21608567237854 -1.21739375591278 -1.22059774398804 -1.22106289863586 -1.24137437343597 -0.865592956542969 -0.877744436264038 -0.64461874961853 -0.598960518836975 0.0422515347599983 -1.12767148017883 -1.12197971343994 -0.994328260421753 -0.989980757236481 32.5883026123047 12.3138303756714 2.32004737854004 0.207445591688156 0.334519565105438 -0.0953717082738876 -0.729319512844086 -0.693197131156921 -0.443036049604416 -0.363476097583771 13.2488327026367 -0.437597781419754 -0.442359358072281 -0.486823707818985 -0.531676471233368 -0.653681874275208 -0.623515367507935 -0.478224486112595 -1.45214533805847 -0.501343607902527 -0.523896455764771 -0.441526651382446 -0.32109409570694 -0.584755301475525 -0.538132190704346 -0.620425701141357 -0.866510331630707 -1.25189936161041 -1.09898924827576 -0.135543778538704 1.424724817276 1.45511960983276 1.05076956748962 0.486712247133255 0.621041238307953 0.659060001373291 0.158819064497948 -0.562539339065552 -1.03912377357483 19.4180698394775 -0.130930840969086 1.30461442470551 1.70547699928284 1.70771300792694 1.1184515953064 1.43213140964508 0.804606676101685 0.415078699588776 0.340466052293777 0.295258432626724 0.227470561861992 1.03245854377747 1.82526814937592 2.07553887367249 1.72499561309814 1.90408313274384 2.23997378349304 2.36791276931763 3.32453775405884 3.18628191947937 4.1507453918457
10.868200302124 10.6795835494995 11.4343929290771 12.2489986419678 12.0574169158936 11.9213085174561 11.3839387893677 10.4970426559448 10.0063934326172 9.97597503662109 10.8017272949219 11.1357889175415 9.4246244430542 9.25199508666992 9.03467273712158 8.88193893432617 8.64926528930664 8.8057918548584 9.71550273895264 10.9603176116943 11.1817588806152 10.8412599563599 11.8593759536743 11.6112995147705 11.6458473205566 11.4800424575806 10.668776512146 10.1984691619873 51.8186531066895 7.71611595153809 7.30295372009277 6.6867094039917 8.15432739257812 7.42708253860474 11.5119676589966 17.3559436798096 8.5915584564209 7.52121877670288 16.6111507415771 4.9136004447937 13.2373838424683 8.8288516998291 13.2498331069946 5.92799663543701 4.97961282730103 5.42219877243042 5.39319181442261 5.7709527015686 6.64404392242432 6.77627229690552 5.52185297012329 5.1026759147644 6.59373474121094 5.42943811416626 3.79789566993713 3.87269592285156 9.22308444976807 10.7593154907227 16.3092403411865 10.4642810821533 3.90651893615723 2.80863189697266 2.71367597579956 4.95206642150879 12.857982635498 2.9916889667511 12.4575901031494 3.25027322769165 4.53007936477661 4.21858072280884 3.56839990615845 3.83257341384888 33.9725074768066 7.7312273979187 22.2426891326904 10.1067342758179 1.02302587032318 28.4344387054443 4.4980640411377 37.820629119873 13.7897052764893 -2.27353978157043 -0.00805449858307838 -0.041907537728548 -0.615374445915222 -0.275217771530151 -0.294945120811462 -0.887538015842438 -1.15375256538391 -1.1987452507019 -1.19892311096191 -0.628282606601715 -1.20225691795349 -1.21759879589081 -1.14791631698608 -0.869702339172363 -1.26360440254211 -1.28254199028015 -1.2805187702179 -1.27690505981445 -1.26718127727509 -1.26551496982574 -1.26213777065277 -1.07247579097748 -0.891184270381927 -0.905338883399963 -0.96716845035553 -1.02575767040253 -0.0171130280941725 -1.15610957145691 -1.18284595012665 -0.970127046108246 0.0167437735944986 22.4993553161621 6.30208015441895 3.57126975059509 0.0955378860235214 0.225920379161835 -0.21590468287468 -0.872049987316132 -0.773124396800995 -0.644460916519165 -0.519263029098511 7.32188987731934 -0.580640494823456 -0.576043546199799 -0.620553195476532 -0.988410234451294 -0.902125716209412 -0.847974240779877 -0.695807218551636 31.6142959594727 -0.64477014541626 -0.59164834022522 -0.638878881931305 -0.473508447408676 -0.773580253124237 -2.05528974533081 26.1304359436035 42.7924728393555 37.1465950012207 35.5618553161621 25.4491100311279 0.074587270617485 0.870600700378418 12.8089847564697 20.8648490905762 7.78289270401001 0.493706822395325 0.816373646259308 1.88317251205444 12.436821937561 -1.01299273967743 10.9293699264526 1.05256175994873 1.64776384830475 1.65488541126251 1.07943344116211 1.34630393981934 0.505297243595123 -0.0356529280543327 0.31754207611084 0.258573144674301 0.189271911978722 0.996667087078094 1.76117181777954 2.01948761940002 1.67283821105957 2.13297605514526 2.04164290428162 2.265789270401 3.09557557106018 3.82726359367371 3.73156428337097
10.4603424072266 10.5256853103638 10.8873777389526 11.5850973129272 11.4182586669922 11.4306659698486 10.9193305969238 9.94259643554688 9.41703414916992 10.2475357055664 9.93960475921631 9.51587390899658 9.04249382019043 8.96123790740967 8.75065135955811 8.39326763153076 8.42131328582764 8.58588218688965 8.28242683410645 9.77707767486572 9.75627517700195 9.93496322631836 11.1499280929565 10.9120693206787 10.9835834503174 10.9726076126099 10.1979608535767 9.82575511932373 7.39268350601196 7.65387296676636 9.07613563537598 7.27734565734863 7.43509531021118 7.38997745513916 7.39127349853516 15.4299049377441 7.47748422622681 9.52900123596191 5.91071748733521 23.2512683868408 11.891900062561 7.45277547836304 7.96644926071167 5.85019874572754 13.9451093673706 4.95781469345093 5.16839551925659 5.50869131088257 5.80936479568481 5.96947860717773 5.14419937133789 5.10276222229004 5.6222562789917 4.2265830039978 3.69752216339111 3.76639866828918 5.12909698486328 5.03690767288208 11.1549005508423 5.90469312667847 4.49435377120972 2.6994297504425 19.5750617980957 8.17152214050293 8.30329036712646 6.18609857559204 10.0746660232544 3.10289096832275 2.86704874038696 3.92198610305786 3.53391528129578 3.79855155944824 19.9036769866943 30.4511623382568 1.94158136844635 1.89650285243988 9.68534469604492 19.5832824707031 12.3144226074219 32.9776000976562 6.23619604110718 48.4456329345703 -0.0683484151959419 -0.084737204015255 -0.658286094665527 -0.320562750101089 -0.856077015399933 -1.22729241847992 -1.19580852985382 -1.26645934581757 -0.852226853370667 -0.712112963199615 -1.29232203960419 -1.18753325939178 -1.23398518562317 -0.918984472751617 -1.33603513240814 -1.34213697910309 -1.33717727661133 -1.33475005626678 -1.32097017765045 -1.3152619600296 -1.30407452583313 -1.08231723308563 -0.901358723640442 -0.772515892982483 -1.06868350505829 -1.07038640975952 -0.106570214033127 0.354332029819489 -0.886160016059875 -0.986615121364594 -0.0188877880573273 14.1740818023682 5.89305591583252 11.9925832748413 -0.0852204859256744 0.154916360974312 -0.28304797410965 -0.935846209526062 -0.829678237438202 -0.654101371765137 -0.650792956352234 4.52680921554565 -0.671866238117218 -0.720343828201294 -0.836313605308533 3.38125586509705 -1.03043460845947 -1.05071604251862 -0.900288045406342 5.14161062240601 -0.86982649564743 -0.782374918460846 -0.820521354675293 -1.64315760135651 -1.46997392177582 18.4854316711426 14.3808422088623 20.4183177947998 14.6582098007202 13.8453397750854 6.25902509689331 32.4389915466309 20.4421825408936 0.764573216438293 5.57230091094971 0.563335180282593 0.0764745101332664 0.1545699685812 0.875555276870728 2.23769235610962 -1.0616101026535 6.81165218353271 0.791553854942322 1.58176100254059 1.59046411514282 1.03152525424957 0.666977405548096 0.477147221565247 -0.153853520750999 0.283344179391861 0.209897875785828 0.198921635746956 1.57486855983734 1.7024964094162 1.9487589597702 1.62573349475861 2.06106877326965 1.96380424499512 2.16451191902161 2.87905526161194 3.53562688827515 3.46195292472839
10.0610189437866 10.1020193099976 10.3390874862671 10.9703016281128 10.7818756103516 10.9063358306885 10.4163036346436 9.00342273712158 8.89880180358887 9.63128089904785 8.89118766784668 9.01042175292969 8.72521495819092 8.74062919616699 7.44292783737183 7.9077672958374 7.80984449386597 7.74113464355469 7.47676563262939 9.5846586227417 8.93729686737061 9.4810266494751 10.523380279541 10.3153457641602 10.3866853713989 10.4994125366211 9.75804996490479 9.47542285919189 7.12531900405884 7.48277807235718 6.96984195709229 6.8084454536438 6.91483783721924 7.21256875991821 19.2324390411377 10.1107931137085 7.11302518844604 6.14072179794312 6.27772188186646 12.8093767166138 9.5775203704834 15.3745899200439 9.4097843170166 20.2725963592529 10.0111923217773 4.34395265579224 4.48189544677734 5.26705884933472 5.45966768264771 5.2719144821167 4.89625310897827 4.67312240600586 4.86867570877075 3.40129637718201 4.11103200912476 5.2116847038269 4.00375080108643 3.95192837715149 5.17154598236084 2.66394281387329 2.46141481399536 17.9055099487305 13.5511312484741 5.94134712219238 4.95967960357666 2.98137784004211 5.23271751403809 12.2074460983276 6.244384765625 2.70447850227356 3.49489998817444 3.75765585899353 14.1582517623901 17.2430515289307 45.2250366210938 24.9025936126709 15.6778717041016 -0.567191779613495 4.02160692214966 23.1374225616455 4.78413867950439 29.8097438812256 -0.071748174726963 -0.70863139629364 -0.686541557312012 -0.363372385501862 -0.976014018058777 -1.25083744525909 -1.22953402996063 -1.33456254005432 -0.762061536312103 -1.25932919979095 -1.37426149845123 -1.23058617115021 -1.10799789428711 -0.994247257709503 -1.37884640693665 -1.38479781150818 -1.38416874408722 -1.38094460964203 -1.36835539340973 -1.35939919948578 -1.34221029281616 -1.09215533733368 -0.907791256904602 -0.882377028465271 -1.20760345458984 -1.11712300777435 -0.230748072266579 -1.05113136768341 0.745705246925354 -0.140483051538467 13.5563859939575 7.46613550186157 6.15531301498413 4.13530206680298 0.0611741878092289 -0.320592314004898 -0.340000867843628 -0.983509242534637 -0.872665762901306 -0.702265441417694 3.04139065742493 -0.710057079792023 -0.75023889541626 -0.807184875011444 -0.926023125648499 -0.254248023033142 -1.09257924556732 -1.33714056015015 -1.09492540359497 -1.47298276424408 -1.06631350517273 -1.39178895950317 -1.0396740436554 12.1253881454468 -1.90347266197205 3.5660445690155 -1.49826657772064 -1.95293867588043 -1.91747617721558 -1.85848033428192 -1.15061736106873 -0.0571219883859158 0.0121750216931105 0.0298422500491142 -0.431582540273666 11.0978412628174 -0.00819240976125002 13.1462335586548 -0.848263561725616 14.261528968811 19.9131698608398 6.12107801437378 0.528758585453033 1.50918591022491 1.51588034629822 0.963956415653229 0.495099395513535 -0.868756353855133 4.98263263702393 0.261301130056381 -0.204169288277626 0.115229330956936 1.526007771492 1.64748203754425 1.87476992607117 1.58135092258453 1.9840669631958 1.8813544511795 2.08617210388184 2.71680760383606 3.31487369537354 3.23669528961182
9.69396495819092 9.73091506958008 9.95096302032471 10.4543704986572 10.4457979202271 9.96828842163086 9.28966903686523 8.60275459289551 8.36807155609131 9.06282234191895 8.37439441680908 8.74173450469971 8.56064033508301 7.21399211883545 28.5524082183838 9.35208606719971 11.8358678817749 13.7567291259766 25.3599262237549 9.00678634643555 8.65312480926514 9.3686056137085 9.71459293365479 9.75516033172607 10.0342845916748 9.55129718780518 8.98039245605469 9.15283489227295 7.09150314331055 7.3965950012207 6.44330596923828 5.91618347167969 6.58382797241211 6.61675310134888 13.7122163772583 8.19265747070312 6.58891773223877 5.30888414382935 5.33464622497559 10.0181465148926 9.12121963500977 13.8933181762695 7.94212675094604 5.83648633956909 9.12292098999023 4.15724420547485 4.38635110855103 4.67777109146118 4.78739070892334 5.21324634552002 4.78922986984253 4.45634078979492 4.07848167419434 3.71932363510132 7.31821918487549 3.55093884468079 3.74292731285095 3.51027989387512 3.66562366485596 3.16691303253174 15.9154071807861 9.57373809814453 9.15981388092041 3.03657269477844 3.04723620414734 11.9719905853271 8.54232692718506 5.61479234695435 4.63262701034546 8.08578968048096 2.1435239315033 5.78804683685303 11.1188278198242 12.2747077941895 27.1094093322754 22.9044876098633 29.2454166412354 -1.52168309688568 28.0717487335205 16.5778903961182 3.68240666389465 20.7108116149902 -0.518271625041962 -0.619269132614136 -0.707112908363342 -0.396937072277069 -1.00022947788239 -1.277583360672 -1.26438915729523 -1.4072562456131 -0.814383745193481 -1.291388630867 -1.43726217746735 -1.2973370552063 -1.05837595462799 -1.44575583934784 -1.43958032131195 -1.43515861034393 -1.43500638008118 -1.43161058425903 -1.41935348510742 -1.40803527832031 -1.3853166103363 -1.11217844486237 -0.924595832824707 -1.09239280223846 -1.27216637134552 -1.13178503513336 -0.290908992290497 -1.15831220149994 0.110580623149872 0.620921850204468 11.7133932113647 7.89369010925293 6.96675777435303 4.72490882873535 0.0151508869603276 -0.413348376750946 -0.618073880672455 -1.01871383190155 -0.900769114494324 -0.740683972835541 2.04922962188721 -0.763573288917542 -0.808971107006073 -0.877785444259644 -1.00546789169312 -1.12158513069153 -1.17179000377655 5.85429382324219 -1.32773208618164 7.07779836654663 -1.67181789875031 -1.72638928890228 -1.18972396850586 7.68320417404175 18.3000545501709 -2.24471664428711 -2.93354415893555 -3.01385807991028 -2.89437890052795 -2.65127491950989 -1.94134616851807 -0.893925070762634 -1.25521636009216 -1.327308177948 -1.13768541812897 -0.337034612894058 18.9478321075439 -0.396256804466248 1.12495696544647 2.79866051673889 19.0766468048096 5.78571462631226 0.416077047586441 1.4210307598114 0.714036345481873 0.458437025547028 -1.11457717418671 5.1544075012207 -1.07222855091095 -0.24482573568821 -0.227751612663269 -0.0605937279760838 1.46168720722198 1.72446811199188 1.81197881698608 1.59994041919708 1.91343104839325 1.80771768093109 2.01609110832214 2.56328845024109 3.12047362327576 3.03268909454346
9.35115051269531 9.38328647613525 9.59773445129395 9.97157573699951 10.0508155822754 9.58909606933594 8.95542049407959 8.03358745574951 7.96310615539551 8.31437587738037 6.40688419342041 8.5744104385376 8.37161922454834 32.6295318603516 13.289587020874 7.60442161560059 7.64471054077148 7.68060302734375 12.9273872375488 8.53672313690186 8.23029232025146 8.88317775726318 9.14745807647705 9.16427326202393 9.55949211120605 9.05856037139893 8.67434024810791 14.2584857940674 6.66688346862793 6.77680206298828 6.25643157958984 5.8810715675354 6.41597890853882 6.6153392791748 9.42058563232422 7.62209463119507 6.47090435028076 5.26164054870605 6.07969665527344 8.90115070343018 7.44630718231201 6.40429401397705 5.99428939819336 5.66486978530884 4.90547227859497 22.6744136810303 13.1741046905518 15.9866781234741 8.65848255157471 5.20821332931519 4.59189081192017 4.09933662414551 3.83922266960144 6.17982816696167 3.59030866622925 3.38564848899841 3.61182546615601 3.44325137138367 5.11865472793579 2.5634298324585 8.97900009155273 9.07091903686523 5.85260915756226 2.88048458099365 2.74043560028076 2.79569840431213 5.62109279632568 3.81545472145081 11.9585514068604 2.38253211975098 2.03053736686707 1.97929263114929 9.61953353881836 9.61805057525635 19.6047229766846 16.7940788269043 20.4240245819092 39.8911781311035 7.42022132873535 6.97897863388062 -0.866281569004059 13.7233362197876 -0.676411390304565 -0.717450082302094 -0.713802933692932 -0.473315238952637 -1.01421344280243 -1.29308319091797 -1.30181264877319 -1.4616984128952 -0.826565861701965 -1.31950569152832 -1.48939740657806 -1.30795085430145 -1.07520461082458 -1.49124932289124 -1.49095797538757 -1.48862946033478 -1.4872237443924 -1.48382496833801 -1.47032594680786 -1.45563447475433 -1.43243896961212 -1.12724232673645 -1.37308526039124 -1.28083980083466 -1.37841820716858 -1.14063274860382 -0.316408455371857 -1.17042553424835 -0.323214769363403 1.21578240394592 10.3326482772827 3.82224416732788 0.321475595235825 -1.00380766391754 -0.00283846212550998 -0.446669042110443 -1.13312721252441 -1.04850888252258 -0.922288775444031 -0.779617667198181 1.41403937339783 -0.808760821819305 -0.853831350803375 -0.923462688922882 -1.03811597824097 -1.15593028068542 -1.22170126438141 1.27131164073944 1.8739424943924 2.11277365684509 9.31419944763184 9.38549137115479 -1.56166982650757 0.0997998937964439 1.67726922035217 -2.95056700706482 -3.4500904083252 -3.65619325637817 -3.78587055206299 -3.61010980606079 -2.68271040916443 -1.73575913906097 -1.9585440158844 1.82612371444702 11.8271999359131 -0.648643791675568 -0.635566711425781 -0.47123596072197 10.1428880691528 22.2105922698975 13.7755327224731 2.08949971199036 -0.829401612281799 0.34584504365921 -0.764976263046265 -1.22866296768188 -1.48882710933685 -1.1649181842804 -1.1540595293045 -0.281845420598984 17.0968227386475 0.448400974273682 1.31906235218048 1.65889132022858 1.74775183200836 1.53072595596313 1.84580850601196 1.74593353271484 1.93851709365845 2.44340491294861 2.94675636291504 2.85445380210876
9.01066303253174 9.03517913818359 9.2504301071167 9.52037239074707 9.67172050476074 9.21974849700928 8.6043872833252 7.65925025939941 7.64149332046509 6.5387167930603 43.8181114196777 8.24866771697998 8.07941055297852 17.9347190856934 8.96997261047363 7.34918880462646 7.39942026138306 7.43447875976562 8.36980819702148 8.17599391937256 7.84926319122314 8.479905128479 8.52486038208008 8.55177688598633 9.10543251037598 8.53149890899658 8.34234428405762 11.9341287612915 21.5524654388428 6.73736000061035 5.96205997467041 5.84644174575806 5.77186918258667 6.28274154663086 6.39085292816162 6.86113309860229 5.83970546722412 6.73952722549438 4.74931478500366 5.6155104637146 5.68981218338013 4.957275390625 5.74076128005981 5.53181171417236 4.73749017715454 10.2922983169556 10.113242149353 9.58179759979248 19.7603816986084 5.07381725311279 4.36541604995728 3.62939691543579 3.20789909362793 2.80789399147034 3.29838299751282 3.34152770042419 3.52135992050171 3.28786873817444 3.02348279953003 15.2474575042725 7.24475002288818 2.53531813621521 2.69042754173279 2.44781899452209 2.40178108215332 2.52785158157349 3.78798913955688 3.09453725814819 7.21055603027344 12.6616382598877 22.2929534912109 0.820612370967865 3.64502692222595 8.28500652313232 15.3495454788208 8.45057678222656 14.7458209991455 34.044189453125 23.023063659668 2.04280185699463 5.96193504333496 5.66400337219238 -0.677714705467224 -0.724610507488251 -0.72038733959198 -0.479639619588852 -1.02535402774811 -1.29896187782288 -1.49350249767303 -1.46512496471405 -0.871922671794891 -1.3373715877533 -1.42042922973633 -1.30920779705048 -1.0880206823349 -1.5263580083847 -1.52428722381592 -1.52410793304443 -1.52218186855316 -1.47238755226135 -1.50501823425293 -1.49061334133148 -1.46246147155762 -1.19303977489471 -1.36706972122192 -1.40384125709534 -1.15281271934509 -1.30429983139038 -0.332914680242538 -0.868610560894012 -0.0725103318691254 1.00012493133545 9.24697780609131 15.5221366882324 28.7061023712158 38.3337707519531 -0.00986585766077042 -0.461361169815063 -1.12353909015656 -1.10080695152283 -1.03211390972137 -0.805985629558563 1.01422452926636 -0.865719079971313 -0.89518415927887 -0.957570374011993 -1.06367564201355 -1.18862080574036 -1.27811074256897 -0.254341810941696 -0.210969969630241 -1.01712226867676 -0.532739400863647 -1.41897261142731 -1.72658920288086 -2.10418224334717 -1.54090058803558 -3.20035982131958 -4.147385597229 -4.6307578086853 -5.01990985870361 -4.98169803619385 -3.89433622360229 -2.86345720291138 -3.29189944267273 -2.66851282119751 -1.44405245780945 -0.939040243625641 20.0430469512939 7.6355152130127 1.04116415977478 5.36679458618164 -0.207042619585991 -0.846541464328766 -1.26615035533905 -1.16259849071503 -1.02952969074249 4.48922443389893 -1.68459105491638 -1.25985765457153 2.63474464416504 -0.442072421312332 8.14870452880859 -0.301055550575256 3.34274625778198 1.5155303478241 1.40213811397552 1.45581817626953 1.77403736114502 1.69013810157776 1.86828625202179 2.34420490264893 2.79760551452637 2.70915055274963
8.67230415344238 8.69959449768066 8.91065692901611 9.11197185516357 9.27220726013184 8.75937747955322 8.16331481933594 7.37602233886719 7.56552791595459 36.6537208557129 25.4420700073242 7.97750949859619 7.79305791854858 12.0053968429565 7.34564065933228 7.09549856185913 7.14120435714722 7.16268301010132 7.68778562545776 7.81391286849976 7.47206020355225 8.08655643463135 8.13402366638184 8.15189266204834 8.66860866546631 8.1098747253418 8.02952480316162 11.6598377227783 33.3991889953613 46.2597312927246 5.75661563873291 5.40191602706909 5.71827697753906 6.23419952392578 5.73393392562866 6.0730504989624 5.37058639526367 4.38452196121216 4.59756422042847 4.50801515579224 4.36694288253784 6.34954833984375 5.60271787643433 5.38585329055786 4.49349689483643 5.74774885177612 6.5007529258728 7.22535181045532 7.96973752975464 4.57948160171509 11.6962671279907 3.11996626853943 3.79337167739868 20.9841976165771 3.83198189735413 4.36609077453613 3.4076783657074 3.24248933792114 2.99956679344177 9.18689346313477 5.5588231086731 2.45195913314819 2.38169550895691 2.29803800582886 2.15256881713867 5.11128807067871 3.89990091323853 3.83618950843811 3.57001972198486 4.91372442245483 12.9546880722046 20.8142433166504 0.302233994007111 13.6365900039673 12.4053716659546 34.2740097045898 11.6272792816162 24.6515731811523 18.1999092102051 1.88654124736786 28.4517688751221 2.33281803131104 -0.631876170635223 -0.576134383678436 -0.726166725158691 -0.839254081249237 -0.391145199537277 -1.30135905742645 -1.45253825187683 -1.53503584861755 -0.882380783557892 -1.13306260108948 -1.55650770664215 -1.31330251693726 -1.09713363647461 -1.56030893325806 -1.56093120574951 -1.55789589881897 -1.55553328990936 -1.2925169467926 -1.48037350177765 -1.52437877655029 -1.50920808315277 -1.26982998847961 -1.39886045455933 -1.41146862506866 -1.16426169872284 -0.366582334041595 -0.899216175079346 -0.813038468360901 -0.00662789680063725 0.838615536689758 8.04519939422607 3.76765298843384 16.0654411315918 22.1281471252441 0.00437132082879543 -0.0605564340949059 0.000792301958426833 -0.421114563941956 -0.895678997039795 -0.824144780635834 0.709203064441681 -1.00622510910034 -1.009192943573 -1.06880915164948 -1.18049395084381 -1.2700012922287 -1.33566856384277 -1.4803375005722 -0.46241569519043 -1.28323936462402 -1.54991090297699 -2.01544070243835 -1.85768234729767 -2.22503781318665 -2.51430344581604 -3.62648153305054 -4.68416547775269 -5.12819957733154 0.513201236724854 -4.09434843063354 -4.24506092071533 -3.35681748390198 1.52622985839844 0.595418035984039 -2.43663430213928 -1.27020215988159 3.56897020339966 7.15181446075439 11.2782497406006 2.45986294746399 5.67669439315796 -1.05671620368958 7.80341672897339 2.94737243652344 -1.3781019449234 -1.53733050823212 11.6332330703735 -1.47988402843475 -1.0885956287384 -0.651812255382538 -0.616810023784637 14.9552936553955 1.22335994243622 1.46953284740448 1.29086589813232 1.38418781757355 1.70394694805145 1.62952196598053 1.8054518699646 2.26599502563477 2.66807723045349 2.56810164451599
8.30509662628174 8.34619331359863 8.56569004058838 8.57242012023926 8.70516109466553 8.36370277404785 7.53443145751953 7.12568235397339 7.34533548355103 19.7927742004395 17.0384998321533 7.67813920974731 7.47958421707153 8.54088497161865 7.071204662323 6.86534023284912 6.90115070343018 6.90748691558838 7.30777215957642 7.14831876754761 7.10106086730957 6.34763717651367 7.72002506256104 7.76628828048706 8.25436496734619 7.71372699737549 7.84195947647095 11.5040559768677 19.2874183654785 5.9558572769165 5.41857194900513 5.276038646698 5.21315336227417 5.71568012237549 5.35665559768677 5.58853816986084 4.85374689102173 3.91017270088196 3.74796414375305 4.54683685302734 4.21740865707397 4.78919887542725 5.39694976806641 5.13619089126587 4.48241186141968 5.78103971481323 4.65946292877197 4.79496955871582 5.07267093658447 4.26559114456177 4.14071273803711 27.5826797485352 16.9861717224121 9.7458028793335 4.37111806869507 3.08923244476318 3.32355165481567 3.23172736167908 4.97216892242432 4.17941188812256 5.04196786880493 15.908016204834 18.7437381744385 5.53137826919556 3.59802389144897 7.86626386642456 2.24726533889771 2.30434679985046 3.51532506942749 4.45607805252075 10.6643323898315 8.92765045166016 -0.0347695425152779 2.52652978897095 10.8333787918091 19.8897895812988 3.13726615905762 19.5158843994141 12.54296875 1.57051301002502 14.6997938156128 1.22991895675659 -0.667374908924103 -0.615690529346466 -0.580669164657593 -0.912108361721039 -0.628120005130768 -0.854680120944977 -0.952027082443237 -0.858080804347992 -0.88949579000473 -0.763528943061829 -1.34161376953125 -1.32807767391205 -1.11016154289246 -1.59380435943604 -1.61470925807953 -1.62138938903809 -1.60619783401489 -1.57815766334534 -1.57464492321014 -1.56361508369446 -1.55596613883972 -1.54075801372528 -1.40568041801453 -1.11853361129761 -0.951057493686676 -0.377353847026825 -0.774414300918579 -0.726078569889069 -0.160880789160728 0.942880809307098 4.2063193321228 -0.133093401789665 10.9992837905884 15.3175058364868 0.904911160469055 1.10935723781586 0.659330010414124 0.0519913844764233 -0.649987578392029 -0.830779910087585 0.509922683238983 -1.18103218078613 -1.23869800567627 -1.17454600334167 -0.996710896492004 -1.11644434928894 -0.473739713430405 3.43818950653076 0.348177313804626 -0.378496259450912 1.80423986911774 0.035271093249321 -1.94232511520386 -3.07924842834473 -3.16849541664124 1.25242984294891 -5.39954280853271 4.9222240447998 -5.34386205673218 -5.50012588500977 -4.13644695281982 -3.72575402259827 -3.48769307136536 -3.15433812141418 -2.70210790634155 -1.69033515453339 -1.05466508865356 1.31510138511658 2.25558590888977 1.52930533885956 10.1478042602539 -1.42249643802643 2.98741149902344 0.602642238140106 12.1104621887207 17.4785213470459 -0.0446885526180267 -1.75486469268799 1.06793761253357 -0.849288821220398 5.22794389724731 6.78439235687256 1.15606236457825 1.41004395484924 1.21766591072083 1.14732599258423 1.63428592681885 1.56736290454865 1.74655818939209 2.20220708847046 2.53925228118896 2.45456981658936
7.86688137054443 7.82695817947388 7.97055339813232 8.16125774383545 7.90639352798462 7.48655414581299 7.51522827148438 6.35173892974854 7.04994201660156 12.2992448806763 11.8460741043091 7.16551971435547 7.14138269424438 7.06906604766846 6.79657459259033 6.70021200180054 6.75556087493896 6.57178926467896 6.94924545288086 7.10200786590576 6.83869743347168 6.23482370376587 5.49381637573242 7.36680698394775 7.8508243560791 7.3332724571228 7.53304147720337 9.92193508148193 14.4478311538696 10.7023115158081 15.9860467910767 7.17314147949219 5.23631858825684 9.84235000610352 4.93771934509277 5.13146495819092 3.95567178726196 5.46211433410645 3.7198657989502 3.97929763793945 4.64194393157959 5.09172105789185 5.05557012557983 4.62989473342896 5.344322681427 5.35971546173096 4.64958715438843 6.74610662460327 4.55639505386353 4.07678508758545 4.03345489501953 8.4171028137207 5.68202781677246 8.41717147827148 3.16226625442505 7.9892053604126 3.1446533203125 2.85724091529846 3.18637418746948 5.84600400924683 3.79778814315796 12.0891885757446 10.4654636383057 5.73453140258789 2.26220631599426 2.37089347839355 0.896523535251617 13.929726600647 2.06738948822021 5.27292728424072 7.68316316604614 4.2653751373291 -0.324723482131958 25.5581836700439 9.70836734771729 14.3926792144775 34.071647644043 0.416364789009094 9.90350151062012 1.31146264076233 9.48115825653076 0.480810135602951 -0.925041437149048 -0.80109703540802 -0.703501462936401 -0.478839755058289 -0.835077226161957 -0.805676996707916 -1.00230312347412 -1.11413657665253 -0.905622541904449 -1.36622202396393 -2.47008371353149 -2.35414814949036 -2.30778574943542 -2.75851106643677 -2.94177603721619 -2.9103262424469 -1.66424691677094 -1.63151061534882 -1.62136805057526 -1.60899448394775 -1.60305404663086 -1.59366571903229 -1.41105961799622 -1.33228194713593 -1.13795793056488 -0.393652051687241 -0.855007886886597 -0.683969974517822 -0.249277174472809 0.684768259525299 3.85179924964905 39.2882041931152 8.34793567657471 11.796929359436 1.42138493061066 1.29609417915344 0.585361003875732 -0.0382080711424351 -0.664889097213745 -0.83410507440567 0.339516252279282 -1.1728937625885 -0.670229554176331 -0.794996678829193 -1.01764583587646 -0.687767028808594 -0.147422477602959 1.44342029094696 0.181575208902359 0.971530854701996 0.546005189418793 -0.940003752708435 4.31936264038086 0.389779210090637 2.63756084442139 0.0816480293869972 28.8377323150635 -2.56883811950684 -5.71317100524902 -4.19916820526123 -3.82381963729858 14.9222459793091 0.292766690254211 13.9663581848145 11.9637441635132 -1.80411422252655 -1.15131139755249 -1.28313553333282 -1.08763575553894 0.302187532186508 -0.128748849034309 -1.63220119476318 -1.54336500167847 0.177964106202126 2.25581908226013 3.60809516906738 17.1003799438477 12.320704460144 -1.47593414783478 -0.912260293960571 -0.96928858757019 2.02293133735657 1.13409543037415 1.55302035808563 0.999713480472565 0.702507317066193 1.57850921154022 1.51020395755768 2.02149176597595 2.14817142486572 2.42235279083252 2.35737586021423
7.38336038589478 7.38987970352173 7.63913011550903 5.1421012878418 7.38898324966431 6.84433794021606 5.55027723312378 4.87688255310059 6.6557297706604 8.42306041717529 6.95762777328491 6.81280183792114 6.75119876861572 6.76384258270264 6.48349189758301 6.4825873374939 6.52299928665161 6.34385967254639 6.49913167953491 6.89974498748779 6.60479879379272 25.9321823120117 38.4972457885742 6.9523229598999 7.44096803665161 6.92812871932983 7.16941404342651 9.89816284179688 5.49337244033813 5.25818824768066 9.832839012146 5.01255178451538 4.81640005111694 4.9705753326416 15.9430799484253 5.98913526535034 5.62985849380493 3.71531248092651 3.44446444511414 3.60281014442444 4.05702114105225 4.78094100952148 4.86695575714111 4.35651159286499 4.11761856079102 4.17763471603394 3.99222660064697 4.49323749542236 4.52110242843628 3.99116349220276 3.96386003494263 6.00387048721313 4.68846416473389 6.17828321456909 3.00672721862793 3.19712924957275 5.12610530853271 2.72429633140564 3.75288939476013 2.60886788368225 3.76997947692871 9.91507911682129 9.10489368438721 8.71464061737061 9.78594779968262 6.50530815124512 4.1713080406189 5.84150266647339 2.40392780303955 4.12060022354126 3.47639107704163 9.93618583679199 4.58893156051636 1.22242367267609 5.16874980926514 11.7362766265869 18.6165142059326 0.306930094957352 2.07956886291504 -2.20424580574036 6.81899690628052 -1.2850558757782 -1.253826379776 -1.00121974945068 -1.21010506153107 -1.23325288295746 -0.9217569231987 -0.982490122318268 -1.13146495819092 -1.14404582977295 -0.914683043956757 -1.67870259284973 34.9862022399902 18.9915027618408 2.18853521347046 22.9666862487793 29.3889980316162 31.1404228210449 -2.28277707099915 -1.81683325767517 -2.05046534538269 -2.14283227920532 -1.37990951538086 -1.42429280281067 -1.53854238986969 -1.41223704814911 -1.17302548885345 -0.414947688579559 -0.897527277469635 -0.748873949050903 -0.310171842575073 0.509777069091797 3.66113138198853 21.7900466918945 9.47019577026367 0.631893217563629 0.965000808238983 1.01935279369354 0.598220884799957 -0.104233123362064 -0.753982067108154 -0.841379284858704 0.246108666062355 -0.71318519115448 -0.839233636856079 -0.740037143230438 -0.41901096701622 0.0541770458221436 -0.263739049434662 0.789998829364777 0.154373362660408 -2.41381645202637 -0.225079074501991 5.85209560394287 2.57073307037354 -0.314895868301392 -1.52160227298737 -3.31756973266602 9.62768459320068 8.02710342407227 6.79818868637085 17.0791664123535 -1.14091694355011 12.627875328064 10.890588760376 20.7359066009521 -2.98786997795105 -2.21859169006348 -2.01919174194336 -1.64882171154022 -1.79160749912262 -1.78514230251312 -1.75872611999512 1.01731526851654 -1.62651383876801 -1.60045123100281 -0.0522210635244846 -0.784464120864868 -2.53567123413086 -2.40996527671814 -2.81599164009094 -2.43499732017517 -1.79683828353882 -0.585074722766876 3.80350112915039 1.28749048709869 6.92885589599609 1.85107457637787 0.97097373008728 1.62007248401642 1.9342188835144 2.3182053565979 2.24555587768555 2.81740832328796
6.79801225662231 6.97548532485962 7.14987230300903 5.08011627197266 5.57609033584595 4.84025907516479 4.36187362670898 3.97072505950928 4.57594299316406 6.26664304733276 6.57615995407104 6.47335577011108 6.44990396499634 6.2975549697876 6.2081618309021 6.23819065093994 6.3082160949707 6.2470874786377 6.46358156204224 6.7140064239502 6.41247320175171 12.5618858337402 20.0748805999756 6.58782148361206 7.06037759780884 6.61425590515137 6.82610654830933 7.14761781692505 47.1185607910156 4.63665199279785 4.73673963546753 4.81464719772339 14.063404083252 4.39106941223145 7.09197759628296 4.09764289855957 5.04946756362915 6.340904712677 3.36434245109558 5.81892776489258 3.72895407676697 4.34662199020386 4.27222585678101 3.83032131195068 3.84257173538208 4.00099658966064 6.07860040664673 4.36475324630737 4.19644260406494 10.6774234771729 13.3106775283813 7.77192306518555 4.50772476196289 2.92953252792358 2.92427253723145 3.06536984443665 2.97172284126282 2.70657086372375 2.73500561714172 10.9495601654053 4.1129994392395 6.20563220977783 7.35101175308228 6.67851305007935 10.4168453216553 8.89519309997559 14.0141277313232 3.42070341110229 1.14600014686584 5.37942695617676 4.09133148193359 5.662034034729 19.7726631164551 0.679993987083435 4.77427005767822 9.20662307739258 16.0371551513672 14.5938320159912 3.05126953125 4.12831020355225 2.38522291183472 -0.752329409122467 -1.31767058372498 -1.64868235588074 -1.60242187976837 -1.44621920585632 -1.33990621566772 -1.21437895298004 -1.24598526954651 -1.02772402763367 -0.929193258285522 -1.72099018096924 19.0236015319824 4.98827409744263 12.9319820404053 22.0689888000488 25.0650215148926 23.4153137207031 22.2094917297363 -2.26677560806274 7.13408184051514 16.7597141265869 -1.03457927703857 -0.963840007781982 -1.01572024822235 -1.22938191890717 -1.35803115367889 -0.440567642450333 -1.04101121425629 -0.934126615524292 -0.421755015850067 0.355702221393585 2.31484460830688 14.5348854064941 7.85681629180908 0.634197413921356 0.758083760738373 0.672039330005646 0.364235430955887 -0.130439311265945 -0.215573415160179 -0.385531038045883 0.173473551869392 -0.803396165370941 -0.713840782642365 -0.515228271484375 -0.492123514413834 -0.183649495244026 -0.398758232593536 0.353895604610443 -2.00854277610779 3.26964497566223 7.07029724121094 4.03916597366333 -2.57321310043335 -3.5731885433197 -2.08102202415466 20.7336940765381 30.3501396179199 22.9883213043213 25.5010471343994 10.8078594207764 25.0038776397705 4.11660194396973 26.6791515350342 13.0574789047241 26.4040832519531 1.4053601026535 -0.236350521445274 -1.77093923091888 3.4307713508606 -2.14492201805115 9.48183727264404 -2.1227388381958 -1.79692828655243 -1.80622041225433 -1.51265180110931 -2.84541153907776 -3.23262572288513 -3.53940391540527 -3.11660432815552 -2.87810158729553 -2.67512249946594 -0.541784882545471 1.10923171043396 1.26620221138 2.53670191764832 12.1935710906982 15.8076467514038 1.26379430294037 1.85043442249298 2.22062182426453 2.15691423416138 2.97648882865906
6.611891746521 6.78220462799072 6.55441999435425 9.55167293548584 4.52741050720215 4.42777299880981 3.3433313369751 3.37745213508606 3.62025928497314 5.82079315185547 6.20117855072021 6.14140558242798 6.12392663955688 6.02940511703491 5.90514516830444 6.02005100250244 6.09936714172363 6.08453750610352 6.5553035736084 6.408043384552 6.30692195892334 8.7015962600708 13.4756774902344 6.30908346176147 6.73156785964966 6.31691694259644 6.50173425674438 6.3757529258728 3.77801537513733 3.8697452545166 4.42319488525391 4.54271078109741 4.41742372512817 9.87411785125732 10.8182640075684 26.3599319458008 6.92932415008545 3.69008302688599 12.5906114578247 3.54768776893616 3.63343787193298 4.08231067657471 3.88722229003906 3.59786295890808 3.33055901527405 3.4345109462738 3.9741837978363 3.96835565567017 5.10823345184326 5.37678909301758 5.27086162567139 3.28065729141235 3.82483649253845 2.90213537216187 5.86609506607056 2.99651122093201 2.8379545211792 2.57838249206543 2.63376092910767 1.93580639362335 1.22079908847809 3.2802038192749 6.04671096801758 4.33838891983032 4.392737865448 3.21122288703918 1.35173678398132 1.36605930328369 0.864170789718628 3.31113314628601 3.54175662994385 3.49179458618164 7.14398956298828 2.23465204238892 3.76119446754456 6.72650957107544 22.3129997253418 23.9165363311768 36.4692649841309 16.2738666534424 1.18757247924805 -2.53324103355408 -2.71619606018066 -1.84200513362885 -1.79617416858673 -1.745885014534 -1.57740914821625 -1.31967735290527 -1.30192458629608 -0.933415353298187 -1.4653000831604 -1.77057898044586 8.3460750579834 1.89126515388489 20.6300029754639 14.3016529083252 16.4369812011719 15.6335039138794 10.5056838989258 2.15172958374023 7.35241794586182 -2.34400677680969 -1.17178773880005 -1.03312492370605 -0.990893363952637 -1.16978049278259 -1.46352660655975 -1.33372056484222 -1.24234914779663 -1.05071246623993 -0.534231543540955 0.131523936986923 15.3650598526001 10.7925500869751 6.63565015792847 0.433521568775177 0.652715146541595 0.463760495185852 0.143772020936012 -0.194079086184502 0.010395547375083 -0.145919844508171 0.131246641278267 -0.501896798610687 -0.520446121692657 -0.53669661283493 -0.415896564722061 -0.423248082399368 0.365226477384567 -0.119037285447121 15.008397102356 23.141565322876 -2.1170825958252 2.75940656661987 -3.83256840705872 44.3880271911621 0.335669934749603 9.0228796005249 24.1777744293213 9.21078109741211 17.7788429260254 10.02232837677 13.7319412231445 19.3148155212402 17.3349170684814 11.0137510299683 16.0322227478027 31.6071872711182 6.85020017623901 -1.94553005695343 -1.86777746677399 13.4411392211914 2.69436597824097 5.79595375061035 -2.13663649559021 -1.96705806255341 -2.18860602378845 -3.26234149932861 -3.44753766059875 -3.72649693489075 -3.44950890541077 -3.43740129470825 -2.80010938644409 -1.35600447654724 -1.01190221309662 3.78092408180237 1.60989534854889 1.14168071746826 8.22066497802734 11.392128944397 1.76934218406677 2.13441896438599 2.06905007362366 2.85731863975525
6.35824584960938 6.49431371688843 6.26686859130859 4.95664930343628 4.00898933410645 3.65358996391296 9.65055084228516 3.35550165176392 11.5411586761475 5.3464183807373 5.80471324920654 5.85933017730713 5.87313556671143 5.83412551879883 5.71403646469116 5.82155179977417 5.92015838623047 5.92111301422119 6.43354606628418 6.15061616897583 7.32014751434326 7.35932493209839 10.4473352432251 6.10879278182983 6.50271368026733 6.09393930435181 6.18568897247314 4.32236909866333 18.5743026733398 3.75321125984192 4.30271339416504 4.27535581588745 4.36468553543091 4.18219900131226 8.10332489013672 7.53091621398926 15.0552215576172 3.63043403625488 3.82168030738831 3.3020350933075 4.58012247085571 4.03410768508911 3.82033205032349 3.32318544387817 3.0742347240448 3.3929615020752 3.64406442642212 3.93463730812073 4.18908786773682 3.78894567489624 4.53723239898682 3.17164301872253 2.5079710483551 8.76585865020752 4.01085186004639 6.38402700424194 2.8029625415802 2.35979962348938 1.61787557601929 1.50617229938507 2.35038304328918 1.53356075286865 3.47269511222839 2.74589776992798 3.41980242729187 2.38789510726929 1.21858561038971 9.74042701721191 2.55373811721802 2.77627873420715 3.21972250938416 4.64146041870117 4.1053204536438 4.636474609375 1.40322256088257 9.27204990386963 12.576229095459 4.34155559539795 29.2860507965088 14.6060924530029 0.832068085670471 -2.60326910018921 -3.5584123134613 -3.32323932647705 -2.7160062789917 -2.84969878196716 -1.78637862205505 -1.39780163764954 -1.51262307167053 -0.952608525753021 -2.52189612388611 -1.4614063501358 4.88959693908691 24.1505432128906 10.8086500167847 10.1519269943237 11.6552238464355 11.1660289764404 5.77824783325195 -2.4238908290863 -2.22944092750549 7.55322074890137 -1.30629777908325 -1.05008769035339 -0.990224182605743 -1.23647749423981 -1.47170698642731 -1.38677561283112 -1.21981465816498 -1.00530958175659 -0.604831159114838 5.45394945144653 5.81231117248535 3.85199618339539 5.73772478103638 0.245084196329117 0.419496804475784 0.281511783599854 0.0689445585012436 0.0388501100242138 -0.0161124151200056 0.211428925395012 -0.410227805376053 -0.494717091321945 -0.460859298706055 -0.45104131102562 -0.338184922933578 -0.397643327713013 0.0660884231328964 -0.326347410678864 6.3310604095459 11.6529655456543 -2.58045959472656 2.98780131340027 14.5187540054321 26.0274810791016 9.56583118438721 17.800853729248 10.5482683181763 5.28232479095459 13.8840656280518 10.2495431900024 13.4699010848999 10.5918607711792 11.9739894866943 11.8796720504761 17.2264442443848 21.5472946166992 4.76308631896973 10.3096370697021 -1.28428113460541 7.55988693237305 0.418467313051224 -2.29007196426392 -2.32565236091614 -2.19108080863953 -0.076765812933445 29.2622203826904 18.4173049926758 26.4463119506836 22.0685997009277 31.3058967590332 14.9638795852661 -0.459648221731186 -0.946493208408356 1.1938282251358 0.954352498054504 5.38195085525513 6.18874740600586 5.51360464096069 1.71407103538513 2.05061435699463 1.98288857936859 2.74300789833069
6.11687326431274 5.15843677520752 6.01084327697754 41.1281509399414 3.70877861976624 3.00229907035828 3.44096398353577 46.9676704406738 34.8391494750977 4.75414514541626 5.36850738525391 5.59158515930176 5.65097808837891 5.64825057983398 5.52866840362549 5.63762998580933 5.79851245880127 5.84091520309448 6.36148405075073 6.06922054290771 7.18901920318604 6.06571960449219 5.24027872085571 6.31183099746704 5.90447425842285 5.95608854293823 5.97588443756104 17.5013370513916 7.96592235565186 3.55012845993042 3.535884141922 3.93306398391724 4.67748117446899 4.09106397628784 5.37373208999634 5.86498117446899 4.90442228317261 15.180814743042 3.06198763847351 4.81234979629517 5.25608491897583 8.91942501068115 13.6244020462036 4.50474500656128 3.2698335647583 3.55909156799316 3.50733089447021 3.67161512374878 3.47399044036865 3.43601751327515 2.99491310119629 2.97073602676392 2.39803242683411 2.87960648536682 2.74980568885803 2.87960410118103 2.50032734870911 2.12495422363281 1.08085715770721 1.40625166893005 0.916998624801636 1.20448791980743 1.32093036174774 8.24957275390625 1.85242581367493 5.99253749847412 3.20943164825439 3.87249517440796 2.98115968704224 2.4348406791687 11.6783933639526 5.16064786911011 2.97596836090088 0.647346436977386 0.741618692874908 7.04830741882324 8.39278697967529 42.6563034057617 17.155424118042 5.00143527984619 16.5291500091553 -3.42979907989502 -3.72950267791748 -3.731764793396 0.976884663105011 17.4116897583008 -2.1123263835907 -1.60442554950714 -1.78174471855164 -1.03692257404327 41.5325965881348 1.86697852611542 13.622670173645 -0.163843095302582 7.67959594726562 9.14756774902344 8.25757217407227 1.52472019195557 -3.16314244270325 -3.40604639053345 -2.8034520149231 -2.85667157173157 -3.1534435749054 -3.42876696586609 -1.09089529514313 -1.13165616989136 -0.964632093906403 -1.10577964782715 -1.22726738452911 -1.01478540897369 -0.630911946296692 2.67066788673401 -0.689310252666473 3.34675788879395 5.02734994888306 0.12048278003931 0.271752089262009 0.171916529536247 0.0259061269462109 -0.00275135412812233 -0.0974278450012207 0.174237936735153 -0.355046063661575 -0.482573956251144 -0.397595107555389 -0.41515788435936 -0.419007420539856 -0.513270914554596 -0.0883323326706886 -0.489439129829407 4.05782556533813 -3.04380035400391 -3.07756757736206 2.38311696052551 45.9363861083984 4.08639144897461 30.5299510955811 17.5783348083496 17.0720729827881 12.8073816299438 11.2418231964111 9.91495800018311 8.17526149749756 25.4549579620361 18.7737598419189 7.62101650238037 11.3710403442383 13.9764060974121 9.14856052398682 -2.40486264228821 -2.44701147079468 5.45296859741211 -1.88266205787659 -2.48198223114014 -2.61308431625366 -2.67857360839844 -2.82397270202637 12.1336641311646 17.3860054016113 18.2367038726807 13.190318107605 14.592565536499 7.8129243850708 35.6177406311035 34.4487609863281 0.856304466724396 0.465557098388672 3.67709279060364 4.50728988647461 3.62419033050537 1.64041101932526 1.97210490703583 1.91010451316833 2.63361477851868
5.89953899383545 32.5207443237305 10.1633815765381 23.1712417602539 53.1098861694336 24.6910495758057 44.1594581604004 27.5448551177979 19.592601776123 4.40220022201538 4.87136030197144 5.23433303833008 5.41566610336304 5.48372840881348 5.39307022094727 5.50597715377808 5.70386695861816 5.78012275695801 6.28743267059326 5.97137832641602 6.30789232254028 21.8617362976074 28.7668972015381 6.25142669677734 5.8280930519104 5.87197303771973 4.73969125747681 37.2410087585449 6.11262464523315 3.40308713912964 20.8158626556396 6.83279085159302 4.25166845321655 3.90614867210388 4.32054805755615 3.9812479019165 4.71212291717529 10.6546440124512 18.897834777832 7.51830673217773 8.62040710449219 14.3606491088867 8.39484882354736 8.73875141143799 23.4888000488281 3.47079968452454 3.40865588188171 3.51153326034546 3.3811457157135 3.10219168663025 2.66096591949463 5.80016946792603 8.42938041687012 2.75037288665771 2.32242941856384 1.98930752277374 1.73639357089996 0.91709703207016 12.537691116333 0.510563313961029 1.31706559658051 0.306723743677139 0.760508120059967 1.45446622371674 6.93490028381348 -0.378599315881729 -0.366211712360382 0.974317371845245 5.4584379196167 1.28112888336182 2.48366498947144 4.05536508560181 7.24723243713379 0.604825794696808 18.5384883880615 5.75229263305664 18.4485034942627 28.7913246154785 12.606219291687 29.2157726287842 27.6598453521729 14.7928037643433 -3.81122446060181 -2.47726202011108 -2.91329336166382 -3.29316854476929 -2.62995743751526 -2.34062552452087 -2.22376680374146 -1.61406123638153 22.3294734954834 24.4704303741455 7.05469989776611 29.9552536010742 6.09696960449219 7.01257276535034 6.08808851242065 0.685516357421875 36.8256301879883 43.1710624694824 25.2911186218262 30.3362693786621 42.7391319274902 41.1939544677734 -2.81833028793335 -2.40924072265625 -1.35735535621643 -1.33779084682465 -1.23388004302979 -1.02916646003723 -0.682000577449799 1.14026725292206 -0.794769525527954 2.87953686714172 4.42221164703369 -0.00457539083436131 0.152597218751907 0.0911785960197449 -0.0175207946449518 0.0779701694846153 0.023875430226326 0.113348662853241 -0.436894237995148 -0.376514852046967 -2.85517501831055 -2.37785410881042 -1.5996994972229 -2.72668027877808 -2.6766939163208 -3.01312065124512 -3.22196841239929 3.34382176399231 40.8369369506836 1.62670826911926 26.4424781799316 5.01425504684448 20.7921543121338 16.8939781188965 9.75627899169922 7.74272108078003 47.079158782959 45.5615005493164 5.21955871582031 23.2429313659668 12.3921480178833 15.8257122039795 7.55005741119385 12.1045417785645 6.85546016693115 32.5672874450684 5.66338920593262 0.854818046092987 -2.34241390228271 -2.83248829841614 -2.88950514793396 0.718238711357117 -1.9207489490509 8.34493541717529 10.0095043182373 14.0814609527588 5.2616114616394 8.20467567443848 3.93864727020264 20.7936477661133 14.6330852508545 0.297885924577713 19.7631759643555 4.02224588394165 1.23967409133911 2.49424409866333 1.8160617351532 1.90249192714691 1.84074532985687 2.53713726997375
5.70579385757446 17.0728015899658 8.67267513275146 15.110541343689 33.5942268371582 48.4002342224121 27.9338054656982 20.421630859375 15.2913541793823 4.37845802307129 4.60234117507935 4.9184250831604 5.16545152664185 5.2150764465332 5.25595951080322 5.39516115188599 5.58682441711426 5.67068243026733 6.16627788543701 5.86361455917358 6.13502311706543 13.2572965621948 17.9284706115723 6.22258234024048 5.79575157165527 5.83500719070435 41.8182983398438 11.001615524292 15.2217693328857 28.229097366333 6.92838191986084 5.70064926147461 4.06715679168701 3.88231468200684 4.06775236129761 3.60599517822266 3.69831275939941 7.21504878997803 7.42548561096191 9.45261287689209 7.79022121429443 5.95948648452759 8.38685321807861 20.1658821105957 9.01234340667725 3.46463680267334 7.97715902328491 3.31444644927979 3.0133056640625 2.94620013237 2.44991087913513 1.83536970615387 2.01812434196472 2.0086977481842 1.93825054168701 1.05176711082458 0.345633387565613 7.08769702911377 6.81387710571289 5.0342903137207 7.68859195709229 11.0617961883545 2.92931199073792 1.12700951099396 1.11954748630524 6.29725646972656 13.1658210754395 1.9868620634079 2.37325739860535 9.9750280380249 1.41654491424561 2.29667615890503 8.30947494506836 10.9833250045776 2.47290420532227 4.45395421981812 4.33471727371216 18.6620407104492 19.4733085632324 11.8568620681763 8.29628086090088 20.5930519104004 14.6608600616455 9.01583480834961 -3.36133408546448 5.92901515960693 -3.14331579208374 -2.41671752929688 13.200083732605 22.9823532104492 15.5100564956665 9.87938404083252 3.72160983085632 15.897253036499 5.11032676696777 1.35649132728577 -1.52608931064606 -4.02846908569336 -3.73356127738953 -3.97282648086548 -3.76393389701843 -3.40117645263672 21.0723934173584 28.7139644622803 33.8922386169434 22.1383953094482 -1.78602242469788 -1.51220715045929 -1.25214231014252 -1.02738726139069 -0.672618389129639 4.46321630477905 15.6697292327881 2.50030875205994 3.9046516418457 -0.123219303786755 -0.00152965588495135 -1.7670359738986e-05 -0.117140009999275 -0.0325929597020149 -0.0902936384081841 0.0311027001589537 -0.427812874317169 -0.408318698406219 43.2296333312988 27.5719547271729 5.98775148391724 35.8533401489258 32.6017837524414 40.6209144592285 43.8132438659668 35.0673484802246 20.4737739562988 3.01710414886475 17.4553184509277 2.37357187271118 13.3311977386475 25.098123550415 29.3031120300293 33.7653388977051 30.4535903930664 29.5489463806152 48.5194854736328 12.7628402709961 20.5635509490967 9.4759407043457 6.16331815719604 3.89092493057251 0.494180619716644 18.40456199646 -3.13905239105225 -2.52002835273743 -2.77079916000366 7.25049924850464 -3.12973523139954 -2.83689522743225 7.91713047027588 4.18238878250122 7.45593404769897 6.66893720626831 2.02679824829102 3.73751187324524 3.70811820030212 11.1282892227173 9.04901123046875 0.00462056556716561 8.36695003509521 2.30661034584045 1.58091306686401 1.3345752954483 1.7751692533493 1.83715856075287 1.78441166877747 2.44954514503479
5.53704166412354 11.6770706176758 7.06994438171387 12.4902896881104 23.2933177947998 29.4938583374023 20.7995719909668 16.883207321167 13.3783187866211 10.987979888916 2.98840522766113 4.57031297683716 4.8588342666626 4.99486017227173 5.07686614990234 5.15331268310547 5.45605087280273 5.59669351577759 6.03499937057495 5.75942850112915 6.03769826889038 10.0153312683105 13.3354911804199 6.16583061218262 5.8254828453064 5.92626142501831 27.2190952301025 12.4669361114502 35.7854499816895 28.5593166351318 42.3701286315918 17.0416469573975 3.88753032684326 3.59821009635925 3.82015657424927 3.29990196228027 3.32402682304382 3.8362181186676 3.13301515579224 3.22969627380371 3.78002166748047 5.01844787597656 5.56771850585938 6.76221513748169 14.783052444458 5.34761619567871 3.34000039100647 3.16898703575134 2.6460976600647 6.45531940460205 6.62306690216064 1.5511577129364 1.3192310333252 1.30249285697937 0.74305248260498 0.882008969783783 0.105625107884407 6.35899496078491 1.70655977725983 3.80342364311218 12.7024250030518 13.7539091110229 12.0429639816284 6.5119423866272 11.6847867965698 12.5551977157593 12.9574546813965 9.61950206756592 0.796078741550446 3.93879413604736 3.46871042251587 1.9215224981308 5.31165075302124 5.85326766967773 1.77816271781921 2.59222817420959 3.66595983505249 3.20940351486206 5.72511053085327 8.0374698638916 6.07607555389404 10.773754119873 19.400333404541 33.4603385925293 31.893648147583 -3.64582777023315 -3.22291445732117 -3.29295825958252 -2.48334097862244 10.6285495758057 11.3749017715454 7.51954555511475 3.23520708084106 10.4015264511108 4.21798849105835 -1.80242395401001 -3.54682946205139 12.0392189025879 -4.59341955184937 -4.450035572052 -4.18308639526367 -4.05013990402222 -3.44944763183594 11.4968776702881 14.7855443954468 -1.03400027751923 -2.25214433670044 -2.60886549949646 -1.27391588687897 -1.05704212188721 -0.737394690513611 34.2958946228027 28.5710601806641 1.99408984184265 3.28469491004944 -0.417993575334549 -0.295314103364944 -0.275623023509979 -0.426146149635315 -0.40199413895607 -0.309598654508591 0.0277895573526621 0.957284867763519 1.34899985790253 25.7447738647461 15.1383237838745 0.348014354705811 9.49053764343262 -3.00726580619812 7.09896183013916 6.09549570083618 -3.35001039505005 12.6338920593262 13.4645719528198 12.7139053344727 32.4990844726562 10.8181638717651 15.8538599014282 27.0390567779541 40.9158210754395 23.8277149200439 22.5074462890625 32.8536949157715 14.2388153076172 6.92601680755615 4.11441946029663 1.67076575756073 0.592418253421783 -0.332170248031616 9.44723892211914 18.9393348693848 -3.24611902236938 -2.85412096977234 0.790288805961609 10.1655378341675 -3.41272735595703 -0.36128044128418 -0.79816472530365 2.37252640724182 0.56766265630722 1.14924323558807 11.6506853103638 -1.02219462394714 3.78231287002563 2.18105530738831 -0.735459506511688 -0.315271705389023 1.22693848609924 1.03344285488129 1.26960837841034 1.72259855270386 1.76065444946289 1.74640762805939 2.36862206459045
5.33228302001953 8.0562629699707 8.78018474578857 14.3871431350708 17.6770992279053 21.714168548584 17.1714687347412 12.3344306945801 7.33217620849609 3.31883430480957 13.8282117843628 2.61798095703125 4.58350706100464 4.77326583862305 4.96974229812622 5.20401573181152 4.65693521499634 5.6675968170166 5.9035210609436 5.73500394821167 5.93963050842285 8.17695713043213 10.7489032745361 6.08636093139648 5.7669825553894 5.8759970664978 20.3615989685059 38.735408782959 29.4752006530762 32.7632598876953 33.8097496032715 16.8329601287842 4.23253917694092 4.27477025985718 3.50250029563904 3.24686622619629 3.26427912712097 3.27604818344116 3.06472563743591 3.4990918636322 3.91304326057434 4.96272277832031 4.14131498336792 5.25357341766357 7.44428968429565 3.26545858383179 3.18327474594116 2.86965847015381 2.36211323738098 2.32436394691467 2.25244283676147 1.19981753826141 0.532371699810028 5.71733140945435 0.308936148881912 0.211581513285637 1.48516237735748 1.42411255836487 2.07664251327515 1.70077931880951 6.76551961898804 7.41796779632568 5.40842866897583 8.04794883728027 3.57044649124146 3.44284558296204 5.09615564346313 2.04548668861389 6.34158182144165 4.06189775466919 1.54557275772095 5.59525775909424 1.11324632167816 0.474024057388306 6.95560503005981 1.85155344009399 3.98080086708069 28.7139778137207 4.91330099105835 9.0539608001709 13.7734336853027 33.5091896057129 13.2429695129395 26.5683975219727 11.2593297958374 -3.88087177276611 -3.28468418121338 10.583212852478 7.82131624221802 8.17482471466064 -0.712339282035828 5.74172019958496 4.82116365432739 6.56485366821289 3.52813196182251 14.8097743988037 -3.62504458427429 7.79658889770508 5.23911428451538 -4.42886304855347 -4.6090235710144 1.44500529766083 -1.90916693210602 0.512180209159851 0.584670305252075 -3.11937117576599 -3.39984846115112 30.7541065216064 -1.34173190593719 -1.15211474895477 -0.786154985427856 18.2544574737549 15.1080598831177 1.82781767845154 2.98134708404541 -0.350329697132111 -0.139622449874878 0.13873453438282 0.941538751125336 0.758898913860321 0.285472214221954 0.484672337770462 0.644838273525238 0.573532342910767 17.7195587158203 10.0718469619751 6.74055624008179 6.0188512802124 15.6905488967896 6.65613555908203 14.814998626709 15.1144123077393 -4.1838846206665 10.630012512207 7.50644493103027 16.2465114593506 8.97960376739502 15.4743509292603 19.3639526367188 27.94993019104 19.5888214111328 18.1949977874756 23.8146076202393 5.36359262466431 2.45395755767822 -0.67598968744278 -1.11538398265839 -2.67238759994507 4.85185194015503 1.94696891307831 8.70985698699951 10.0468425750732 -3.06461453437805 -3.44520473480225 -1.08197009563446 4.21410799026489 -0.238109946250916 6.61596059799194 27.0268001556396 20.7425746917725 17.7600059509277 17.5915298461914 4.36588430404663 4.41970252990723 6.00489473342896 -0.944970786571503 -0.686371266841888 -0.176408350467682 0.942445695400238 1.19545090198517 1.66904366016388 1.69785523414612 1.70854103565216 2.29405784606934
5.59047603607178 5.23816204071045 7.36933851242065 14.2378301620483 17.8938846588135 16.4200801849365 13.5365304946899 11.3955535888672 7.10049962997437 35.2034645080566 28.8252258300781 23.3474712371826 6.85970735549927 4.62840032577515 4.88046979904175 5.11086654663086 21.9393939971924 5.55079364776611 5.78017854690552 5.64191913604736 6.6496319770813 8.86260795593262 5.72804164886475 6.00012969970703 5.70576858520508 5.81225442886353 16.3467178344727 23.8025913238525 24.6400566101074 24.2937698364258 24.7179355621338 26.2340278625488 33.4086685180664 17.2846450805664 3.50094938278198 3.13463425636292 2.78768944740295 3.17555212974548 7.67973232269287 5.42181825637817 6.87771797180176 3.99250602722168 9.46143341064453 5.36466836929321 2.71370077133179 3.03354334831238 2.88729286193848 7.19795322418213 14.4953622817993 12.8653907775879 1.67983174324036 0.970824301242828 6.13373899459839 2.152756690979 8.80703353881836 6.44656848907471 15.5299491882324 0.744934976100922 5.04275417327881 2.56144642829895 1.21388041973114 1.62496340274811 3.38327956199646 5.36437940597534 1.49432957172394 2.29928135871887 9.80277633666992 1.74886417388916 0.911107838153839 0.862481355667114 0.640545725822449 1.57695174217224 1.34017932415009 0.458431035280228 2.63700318336487 18.5231952667236 15.1082725524902 20.3284702301025 8.9328784942627 4.62173557281494 13.4704036712646 10.1442241668701 35.6133422851562 17.2353858947754 9.16946411132812 40.3077774047852 29.6459827423096 -2.15742611885071 2.6968629360199 6.67216777801514 4.10232210159302 3.1338574886322 6.03843402862549 2.88808465003967 3.18907690048218 3.50977945327759 3.56584572792053 4.17783737182617 13.0944547653198 3.76484751701355 32.8428039550781 5.19444561004639 -1.67564010620117 8.83572101593018 14.7220697402954 32.4282684326172 44.3772277832031 -2.82473134994507 -1.3715672492981 -1.18722569942474 2.48573732376099 3.43831419944763 10.8123302459717 1.54926705360413 2.64772582054138 -0.519463181495667 -0.384126245975494 -0.317675024271011 0.0647774860262871 0.0825905874371529 0.134677425026894 0.394245952367783 0.584744095802307 0.389319330453873 13.383056640625 7.54884147644043 3.15052127838135 22.5796184539795 0.439321458339691 -0.449178874492645 -0.112298414111137 13.4802513122559 7.9376974105835 -1.56234574317932 6.96392774581909 -3.66177535057068 3.26654362678528 12.4570360183716 15.8713254928589 21.612678527832 15.1170673370361 14.4615812301636 7.63542890548706 3.33046197891235 1.62130093574524 -1.02484285831451 -1.13944339752197 10.3334226608276 -0.0694930404424667 -3.06774401664734 -1.60367560386658 13.6052713394165 -3.17607855796814 8.81570434570312 -3.51353073120117 15.524881362915 0.896894514560699 5.20767116546631 13.1622228622437 12.7601137161255 17.1366348266602 11.4427795410156 10.8984689712524 -0.690165340900421 -0.813602328300476 9.36367034912109 -0.930583298206329 -0.315508514642715 0.048373818397522 0.352654010057449 1.19121289253235 1.62006390094757 1.59491002559662 2.21425747871399
4.82011032104492 5.01630544662476 6.3865966796875 12.2764749526978 15.6005382537842 13.0279750823975 12.5965728759766 10.8667573928833 7.82076978683472 20.9713554382324 23.7436103820801 35.6689910888672 3.75652647018433 6.05623960494995 4.78554916381836 5.03078079223633 12.2828435897827 5.45708560943604 5.68046474456787 5.55948925018311 5.87036800384521 7.66528034210205 5.6319727897644 5.89617919921875 5.63161897659302 13.6448183059692 12.5461778640747 18.916410446167 20.17431640625 18.3863487243652 19.5027904510498 15.3618021011353 30.1339302062988 3.58693361282349 2.92159199714661 2.52618384361267 2.6970694065094 2.95365881919861 5.90351057052612 4.10299587249756 3.84552097320557 3.3752293586731 2.88317489624023 2.83342552185059 2.02050828933716 2.82866168022156 8.38284015655518 4.55557584762573 2.30848908424377 17.4274654388428 9.05730819702148 0.306168556213379 0.308538138866425 0.647345066070557 1.84013724327087 2.68780970573425 2.27842164039612 5.68627643585205 5.81431198120117 0.0906893908977509 0.288812279701233 0.327627062797546 0.0669650435447693 -0.148760318756104 0.632757842540741 1.08059573173523 0.563444316387177 0.00204826961271465 -0.246436089277267 -0.205805703997612 11.532262802124 0.221367463469505 37.8432769775391 39.8388481140137 10.3137807846069 25.5171928405762 10.0721130371094 14.3334760665894 4.63191270828247 2.3319616317749 12.6489210128784 30.6579837799072 23.2262439727783 16.6264495849609 24.9969024658203 30.290412902832 17.0101375579834 28.8540744781494 -2.57835602760315 5.52240419387817 3.21173810958862 2.75195407867432 4.91001892089844 2.49702262878418 2.83128213882446 -2.36899018287659 1.1381641626358 -1.19504415988922 5.98927593231201 -0.716916620731354 -4.92346286773682 4.2929162979126 9.4800853729248 -0.883892953395844 -3.21038937568665 11.6200389862061 24.6338195800781 34.7625274658203 -1.45000386238098 -2.93486738204956 -1.45066094398499 19.8303184509277 5.86350631713867 2.22153615951538 -1.96784973144531 -0.619428873062134 -0.498928993940353 -0.392242640256882 -0.215587079524994 -0.0654013082385063 0.0123763028532267 0.27301961183548 0.439995557069778 10.9439601898193 6.20391988754272 1.54240190982819 8.40441703796387 -3.01351356506348 5.70705223083496 0.975046336650848 33.5111122131348 5.8901948928833 14.4430952072144 12.96169090271 -1.30592620372772 38.2428512573242 2.2716109752655 4.62125062942505 9.2927188873291 13.1932344436646 12.3699750900269 13.7201728820801 16.4110221862793 42.9746208190918 0.821176826953888 0.467644482851028 -2.19142603874207 10.4737701416016 5.31986808776855 -3.13696050643921 13.0435247421265 -2.87459516525269 -3.50283193588257 -3.67329454421997 1.8222644329071 -0.32885816693306 -0.248841345310211 5.07733678817749 4.6905665397644 8.58382415771484 9.53279209136963 4.35783576965332 4.07560443878174 -1.53296291828156 -0.912179410457611 4.62763023376465 -0.941506266593933 -0.661860704421997 -0.215776801109314 24.431978225708 16.8920288085938 1.47749173641205 1.92382729053497 2.19202947616577
4.8433780670166 4.74954223632812 5.39892768859863 10.7827491760254 13.7406053543091 11.4969511032104 11.4074640274048 10.1147565841675 6.5560417175293 37.8720550537109 19.6542720794678 25.7521266937256 37.9168815612793 5.47718572616577 4.77018928527832 4.9510645866394 8.54678535461426 5.49277591705322 5.39241361618042 5.46059370040894 5.62468433380127 6.72575759887695 5.52724599838257 5.78413152694702 5.5557279586792 11.8868494033813 11.4854564666748 16.6893768310547 17.6839256286621 16.1157054901123 12.4148960113525 12.6484088897705 21.4200954437256 46.5090751647949 15.279125213623 2.46047735214233 2.50677013397217 2.50036144256592 2.77837586402893 2.87935328483582 3.29624700546265 3.13346743583679 2.58615136146545 2.0858781337738 1.72037589550018 9.92029666900635 2.71720004081726 27.9208240509033 6.22478628158569 3.45635485649109 0.710047006607056 22.2524738311768 1.38320791721344 0.214008942246437 1.40790581703186 8.90733242034912 7.83908843994141 8.5754861831665 0.227720201015472 5.25205087661743 0.1023970246315 0.080966055393219 -0.83411705493927 -0.749892473220825 -0.203272089362144 -0.4724101126194 -0.268466413021088 -0.576595664024353 2.47375226020813 3.95313501358032 -0.707994937896729 49.0542640686035 22.1107540130615 21.7025051116943 29.5301456451416 15.2460308074951 19.0485782623291 21.8002109527588 4.22228813171387 28.4461498260498 13.0290555953979 17.4410781860352 19.3175811767578 21.5361728668213 15.179292678833 24.5482425689697 34.3259201049805 27.0663642883301 5.28981733322144 4.74079751968384 2.55165505409241 2.41665101051331 4.12793731689453 2.21459007263184 5.69129753112793 1.46257758140564 1.15079426765442 11.1491708755493 11.1534938812256 5.26723527908325 16.6373043060303 -0.597021639347076 -4.0978479385376 10.1415300369263 -3.57771158218384 9.57893466949463 15.6592788696289 15.2326288223267 -1.58182275295258 15.6244812011719 5.18911552429199 7.75334310531616 1.78305542469025 -1.66164827346802 -2.52276253700256 -0.679367899894714 -0.552272975444794 -0.455959558486938 -0.355114072561264 -0.170832768082619 0.163738608360291 0.394434005022049 0.466977775096893 9.20628070831299 5.13681554794312 1.05901122093201 -3.23879337310791 -3.50355172157288 0.81821471452713 0.559170544147491 8.59603881835938 4.88906860351562 11.080207824707 13.1416482925415 1.75791049003601 3.90400362014771 1.66698443889618 3.64408397674561 1.88647127151489 7.77258586883545 9.94666481018066 11.4524335861206 17.7098045349121 24.1906890869141 44.6982002258301 13.0113010406494 19.0047206878662 20.0426044464111 18.3660373687744 7.40282964706421 -4.11343860626221 -3.62226915359497 -3.94886302947998 10.3541831970215 4.46215724945068 -0.594115018844604 1.45723164081573 5.0912389755249 2.06247043609619 -0.389400959014893 -0.198756724596024 7.76454973220825 2.09094095230103 7.79825735092163 -1.8124406337738 -1.63345873355865 14.5618677139282 20.9216041564941 -0.442254990339279 -0.69289767742157 7.12392425537109 1.38728964328766 1.99681317806244 2.24362635612488
4.8271951675415 4.70658493041992 4.89514493942261 9.49848937988281 12.3411846160889 10.4681911468506 10.3397665023804 9.3808479309082 13.114109992981 23.1422920227051 17.4268760681152 31.8079624176025 27.4543190002441 4.90229606628418 4.72736167907715 4.86634635925293 6.57823944091797 5.37194919586182 5.19179391860962 5.3540186882019 5.50083923339844 5.97023010253906 5.42501354217529 5.67707204818726 5.41073131561279 10.5707168579102 11.6894674301147 14.6656484603882 15.8223924636841 14.198673248291 11.0675373077393 13.908182144165 16.9473056793213 30.2577667236328 2.79956245422363 2.39969372749329 2.46795153617859 2.3852002620697 2.35800552368164 2.8398334980011 3.21522998809814 3.09688353538513 2.23537755012512 1.74509239196777 1.52585005760193 6.09546184539795 20.6767864227295 3.96979236602783 1.39054918289185 0.67499715089798 3.10988855361938 13.1019334793091 1.62301158905029 5.93423461914062 1.3623720407486 5.03927183151245 6.20080947875977 6.86931991577148 19.0123863220215 7.60782957077026 0.757265448570251 0.0527374371886253 10.840726852417 2.25203704833984 -0.193269029259682 1.34179663658142 1.67831742763519 0.466453373432159 13.5427141189575 2.62256050109863 38.2421035766602 23.8471221923828 9.62854099273682 15.9222316741943 17.7420597076416 10.709867477417 14.2780904769897 12.2715225219727 3.50618958473206 22.3024463653564 12.0285053253174 17.9412422180176 17.8462696075439 13.7761096954346 21.4863300323486 23.5723896026611 22.7471504211426 22.9996204376221 17.5367393493652 4.25980138778687 -0.472596138715744 -2.14450240135193 -3.09310364723206 -1.76641714572906 10.345609664917 -0.9002965092659 8.83200168609619 5.51993322372437 9.28850746154785 0.169806197285652 7.98968505859375 -4.14531707763672 22.3633232116699 -3.82298612594604 5.66008043289185 6.58498239517212 11.1846961975098 9.44556999206543 -1.47449362277985 4.48977422714233 -0.138275429606438 0.180469214916229 -0.657594501972198 20.8962078094482 18.8907661437988 -1.86406946182251 -0.615475952625275 -0.488043069839478 -0.277024656534195 -0.115725494921207 0.0822244435548782 0.264817237854004 0.319944530725479 7.90124797821045 4.3645224571228 0.758216619491577 -3.44868302345276 -1.39560151100159 0.0887449756264687 11.09778881073 0.11343065649271 0.969612598419189 11.2653350830078 8.04587364196777 3.788649559021 1.72940850257874 1.95955276489258 3.38302183151245 1.67096257209778 4.18104362487793 4.94828319549561 9.06321907043457 12.0725059509277 16.9983654022217 30.1495590209961 2.55572032928467 14.3694686889648 4.51190900802612 -1.49496912956238 -3.4243061542511 18.3534469604492 -3.87780404090881 1.00908064842224 7.02434110641479 0.347530335187912 1.37426555156708 -3.0012366771698 -1.40655744075775 0.743182361125946 11.6239995956421 2.80284428596497 -1.19606471061707 -3.28377461433411 -0.149058982729912 16.1688575744629 24.9546222686768 10.5579090118408 -0.885667026042938 -0.851166307926178 -0.827978849411011 0.782550573348999 1.27946782112122 1.89596486091614 2.13857650756836
4.79139137268066 6.985764503479 5.8040714263916 8.85025978088379 11.5288667678833 9.63445854187012 9.65536880493164 8.85272979736328 17.620475769043 18.8896808624268 27.1495761871338 22.5496616363525 20.4611625671387 4.75512075424194 4.05122184753418 5.18085670471191 4.8221173286438 5.26171398162842 5.08129739761353 5.33179187774658 5.2690863609314 5.33106470108032 5.53398132324219 5.28821229934692 5.31788873672485 9.53316783905029 10.2344751358032 13.2673358917236 14.337929725647 12.6973075866699 10.0097093582153 13.6432209014893 13.5439834594727 21.6546459197998 5.36602401733398 7.98274564743042 2.31386923789978 2.24098873138428 2.20404767990112 2.4585120677948 2.95770573616028 2.54991888999939 3.86553287506104 14.0449314117432 25.7866764068604 6.79411315917969 12.7870235443115 1.25233685970306 15.3611316680908 6.92935132980347 0.692449331283569 0.153519034385681 8.89075088500977 10.4762592315674 7.56436538696289 -0.0168429855257273 2.7573504447937 4.86685514450073 6.76130247116089 6.87048482894897 19.9474697113037 14.3392353057861 13.0247373580933 22.9054870605469 37.1777954101562 34.2560119628906 37.9306640625 33.9152030944824 29.0955581665039 37.7925338745117 22.5943450927734 14.2960691452026 3.74368047714233 8.76568508148193 7.21549797058105 8.0404167175293 8.70979690551758 5.7115912437439 3.11189103126526 9.72811126708984 16.5550479888916 11.7726230621338 13.3030786514282 12.3123645782471 19.8972072601318 17.4683494567871 16.6055603027344 12.1456594467163 15.0805025100708 3.57858037948608 3.93956637382507 26.6121006011963 40.796947479248 19.4433879852295 8.91226768493652 36.9259986877441 39.884822845459 16.531644821167 4.26576328277588 8.3630428314209 9.04998111724854 -1.26803886890411 -3.7233555316925 8.97869682312012 17.754280090332 1.89162039756775 1.19003629684448 6.5444188117981 -2.73235201835632 0.257668524980545 13.6713466644287 -1.86874628067017 -1.79317307472229 -2.3305721282959 -3.15302062034607 -2.73004055023193 -2.15788626670837 -0.52588278055191 -0.38872703909874 -0.243637964129448 0.00807523634284735 0.109637305140495 0.152414470911026 6.78080987930298 3.64740777015686 -3.66671085357666 -3.5943808555603 -3.84588956832886 -3.72860050201416 -0.262402206659317 -0.734226524829865 8.4354362487793 2.9215362071991 -2.11107325553894 -4.81704568862915 -3.9017128944397 2.29090142250061 1.98783111572266 1.5708886384964 3.21169114112854 1.82822597026825 2.91908264160156 9.10299968719482 14.5793514251709 23.8064613342285 17.5947761535645 12.3360109329224 -1.27119088172913 -3.70134615898132 5.77934122085571 15.7016324996948 4.57888460159302 9.46406269073486 -4.13340759277344 -3.07375192642212 -2.64915752410889 4.52600479125977 -1.54063510894775 0.459154844284058 -2.30942320823669 -2.07513570785522 -3.73739886283875 -1.00271689891815 -0.916081607341766 2.9617555141449 11.3359413146973 1.56690084934235 -1.40690088272095 4.07682657241821 4.40130519866943 -0.50903856754303 1.11008191108704 1.74208748340607 1.9908686876297
4.77817010879517 5.68908882141113 6.46552133560181 8.62977409362793 10.6607398986816 9.13798904418945 9.22410011291504 8.29417419433594 15.5686874389648 16.614875793457 19.4590682983398 14.2708902359009 16.5616054534912 4.53190851211548 30.9102458953857 4.73110437393188 4.76344203948975 5.17111158370972 4.98257064819336 5.20499849319458 5.14654874801636 5.12283086776733 5.43741369247437 5.18473958969116 4.87686443328857 8.78249454498291 9.16600608825684 12.1062831878662 13.0544099807739 11.490348815918 9.13183975219727 11.9458599090576 11.7631959915161 16.9587421417236 29.7968235015869 2.03599572181702 11.949951171875 10.0316982269287 4.18675756454468 1.66397595405579 2.33347082138062 1.95796418190002 1.55737841129303 9.16513442993164 3.41905736923218 10.5355739593506 15.4985256195068 7.51410913467407 8.14996147155762 0.464861422777176 0.50892847776413 28.1610355377197 2.76705408096313 2.91648268699646 2.97512722015381 11.6319570541382 0.205108478665352 3.61152195930481 5.19282531738281 5.36466312408447 13.4732999801636 10.7118701934814 19.799825668335 21.7296276092529 19.0952777862549 18.4571266174316 24.4830513000488 18.846118927002 11.4567232131958 22.5783367156982 20.7706928253174 12.6948957443237 12.4685411453247 4.23094511032104 6.07576942443848 3.33585381507874 4.72707509994507 5.48572397232056 24.7838611602783 10.4280242919922 10.3102931976318 7.9783182144165 7.24879312515259 10.3713045120239 16.0791702270508 14.3884229660034 15.6446561813354 27.2559661865234 10.8964071273804 3.29384636878967 2.04616332054138 20.9971618652344 25.3526630401611 14.2713499069214 3.85955286026001 31.9101657867432 18.8807430267334 5.14357471466064 2.83791136741638 6.0312614440918 5.22673511505127 9.91794300079346 -4.38454580307007 -0.767899513244629 5.18442153930664 4.30496454238892 -3.43679141998291 -3.06308841705322 -0.00268289819359779 26.4715557098389 -1.0157482624054 -3.11215996742249 -3.34107041358948 -3.72346448898315 -3.68995380401611 -3.57365942001343 -3.10130405426025 -1.94036865234375 -0.525769233703613 -0.391407996416092 -0.0518185459077358 -0.114498011767864 -0.0942775756120682 5.84007835388184 3.01714205741882 9.47358417510986 -3.78770995140076 -3.99247574806213 -3.90208959579468 -2.78178215026855 -4.033531665802 0.774404108524323 -1.77023482322693 -3.62052130699158 -4.89202928543091 1.04180598258972 1.47283399105072 2.09695315361023 2.58959078788757 2.17423129081726 6.43987846374512 1.64517724514008 3.48483514785767 13.2310428619385 18.9550819396973 40.6000061035156 8.87579822540283 -2.81420755386353 5.99708271026611 -3.68255400657654 9.80257511138916 6.00903701782227 17.4276351928711 14.4468002319336 -3.19952917098999 -2.92323040962219 12.6224012374878 -1.54727220535278 -1.75123906135559 -2.62758946418762 -3.60054850578308 -4.17189931869507 -3.6944625377655 -3.05665922164917 -2.21171092987061 -1.59973585605621 -1.08349442481995 13.8585844039917 2.32098436355591 -0.982156813144684 -0.856958866119385 -0.260593384504318 1.52346467971802 1.83227109909058
4.76918315887451 4.61813497543335 5.14789056777954 8.1543025970459 10.0388641357422 8.64090824127197 8.62503623962402 7.92619180679321 12.0242147445679 14.743839263916 17.216817855835 13.547926902771 6.49664926528931 4.36676931381226 17.761531829834 4.34327077865601 4.70555973052979 5.09118270874023 4.75244903564453 5.12532567977905 5.09351587295532 5.10965585708618 5.40094470977783 5.00246143341064 4.7067928314209 8.00802707672119 8.19841384887695 10.8959131240845 11.7971038818359 10.3054208755493 8.20613861083984 10.4071264266968 13.4913139343262 14.4591617584229 20.7557029724121 33.6571960449219 37.1625823974609 9.08474063873291 4.85963439941406 20.1636505126953 19.3089904785156 9.33236408233643 25.5826301574707 17.1996479034424 30.8329792022705 10.509801864624 11.5501976013184 43.8480377197266 31.6321887969971 32.7897605895996 0.343106627464294 3.50703978538513 -0.195185542106628 0.771173298358917 -0.0276067964732647 5.83446598052979 4.41116380691528 12.1974964141846 5.12568616867065 4.56369161605835 4.7089376449585 19.4045639038086 15.249249458313 16.0200176239014 14.9450664520264 22.5179767608643 15.3723793029785 16.5455322265625 30.4171714782715 19.037166595459 13.0778360366821 1.60534572601318 4.52994823455811 3.90181732177734 5.42522478103638 13.0722169876099 3.10138893127441 8.22973346710205 13.6939859390259 12.0441818237305 7.06557369232178 2.90644979476929 4.30903196334839 3.94996953010559 10.9385204315186 10.6071119308472 11.6320762634277 8.13715744018555 6.23088407516479 1.98981833457947 1.22886765003204 14.0105581283569 19.1555690765381 14.8005657196045 26.423620223999 23.1065311431885 16.334774017334 8.82925987243652 24.6665096282959 27.6303024291992 10.2530727386475 2.17703342437744 11.2819890975952 -4.35946130752563 2.03228831291199 1.39502918720245 5.5603494644165 -1.31064307689667 -1.22446405887604 4.26539421081543 -1.70946085453033 1.77719688415527 -0.445789247751236 11.633204460144 6.63066864013672 -3.9185471534729 -3.93340635299683 -2.98447299003601 -2.17799782752991 -0.54456639289856 -0.171893894672394 -0.417837560176849 -0.44480112195015 4.93367910385132 2.31450152397156 2.00263428688049 8.23184680938721 9.670485496521 -1.26743805408478 -4.18952083587646 -4.48172187805176 -0.560167074203491 -2.74540781974792 1.09527039527893 -2.51727080345154 20.2001132965088 0.887855112552643 -0.0449161566793919 1.60095369815826 0.583371520042419 0.124872542917728 0.962046265602112 2.66187071800232 8.21881866455078 15.2635078430176 26.5674514770508 6.69268751144409 -2.47534775733948 -4.29583692550659 8.28617477416992 14.0112886428833 26.3886432647705 7.98428821563721 1.05755925178528 9.49735641479492 -4.13849306106567 -4.63385152816772 -2.80200028419495 -2.73020458221436 -3.38912034034729 4.75107717514038 -1.66972148418427 13.3364744186401 3.35608506202698 0.0550075955688953 -1.63200104236603 -1.60683381557465 13.2324733734131 1.46784710884094 -1.02310252189636 12.1894884109497 -0.569272935390472 -0.0399214588105679 1.67169272899628
