NCOLS 174
NROWS 32
XLLCORNER 353856
YLLCORNER 6701152
CELLSIZE 16 
NODATA_value -3.4e+38 
8.12800788879395 7.44453716278076 6.71913433074951 3.36070609092712 1.51963722705841 0.9653240442276 0.72457492351532 21.3253383636475 0.0580189116299152 0.0172377470880747 -1.16843438148499 7.93957376480103 0.806564748287201 -1.92975008487701 8.31112289428711 8.69402694702148 4.01535844802856 9.22659111022949 9.0037670135498 2.14900207519531 14.3153514862061 11.8307409286499 10.7385473251343 6.78924560546875 11.5146379470825 6.90271472930908 13.729344367981 5.82973766326904 20.3197689056396 5.05820322036743 4.5199294090271 8.5520601272583 4.09200954437256 3.75745868682861 3.34453177452087 4.49691963195801 22.2497386932373 2.57184934616089 3.88977813720703 1.9644478559494 1.19389045238495 8.99927425384521 1.28198206424713 27.5801963806152 9.23643112182617 20.0992851257324 4.34454727172852 10.2707433700562 12.0540561676025 22.9202537536621 10.9846811294556 7.42600536346436 5.27504301071167 8.9745922088623 1.88651049137115 1.30495274066925 1.30313348770142 5.63768339157104 7.9170126914978 8.21793079376221 50.0488128662109 10.0124082565308 14.6175146102905 8.07457160949707 8.29611968994141 17.0060138702393 13.6753091812134 26.1321029663086 20.0615673065186 16.1833744049072 24.2295360565186 11.2925138473511 23.969747543335 10.0789232254028 27.1290626525879 14.901047706604 10.441198348999 9.21367454528809 8.69137477874756 8.2190113067627 8.00485515594482 7.83320426940918 7.71565914154053 7.51629877090454 7.3742790222168 7.28355693817139 7.20241451263428 7.11019706726074 6.99359130859375 6.87601327896118 6.35528755187988 6.23375558853149 6.11180210113525 5.99671030044556 5.87073802947998 5.72981977462769 5.59116458892822 5.47700929641724 5.34602117538452 4.67785596847534 27.276704788208 14.4968376159668 4.62844038009644 20.7442493438721 10.7236747741699 7.21985292434692 5.52446842193604 4.84265756607056 5.42471075057983 4.55273389816284 3.92643594741821 3.44184446334839 3.06980609893799 2.778644323349 2.47098517417908 2.25484299659729 2.08800888061523 1.93437945842743 2.09558939933777 1.48815822601318 0.754405915737152 15.06236743927 8.97002029418945 0.409298002719879 18.6573753356934 10.3102970123291 9.86738586425781 7.44452476501465 6.2731466293335 7.58785438537598 0.274365961551666 23.2364482879639 10.7263441085815 6.14023208618164 19.3627433776855 9.97862815856934 6.69155311584473 5.07476854324341 3.57904052734375 3.07303094863892 2.70249724388123 2.40120363235474 2.16707491874695 1.97362077236176 1.81815207004547 1.66841721534729 1.53856635093689 1.24306166172028 1.16020941734314 1.08643007278442 1.8610668182373 0.78669399023056 0.769496619701385 -0.417884439229965 30.9794788360596 13.3165349960327 12.2784700393677 9.90202713012695 10.310001373291 4.55115795135498 10.4549283981323 5.11165952682495 3.41899919509888 2.57149457931519 1.67176306247711 1.50704765319824 1.3727844953537 1.27085161209106 1.0814608335495 1.00184464454651 0.754966557025909 0.599248290061951 0.563354671001434 -0.653850674629211
7.25015354156494 3.1286473274231 2.42943143844604 1.67732417583466 0.191302761435509 -0.521432280540466 3.6863055229187 11.2061185836792 14.2654867172241 2.22804379463196 -0.547971606254578 -1.57614016532898 3.64173698425293 -1.83781695365906 -1.98606503009796 -2.23323178291321 5.39761638641357 4.75284099578857 4.07433700561523 21.2440433502197 9.60612487792969 12.1888933181763 7.71319532394409 17.2757816314697 7.33844518661499 4.92042827606201 26.1585254669189 7.74065542221069 14.8968362808228 6.66835021972656 5.9237642288208 8.41150665283203 6.93413877487183 21.5583248138428 8.30972194671631 3.27047109603882 14.0431652069092 3.70036363601685 2.45404815673828 4.33143520355225 3.02136921882629 1.74695003032684 8.33861446380615 6.29695177078247 4.88598680496216 3.89348888397217 2.85865139961243 10.1147680282593 39.5768737792969 24.50950050354 13.6314325332642 7.12439393997192 2.29847240447998 1.95887887477875 6.42441987991333 1.70384097099304 5.63114643096924 2.54865574836731 2.11171197891235 1.99630641937256 36.4467391967773 44.5438346862793 17.9904232025146 15.5982027053833 7.91110372543335 40.0305786132812 32.1008453369141 21.2822589874268 16.3785076141357 27.7347774505615 16.9447975158691 13.0450897216797 9.86412906646729 27.1220378875732 15.1665163040161 10.5824851989746 9.21692752838135 8.85419368743896 8.53029727935791 8.25169944763184 7.55538129806519 7.41110420227051 7.19115209579468 6.96771192550659 6.84239482879639 6.7230019569397 6.63266849517822 6.56118249893188 6.48292207717896 6.38673305511475 6.52010297775269 6.40749216079712 6.29735565185547 6.18821716308594 6.06133556365967 5.92722606658936 5.79130268096924 5.66487073898315 5.47119951248169 4.49938917160034 31.627067565918 17.1297664642334 11.5068855285645 3.20614767074585 25.8251209259033 13.6262922286987 9.18872451782227 6.91132831573486 6.37945652008057 5.35977935791016 4.61835336685181 4.04806900024414 3.60749697685242 3.24154877662659 2.92951989173889 2.67982697486877 2.48358345031738 2.29226803779602 1.41001832485199 1.33660137653351 0.718757152557373 0.612683534622192 21.1846160888672 0.370842009782791 0.186073541641235 29.1588401794434 18.6546154022217 12.7789754867554 9.65383911132812 5.35888004302979 1.56860244274139 11.1377038955688 0.898724019527435 8.04331493377686 13.0462551116943 7.15964984893799 5.385666847229 3.38536071777344 2.51347136497498 2.1546094417572 1.89721775054932 3.09075498580933 2.90297412872314 2.74092411994934 2.58713412284851 2.46037364006042 2.31731414794922 2.20798659324646 2.09404587745667 1.96008598804474 0.846130609512329 1.29647707939148 0.790811836719513 0.453079521656036 6.52908897399902 1.84818577766418 3.28441786766052 9.86160373687744 6.00339365005493 4.0756368637085 3.05754709243774 1.57434725761414 1.39767491817474 1.25249767303467 1.14109396934509 1.02799022197723 0.908492505550385 0.810719966888428 0.524330139160156 0.513371646404266 0.499265968799591 0.652905941009521 0.629466712474823 -0.0129311736673117
3.61092185974121 2.29821705818176 2.21610116958618 0.772833228111267 -0.675024151802063 -1.03955554962158 -1.26854348182678 9.69074153900146 -1.60010945796967 30.7797470092773 1.60206770896912 10.5459642410278 -0.437178254127502 -2.14343643188477 -1.97520732879639 -2.2356481552124 -2.31433606147766 3.76915097236633 10.2398710250854 5.22981595993042 12.6674118041992 3.79337167739868 4.41628742218018 13.4465351104736 11.4270009994507 8.60985851287842 3.73719644546509 15.237455368042 10.0658931732178 7.66764354705811 3.43810606002808 30.465705871582 23.9163856506348 13.4324932098389 9.65240669250488 5.54843854904175 3.91997480392456 9.04185962677002 7.05625152587891 4.48497486114502 3.90484619140625 2.91535973548889 7.62942790985107 5.02256488800049 2.49168753623962 2.42832589149475 19.9475765228271 12.9849109649658 13.7458591461182 25.9888362884521 6.33422183990479 3.31450581550598 3.06291627883911 2.80746531486511 10.3570604324341 2.44103693962097 2.15933299064636 7.40025568008423 13.3847951889038 5.57963275909424 14.3552417755127 33.1427917480469 23.3205852508545 18.9980392456055 21.1477870941162 13.3664894104004 29.5837364196777 13.3212671279907 24.4729499816895 10.7890968322754 9.74966430664062 36.9500312805176 21.0339698791504 14.9112796783447 11.6500730514526 9.01329231262207 8.63941669464111 8.33074188232422 8.04312133789062 7.76384687423706 7.88307762145996 7.6905632019043 7.46340990066528 7.25839567184448 7.08886528015137 6.93497800827026 6.79993534088135 6.69623565673828 6.61386013031006 6.53201341629028 6.43087720870972 5.09586048126221 5.03661251068115 5.41815900802612 5.33997392654419 5.24465036392212 5.14749002456665 5.0168309211731 4.86387538909912 4.19421625137329 4.02421188354492 3.93626666069031 3.83147430419922 3.16165018081665 28.3811302185059 15.8919506072998 10.7608346939087 8.11938095092773 3.89471507072449 3.34972858428955 2.93109941482544 2.62144422531128 2.36020922660828 2.12909388542175 1.94543552398682 1.78470003604889 1.63610887527466 1.24616718292236 1.21288657188416 1.15679466724396 1.05778622627258 2.12373471260071 1.05436933040619 1.02999174594879 0.438381314277649 1.93868386745453 16.0401706695557 12.565055847168 8.44983386993408 6.24792814254761 3.78959321975708 7.44969177246094 5.17680358886719 13.5314521789551 7.29372596740723 5.13265752792358 4.63199234008789 4.22150802612305 3.8838415145874 3.59172749519348 3.3370623588562 1.41298985481262 2.18125176429749 2.0480010509491 1.92082154750824 1.81398832798004 1.72130942344666 1.62528216838837 1.51685976982117 1.4130527973175 1.36152613162994 0.928506195545197 0.942442953586578 0.389091670513153 12.6461181640625 6.35876417160034 4.19822978973389 3.13393020629883 0.743188083171844 0.724665462970734 0.700746536254883 0.676235914230347 0.874571204185486 0.846758186817169 0.82191401720047 0.802952289581299 0.774061858654022 0.738826334476471 0.71053820848465 0.693546235561371 0.672373294830322 0.522842705249786 0.63336968421936 -0.156402364373207
2.59542512893677 2.11202478408813 1.52584385871887 -0.011700932867825 -1.15270256996155 -1.34113395214081 -1.50115382671356 -1.54535245895386 -0.148444265127182 8.48025321960449 4.22856950759888 3.19738531112671 1.5567889213562 -2.63201212882996 6.02575731277466 -2.21251201629639 -2.71479463577271 -2.79141092300415 0.274085193872452 11.9417476654053 6.82963943481445 6.0056939125061 8.87443923950195 2.88344931602478 16.7686595916748 14.8084487915039 1.66221761703491 9.78577327728271 3.27587008476257 13.426944732666 1.60390031337738 15.7886266708374 9.24588775634766 0.706156313419342 0.515829265117645 15.3443698883057 6.52097988128662 22.8064880371094 9.468337059021 6.64290285110474 6.12047100067139 6.16209554672241 2.94057178497314 20.9604225158691 9.6032133102417 6.32593965530396 5.83364534378052 14.9681940078735 13.1501045227051 9.87127780914307 4.5399603843689 4.15167045593262 3.91690850257874 15.8938074111938 3.57024574279785 2.82902026176453 2.70956063270569 22.1579551696777 18.5573253631592 11.294527053833 10.7847700119019 39.8496971130371 37.1410865783691 14.3599252700806 46.7535133361816 24.0706882476807 21.6307907104492 14.6946029663086 9.96436309814453 18.7824859619141 26.8218250274658 15.6707773208618 11.8864755630493 10.5405511856079 10.0408353805542 9.59287929534912 9.20286178588867 8.86253643035889 8.52931785583496 8.25622940063477 7.9838171005249 6.01754713058472 5.70913076400757 5.58619594573975 5.99441766738892 5.87963724136353 5.76628637313843 5.68012380599976 5.62212896347046 5.58629894256592 5.55322933197021 5.50470113754272 5.44465303421021 5.36315011978149 5.07686614990234 5.00905847549438 4.92085027694702 4.57023763656616 11.6067800521851 6.0848970413208 4.06547355651855 4.40608835220337 2.83066582679749 6.90323734283447 10.8033103942871 6.26821613311768 5.82008504867554 4.16323471069336 2.7286319732666 2.53783893585205 2.34291243553162 1.9684499502182 1.69034588336945 1.45483088493347 1.34475243091583 1.30296838283539 1.26441323757172 1.24039423465729 1.20503568649292 1.17225432395935 1.00805735588074 1.00742042064667 0.993780255317688 1.91847026348114 0.987460672855377 0.414232224225998 -0.0678380951285362 38.1832809448242 21.5283679962158 12.813684463501 9.64220809936523 1.49897289276123 11.8567276000977 6.1152548789978 4.59140777587891 4.05772686004639 3.61580848693848 3.26266407966614 2.97950553894043 2.74105191230774 2.52821898460388 2.35357093811035 1.55558919906616 1.6197669506073 1.5238744020462 1.42487335205078 1.34830629825592 1.26806402206421 1.12390053272247 1.08370757102966 1.03416085243225 0.989709377288818 1.24810326099396 1.19710910320282 1.14915084838867 1.10085809230804 1.06184756755829 1.02439701557159 0.997246861457825 0.963806390762329 0.929780423641205 0.904800415039062 0.71088719367981 0.84339839220047 0.818050742149353 0.796016037464142 0.769576191902161 0.735451877117157 0.704125225543976 0.688555419445038 0.667696475982666 0.651626706123352 0.576888620853424 -0.771380424499512
3.2624204158783 2.21340346336365 1.26409661769867 -0.114619448781013 -1.11403334140778 -1.96526980400085 -2.19470858573914 -2.57952046394348 0.587758123874664 -1.44379305839539 12.9611825942993 9.20653820037842 6.82394886016846 2.60673546791077 -1.84205758571625 12.4482202529907 3.51771354675293 -0.64447295665741 7.14366292953491 -0.848927676677704 6.82070255279541 3.62300753593445 1.7164865732193 12.0317716598511 16.1297702789307 6.94571447372437 2.63231801986694 1.14602327346802 4.37256622314453 7.99645042419434 0.919008731842041 0.399900108575821 6.88766002655029 1.00889492034912 7.84652614593506 0.114113189280033 2.95414638519287 9.48619365692139 19.2396335601807 10.8500642776489 7.09277057647705 10.0592889785767 16.5596866607666 11.401294708252 9.79970836639404 6.68810129165649 23.4801616668701 13.8207626342773 13.9549751281738 7.57499122619629 5.81852436065674 5.17376852035522 3.92267990112305 7.54446506500244 12.3314161300659 3.01522588729858 4.83706283569336 11.4633083343506 40.7219047546387 21.10080909729 14.8433723449707 27.4872856140137 35.8448181152344 25.6300582885742 17.8692035675049 23.7184638977051 15.378101348877 14.7231569290161 12.7379417419434 27.3840198516846 14.3848276138306 12.0317029953003 8.68329429626465 7.44329214096069 7.6575345993042 7.49622535705566 7.30590724945068 7.11696815490723 6.94421339035034 6.7615818977356 6.60335969924927 6.45306968688965 6.31153774261475 6.16015529632568 6.01652860641479 5.58661317825317 5.47328662872314 5.37423515319824 5.30342054367065 5.26278829574585 5.2349157333374 5.19380140304565 5.14532327651978 4.85259962081909 4.69863367080688 4.50047254562378 3.9931378364563 17.2415046691895 11.0767755508423 7.46445751190186 5.59519052505493 3.30955576896667 3.23841619491577 2.74676012992859 2.71021294593811 2.5130090713501 10.5741262435913 5.54454231262207 3.81907773017883 2.90973281860352 2.21865701675415 1.43963181972504 1.39721608161926 1.35549020767212 1.31768274307251 1.28081727027893 1.24697494506836 1.21817481517792 1.18288350105286 1.08999300003052 1.00687301158905 0.740643382072449 9.91049861907959 1.07860803604126 9.9193000793457 0.492030680179596 9.26106643676758 0.153959810733795 21.6622047424316 11.8842792510986 8.30221748352051 4.55485582351685 12.9904413223267 6.66014242172241 4.66611623764038 3.88862681388855 3.27787303924561 2.84768629074097 2.50597715377808 2.24591088294983 2.03996086120605 1.87401187419891 1.74108719825745 2.09376096725464 1.96678781509399 1.85692608356476 1.75312066078186 1.61615121364594 1.48537981510162 1.43598306179047 1.37489700317383 1.31513822078705 1.02008402347565 1.20832431316376 1.1610335111618 1.11312711238861 1.0650942325592 1.03253090381622 1.00047993659973 0.962476193904877 0.932963013648987 0.90568470954895 0.878151416778564 0.774898767471313 0.547289967536926 0.530778884887695 0.507900714874268 0.48301112651825 0.45840710401535 0.439177393913269 0.434368848800659 0.427088171243668 0.393935561180115 -0.700883865356445
3.45897221565247 2.34614658355713 1.54511249065399 -0.135044127702713 -1.30649149417877 -1.62953650951385 -2.36892890930176 -2.60837435722351 -1.49472367763519 -2.63522887229919 -3.05478405952454 6.22597455978394 21.0434188842773 9.64653873443604 13.5538921356201 3.4445366859436 7.42661619186401 1.75524187088013 10.136812210083 8.64890193939209 5.7056770324707 4.50458908081055 1.03520059585571 8.58498287200928 7.47300624847412 4.76371765136719 1.27036821842194 3.74315524101257 0.31245619058609 23.3648090362549 0.110445506870747 1.07994902133942 -0.461252987384796 7.83382272720337 1.85990631580353 -0.27413022518158 -0.477512627840042 -0.494978845119476 17.1989688873291 13.9804573059082 11.8813638687134 11.5311450958252 6.88764524459839 6.26084136962891 14.5344839096069 18.1133995056152 10.8428554534912 15.1667003631592 10.0986671447754 10.0163736343384 6.942946434021 3.69214820861816 28.1647071838379 6.45848083496094 40.6435699462891 3.47328424453735 2.72072005271912 7.01002597808838 40.1028060913086 32.9147453308105 29.6324996948242 29.1671905517578 21.6155815124512 18.2429828643799 13.9013938903809 11.2371406555176 11.3255939483643 20.838508605957 11.3166227340698 10.3030548095703 9.42745208740234 8.8328685760498 8.4276647567749 8.10638618469238 7.80764007568359 7.07438707351685 6.88852977752686 6.72775983810425 6.57562494277954 6.43935108184814 6.29869413375854 6.15307950973511 6.01620435714722 5.87974071502686 5.45276021957397 5.207839012146 4.89254236221313 4.81006669998169 4.73432970046997 4.68688821792603 4.65406179428101 4.61468362808228 4.57913875579834 4.17008543014526 4.03904390335083 3.98850274085999 3.64167022705078 3.58385992050171 3.29889678955078 9.59367275238037 4.97466802597046 3.30703830718994 2.84912896156311 2.84828424453735 2.79440546035767 2.89428019523621 2.58228254318237 2.28682518005371 2.03207111358643 1.87355720996857 1.71679484844208 1.57469928264618 1.44900703430176 1.34098696708679 1.27852201461792 1.2429883480072 1.20946443080902 1.17595326900482 1.1466246843338 0.725332915782928 0.64771443605423 0.545822978019714 16.8519897460938 8.63872718811035 5.79501247406006 4.91138935089111 0.370022982358932 14.5673112869263 0.269805878400803 1.82086157798767 2.50041079521179 5.13569974899292 13.5262956619263 6.8245153427124 5.1157808303833 4.41685962677002 3.88092160224915 3.4852979183197 3.16211748123169 2.87222814559937 2.64364838600159 2.44508981704712 2.25723314285278 1.72922456264496 2.03650999069214 1.90447843074799 1.78661715984344 1.59457612037659 1.53918778896332 1.45768880844116 1.39183175563812 1.32806730270386 1.26714873313904 1.12001800537109 0.771141231060028 0.740016520023346 0.710967004299164 0.686687529087067 0.665672063827515 0.643209517002106 0.621557831764221 0.602089047431946 0.584532141685486 0.543572723865509 0.532035410404205 0.521109223365784 0.484624862670898 0.454528838396072 0.435231387615204 0.411110520362854 0.403778463602066 0.394829422235489 -0.230154603719711 -0.57206130027771
3.84925436973572 3.13578820228577 0.777431726455688 -1.05639457702637 -1.78098118305206 5.87255096435547 -2.56175374984741 -0.502918481826782 -2.66761684417725 -3.42254900932312 -3.45861887931824 -3.5320098400116 26.849573135376 26.7612171173096 19.0473289489746 11.4470977783203 2.69302034378052 -0.220192596316338 -0.346174836158752 2.40355324745178 8.80004024505615 1.27510416507721 19.4700412750244 8.88794231414795 2.7875645160675 2.61791968345642 2.14399790763855 3.8522036075592 0.456664741039276 0.203759267926216 4.99719047546387 1.48396110534668 1.55799889564514 3.41232752799988 -0.334304600954056 -0.641312181949615 6.26652431488037 13.5217571258545 7.94911670684814 7.84027719497681 11.6462821960449 6.95744466781616 7.94522094726562 6.46414709091187 21.0622234344482 33.8229484558105 20.3376483917236 14.1989974975586 6.86053848266602 9.38506412506104 5.61263847351074 5.06625986099243 4.70690155029297 6.56098699569702 19.035472869873 22.3735427856445 12.1355113983154 9.76258277893066 9.18963241577148 27.3867721557617 31.156120300293 24.8712959289551 21.1957378387451 16.4577922821045 12.4220113754272 10.8739624023438 28.2591209411621 15.7198429107666 11.0084943771362 10.0209302902222 9.144850730896 8.43084812164307 7.96708536148071 7.66511154174805 7.05578374862671 6.69123268127441 6.08242845535278 5.92508029937744 5.82894563674927 5.74856805801392 5.64015960693359 5.51639747619629 5.38678884506226 5.26586961746216 4.6795654296875 4.45301246643066 4.34403085708618 4.04436635971069 3.99794459342957 3.74804186820984 3.72148942947388 3.69328689575195 3.67647957801819 3.66119241714478 3.64789581298828 3.60213971138 3.22182273864746 3.1922779083252 3.13942050933838 3.00689482688904 2.62505578994751 13.257396697998 6.84273338317871 4.55006742477417 3.47141408920288 2.56965184211731 2.00269818305969 1.96848833560944 1.48797857761383 1.46071803569794 1.42666709423065 1.38254582881927 1.31022715568542 1.25511837005615 1.22458899021149 1.19363880157471 1.16089379787445 1.12433791160583 0.553586065769196 6.48360157012939 1.18698394298553 2.85161304473877 13.5534505844116 6.04642152786255 4.00079774856567 3.26722741127014 2.35610198974609 0.472840189933777 0.110648699104786 14.486273765564 10.3418111801147 9.9965934753418 7.58638381958008 4.88288307189941 5.91385698318481 5.29602479934692 4.43949031829834 3.82421731948853 3.35404849052429 3.02357816696167 2.75808835029602 2.5282576084137 2.34377574920654 2.17681312561035 1.9348669052124 1.28574705123901 1.15162515640259 1.05304062366486 1.02124786376953 0.972405910491943 0.926909148693085 0.886274755001068 0.84555846452713 0.768292605876923 0.73395973443985 0.704050242900848 0.678472280502319 0.653699219226837 0.627196490764618 0.61372971534729 0.741943836212158 0.861261010169983 0.84187239408493 0.823214888572693 0.805642366409302 0.78680557012558 0.667131125926971 0.405259400606155 0.383414745330811 0.209230452775955 1.86686301231384 1.16782796382904 0.141490831971169 0.914293467998505
4.1140923500061 2.63068175315857 1.21276521682739 -0.488629162311554 -1.7155510187149 -2.16021299362183 -2.7952184677124 3.81965804100037 -2.90223431587219 -3.05259299278259 -3.4967885017395 4.4403018951416 6.15284442901611 13.7767114639282 6.43042516708374 4.14708805084229 5.74703454971313 2.9110095500946 4.75001907348633 0.367068886756897 4.81666326522827 13.2205038070679 8.93067646026611 4.23832130432129 2.26719689369202 0.81523734331131 6.91123676300049 -0.232233643531799 14.5187540054321 0.401081293821335 23.9591369628906 5.01375913619995 2.49261832237244 1.15118277072906 -0.195909768342972 -0.441820174455643 8.80416011810303 -0.53855699300766 12.8889427185059 11.6816005706787 9.95899486541748 7.01162195205688 13.5454072952271 25.6590213775635 21.5876884460449 14.6687717437744 28.3482780456543 8.47393798828125 7.4537558555603 3.90688276290894 2.27243685722351 5.98412799835205 30.2831859588623 20.6230278015137 23.7772521972656 14.0122718811035 8.19397258758545 8.74725246429443 8.12652683258057 33.333984375 25.2692356109619 15.6103982925415 33.7515144348145 13.0285539627075 29.6609210968018 16.6554737091064 11.6785554885864 10.1855335235596 8.88780784606934 8.21034717559814 7.78757905960083 7.44213819503784 7.13529300689697 6.82470035552979 5.97202157974243 5.69585514068604 5.461989402771 4.82571077346802 4.74345064163208 4.6698112487793 4.51816987991333 4.44023036956787 4.34161376953125 4.22384023666382 4.11828088760376 4.01535081863403 3.92798185348511 3.43972039222717 3.38939094543457 3.36436438560486 3.35640788078308 3.34767389297485 3.34377932548523 3.22080683708191 3.16712021827698 3.12240314483643 3.08473515510559 3.05765104293823 3.01960134506226 2.96732211112976 2.84470558166504 2.75911641120911 2.53468060493469 2.47680020332336 2.43086218833923 2.09579491615295 1.51728343963623 1.42468416690826 1.40975892543793 1.3833920955658 1.35714042186737 1.31797456741333 1.26526045799255 1.19268786907196 1.16170680522919 1.13625335693359 1.10661613941193 1.06871974468231 0.598792254924774 3.16059136390686 0.924280762672424 1.73993372917175 11.6391382217407 4.97823762893677 3.19827604293823 0.983300983905792 0.444934487342834 15.8203048706055 0.222008228302002 0.0871408805251122 3.36016082763672 24.4781761169434 12.8593521118164 8.66127109527588 6.63072967529297 3.34973382949829 2.9130494594574 2.55316543579102 2.26344442367554 2.04353547096252 1.84331262111664 1.69218599796295 1.57880032062531 1.47080481052399 1.2946857213974 1.20639419555664 1.03288674354553 1.02783215045929 0.973433971405029 0.92581570148468 0.882359266281128 0.943910837173462 1.09400522708893 1.06287634372711 1.03325116634369 1.00329399108887 0.974576830863953 0.948196649551392 0.926581263542175 0.907214462757111 0.883258700370789 0.753507614135742 0.473951697349548 0.464285284280777 0.45303738117218 0.688494324684143 0.671057403087616 0.641013324260712 0.610365092754364 0.997953653335571 0.209580272436142 0.198634415864944 1.32730543613434 -0.248871594667435
13.419903755188 2.44508981704712 2.12908244132996 0.441716015338898 -1.8074586391449 -2.43863153457642 -2.94933199882507 -3.19676232337952 -3.29757380485535 -3.53669285774231 -3.24100184440613 -3.40033745765686 9.77427387237549 2.43234443664551 16.4239120483398 13.2044477462769 22.2354106903076 14.6053171157837 5.74543046951294 3.18612337112427 1.05622029304504 8.07307147979736 3.87235927581787 15.6197576522827 1.75126540660858 17.636775970459 3.42901277542114 0.128775656223297 3.23338437080383 1.60568761825562 0.822957515716553 10.9859504699707 -0.0672988444566727 3.05533146858215 1.29401338100433 -0.490566790103912 2.53585648536682 7.11410522460938 7.56899929046631 5.98796892166138 8.88968372344971 8.47412490844727 7.59871292114258 25.2642955780029 15.2992792129517 24.1833400726318 18.9504680633545 6.65153503417969 4.7939920425415 3.44924330711365 1.82002305984497 14.8549165725708 12.023078918457 15.0491962432861 13.683177947998 26.9203796386719 14.4443893432617 10.0662899017334 32.4459190368652 17.8977298736572 10.0051069259644 9.22970962524414 8.51204776763916 40.5578002929688 24.1098136901855 16.8642845153809 13.009105682373 10.2160978317261 10.1797971725464 8.71031093597412 7.56010007858276 6.70173788070679 6.16589403152466 5.74446058273315 5.37906789779663 5.13370084762573 4.92019414901733 4.26817417144775 4.17148590087891 4.15302085876465 4.09574413299561 3.8977837562561 3.79725909233093 3.69605827331543 3.6156051158905 3.54754257202148 3.48541760444641 3.44207262992859 3.33664441108704 3.27182579040527 3.53163242340088 3.43932342529297 3.4257550239563 3.08735609054565 3.07056069374084 3.02541279792786 2.98738622665405 2.95978212356567 2.92020201683044 2.66635179519653 2.30235433578491 2.25075054168701 2.20406818389893 2.16968631744385 2.03093552589417 1.7110767364502 1.53902971744537 1.34409368038177 1.32754337787628 1.30627250671387 1.27382671833038 1.23994266986847 1.2111873626709 1.16661298274994 1.11608362197876 1.09547817707062 1.06531500816345 0.767682433128357 0.58318018913269 1.42036914825439 7.91604232788086 1.33681428432465 4.24814128875732 6.31984806060791 2.6034848690033 1.9271764755249 1.53458213806152 13.716362953186 1.39268445968628 0.30786520242691 18.5458679199219 9.72025394439697 6.53249979019165 4.90494775772095 3.70718240737915 3.14020252227783 2.72523045539856 2.37038159370422 2.12200307846069 1.92196071147919 1.73434579372406 1.59047770500183 1.58057796955109 1.52253842353821 1.45795977115631 1.37963509559631 1.30842423439026 1.28647720813751 1.24328005313873 1.20186471939087 1.16450226306915 1.12626552581787 0.962112367153168 0.645468473434448 0.618720293045044 0.597727000713348 0.870940923690796 0.845993638038635 0.824189186096191 0.801119565963745 0.782440304756165 0.761305809020996 0.740454435348511 0.720132648944855 0.70227187871933 0.543123126029968 0.707746505737305 0.674933910369873 0.650300562381744 0.647558271884918 0.624136328697205 0.442942202091217 0.75812041759491 -0.340894132852554
2.13452529907227 20.045503616333 5.74558734893799 0.315292298793793 -1.94031202793121 6.87173414230347 -2.36150217056274 -2.83928871154785 -3.60675692558289 7.45330190658569 2.17064142227173 0.598337411880493 13.9127569198608 3.32678771018982 8.47421360015869 17.9013500213623 24.3861503601074 9.23630142211914 6.50061655044556 5.1894154548645 1.79961037635803 1.51847839355469 12.3384304046631 5.55519342422485 2.50635457038879 1.22625648975372 0.521727383136749 0.571446716785431 1.12508261203766 1.26583790779114 1.39631140232086 0.740136861801147 0.344676494598389 2.61778402328491 16.1644039154053 6.89092350006104 2.53678488731384 15.5221366882324 12.473596572876 11.3595476150513 10.7523994445801 10.6261529922485 9.79444313049316 12.0670680999756 8.59633255004883 10.0389223098755 8.97795867919922 3.79711651802063 27.9814949035645 4.77850532531738 2.34954571723938 19.6274166107178 14.1552381515503 11.1438407897949 18.0262393951416 10.0994901657104 26.7661266326904 9.02727508544922 19.8168849945068 8.58292865753174 5.29018545150757 8.73228168487549 34.3805465698242 6.90388536453247 41.4985656738281 24.060791015625 16.8370933532715 13.1741628646851 7.67584562301636 7.03397941589355 6.48277807235718 6.10435581207275 5.59869575500488 5.10325717926025 4.81436491012573 4.58515787124634 4.36844062805176 4.17245149612427 4.01524305343628 3.94618630409241 3.9188346862793 3.79919838905334 3.67412567138672 3.91038489341736 3.84183382987976 3.77061915397644 3.70996356010437 3.66724967956543 3.21720218658447 3.19875407218933 3.2183837890625 3.19688415527344 3.18173789978027 3.14960813522339 2.79130148887634 2.75839638710022 2.416583776474 2.37652444839478 2.33807921409607 2.20258092880249 1.86300027370453 1.81459784507751 1.78201055526733 1.74566602706909 1.71982502937317 1.35394704341888 1.31373012065887 1.2940092086792 1.27845013141632 1.25108194351196 1.21175861358643 1.18800735473633 1.14961397647858 1.12625372409821 1.09556698799133 1.06002974510193 0.560970902442932 0.443038880825043 21.7664909362793 4.68666791915894 0.974818885326385 0.385930776596069 2.50022530555725 2.85158586502075 0.858516991138458 0.838462591171265 15.4475040435791 4.76935386657715 0.708458065986633 0.567920446395874 17.5237045288086 9.07237911224365 6.19489336013794 4.66491222381592 2.32620978355408 2.19125747680664 2.08055210113525 1.97227084636688 1.87647128105164 1.78922212123871 1.70797085762024 1.63333940505981 1.40238928794861 1.07972431182861 1.00902473926544 0.881191849708557 1.23196530342102 1.12151622772217 1.65176498889923 1.10338091850281 1.06572449207306 1.02216327190399 0.986819922924042 0.958799302577972 0.930566489696503 0.90323007106781 0.693365573883057 0.904278993606567 0.87766444683075 0.854030013084412 0.832009613513947 0.837505042552948 0.820924043655396 0.767401874065399 0.746805667877197 0.72757351398468 0.633671879768372 0.559057235717773 0.547125518321991 0.494323283433914 0.484940230846405 0.478756278753281 0.429090023040771 0.49695211648941
3.01389312744141 1.71811187267303 1.66673147678375 1.32901322841644 -0.939312398433685 -2.67542123794556 -3.40882754325867 -3.9005560874939 2.71116614341736 -4.52079916000366 -4.71651172637939 8.30232238769531 4.91671848297119 3.70551753044128 5.12743377685547 28.7622375488281 16.7061176300049 21.87380027771 11.646692276001 8.47130012512207 6.93220376968384 3.98240494728088 3.12924861907959 7.19850730895996 20.4940357208252 13.8728590011597 1.56621646881104 -0.190932944417 23.9479427337646 11.7596092224121 5.06259250640869 2.9033031463623 9.97075366973877 9.21085071563721 6.62612342834473 8.40634059906006 5.76842069625854 11.8944845199585 5.84097719192505 9.1910572052002 12.5950870513916 5.38876247406006 19.5005950927734 18.461088180542 7.62661695480347 15.7094326019287 3.90811014175415 36.8884353637695 17.5456447601318 11.1980333328247 10.8081321716309 5.09695672988892 4.9532904624939 4.72197198867798 23.2462902069092 14.6630544662476 25.6468639373779 6.98169994354248 7.45895862579346 15.5718488693237 19.4444713592529 11.2291316986084 34.8610916137695 19.9249477386475 13.9147663116455 10.6965532302856 9.26766395568848 8.26370429992676 7.45138597488403 6.84084177017212 6.35820722579956 5.92133665084839 5.49135971069336 4.56542682647705 4.53038883209229 4.43431758880615 4.32684707641602 4.2276029586792 4.14487791061401 4.08210468292236 4.04693508148193 4.01211786270142 3.97729468345642 4.14976263046265 4.08419370651245 4.00782823562622 3.9397599697113 3.89672493934631 3.7620861530304 3.45795106887817 3.1243908405304 3.10920143127441 3.08297777175903 3.05400776863098 2.85262656211853 2.73698449134827 2.69582724571228 1.87841355800629 1.85830771923065 1.835857629776 1.59256410598755 1.51892304420471 1.47889292240143 1.42629599571228 1.36992204189301 1.30850791931152 1.2654675245285 1.25220906734467 1.23278081417084 1.20655465126038 1.1763311624527 1.13668155670166 1.10690093040466 1.07888972759247 1.04694664478302 1.03140449523926 0.480944335460663 2.57335329055786 0.37058699131012 10.9877223968506 13.6438522338867 1.65086686611176 2.16696786880493 11.2784576416016 5.49120426177979 3.77195239067078 2.44998645782471 14.9266109466553 8.57779312133789 5.75863027572632 4.32990646362305 2.83193063735962 3.23648834228516 2.77277493476868 2.36654353141785 2.05964231491089 1.82764303684235 1.9510772228241 1.84932446479797 1.74458980560303 1.66164588928223 1.58223223686218 1.50744187831879 1.42184066772461 1.33546912670135 1.26084792613983 0.765097856521606 2.34909844398499 1.58769166469574 2.14848017692566 1.3207471370697 2.49387431144714 2.45595121383667 2.12911939620972 1.79062211513519 1.55218660831451 1.37865316867828 1.24106931686401 1.12674355506897 1.03418242931366 0.954588890075684 0.882242202758789 0.773783564567566 0.774766206741333 0.720105350017548 0.667103350162506 0.646323442459106 0.56918853521347 1.16717255115509 0.519915163516998 0.518326997756958 0.514835178852081 0.725832223892212 0.676888942718506
1.08513641357422 -0.55996835231781 4.25126838684082 13.0686187744141 -1.84159684181213 -2.8073582649231 -3.42577075958252 -3.91278147697449 -4.27462434768677 5.96152400970459 -3.70153617858887 1.02364897727966 -4.5893440246582 19.3931407928467 14.6590137481689 35.0782585144043 19.1856861114502 17.936243057251 6.62687587738037 14.070200920105 5.88483953475952 3.58676743507385 20.2186546325684 4.99775981903076 36.39794921875 3.32468414306641 2.57294988632202 -0.103644855320454 10.4194936752319 0.769552111625671 -0.312572240829468 7.61624956130981 2.5426652431488 15.3037195205688 8.33448219299316 14.264310836792 14.9211750030518 10.7304239273071 9.80599975585938 11.4551420211792 23.589822769165 8.55568504333496 15.5454139709473 10.9606618881226 9.76312637329102 8.30175971984863 11.7326507568359 5.42422389984131 32.6475563049316 16.2413787841797 12.23131275177 10.3068523406982 7.18044662475586 6.68722486495972 6.71699476242065 4.92036056518555 6.62602663040161 3.86113023757935 6.03330135345459 25.7051181793213 14.7666807174683 37.8750152587891 21.8390598297119 15.3768625259399 11.7142038345337 8.81824684143066 7.78160190582275 6.91838455200195 6.37364053726196 5.90831422805786 5.48654890060425 5.10142755508423 4.82892894744873 4.69170570373535 4.85611295700073 4.75110387802124 4.64223527908325 4.55097770690918 4.46084499359131 4.3806619644165 4.31091022491455 4.2562780380249 4.20788478851318 4.04437875747681 4.02014350891113 3.95494318008423 3.8841814994812 3.84470081329346 3.82674407958984 3.53983020782471 3.33619046211243 3.02889490127563 3.00303196907043 2.49341058731079 2.46415257453918 2.43357944488525 1.97475504875183 1.66178679466248 1.55941712856293 1.54546117782593 1.53113102912903 1.51464200019836 1.40102279186249 1.36329698562622 1.32381975650787 1.28016471862793 1.25202667713165 1.23424565792084 1.21587336063385 1.18757045269012 1.1597443819046 1.11798775196075 1.08370780944824 1.04839551448822 1.02890574932098 0.876167058944702 2.86468887329102 0.193649590015411 0.0800140053033829 5.43987798690796 26.7252540588379 8.67472267150879 14.4586305618286 5.44167184829712 1.42315876483917 0.935240983963013 0.533517003059387 2.54815316200256 16.0872669219971 8.20259666442871 5.46653699874878 4.14535331726074 2.9370231628418 2.66407990455627 2.43307614326477 2.32279372215271 2.17677164077759 1.63837671279907 2.01900196075439 1.90698707103729 1.81200313568115 1.72221827507019 1.6170072555542 1.52964007854462 1.40775322914124 1.37972140312195 0.789905369281769 0.253821820020676 1.58493173122406 7.22495651245117 4.39133834838867 3.64436531066895 2.71470856666565 2.34163761138916 1.93918454647064 1.64533746242523 2.12862706184387 2.06265258789062 1.71738409996033 1.4744588136673 1.30303502082825 1.15709924697876 2.32880616188049 1.91944754123688 1.59742569923401 1.3594583272934 1.12752950191498 1.01957297325134 1.00061190128326 0.86343777179718 0.852909028530121 0.799139261245728 1.35702061653137 1.22769594192505
2.55921077728271 0.637799501419067 -0.0908961668610573 -0.494663625955582 0.370327711105347 -1.44834172725677 -2.98510122299194 -3.84578037261963 -3.94542503356934 -4.58992719650269 10.3963994979858 0.686548709869385 -5.14070177078247 11.4022941589355 35.5322647094727 25.1181735992432 26.1075668334961 12.5544061660767 8.9575366973877 6.72358655929565 5.03611087799072 5.24583339691162 8.4819164276123 25.7939033508301 7.04089593887329 5.10938405990601 3.4533212184906 1.30837225914001 -0.641299784183502 -1.37893998622894 5.70261335372925 3.09338879585266 -1.46150612831116 17.4280033111572 22.5263595581055 16.590612411499 28.1756706237793 19.0521354675293 12.4193449020386 7.95899438858032 6.96348667144775 15.3107957839966 10.3684492111206 7.20253753662109 6.47785425186157 4.95484113693237 24.0263385772705 23.8225173950195 14.7078723907471 11.9201059341431 6.3156852722168 6.17858982086182 5.99708127975464 5.70358562469482 4.10893106460571 21.3854522705078 7.07167339324951 5.34711170196533 15.8900995254517 25.9521865844727 17.7107353210449 20.7996253967285 14.3895273208618 9.22701072692871 7.87598133087158 7.12311267852783 6.32939863204956 6.07140445709229 5.85836458206177 5.66871786117554 5.49975872039795 5.32530927658081 5.15384960174561 5.01768445968628 4.79884481430054 4.73249340057373 4.62425470352173 4.53129243850708 4.4428071975708 4.3543872833252 4.26933097839355 4.19922924041748 4.14034271240234 4.1124095916748 4.06442880630493 4.11546850204468 4.05886697769165 4.01603364944458 3.97933149337769 3.91856908798218 3.65745162963867 2.93544435501099 2.75913619995117 2.32313537597656 2.30522108078003 2.28112936019897 1.89022171497345 1.74218273162842 1.69695889949799 1.67548966407776 1.65138697624207 1.6350474357605 1.61851346492767 1.60683345794678 1.64140260219574 1.60783064365387 1.59723520278931 1.57869029045105 1.55350732803345 1.2064300775528 1.18257081508636 1.15421676635742 1.1327086687088 1.09059655666351 1.03043007850647 0.969565510749817 0.953646063804626 0.938774764537811 0.922600746154785 0.924544751644135 0.895380735397339 0.852936804294586 0.154401645064354 20.0264415740967 14.6943988800049 6.52394104003906 4.84526205062866 2.56109857559204 10.5385494232178 5.34276151657104 4.36397933959961 3.82169795036316 3.37514400482178 3.0382354259491 2.76952433586121 2.51499629020691 2.28098583221436 2.12189292907715 1.28428387641907 1.5693873167038 1.48501217365265 1.4011515378952 1.28931987285614 1.2269035577774 1.12405002117157 1.09305119514465 1.04588878154755 1.01138722896576 0.332932829856873 6.95186853408813 4.07486963272095 0.362049490213394 0.360438287258148 8.24011325836182 4.14700889587402 2.89238691329956 2.16130828857422 0.260848581790924 11.4762086868286 5.74549531936646 3.94966912269592 2.91242647171021 4.07283163070679 3.39579892158508 3.35642838478088 2.7269651889801 2.27281546592712 2.10275363922119 1.85030591487885 1.71633672714233 1.58155834674835 1.46219658851624 1.33951437473297 1.2177791595459
1.09593713283539 -0.18185693025589 -0.953422427177429 -2.56515622138977 14.1827144622803 -3.38250350952148 -4.08504390716553 2.14463901519775 -4.57664203643799 -4.15369749069214 -4.47113180160522 -5.20000505447388 8.62955379486084 15.0077743530273 15.544713973999 31.4280166625977 18.591344833374 7.0933780670166 13.9412021636963 4.90100574493408 11.5512847900391 4.34735631942749 21.9459228515625 16.4555816650391 3.8158802986145 3.79873538017273 2.11098551750183 0.789739727973938 -0.638803958892822 6.48128461837769 -1.20564424991608 6.34357357025146 2.73832440376282 38.0913848876953 17.9250240325928 20.0665626525879 22.2414073944092 15.0304470062256 6.85140180587769 8.56411361694336 6.54847764968872 4.44317770004272 24.9319686889648 11.4952020645142 14.9056329727173 9.96387195587158 7.16115474700928 7.03796005249023 17.8460540771484 13.235668182373 5.98678922653198 5.17672491073608 21.5594043731689 17.4263858795166 13.3459787368774 25.7167453765869 6.52801465988159 6.73359394073486 15.017689704895 11.8133478164673 31.620922088623 17.9368000030518 12.0586633682251 8.8834924697876 7.01193428039551 6.71267795562744 6.37656784057617 6.09500932693481 5.86406373977661 5.64944076538086 5.46900844573975 5.30493593215942 5.12969779968262 4.99524402618408 4.91067361831665 4.84451484680176 4.88987827301025 4.78238344192505 4.67795848846436 4.58038568496704 4.48885011672974 4.39877271652222 4.3211236000061 4.24823665618896 4.180335521698 4.13307762145996 4.08024597167969 4.0188045501709 3.95352506637573 3.88920164108276 2.82527375221252 2.80794167518616 2.03369855880737 2.00788760185242 1.99665307998657 2.05569982528687 2.02087640762329 1.82512748241425 1.75158488750458 1.72549247741699 1.69002401828766 1.66571712493896 1.64531433582306 1.63452649116516 1.55487775802612 1.54418754577637 1.2958676815033 1.29204833507538 1.24874126911163 1.20498299598694 1.18786907196045 1.18402850627899 1.16286242008209 1.11687815189362 1.07092618942261 1.00862884521484 0.985203444957733 0.950803279876709 0.927495956420898 0.895098209381104 0.885238707065582 0.907429814338684 0.28410667181015 0.114156693220139 20.5913906097412 10.4474544525146 10.1714935302734 7.68152046203613 3.27349090576172 4.71155834197998 3.87378287315369 3.38723182678223 2.94597935676575 2.60529589653015 2.38192319869995 2.14307737350464 1.93327832221985 1.76749360561371 1.72037959098816 1.36011803150177 1.32748031616211 1.2192599773407 1.21022343635559 1.09572637081146 1.08946096897125 0.973720729351044 0.904895782470703 0.865907847881317 0.842605471611023 0.468990296125412 0.459207564592361 0.245501503348351 0.356919199228287 0.238101944327354 2.30447006225586 1.25784909725189 0.911998212337494 0.348464488983154 4.97793674468994 1.61940944194794 10.5751638412476 8.66387176513672 5.76967096328735 4.30118989944458 3.12012338638306 2.57559680938721 2.1486918926239 2.04829335212708 1.69177734851837 1.66091465950012 1.50907826423645 1.38931393623352 1.54353022575378 1.43935251235962
0.0416962131857872 -2.03333568572998 5.2917218208313 1.01385080814362 -2.85640335083008 4.86329889297485 -2.96445155143738 -3.12029790878296 -4.1819052696228 -4.78293514251709 0.0501827523112297 -2.24017071723938 4.98573732376099 9.1762113571167 33.6035842895508 20.0798110961914 15.4437494277954 3.56889390945435 17.5032634735107 14.7272291183472 7.36288499832153 27.2686862945557 11.7770433425903 5.64401340484619 5.10054159164429 2.70384693145752 1.71831262111664 0.842513084411621 0.442641049623489 -0.881750702857971 4.37045288085938 5.38518142700195 6.81103801727295 9.96574401855469 11.0780925750732 26.2644214630127 22.4299907684326 10.5553026199341 8.21608448028564 3.65264797210693 1.77370309829712 22.579833984375 14.0353536605835 10.5231065750122 9.39294338226318 11.977611541748 8.1794900894165 24.8134326934814 10.4526290893555 31.2566356658936 22.0395050048828 14.7002210617065 15.7967090606689 12.5496129989624 13.5677499771118 12.2368125915527 8.14810848236084 7.39798355102539 20.3209114074707 17.878791809082 16.3998489379883 12.5624570846558 8.01158905029297 7.58689117431641 7.16736507415771 6.84335517883301 6.83411693572998 6.5318808555603 6.26089143753052 6.0191388130188 5.7924690246582 5.61335039138794 5.45333576202393 5.2956018447876 5.18539428710938 5.06485414505005 4.9458966255188 4.82383108139038 4.70994472503662 4.6130747795105 4.52247476577759 4.42950248718262 4.34050559997559 4.25933504104614 4.19266700744629 3.74763035774231 3.67901825904846 3.62468504905701 3.57133293151855 3.37580037117004 2.76079177856445 2.56338119506836 2.55082440376282 2.5329327583313 2.51600122451782 2.01538324356079 2.03181195259094 1.894646525383 1.76487600803375 1.61847245693207 1.5946319103241 1.5406277179718 1.53303515911102 1.57999157905579 1.57070362567902 1.55624902248383 1.53952646255493 1.50353944301605 1.53247916698456 1.2428822517395 1.19235527515411 1.19964945316315 1.1838184595108 1.13920283317566 1.10907006263733 1.05012381076813 1.00125777721405 0.96704512834549 0.910157203674316 0.834216177463531 0.787527620792389 0.991125524044037 1.62325179576874 3.19268727302551 0.274283647537231 4.38653802871704 18.7767181396484 9.68194198608398 6.47664356231689 4.90401124954224 3.92229247093201 3.35533618927002 2.86690878868103 2.49989199638367 2.23187160491943 2.02324318885803 1.80812346935272 1.65978956222534 1.56924641132355 1.39469397068024 0.690598487854004 1.11966693401337 0.620426952838898 0.589856386184692 0.579864680767059 0.880355775356293 0.595498025417328 0.562988221645355 0.519535005092621 0.507533669471741 0.491782784461975 0.482841819524765 -0.0717777758836746 9.47617244720459 8.09913158416748 5.44091606140137 1.64591372013092 -0.0564835965633392 0.451121687889099 0.392859935760498 2.13208889961243 13.8727426528931 6.96120166778564 4.59184265136719 7.56598615646362 6.29770278930664 5.51064682006836 4.87771081924438 4.28673076629639 3.93932485580444 3.61620306968689 3.32176852226257 3.06519150733948 2.95291590690613
0.956026673316956 -1.12106609344482 -1.22521913051605 -1.72553503513336 -2.39784049987793 13.578896522522 3.95769071578979 -2.7220664024353 -3.32778024673462 -4.1536750793457 14.8740739822388 18.8567237854004 5.4165096282959 4.30685567855835 30.359468460083 17.5630855560303 15.6190366744995 8.0340576171875 3.41540741920471 30.8407917022705 8.18184661865234 30.7395153045654 16.6745491027832 5.26821422576904 6.45229816436768 3.20785403251648 -0.898662030696869 22.2459106445312 16.4361915588379 2.16891813278198 7.65569639205933 0.192334666848183 4.42493057250977 9.34457206726074 21.5959320068359 12.6347875595093 9.74794864654541 25.6334915161133 4.52027606964111 2.45800757408142 -0.479407727718353 8.76601314544678 17.1041984558105 29.7022476196289 22.8878688812256 10.9889211654663 9.21380424499512 10.6764688491821 10.4275484085083 8.32278823852539 35.4311637878418 28.9918899536133 22.5376052856445 18.4468784332275 10.0239334106445 19.7431221008301 8.97550487518311 9.46715927124023 26.9099903106689 15.3886547088623 10.4912595748901 9.11748313903809 8.62032222747803 8.13518810272217 7.63942623138428 7.24200487136841 6.90814590454102 6.61811304092407 6.34400224685669 6.0908055305481 5.86011123657227 5.66682434082031 5.51717901229858 5.37570381164551 5.24295425415039 5.11137628555298 4.47837495803833 4.36622381210327 4.26371431350708 4.17420196533203 4.09552526473999 4.01793050765991 3.93853521347046 3.86590051651001 3.66883754730225 3.58631062507629 3.52360796928406 3.46998286247253 3.41356945037842 2.99093222618103 2.95506429672241 2.58757472038269 1.86846780776978 1.85976994037628 1.85638892650604 1.94443106651306 1.98107731342316 1.90805900096893 1.84575033187866 1.71525812149048 1.60871207714081 1.81470489501953 1.79564654827118 1.78031277656555 1.76388239860535 1.75116312503815 1.59567511081696 1.44878697395325 1.4359815120697 1.31220889091492 1.24161648750305 1.18642890453339 1.18413233757019 1.16436755657196 1.10613787174225 1.06359684467316 1.01826655864716 0.965617716312408 0.88617080450058 0.779298365116119 0.698006868362427 0.698323130607605 2.15564179420471 3.42381310462952 3.61575269699097 0.396842986345291 19.4007987976074 9.81681346893311 6.72225856781006 5.07456350326538 1.56890153884888 1.40585327148438 1.27985382080078 1.15657877922058 1.05896484851837 0.972107529640198 0.908108353614807 0.9970623254776 0.909028887748718 0.896137356758118 0.844359636306763 0.750797092914581 0.699920237064362 0.682186365127563 0.636497557163239 0.605990588665009 0.578835308551788 0.570424616336823 0.677850961685181 0.547946393489838 0.530677437782288 0.499150395393372 0.349509388208389 0.0705342590808868 11.6553869247437 6.63552188873291 0.23343089222908 -0.16435070335865 13.1602907180786 -0.53074038028717 34.3036880493164 18.6694011688232 12.6799621582031 9.56674003601074 7.06423425674438 6.07292699813843 5.49246835708618 4.78350210189819 4.31594657897949 4.02502918243408 3.70089173316956 3.42942190170288 3.1880578994751 0.637843787670135
2.29939341545105 0.295781344175339 -0.187691316008568 -2.83798909187317 -2.4425003528595 -2.55608725547791 -2.92254376411438 16.2690277099609 8.87554931640625 -3.51376247406006 -3.99140787124634 21.1720237731934 23.2248840332031 16.8966846466064 14.5566854476929 9.95167922973633 8.0377311706543 5.06768035888672 3.65225982666016 23.8338394165039 15.9748668670654 14.067253112793 11.1116285324097 7.03605794906616 5.31068468093872 2.98597121238708 1.0659407377243 -0.0660955905914307 -0.57663369178772 4.66251373291016 -1.00141835212708 -1.39291346073151 6.06219387054443 13.5981502532959 11.3905401229858 16.3531837463379 12.6690845489502 8.91388511657715 3.9227774143219 0.418095231056213 0.363863736391068 0.197442919015884 15.8779401779175 13.6897268295288 31.0360221862793 11.672342300415 35.3229942321777 22.2127056121826 13.1054925918579 21.4467296600342 18.4589462280273 22.75954246521 16.9617500305176 11.5699052810669 10.6283235549927 11.7774753570557 29.43869972229 16.7407131195068 12.4048566818237 9.57547569274902 8.93571949005127 7.85147047042847 25.2137889862061 12.0235376358032 7.74158668518066 7.31296825408936 7.17289638519287 5.94916391372681 5.69977617263794 5.47703266143799 5.27702379226685 5.11192464828491 4.97481822967529 4.8537859916687 4.73806715011597 4.44065952301025 4.33740139007568 4.23423194885254 4.12242698669434 4.02550888061523 3.94413638114929 3.87648344039917 3.80499029159546 3.73038673400879 3.23996329307556 3.16837644577026 3.0085346698761 2.95710182189941 2.71744060516357 2.60148739814758 2.46431946754456 2.24703884124756 1.9172238111496 1.89459824562073 1.88334631919861 1.87011468410492 1.8658903837204 1.85249865055084 1.8294575214386 1.877725481987 1.79529070854187 1.61417388916016 1.61095833778381 1.60521268844604 1.59495830535889 1.64655423164368 1.77375388145447 1.67889022827148 1.59144794940948 1.57249450683594 1.32839119434357 1.24189782142639 1.23468422889709 1.16372311115265 1.12011194229126 1.07734000682831 1.06077837944031 0.982437133789062 0.905560672283173 0.800628125667572 0.702687203884125 0.659511923789978 1.10896122455597 2.23880672454834 4.2275071144104 4.12565183639526 3.38896608352661 2.79591655731201 2.63609766960144 2.28401756286621 1.94771528244019 1.73525953292847 1.57300817966461 1.42430865764618 1.33224201202393 1.20939445495605 1.11485755443573 1.05437588691711 0.952731668949127 0.873301982879639 0.816346883773804 0.773105144500732 0.748385608196259 0.711204290390015 0.692375183105469 0.661226868629456 0.642272770404816 0.634191453456879 0.613042950630188 0.596030831336975 0.5836221575737 1.18942952156067 0.492808520793915 0.111148171126842 13.3107805252075 4.58146381378174 5.66250705718994 2.85962748527527 -0.571531713008881 35.5162124633789 21.1821575164795 14.441912651062 10.9803476333618 1.4608439207077 1.21307897567749 1.16754817962646 1.28376543521881 1.25604450702667 1.15273594856262 1.08578205108643 1.45996451377869 1.37994313240051 1.30676519870758 1.22505581378937
3.9608633518219 2.70819330215454 -0.465338945388794 -0.73223614692688 -2.46960949897766 -1.61190903186798 -4.22014856338501 36.8186111450195 10.0108852386475 -4.53714323043823 -4.90288066864014 2.90656900405884 15.1981019973755 24.7511653900146 12.0701580047607 30.0252113342285 4.62061882019043 6.79713296890259 -0.476666420698166 25.8300151824951 21.4241504669189 15.2134599685669 11.0919179916382 6.21116876602173 1.30771589279175 0.293400436639786 -0.355741649866104 6.95417833328247 0.518260598182678 -1.96219229698181 -2.21753597259521 -0.948320686817169 6.19359445571899 19.9113273620605 15.365611076355 14.7574968338013 12.2665252685547 2.51115322113037 0.318738400936127 -0.366387456655502 -1.002192735672 3.53527688980103 1.33774995803833 13.7312631607056 32.2177963256836 22.0572643280029 33.6582527160645 21.5205612182617 14.1174879074097 28.6110305786133 20.3743553161621 17.5579357147217 13.2445201873779 10.8728227615356 41.5970726013184 24.8523063659668 18.2839450836182 7.44642639160156 6.81055164337158 13.8605241775513 8.64247035980225 5.92539262771606 36.765495300293 21.7504539489746 13.8464155197144 9.68087005615234 6.00222682952881 5.74478912353516 5.52379989624023 5.31126832962036 5.11226987838745 4.9482250213623 4.81999254226685 4.69847822189331 4.59223651885986 4.00052404403687 3.88885688781738 3.62152481079102 3.5306339263916 3.43764162063599 3.36572957038879 3.31152153015137 3.25281834602356 2.97787642478943 2.82972455024719 2.64926362037659 2.37778377532959 2.1870105266571 2.15164852142334 2.13284802436829 1.8865305185318 1.87437093257904 1.74051690101624 1.6679185628891 1.65032017230988 1.6388224363327 1.71523606777191 1.69755709171295 1.68339705467224 1.80781638622284 1.79635083675385 1.61416351795197 1.70193111896515 1.63425779342651 1.86810529232025 1.85476315021515 1.93142056465149 1.89589631557465 1.83451807498932 1.54899919033051 1.41816985607147 1.27653694152832 1.30092918872833 1.22436082363129 1.16788578033447 1.09907603263855 1.09064102172852 1.0381954908371 0.959077417850494 0.8703373670578 0.753566026687622 0.710500299930573 0.672302067279816 0.683646321296692 3.25954723358154 4.80562210083008 4.31220722198486 3.54076814651489 2.81196022033691 2.48828673362732 2.01978087425232 1.74921989440918 1.57267034053802 1.44168150424957 1.35231578350067 1.26014924049377 1.14070892333984 1.07385385036469 0.9605912566185 0.895003259181976 0.833775818347931 0.808297276496887 0.787747800350189 0.771477103233337 0.764600872993469 0.740699946880341 0.724848985671997 0.722817420959473 0.705254316329956 0.684007167816162 0.661727488040924 0.637364566326141 1.54746747016907 0.588035821914673 0.348157078027725 5.0980749130249 2.78413438796997 1.71564972400665 4.85557889938354 4.70539283752441 4.04411649703979 3.41719841957092 2.96448302268982 2.69050526618958 2.3966600894928 2.09667825698853 1.96048069000244 1.82506835460663 1.67396295070648 1.51625061035156 1.2830137014389 1.10469007492065 1.12236714363098 1.04432952404022
2.56271052360535 1.68546986579895 -0.647720217704773 -1.8629732131958 -2.70544099807739 -3.1727180480957 -3.90300154685974 7.27251720428467 5.04175662994385 8.88060569763184 -3.70874738693237 9.90177631378174 2.09157800674438 9.42374897003174 31.8533039093018 3.13090229034424 19.06955909729 2.0589644908905 -0.37619212269783 21.6770496368408 11.6461277008057 7.55818843841553 6.93856954574585 4.20091962814331 3.74648261070251 2.17066860198975 10.1059350967407 -0.570112705230713 4.60470008850098 -2.36889338493347 4.51421022415161 16.5677433013916 10.5565023422241 10.1455345153809 15.6373176574707 5.78740358352661 7.99363708496094 0.245430126786232 -0.835959613323212 -2.0798192024231 -2.09472298622131 3.55215644836426 -2.26528358459473 42.4238128662109 25.4163246154785 33.9465789794922 23.8496036529541 16.0391254425049 12.5022201538086 12.0582885742188 11.046142578125 31.336555480957 21.2927112579346 19.5114727020264 15.4356927871704 9.47991371154785 7.23956632614136 47.2138824462891 6.50251483917236 16.2182998657227 11.8764495849609 29.7118835449219 14.9226016998291 8.79532241821289 6.82979726791382 8.21136474609375 6.47869777679443 5.40584516525269 4.66469955444336 4.49856567382812 4.34050846099854 4.18947124481201 4.07846212387085 3.99454212188721 3.66080284118652 3.49373769760132 3.26876449584961 2.92565894126892 2.74411058425903 2.61945080757141 2.51873254776001 2.46467065811157 2.4137134552002 2.37020778656006 2.32169771194458 1.99496877193451 1.96870148181915 1.88366067409515 1.82200002670288 1.79652607440948 1.78145217895508 1.76441645622253 1.74988865852356 1.730717420578 1.66373717784882 1.98378419876099 1.96307265758514 1.92171251773834 1.91715884208679 1.91129195690155 1.87775683403015 1.82960605621338 1.81517493724823 1.80480456352234 1.57944774627686 1.71322917938232 1.83594715595245 1.96318924427032 2.03646206855774 1.92129194736481 1.60672557353973 1.42973458766937 1.27875375747681 1.25671696662903 1.17526018619537 1.14900290966034 1.10833275318146 1.08660519123077 1.01934564113617 0.950231313705444 0.879243552684784 0.813933968544006 0.74722695350647 0.725314497947693 1.35579895973206 3.51590061187744 4.12873697280884 3.7914674282074 3.20052099227905 2.48608064651489 2.11244940757751 1.79437661170959 1.56955504417419 1.40735936164856 1.38191425800323 1.25340330600739 1.13247573375702 1.04794991016388 0.97918301820755 0.931352317333221 0.901564180850983 0.877349376678467 0.855753660202026 0.842917442321777 0.841026723384857 0.82531213760376 0.809402465820312 0.800273299217224 0.786622703075409 0.769529938697815 0.741757333278656 0.300442576408386 12.8422527313232 10.1428461074829 5.98408174514771 0.171799778938293 3.78673458099365 13.3282928466797 8.9704418182373 5.66662883758545 4.36359977722168 2.2712733745575 3.25194549560547 2.71266865730286 2.29657554626465 2.03322553634644 1.84689354896545 1.68358647823334 1.51624858379364 1.36151003837585 2.59203863143921 2.45597100257874 2.32697010040283 2.2013726234436
1.59338867664337 1.44771933555603 -0.15788745880127 -2.44811344146729 -2.90285396575928 9.40602111816406 -3.25180959701538 -1.85702705383301 4.91645812988281 1.65457129478455 -2.35083651542664 -3.30466103553772 -0.297711610794067 28.5340518951416 14.0260753631592 3.28650760650635 -1.21198105812073 11.7331228256226 21.5486965179443 11.0136680603027 8.31639385223389 5.89696073532104 6.94631242752075 -0.605570554733276 15.6150798797607 0.904864728450775 6.38153076171875 0.121144153177738 -0.887011468410492 0.929288685321808 -1.96756672859192 11.6586837768555 7.7449688911438 16.810962677002 11.7486371994019 1.64791798591614 12.5735054016113 -1.64972841739655 -2.20036268234253 -2.22513818740845 11.4012651443481 -2.27844429016113 10.2923851013184 27.7960147857666 24.4192600250244 24.2338943481445 19.7892932891846 8.76229190826416 30.1236209869385 28.2661285400391 22.3277626037598 13.7007617950439 37.52490234375 22.8110313415527 8.86696147918701 8.10327339172363 6.60570669174194 6.17056703567505 45.4078788757324 26.8674392700195 4.66540145874023 9.18919658660889 25.6876411437988 20.0695381164551 12.5225448608398 8.56158065795898 7.33783864974976 5.84496116638184 5.14964962005615 4.64636707305908 4.25013017654419 3.91131854057312 3.64871168136597 3.13377046585083 3.0494430065155 2.9249324798584 2.78767275810242 2.99944591522217 2.82642984390259 2.68358898162842 2.52757668495178 2.38435029983521 2.25943470001221 2.16830968856812 2.09026575088501 2.47742176055908 2.38387155532837 2.28950595855713 2.20039868354797 2.14295673370361 2.10663819313049 2.06918525695801 2.02014064788818 1.98978269100189 1.95768857002258 1.52368557453156 1.60037732124329 1.74781382083893 1.73777341842651 1.73296391963959 1.71153008937836 1.68134605884552 1.65911340713501 1.63788509368896 1.62388396263123 1.62320792675018 1.58288764953613 1.89208030700684 2.07228803634644 2.087482213974 1.90168464183807 1.68963181972504 1.57769131660461 1.34691953659058 1.19829785823822 1.18831956386566 1.18839991092682 1.18156123161316 1.14318692684174 1.10512638092041 1.01390790939331 0.929306209087372 0.871585667133331 0.830770075321198 0.950265407562256 1.82232177257538 3.3660147190094 3.4603590965271 3.20720386505127 2.73161959648132 2.25603413581848 1.85338580608368 1.58788931369781 1.41376602649689 1.37803721427917 1.24667859077454 1.14608693122864 1.05735087394714 1.04116106033325 1.02384984493256 1.00245606899261 0.973926365375519 0.94874233007431 0.921327650547028 0.919157564640045 0.899938642978668 0.886630415916443 0.877258718013763 0.869526207447052 0.850521981716156 0.817617058753967 0.374247878789902 0.354483991861343 7.15974760055542 13.4629163742065 5.56770801544189 3.39945650100708 0.84484076499939 15.876916885376 7.80357885360718 7.69052839279175 6.54142713546753 5.62837600708008 4.94497156143188 4.38804817199707 3.93195605278015 3.60924053192139 3.31868410110474 3.06170535087585 2.82262182235718 2.03729963302612 2.63696026802063 2.50742387771606 2.3616247177124
1.61971247196198 1.44255352020264 1.92926120758057 -1.16363036632538 -2.15162563323975 7.1801905632019 -2.24305772781372 4.52338981628418 -0.984480321407318 -2.79194378852844 0.243792563676834 -2.44415855407715 2.94876766204834 2.46594500541687 12.6857299804688 0.157801553606987 -1.87225914001465 5.78449583053589 12.3636093139648 12.8635911941528 7.12143850326538 2.35130500793457 18.4227523803711 0.158946767449379 -1.45793390274048 -1.46141767501831 23.1113224029541 3.31779408454895 5.53550863265991 2.71789789199829 3.30521130561829 2.21429347991943 11.5560216903687 8.4123067855835 5.65915870666504 2.45210719108582 1.10685682296753 -1.99425673484802 -2.75481367111206 11.7588186264038 -2.17673349380493 -0.642196655273438 24.2545490264893 11.9718780517578 17.972110748291 38.0512199401855 19.5303440093994 14.2347087860107 35.2012710571289 22.9773063659668 18.0920753479004 16.0163631439209 14.5717105865479 7.20514059066772 6.4135103225708 14.090633392334 10.1530456542969 34.6770095825195 3.01041531562805 8.20226383209229 47.1014938354492 5.70099925994873 24.8862342834473 23.3299465179443 14.665244102478 10.4369945526123 7.36626958847046 8.6635684967041 7.09817457199097 5.98348093032837 5.20201015472412 4.6309666633606 4.17478704452515 3.85057258605957 3.63871431350708 3.44488406181335 3.89664506912231 3.66604208946228 3.44370245933533 3.25664138793945 3.09331440925598 2.91843819618225 2.75104236602783 2.60696744918823 2.50759863853455 1.84287202358246 1.92678201198578 2.13717341423035 2.05633187294006 1.98390233516693 1.93274831771851 1.89833331108093 1.8527147769928 1.81518888473511 1.79477620124817 1.76843476295471 1.72274708747864 1.64031267166138 1.68537223339081 1.67763435840607 1.66232872009277 1.6521475315094 1.61527919769287 1.58693337440491 1.56165671348572 1.54927313327789 1.53430950641632 1.67047762870789 1.99273705482483 2.146559715271 2.24831175804138 2.13073801994324 1.97785019874573 1.59081673622131 1.39829909801483 1.3405966758728 1.3176372051239 1.28001427650452 1.26396131515503 1.27265548706055 1.20242094993591 1.10682022571564 0.997726261615753 0.952148795127869 0.948173820972443 1.33450055122375 2.08908438682556 3.28281688690186 3.55824995040894 2.88914585113525 2.42512989044189 2.06449699401855 1.75748240947723 1.55468559265137 1.45932269096375 1.36476790904999 1.23367393016815 1.14493370056152 1.14242804050446 1.12203347682953 1.10416996479034 1.07208788394928 1.0426105260849 1.01607966423035 0.987147927284241 0.961215019226074 0.954119801521301 0.943611145019531 0.936720609664917 0.926896452903748 0.808862566947937 0.453094363212585 0.420952796936035 7.30688190460205 4.43423223495483 -0.0241232551634312 10.5687246322632 8.48039817810059 20.7161540985107 10.5249938964844 7.29761552810669 7.80136442184448 6.5969762802124 5.71725797653198 4.9869966506958 4.43920278549194 4.01662063598633 3.65314316749573 3.34189915657043 3.1010000705719 2.85225915908813 2.23300194740295 1.41197347640991 1.34711277484894
3.15149259567261 2.86540651321411 1.00404143333435 -0.661235332489014 -1.50511467456818 10.7321529388428 -1.87704169750214 -1.9660108089447 -2.40888381004333 -2.6750283241272 0.776670634746552 -3.36824059486389 8.94183444976807 4.37445640563965 5.79666757583618 15.867639541626 10.7035188674927 2.60878014564514 5.44310569763184 11.2421188354492 1.14361524581909 0.636396765708923 8.08790016174316 0.379661113023758 -1.13658082485199 6.55449914932251 -2.01430320739746 0.998166680335999 17.1821517944336 6.34076976776123 8.23390197753906 5.77553272247314 6.09945440292358 2.10961127281189 2.03830099105835 12.3476676940918 3.57619547843933 0.98193484544754 -1.31345427036285 -1.78670251369476 -1.96431028842926 11.9881887435913 9.23745632171631 8.7224063873291 11.4107789993286 24.5955772399902 24.4429798126221 8.69927406311035 42.4267120361328 28.4059066772461 21.8522663116455 17.946533203125 4.53284740447998 10.5054578781128 4.23980712890625 46.4089202880859 27.6421356201172 3.29308438301086 2.86525440216064 1.84971463680267 3.95556044578552 45.5609474182129 1.80918252468109 45.4131240844727 25.0959396362305 16.4177856445312 12.0363006591797 9.70403385162354 8.14898681640625 7.00766181945801 6.16274118423462 5.55787086486816 5.04102659225464 4.63487386703491 4.37471675872803 4.15677881240845 2.98930740356445 3.11968398094177 3.44477915763855 3.20608472824097 3.01372218132019 2.83265256881714 2.6342146396637 2.46559119224548 2.34046149253845 2.24987554550171 2.1519181728363 1.99086785316467 2.05859875679016 1.98177540302277 1.90864980220795 1.85298800468445 1.8186240196228 1.77983522415161 1.74982416629791 1.72604584693909 1.6799647808075 1.64626884460449 1.55048716068268 1.66054320335388 1.6467946767807 1.62157487869263 1.58657991886139 1.5583758354187 1.52598547935486 1.50808250904083 1.49614548683167 1.48858714103699 1.68393528461456 2.07009410858154 2.27612209320068 2.39241790771484 2.04476451873779 1.71845972537994 1.50055694580078 1.71188712120056 1.42239594459534 1.37129664421082 1.38652431964874 1.39564073085785 1.35019218921661 1.27955770492554 1.16218268871307 1.10022509098053 1.07513070106506 1.5772385597229 1.91396737098694 3.33353233337402 3.3937714099884 3.02662563323975 2.61218667030334 2.27361822128296 1.95844984054565 1.71724271774292 1.62902903556824 1.50130641460419 1.36622071266174 1.26523435115814 1.21763288974762 1.21105825901031 1.2043217420578 1.17601406574249 1.14273917675018 1.1099659204483 1.07624208927155 1.04707825183868 1.01978921890259 1.00587904453278 1.00145316123962 0.988573133945465 0.979463219642639 0.675007998943329 7.41171169281006 0.598170340061188 7.73886871337891 7.44381427764893 -0.0103583736345172 8.54686641693115 14.3658227920532 15.4673080444336 10.2064142227173 7.71648597717285 4.14836502075195 2.99659895896912 3.12179970741272 2.60196423530579 2.30437111854553 2.04852414131165 1.88480269908905 1.75288951396942 1.47028112411499 1.31959283351898 1.22897577285767 1.14325749874115
1.1842634677887 1.00596404075623 0.744802951812744 -1.0396603345871 -1.48694801330566 15.3228750228882 -1.42147564888 -1.67171430587769 0.0387763455510139 -2.02254462242126 -2.26804757118225 4.85822105407715 1.26771247386932 2.30047655105591 7.68060970306396 13.8085508346558 9.94309329986572 4.0462646484375 8.0559253692627 4.33961057662964 7.67210054397583 5.87558841705322 18.5710315704346 5.51226854324341 -1.64916110038757 -2.1861035823822 -2.28758788108826 10.8482303619385 23.5652275085449 7.80964374542236 6.7993426322937 3.40521597862244 5.35828399658203 2.65294241905212 3.16140842437744 5.28475189208984 0.778863131999969 -0.165409773588181 -1.26152014732361 -1.82066667079926 8.08755207061768 1.12027871608734 1.52195453643799 25.7093887329102 7.93271017074585 7.37527179718018 11.5620708465576 23.4996471405029 9.63032054901123 35.5139312744141 22.2064647674561 3.74947118759155 24.0743713378906 38.5388107299805 22.3802089691162 6.4048867225647 2.53040599822998 2.46706032752991 3.70793795585632 2.36564946174622 5.66765594482422 0.362204939126968 51.8794898986816 23.6489582061768 21.5792541503906 15.7378940582275 9.62223243713379 9.76566410064697 10.2219133377075 8.37582492828369 7.06445026397705 6.15570974349976 5.45292663574219 4.89447355270386 4.51460790634155 4.225022315979 3.94187211990356 3.66529822349548 3.20345711708069 3.33311104774475 3.09393215179443 2.86583089828491 2.67237973213196 2.49895071983337 2.36813116073608 2.24041986465454 2.13523840904236 2.05741691589355 1.87367331981659 2.02026581764221 1.94370102882385 1.87230384349823 1.8212958574295 1.78834319114685 1.75209748744965 1.71661949157715 1.6734653711319 1.63770294189453 1.61000669002533 1.39688515663147 1.56322574615479 1.52257418632507 1.49495542049408 1.47036969661713 1.43513107299805 1.41457092761993 1.40578460693359 1.46326839923859 1.80235660076141 1.91745185852051 2.23199462890625 2.42879629135132 2.30482745170593 1.86504697799683 1.8602249622345 1.71704304218292 1.57985174655914 1.4884227514267 1.46449816226959 1.4785487651825 1.47413468360901 1.43105828762054 1.32300043106079 1.2061014175415 1.18571758270264 1.63251972198486 2.3894259929657 3.11157202720642 3.46298599243164 3.00867104530334 2.88102602958679 2.42825150489807 2.21866989135742 1.96433007717133 1.83787250518799 1.67214703559875 1.52229058742523 1.39443135261536 1.33517229557037 1.31705474853516 1.28412282466888 1.27351093292236 1.24635887145996 1.20781302452087 1.16512262821198 1.10539186000824 1.09477353096008 1.07434642314911 1.05124127864838 1.04552364349365 1.04293787479401 1.01571106910706 0.87352043390274 0.849911332130432 0.476172894239426 0.429795384407043 22.6497707366943 11.7288227081299 3.14739537239075 2.06734704971313 11.8579912185669 7.58175086975098 5.17593908309937 3.88036584854126 2.41802287101746 2.44951796531677 2.08951997756958 1.87047576904297 1.64876294136047 1.48359131813049 1.38111543655396 1.26771259307861 1.08471786975861 0.98942357301712
0.894169926643372 0.764325141906738 0.551467061042786 0.450020283460617 -0.236519634723663 -0.902819335460663 -0.758751571178436 2.72432971000671 -0.969469845294952 -1.33978819847107 -1.60098052024841 7.71004581451416 -1.91904330253601 15.3833656311035 12.5824346542358 9.64774131774902 15.0770587921143 11.4841089248657 8.62446308135986 4.64343452453613 2.16455984115601 21.3290271759033 11.4488306045532 6.23117876052856 2.48347544670105 -1.53803610801697 -0.494952380657196 -2.01579761505127 2.94986581802368 20.8044490814209 0.818757355213165 5.93497228622437 -1.83111965656281 15.5641775131226 8.91506481170654 7.15663909912109 5.50895071029663 -0.223763093352318 5.16833972930908 -0.267307281494141 5.7174072265625 20.2643909454346 11.2455425262451 9.16025638580322 4.66337966918945 2.16395401954651 -1.24686765670776 50.1656341552734 32.4443511962891 10.6186628341675 16.5545883178711 35.4781150817871 19.4348011016846 5.89891004562378 1.9047315120697 10.7773580551147 11.274676322937 8.45835018157959 5.87822341918945 4.15652513504028 3.08892917633057 1.58442342281342 1.39873266220093 1.0610818862915 47.8800926208496 27.5979080200195 18.6029434204102 14.0102033615112 9.17436790466309 10.1448793411255 8.31293106079102 7.05881452560425 6.08961057662964 5.4057445526123 4.88639831542969 4.45574426651001 4.08819913864136 3.78025197982788 3.50104928016663 3.06597924232483 3.23063588142395 2.9567015171051 2.74326825141907 2.59018659591675 2.44892525672913 2.30084109306335 2.18774390220642 2.09276700019836 2.01204562187195 1.65031087398529 1.89889001846313 1.8268369436264 1.75761294364929 1.71192538738251 1.68895792961121 1.63665676116943 1.5937922000885 1.56583154201508 1.53387582302094 1.51112341880798 1.40513741970062 1.36310756206512 1.34455633163452 1.32631635665894 1.2946937084198 1.27435350418091 1.26139676570892 1.34484946727753 1.97809708118439 2.26723098754883 2.2890465259552 2.45708608627319 2.43661832809448 2.22805452346802 1.970254778862 1.92705631256104 1.80068933963776 1.68430995941162 1.5973082780838 1.5001186132431 1.50827980041504 1.51683688163757 1.43882668018341 1.89148855209351 1.85078477859497 1.83940100669861 2.97479486465454 3.01588201522827 2.99152421951294 2.9674379825592 3.00195121765137 2.67274832725525 2.48189926147461 2.21095013618469 2.03292202949524 1.84830760955811 1.69281315803528 1.55384612083435 1.49064493179321 1.45314610004425 1.36917889118195 1.35321438312531 1.31500494480133 1.2759428024292 1.24875330924988 1.15954887866974 1.14691293239594 1.13268148899078 1.09539449214935 1.09887766838074 1.08834540843964 1.05927538871765 1.05182695388794 1.01593971252441 0.890992820262909 0.868539035320282 0.645625293254852 0.57756769657135 4.91580486297607 6.18274450302124 1.56148266792297 12.012414932251 5.99551153182983 4.02991390228271 3.06024479866028 2.02464580535889 1.98310971260071 1.94955897331238 0.784542202949524 0.759175598621368 0.73471200466156 0.711318492889404 0.744140386581421 0.725958943367004
0.626960813999176 0.551377832889557 0.53894168138504 0.528548896312714 0.433228313922882 0.0679113045334816 -1.42749285697937 10.8911428451538 -1.26129817962646 1.533371925354 -1.3930721282959 3.80777716636658 0.4140265583992 9.65479946136475 -1.33487892150879 29.2094745635986 16.300142288208 11.6557302474976 9.19196701049805 3.51727151870728 3.42992925643921 3.3150429725647 3.07314968109131 2.63633871078491 2.19417595863342 -0.922470211982727 0.552455008029938 -1.32554519176483 -2.36533689498901 1.24687814712524 24.6173057556152 13.6198978424072 9.58181285858154 23.2054748535156 7.71583938598633 0.978881657123566 27.8184356689453 0.0987513512372971 5.86399984359741 -2.06299877166748 -0.73951268196106 30.3484973907471 9.34690189361572 35.969898223877 20.0600776672363 13.6424446105957 11.1123600006104 -1.02478957176208 8.67848873138428 12.2871780395508 43.9609642028809 3.4288694858551 3.32239580154419 2.40483212471008 16.3337917327881 3.82799315452576 2.14787173271179 23.4237384796143 8.98034572601318 6.92942237854004 3.68511629104614 0.718332946300507 0.580424070358276 12.6845731735229 0.386724889278412 47.5269432067871 27.6053905487061 18.808277130127 14.1848878860474 10.3575687408447 10.2892227172852 8.46444988250732 7.12162780761719 6.19672822952271 5.49795007705688 4.87512874603271 4.35435771942139 3.94701051712036 3.62858152389526 3.35363793373108 2.61707258224487 2.92887783050537 2.68899917602539 2.52085089683533 2.38340210914612 2.24390172958374 2.12861824035645 2.0192723274231 1.93702447414398 1.88532018661499 1.70027768611908 1.65259504318237 1.59642517566681 1.5392906665802 1.50875902175903 1.46966350078583 1.43409085273743 1.42005252838135 1.47254872322083 1.57443690299988 1.56430244445801 1.50972557067871 1.48582983016968 1.45726048946381 1.42459809780121 1.39695346355438 1.37444233894348 1.37139630317688 1.61033940315247 2.45970559120178 2.29615187644958 2.42464327812195 2.56276869773865 2.62706422805786 2.5555202960968 2.11692523956299 2.83869218826294 2.07929086685181 2.05119371414185 2.00123262405396 1.95546054840088 1.91730833053589 1.88097190856934 1.70713603496552 1.41104066371918 1.40082705020905 2.67026734352112 2.92148303985596 2.86170744895935 2.85629916191101 2.98293113708496 2.88498091697693 2.7584662437439 2.43907046318054 2.24205923080444 2.04901146888733 1.92750489711761 1.81542503833771 1.71420168876648 1.62374031543732 1.5450519323349 1.51429736614227 1.53858184814453 1.47280263900757 1.3968118429184 1.33741748332977 1.27980148792267 1.24544477462769 1.20714282989502 1.1979171037674 1.20575845241547 1.19791984558105 1.1647961139679 1.16016626358032 2.67512559890747 2.60008907318115 2.52240633964539 2.45611977577209 2.39503502845764 2.32547235488892 2.27353572845459 2.23291254043579 2.17738032341003 2.2987208366394 2.24853038787842 2.1943781375885 2.14856266975403 2.1033091545105 0.880477428436279 0.84507554769516 0.813452541828156 1.07887864112854 1.05983638763428 1.03577172756195
0.320786595344543 1.15092074871063 1.11178660392761 1.07530498504639 1.02734839916229 0.190849155187607 5.58359384536743 0.0877771303057671 -0.0994973182678223 -0.205734997987747 -0.28840371966362 5.42866325378418 4.53417539596558 -1.80237174034119 19.8111057281494 11.3619518280029 7.31776475906372 5.5702805519104 1.91634404659271 1.9173024892807 2.78896570205688 2.93593883514404 2.70990419387817 2.43003129959106 1.9523594379425 -0.740585327148438 1.54220378398895 5.80059957504272 0.292335033416748 -0.87847900390625 7.45543432235718 24.5988941192627 18.9242134094238 12.6842679977417 9.45337009429932 3.0945131778717 2.76803660392761 2.45743274688721 2.10392928123474 1.91526675224304 0.784111380577087 0.485444068908691 0.438471496105194 11.5603113174438 -1.30996918678284 3.93364953994751 21.5404186248779 13.8345880508423 44.39697265625 3.80221390724182 1.07718467712402 1.04211449623108 0.846368432044983 11.3076972961426 1.51463627815247 0.408348232507706 5.09850025177002 14.9271078109741 10.7961702346802 1.81782698631287 0.680353879928589 7.08703804016113 4.81472778320312 0.786608934402466 1.97581303119659 0.518324792385101 47.9520950317383 28.2040176391602 19.2907047271729 14.4011039733887 9.48856163024902 9.99597835540771 8.23605918884277 6.96799898147583 6.03515720367432 5.22747898101807 4.54413366317749 3.99465370178223 3.58901739120483 3.30203008651733 3.02713990211487 2.47539854049683 2.30730271339417 2.15701603889465 2.04342985153198 1.9532083272934 1.87034511566162 1.7759804725647 1.82200884819031 1.98696684837341 1.99836575984955 1.95145738124847 1.88488900661469 1.80933475494385 1.7359527349472 1.68321716785431 1.65607011318207 1.62358891963959 1.59432828426361 1.55065369606018 1.43805420398712 1.38368606567383 1.3537186384201 1.32208621501923 2.41502094268799 2.32603812217712 2.24444603919983 2.19634199142456 2.16079688072205 2.46173715591431 2.15713977813721 2.1401207447052 2.43679213523865 3.01909685134888 2.51935482025146 2.14264035224915 2.30704998970032 2.11431169509888 1.91758155822754 1.63530695438385 1.78446757793427 1.71071588993073 1.89303290843964 1.69243884086609 1.52165567874908 2.19253420829773 2.44683384895325 2.4358434677124 2.37926197052002 2.62767386436462 2.89624977111816 2.98376488685608 3.04788589477539 2.82836151123047 2.5555202960968 2.29293537139893 2.14193320274353 2.09042406082153 2.01095628738403 1.92496430873871 1.81798994541168 1.73527240753174 1.68052268028259 1.67896068096161 3.80999445915222 3.65259742736816 3.5131413936615 3.38222360610962 3.26464104652405 3.15556478500366 3.05030632019043 2.94833302497864 2.85765480995178 2.7665274143219 2.90395140647888 2.81984615325928 2.74408936500549 2.67065572738647 2.59951233863831 2.53200697898865 2.47956442832947 3.16951298713684 3.09589672088623 3.03097295761108 2.9582142829895 2.89488124847412 2.10683727264404 2.04701113700867 1.13691878318787 1.10693383216858 1.08310389518738 1.76893877983093 1.74122154712677 1.70196330547333
1.23697197437286 0.824474930763245 0.803463816642761 0.857101738452911 0.836621522903442 0.817882835865021 0.838253796100616 1.22796237468719 1.05451476573944 0.460565507411957 16.319278717041 8.24297046661377 4.49925231933594 -0.470678716897964 17.7465515136719 6.99468040466309 3.89494681358337 3.02525758743286 0.822107136249542 1.54380905628204 2.68932271003723 5.5797700881958 5.15054416656494 4.7235050201416 4.23304271697998 -0.0171351637691259 30.5662307739258 16.711893081665 11.5249538421631 8.84058666229248 2.55516076087952 1.24581015110016 1.27775764465332 1.26201128959656 1.34008455276489 1.19086253643036 1.12938737869263 1.03444564342499 -1.91962921619415 -2.02733826637268 18.5963516235352 12.3870582580566 5.52639198303223 5.40006351470947 -0.354780077934265 7.09212303161621 45.3020973205566 -0.758527457714081 3.48219537734985 3.83318948745728 0.616446316242218 -0.906925082206726 7.54760932922363 1.45673072338104 1.24253714084625 0.684651553630829 6.37036800384521 3.55334448814392 2.88912129402161 1.07955706119537 0.807865381240845 5.2756986618042 3.4937162399292 1.81093776226044 2.96869421005249 1.4023677110672 0.591740608215332 47.2755928039551 27.6283054351807 18.7228164672852 13.8835849761963 8.63668155670166 6.95875453948975 5.85645198822021 4.97425317764282 4.37853288650513 3.8474383354187 3.36838531494141 2.97395038604736 2.88272714614868 3.06976366043091 2.99774503707886 2.80654096603394 2.62029266357422 2.46782469749451 2.3590931892395 2.24190759658813 2.13544034957886 2.05195713043213 1.99139487743378 1.85688018798828 1.81245732307434 1.7604808807373 1.69669771194458 1.6298314332962 3.60352754592896 3.4065523147583 3.25722408294678 3.10272359848022 2.95358920097351 2.79972147941589 2.63573694229126 2.50888013839722 2.40316009521484 2.08223628997803 1.3358039855957 1.30274713039398 1.2787116765976 1.2716189622879 2.45812392234802 1.8458958864212 1.68811678886414 2.32235765457153 2.62173986434937 2.33409857749939 1.6939777135849 2.42006897926331 2.35087418556213 3.50348925590515 2.33710527420044 2.21278119087219 2.96980857849121 2.2288293838501 2.34203147888184 2.16167759895325 2.2892587184906 2.3599853515625 2.51114082336426 2.73098635673523 2.9795835018158 3.20099925994873 3.52665734291077 3.58033633232117 3.36682558059692 3.10895848274231 6.07406520843506 5.69522619247437 5.38697957992554 5.10073375701904 4.85076379776001 4.60371398925781 4.3684720993042 4.17061614990234 3.99044847488403 4.1293420791626 3.96057081222534 3.81355881690979 3.67370963096619 3.54282832145691 3.42128014564514 3.30883526802063 3.20099210739136 3.99651122093201 3.88657188415527 3.77769780158997 3.67721009254456 3.57950687408447 3.48779511451721 3.39980840682983 3.32109570503235 3.25757956504822 2.37417793273926 2.50088143348694 2.44231796264648 2.38510012626648 2.32943606376648 2.28085017204285 3.23495960235596 3.64594650268555 4.08812761306763 3.83937215805054 3.64667677879333 3.47642469406128 3.31678318977356
1.58936679363251 1.54709625244141 1.82740354537964 1.73322188854218 2.42864179611206 2.27496433258057 2.11485171318054 1.92619371414185 1.66267645359039 1.35465466976166 1.16175627708435 1.02136814594269 0.835723280906677 0.232142627239227 -0.315999537706375 -0.0780503675341606 -0.910434484481812 17.9037971496582 10.8336048126221 8.2003116607666 6.84496259689331 3.07265782356262 3.2491090297699 2.83991861343384 2.47682785987854 3.1010844707489 3.89222288131714 3.18764853477478 2.5535671710968 2.25764632225037 2.02898097038269 2.68928861618042 2.46990370750427 2.40916347503662 2.35720276832581 2.21540403366089 2.09777903556824 1.97720384597778 -0.846493780612946 14.1470031738281 4.57772970199585 0.949003517627716 -0.699259161949158 -1.65400505065918 50.6258430480957 -0.372432678937912 0.302781701087952 0.282024681568146 0.576596021652222 12.4168014526367 5.33093786239624 1.02789235115051 -0.250639647245407 0.0226270500570536 1.18420803546906 2.21213269233704 8.56718063354492 1.20574200153351 0.943478047847748 3.68293452262878 0.587260961532593 2.58728861808777 1.69785809516907 1.45566725730896 0.33548891544342 8.25953769683838 4.86729955673218 43.3764801025391 24.489767074585 16.2556591033936 12.3923330307007 12.0365343093872 9.63280010223389 8.18781852722168 7.02685642242432 6.04099559783936 5.23593997955322 4.50629043579102 3.8943145275116 3.42948794364929 3.0942554473877 2.72864842414856 2.54035139083862 2.39449119567871 2.26632165908813 9.74565601348877 8.22465801239014 7.11166000366211 6.26362228393555 5.64810991287231 5.20096349716187 4.80489158630371 4.44313526153564 4.12294340133667 3.8277223110199 3.26693248748779 1.62493133544922 2.12355756759644 1.59605705738068 1.5565003156662 1.50720918178558 1.34693014621735 1.39544689655304 1.35017096996307 1.32092475891113 1.28031051158905 2.86385107040405 2.75939178466797 2.69355440139771 2.67560124397278 2.62444162368774 2.57373571395874 2.52593302726746 2.52173066139221 2.48199391365051 2.34947443008423 2.48331022262573 2.43121600151062 2.34560394287109 3.31015610694885 2.31500720977783 2.28047204017639 2.25637149810791 2.23192572593689 2.35382866859436 12.6322870254517 10.9212427139282 9.73311519622803 8.93546772003174 8.41588020324707 7.87296628952026 7.4804835319519 7.13223743438721 6.75661182403564 6.39922475814819 6.49003267288208 6.11925840377808 5.79406356811523 5.49246120452881 5.20314741134644 4.90601634979248 4.51617908477783 5.58539628982544 5.37630367279053 5.18785429000854 5.02236747741699 4.85743761062622 4.69796562194824 4.54274606704712 4.39779758453369 4.26068353652954 4.13321352005005 3.14863967895508 3.14403438568115 3.05359673500061 2.96868824958801 2.89518404006958 9.53285026550293 10.771936416626 12.1154890060425 10.9215431213379 9.18667221069336 7.91455888748169 6.93471765518188 6.23298740386963 5.66252040863037 5.18538427352905 4.78404378890991 4.42805814743042 4.08528852462769 4.01772594451904 4.0848217010498 3.93850612640381 3.72026824951172
3.31996464729309 3.05290222167969 2.82817125320435 2.63531970977783 1.82083427906036 0.879540681838989 2.20408034324646 2.01914286613464 1.83141255378723 1.58721649646759 1.37391865253448 1.17869448661804 0.986943185329437 0.807566106319427 0.528223752975464 -0.576878607273102 -0.638555467128754 -0.678111553192139 4.11702251434326 4.7485785484314 4.23313188552856 6.0253119468689 5.04505157470703 4.71661853790283 4.62575769424438 5.50977563858032 4.37888669967651 4.05575895309448 3.74282932281494 3.46018362045288 3.1897087097168 1.81000792980194 1.68809986114502 1.50237643718719 1.33056199550629 1.25705683231354 1.18609189987183 -1.45267999172211 32.794849395752 13.06520652771 -1.60282242298126 -1.78107869625092 52.3031311035156 13.0970039367676 1.16782331466675 10.3986835479736 0.488705933094025 1.24480557441711 -0.129711896181107 3.65665888786316 0.28946778178215 6.10258769989014 4.48977851867676 2.95895028114319 0.275053709745407 2.719646692276 0.118979498744011 2.41752767562866 2.59240102767944 0.210584715008736 0.233085751533508 6.17138385772705 0.83098179101944 1.43822586536407 -0.114127784967422 -0.232650637626648 0.548939168453217 19.5804805755615 40.4590530395508 22.2110652923584 15.8382339477539 11.862003326416 10.4088640213013 8.29077243804932 7.07422590255737 5.92784643173218 5.07911491394043 4.38131046295166 3.75735068321228 3.22393488883972 -0.261761963367462 7.89700365066528 34.6244049072266 19.1206798553467 13.0594100952148 9.86834144592285 2.26286387443542 2.1780641078949 2.09708404541016 2.02491545677185 1.97539234161377 1.80581891536713 1.90655553340912 1.84550404548645 1.79100680351257 1.83346259593964 1.71243917942047 4.55467844009399 4.26690769195557 4.04385042190552 3.81735706329346 3.59665846824646 3.39455246925354 3.21635580062866 3.06518793106079 2.91207432746887 3.05245566368103 2.94708275794983 2.8860809803009 2.83172869682312 2.75278306007385 2.65869355201721 2.63647365570068 4.10272550582886 2.58758354187012 2.42442297935486 2.16540169715881 2.10487294197083 2.92255067825317 2.83316898345947 1.32588481903076 43.9317321777344 26.2541904449463 18.6247730255127 14.5130443572998 13.1934585571289 11.2568311691284 9.99703311920166 9.34010982513428 7.50262975692749 13.4617023468018 8.27181529998779 7.32169389724731 8.49744987487793 8.10334873199463 7.69007396697998 7.33610582351685 7.01099157333374 6.70693111419678 6.3608341217041 6.01261854171753 5.67553424835205 4.12019062042236 4.68059158325195 4.4975905418396 4.34682655334473 4.17552280426025 3.9841194152832 3.7935996055603 3.61177349090576 3.46252059936523 3.35355615615845 1.77074337005615 1.1592264175415 0.931016445159912 6.827880859375 44.0438613891602 25.8303718566895 17.9327659606934 13.7986326217651 11.9839115142822 12.2159194946289 11.7066125869751 9.81624031066895 8.46527194976807 7.41037702560425 6.58779191970825 5.9122166633606 5.38578224182129 4.94017601013184 4.53974390029907 4.21040153503418 3.30984330177307 3.14998888969421
3.73316264152527 3.36440229415894 3.06496834754944 2.82544040679932 2.61634159088135 2.41704320907593 1.25417065620422 1.20960330963135 0.1731016933918 0.129772663116455 0.0892694294452667 0.0476655028760433 0.46098467707634 0.368176907300949 0.254233300685883 0.15698017179966 -0.571046769618988 21.7588214874268 10.2232227325439 7.92559623718262 6.95577144622803 2.92392659187317 4.40314912796021 6.71854734420776 4.47276639938354 3.67630577087402 3.01200985908508 2.59794139862061 2.29333996772766 2.09262871742249 1.88403880596161 1.72842013835907 1.62833762168884 1.53352427482605 1.35671353340149 1.26114165782928 1.27134990692139 0.126536563038826 -1.01400768756866 -1.44163477420807 47.0833168029785 -1.65478920936584 4.80922174453735 3.62630701065063 2.47540497779846 1.50658702850342 0.162420973181725 9.11862850189209 7.00560140609741 4.82472038269043 2.54443550109863 2.30748128890991 1.32768750190735 0.617528140544891 0.595920085906982 13.194920539856 7.99311876296997 12.0271453857422 4.82460498809814 1.55827665328979 6.03050756454468 0.539934992790222 0.243860393762589 0.122265636920929 7.43878030776978 0.811272501945496 -0.0361168794333935 5.86429166793823 10.5593061447144 41.2828674316406 22.7958583831787 15.0137062072754 12.4791021347046 11.2470960617065 8.9511022567749 7.53779983520508 6.25577354431152 5.25749826431274 4.47698354721069 2.71638917922974 2.32564735412598 8.06374835968018 4.22777605056763 3.18283486366272 2.50173330307007 3.92987704277039 3.33623933792114 12.0033111572266 10.2298212051392 8.9531421661377 7.94242191314697 7.1524019241333 6.53535223007202 6.02026271820068 5.56016492843628 5.18990039825439 4.83675861358643 4.90879392623901 4.5853476524353 4.32875823974609 4.07770442962646 3.85736966133118 3.64964151382446 3.46079587936401 3.29181838035583 3.13100218772888 2.80773401260376 2.67773365974426 3.75546836853027 3.61992478370667 3.51111197471619 3.42431974411011 3.38577842712402 4.41117477416992 3.23410844802856 3.05700135231018 2.93622660636902 2.80053853988647 2.10385322570801 2.06406879425049 0.92698734998703 45.3627281188965 27.5335960388184 19.7120532989502 16.0554122924805 14.0056476593018 12.3555908203125 11.323618888855 8.98772811889648 8.64193153381348 16.0799255371094 10.0877332687378 8.45542144775391 12.1382598876953 10.594705581665 9.32031917572021 8.37286186218262 7.58998680114746 6.92822694778442 6.12092256546021 5.50586128234863 4.98457002639771 4.65630960464478 3.55800151824951 3.55233502388 3.54677104949951 3.48237252235413 1.9809513092041 28.0016460418701 3.37302684783936 2.95854616165161 1.98700940608978 1.66766369342804 1.22584974765778 0.934987962245941 0.931453824043274 0.88147896528244 2.63690114021301 46.203369140625 27.802848815918 19.3519744873047 14.7923183441162 8.95044231414795 7.70189762115479 6.75502490997314 6.00630903244019 5.38067102432251 4.8805103302002 4.47087049484253 4.47823429107666 4.18472814559937 3.94140911102295 3.70748949050903 3.51780843734741
0.847237348556519 0.284217864274979 0.277216464281082 0.860225856304169 0.83549028635025 0.807961344718933 0.775380194187164 0.742866396903992 0.697058200836182 0.65537303686142 0.621839582920074 0.58480429649353 0.169633060693741 0.0943221226334572 0.0113984337076545 -0.0577576495707035 -0.157154500484467 -0.454392075538635 -0.573518335819244 -0.583712816238403 2.51267623901367 2.33208155632019 6.00093078613281 5.77341175079346 4.67904186248779 3.81843686103821 3.53727674484253 3.0267505645752 2.67024207115173 2.35887956619263 2.08474278450012 1.90772080421448 1.77746915817261 1.63666355609894 1.52112758159637 1.41480660438538 1.39037919044495 -1.6550201177597 52.0506477355957 1.759934425354 6.95072984695435 4.82386589050293 2.48335957527161 0.877674877643585 0.35302197933197 0.0415622256696224 2.62409830093384 2.26520562171936 21.589262008667 11.5377950668335 6.56718254089355 3.89215755462646 3.33285474777222 3.73625898361206 3.14234519004822 3.07657670974731 2.56551456451416 2.04229307174683 8.71677303314209 2.3907105922699 1.77664971351624 0.331734478473663 0.253759622573853 0.186625212430954 15.3428630828857 7.43990564346313 4.55718755722046 -0.163092657923698 4.70305633544922 14.1635684967041 41.5690956115723 22.9734992980957 15.0893354415894 12.1281309127808 9.84297847747803 8.59545040130615 6.83986949920654 5.74155235290527 3.32381081581116 2.73815870285034 1.61551892757416 16.7685813903809 -0.714924335479736 12.7647476196289 38.0454483032227 21.6307830810547 14.9704790115356 12.8188438415527 11.3968925476074 11.2561559677124 9.61836719512939 8.39954280853271 7.46462774276733 6.73211908340454 6.12044954299927 5.63921785354614 5.21387195587158 4.79028606414795 4.38857555389404 5.97084712982178 5.57394790649414 5.24948644638062 4.95436811447144 4.69796991348267 4.47434043884277 4.26126766204834 4.02229022979736 3.81881237030029 2.65801906585693 2.56307697296143 3.30350017547607 3.23157596588135 3.21163630485535 4.51492166519165 3.01194381713867 2.81684541702271 2.66730499267578 2.53080344200134 -0.175068274140358 33.0726203918457 19.264087677002 41.2109413146973 24.6728534698486 17.6148376464844 13.6718168258667 10.8413906097412 9.41769886016846 8.76716327667236 3.49339318275452 27.8728542327881 21.2389297485352 15.7912912368774 12.4503898620605 5.82543182373047 8.8738317489624 5.82372903823853 5.32639932632446 4.81759071350098 4.34560060501099 4.04639148712158 3.76948928833008 5.54239511489868 4.94333219528198 4.63456392288208 4.48763275146484 2.77782940864563 7.66692686080933 2.15523076057434 14.9892835617065 13.0794429779053 12.9238996505737 9.52765560150146 7.98931360244751 4.16578102111816 3.62417459487915 3.01090049743652 1.81783211231232 22.4025573730469 27.9667091369629 17.6425266265869 13.4009981155396 10.7533321380615 10.3195095062256 8.67855644226074 7.4524359703064 6.52286911010742 5.77359771728516 5.19001340866089 4.83340358734131 4.66682767868042 4.6496410369873 4.92679214477539 4.6194429397583 4.33815431594849
0.963509857654572 0.919958889484406 0.88777482509613 0.39506521821022 0.384191393852234 0.371070444583893 0.356511473655701 0.352625221014023 0.322553336620331 0.298793405294418 0.28242552280426 1.41608321666718 1.36451256275177 1.28892707824707 1.19497120380402 1.10357213020325 0.140431478619576 -0.512766480445862 -0.781149625778198 -0.849857091903687 -0.171737760305405 -0.0834375321865082 5.68889236450195 7.0147385597229 5.46648740768433 4.42361688613892 3.87679886817932 3.32102012634277 2.93007278442383 2.56641054153442 2.28352451324463 2.10218381881714 1.9514342546463 1.79750287532806 1.67989921569824 1.5509397983551 1.35725462436676 -1.5638587474823 0.517228722572327 5.52467107772827 17.4606132507324 4.33070611953735 2.60922527313232 1.19477128982544 1.49323344230652 -0.0186012927442789 0.866990804672241 1.44272267818451 5.38486194610596 23.6618385314941 10.0104331970215 8.51529693603516 5.12101602554321 4.21404647827148 3.727294921875 3.66550016403198 9.93919944763184 4.98989248275757 3.61740112304688 2.41525316238403 1.58197522163391 1.28626239299774 4.26693487167358 0.616589188575745 5.80268716812134 4.11328792572021 -0.0361289381980896 0.789814889431 -0.268801242113113 17.7804050445557 6.62196969985962 43.717960357666 24.7020034790039 16.2943668365479 11.9851570129395 8.91212463378906 10.0664863586426 5.07028675079346 -0.0352214500308037 -0.0489155650138855 14.1775121688843 12.0651693344116 -0.692499577999115 8.66562747955322 5.21511459350586 42.0807571411133 24.6651935577393 17.3060207366943 13.4097681045532 16.2299270629883 13.8721466064453 12.1480855941772 10.7071228027344 9.62165260314941 8.75124549865723 8.05182266235352 7.41714859008789 6.8544602394104 6.29867315292358 3.98455429077148 3.73715424537659 5.19353532791138 4.87909984588623 4.63759899139404 4.397873878479 4.1218466758728 3.89041519165039 3.69258809089661 3.49594402313232 3.32608127593994 2.048091173172 2.0361430644989 2.81115174293518 3.76577520370483 1.94043695926666 1.32524764537811 1.99611949920654 1.88183951377869 1.20724046230316 0.419639229774475 17.1630439758301 34.2146263122559 19.773588180542 14.8164510726929 10.7349033355713 8.93652248382568 7.74739599227905 7.10142040252686 4.33641052246094 14.6358108520508 9.18214988708496 7.095299243927 5.64720964431763 4.59663200378418 4.21778535842896 7.97484397888184 2.86141347885132 23.5379085540771 11.8661594390869 7.54759693145752 5.25523328781128 10.4473781585693 9.25003719329834 8.38522911071777 0.559646010398865 3.14994668960571 12.301121711731 29.1228313446045 17.1135311126709 12.9871435165405 6.30965852737427 5.41698408126831 3.15040826797485 2.28719234466553 1.91076993942261 6.46525430679321 6.55209684371948 5.17305183410645 42.4040260314941 24.6518249511719 16.925235748291 14.4982690811157 12.2771158218384 10.6232261657715 9.33697032928467 8.29484081268311 7.4732780456543 6.79459667205811 6.25005483627319 5.76607322692871 5.33789777755737 4.22547960281372 4.57090091705322 4.28789234161377
