NCOLS 166
NROWS 32
XLLCORNER 353824
YLLCORNER 6699888
CELLSIZE 16 
NODATA_value -3.4e+38 
0.992280721664429 0.995257794857025 0.994640052318573 0.994022727012634 0.995065629482269 0.994312047958374 0.995272219181061 0.995542049407959 0.995821535587311 0.995916604995728 0.99635648727417 0.996411979198456 0.995883464813232 0.996118187904358 0.996438503265381 0.996435701847076 0.996314704418182 0.996179640293121 0.996552348136902 0.996882975101471 0.996608555316925 0.996140539646149 0.995610237121582 0.996335446834564 0.996408224105835 0.995155990123749 0.993730485439301 0.994271159172058 0.994076788425446 0.993282079696655 0.992809176445007 0.991778254508972 0.991233885288239 0.987746715545654 0.981911540031433 0.973684310913086 0.978365540504456 0.952339708805084 0.973445773124695 0.974093317985535 0.981336712837219 0.98536092042923 0.987858414649963 0.99062567949295 0.99251401424408 0.992120206356049 0.992944777011871 0.992585182189941 0.992541611194611 0.994002938270569 0.99448174238205 0.994294285774231 0.994762361049652 0.993888437747955 0.993683993816376 0.994404196739197 0.994566798210144 0.995010077953339 0.992216527462006 0.991544127464294 0.98430609703064 0.983780741691589 0.969358742237091 0.961546897888184 0.928142249584198 0.982658267021179 0.971838712692261 0.863078057765961 0.989140808582306 0.963326454162598 0.989866435527802 0.987871468067169 0.990363836288452 0.990049719810486 0.992282807826996 0.964370727539062 0.985176920890808 0.9858238697052 0.980378925800323 0.969000339508057 0.924617171287537 0.988242983818054 0.961704194545746 0.973281383514404 0.95660126209259 0.978405833244324 0.980288565158844 0.985979557037354 0.979688346385956 0.992335855960846 0.965343058109283 0.964563071727753 0.975483298301697 0.929266154766083 0.939448952674866 0.953041970729828 0.969573199748993 0.98834753036499 0.994179248809814 0.98212343454361 0.991265416145325 0.994256973266602 0.953287780284882 0.910836637020111 0.920337915420532 0.943404376506805 0.951007723808289 0.919478058815002 0.959841191768646 0.93904185295105 0.960444748401642 0.94670557975769 0.95136684179306 0.930656909942627 0.888877213001251 0.935505330562592 0.974352717399597 0.982317090034485 0.948499441146851 0.728783905506134 0.933384239673615 0.883654952049255 0.939774990081787 0.960433900356293 0.964673519134521 0.966760694980621 0.968507289886475 0.966248035430908 0.965401411056519 0.960975110530853 0.961908340454102 0.967445015907288 0.972683310508728 0.97474080324173 0.971718966960907 0.967090666294098 0.963736295700073 0.964681446552277 0.967979848384857 0.960292994976044 0.957804381847382 0.950539886951447 0.950137794017792 0.955695033073425 0.977856934070587 0.938046813011169 0.915988802909851 0.906381607055664 0.965919733047485 0.955242216587067 0.976868808269501 0.980399370193481 0.982006072998047 0.984216332435608 0.984358668327332 0.982159018516541 0.982724070549011 0.983931958675385 0.985310673713684 0.985998451709747 0.986446261405945 0.986117482185364 0.985434174537659 0.985773265361786 0.985032558441162 0.9819495677948
0.989834189414978 0.993192195892334 0.993679285049438 0.993729114532471 0.993468940258026 0.993780255317688 0.994398415088654 0.994449198246002 0.994145691394806 0.994525194168091 0.994702577590942 0.99483186006546 0.995235025882721 0.995646774768829 0.995679438114166 0.995634913444519 0.996296405792236 0.996868550777435 0.996359705924988 0.996354818344116 0.996245145797729 0.996152579784393 0.994834244251251 0.995789289474487 0.995519518852234 0.995761036872864 0.993565022945404 0.992399036884308 0.992913842201233 0.991555631160736 0.990680515766144 0.989699482917786 0.983905673027039 0.977921724319458 0.964558780193329 0.953582048416138 0.922379076480865 0.978332579135895 0.910491824150085 0.964224636554718 0.968208253383636 0.978970944881439 0.982492208480835 0.987979173660278 0.990642309188843 0.990876138210297 0.992072522640228 0.992412626743317 0.992084681987762 0.994243443012238 0.994792520999908 0.994604885578156 0.994633316993713 0.994540870189667 0.994904816150665 0.994916975498199 0.994503557682037 0.993005216121674 0.994425237178802 0.991243720054626 0.988538205623627 0.97458553314209 0.975980281829834 0.913619875907898 0.925439894199371 0.976517856121063 0.960970222949982 0.93261456489563 0.913948476314545 0.987423896789551 0.978342056274414 0.97801798582077 0.990152657032013 0.926148056983948 0.971020102500916 0.967303216457367 0.982532560825348 0.973090529441833 0.969283819198608 0.96725070476532 0.895112454891205 0.968675076961517 0.983095645904541 0.982643067836761 0.964000999927521 0.966124892234802 0.964626133441925 0.970421075820923 0.952666699886322 0.977699160575867 0.97617244720459 0.912775933742523 0.973610699176788 0.968902409076691 0.92486846446991 0.945121884346008 0.961322426795959 0.975754976272583 0.992486774921417 0.995443344116211 0.983213901519775 0.975304961204529 0.927604854106903 0.884314894676208 0.923502504825592 0.946259558200836 0.935339033603668 0.971451997756958 0.939562559127808 0.981926679611206 0.96794056892395 0.937370359897614 0.931455850601196 0.91233628988266 0.918292999267578 0.899086952209473 0.978270292282104 0.989789485931396 0.949873149394989 0.907326996326447 0.754409193992615 0.970739185810089 0.926175832748413 0.955395936965942 0.965930461883545 0.965891480445862 0.968428432941437 0.968628883361816 0.970465004444122 0.966261625289917 0.96871542930603 0.97172611951828 0.97445684671402 0.974571466445923 0.975106775760651 0.975959002971649 0.972475051879883 0.971966028213501 0.967999458312988 0.971508085727692 0.969343960285187 0.969375133514404 0.973021447658539 0.972539782524109 0.960639953613281 0.969163596630096 0.936351716518402 0.94985044002533 0.950296461582184 0.965146958827972 0.978206276893616 0.984582602977753 0.982957780361176 0.983607769012451 0.98324978351593 0.983558356761932 0.983790397644043 0.983760595321655 0.984497666358948 0.985190808773041 0.986396312713623 0.985759317874908 0.985082387924194 0.984095811843872 0.982675194740295 0.978118777275085
0.990831673145294 0.990704715251923 0.993837475776672 0.993357062339783 0.993703126907349 0.993696331977844 0.994531691074371 0.994142472743988 0.994258165359497 0.993845343589783 0.994225919246674 0.993839681148529 0.994832575321198 0.995696544647217 0.995502293109894 0.995879590511322 0.99640291929245 0.996356725692749 0.996944963932037 0.996889233589172 0.996064901351929 0.995710432529449 0.994987010955811 0.994950890541077 0.995629727840424 0.994768381118774 0.995315909385681 0.991930067539215 0.992059409618378 0.986829459667206 0.988041639328003 0.982863366603851 0.978949069976807 0.975085914134979 0.929493308067322 0.922936618328094 0.870450139045715 0.940317988395691 0.921861350536346 0.914086580276489 0.944027423858643 0.969428539276123 0.978173077106476 0.98330020904541 0.988628387451172 0.991103410720825 0.992424726486206 0.992189109325409 0.993232071399689 0.994191229343414 0.994432270526886 0.994239270687103 0.99469792842865 0.995002269744873 0.995250761508942 0.995609998703003 0.994531989097595 0.994256496429443 0.992523729801178 0.989799678325653 0.98679530620575 0.977626264095306 0.922665297985077 0.977622807025909 0.869000017642975 0.952332377433777 0.952835321426392 0.941011846065521 0.935778617858887 0.965882658958435 0.973664045333862 0.945430040359497 0.973593413829803 0.988413512706757 0.974465548992157 0.949507474899292 0.969392895698547 0.964375972747803 0.962364256381989 0.882239758968353 0.982438564300537 0.958848714828491 0.984843552112579 0.931601941585541 0.964181959629059 0.95439338684082 0.94848757982254 0.940821349620819 0.966294288635254 0.946032583713531 0.992857038974762 0.947778582572937 0.98544180393219 0.973258972167969 0.962594509124756 0.936159670352936 0.936786651611328 0.969352900981903 0.990903317928314 0.998266339302063 0.985528409481049 0.995010316371918 0.912248849868774 0.860632419586182 0.919988572597504 0.941455245018005 0.973048686981201 0.971078515052795 0.976162254810333 0.97017514705658 0.946939408779144 0.929570615291595 0.905906200408936 0.892118990421295 0.923918485641479 0.965032160282135 0.959296584129333 0.992393493652344 0.971580684185028 0.962138056755066 0.931552886962891 0.791239142417908 0.913536190986633 0.955528855323792 0.966105461120605 0.967463374137878 0.972302913665771 0.972673296928406 0.970787286758423 0.973038375377655 0.972603559494019 0.975097477436066 0.973718047142029 0.974512279033661 0.975917220115662 0.976968050003052 0.977059781551361 0.974417388439178 0.975276231765747 0.974686861038208 0.976335823535919 0.97733062505722 0.978850960731506 0.978056728839874 0.974407315254211 0.973947703838348 0.966830670833588 0.955754637718201 0.961774230003357 0.972396194934845 0.974973142147064 0.984945356845856 0.987216055393219 0.985373318195343 0.983047664165497 0.983890116214752 0.985329568386078 0.985341787338257 0.985512673854828 0.984923005104065 0.985930383205414 0.984750092029572 0.984431803226471 0.981580376625061 0.980680644512177 0.979701399803162
0.984156906604767 0.989437162876129 0.989465653896332 0.992531836032867 0.993783712387085 0.993355453014374 0.993777573108673 0.994272351264954 0.993912756443024 0.993941962718964 0.994297206401825 0.993919909000397 0.995651602745056 0.995201826095581 0.995254218578339 0.995422601699829 0.995709300041199 0.995608270168304 0.995918869972229 0.996369540691376 0.995604753494263 0.995063364505768 0.995022833347321 0.995284020900726 0.993808329105377 0.993685781955719 0.992932736873627 0.990483999252319 0.989979267120361 0.982508957386017 0.986279547214508 0.974809587001801 0.967581987380981 0.9291712641716 0.929302215576172 0.883033871650696 0.906324803829193 0.939497351646423 0.908373475074768 0.836914002895355 0.9367835521698 0.950285375118256 0.968684732913971 0.977961719036102 0.986128687858582 0.989232063293457 0.991479516029358 0.991304576396942 0.993282794952393 0.993728935718536 0.993691921234131 0.993905365467072 0.994721412658691 0.994230985641479 0.995224595069885 0.995480477809906 0.995398759841919 0.993529260158539 0.992390692234039 0.989573538303375 0.984791815280914 0.978480041027069 0.969163000583649 0.976711452007294 0.892582952976227 0.92985874414444 0.93311733007431 0.940164804458618 0.967388331890106 0.921543061733246 0.930769205093384 0.944344699382782 0.899722158908844 0.934195935726166 0.933469653129578 0.918092489242554 0.950205147266388 0.953763782978058 0.902499616146088 0.975720226764679 0.970325469970703 0.964008271694183 0.947433292865753 0.990868866443634 0.965692937374115 0.973897755146027 0.973931550979614 0.974015891551971 0.955712497234344 0.956259250640869 0.981996357440948 0.981224119663239 0.916151642799377 0.971917748451233 0.95572555065155 0.907842576503754 0.915725469589233 0.965716600418091 0.983304560184479 0.991620361804962 0.995247542858124 0.963993072509766 0.936957776546478 0.869546175003052 0.930285513401031 0.90810763835907 0.945268988609314 0.962712287902832 0.965926170349121 0.938371598720551 0.916708886623383 0.898661911487579 0.972550332546234 0.849085807800293 0.923160314559937 0.972066760063171 0.998549044132233 0.963324785232544 0.965091228485107 0.981347560882568 0.974377930164337 0.930030465126038 0.943153083324432 0.945769906044006 0.96488630771637 0.970334410667419 0.973780453205109 0.971221804618835 0.971775591373444 0.976484537124634 0.975622296333313 0.975663423538208 0.974783718585968 0.976108372211456 0.97604888677597 0.97917103767395 0.979171574115753 0.978645503520966 0.978320240974426 0.980513632297516 0.979604601860046 0.978678703308105 0.979249536991119 0.979788422584534 0.980530500411987 0.975379347801208 0.977505147457123 0.975481688976288 0.977337121963501 0.976714849472046 0.977298319339752 0.980712234973907 0.986770868301392 0.986970484256744 0.984822750091553 0.985165953636169 0.984643399715424 0.985418856143951 0.985296785831451 0.984559834003448 0.9838947057724 0.984244704246521 0.981943666934967 0.979811251163483 0.9763503074646 0.974293947219849
0.983488261699677 0.984392821788788 0.988511085510254 0.990715146064758 0.993011713027954 0.993528962135315 0.99415135383606 0.993740916252136 0.994292914867401 0.993971288204193 0.994155466556549 0.994017899036407 0.995052099227905 0.995278000831604 0.995203852653503 0.99517822265625 0.995294511318207 0.995390176773071 0.995335102081299 0.995704352855682 0.995071887969971 0.994621574878693 0.994032859802246 0.994735240936279 0.994538247585297 0.992539346218109 0.991051614284515 0.984228193759918 0.987713813781738 0.977013230323792 0.981808125972748 0.967881143093109 0.958323240280151 0.910976231098175 0.918972790241241 0.986411094665527 0.991860449314117 0.991401076316833 0.954466760158539 0.862695932388306 0.855778813362122 0.943002223968506 0.954118549823761 0.969032108783722 0.978875577449799 0.984046876430511 0.990064322948456 0.990545332431793 0.992464423179626 0.992333889007568 0.993565857410431 0.994179427623749 0.994239509105682 0.994942724704742 0.99563068151474 0.994422018527985 0.993573069572449 0.990646302700043 0.989310324192047 0.988997638225555 0.987229824066162 0.979571044445038 0.955646812915802 0.955009341239929 0.921296119689941 0.91437166929245 0.927367806434631 0.959574639797211 0.960857033729553 0.87379664182663 0.928333580493927 0.929864346981049 0.936015725135803 0.894707918167114 0.863855957984924 0.913023591041565 0.9092156291008 0.87819516658783 0.978209376335144 0.965279638767242 0.984214007854462 0.934993743896484 0.97564423084259 0.976081311702728 0.975995123386383 0.978930711746216 0.977095484733582 0.977452516555786 0.969279289245605 0.952281296253204 0.961611986160278 0.982972979545593 0.973103940486908 0.959205746650696 0.95614892244339 0.944203674793243 0.909265637397766 0.933314621448517 0.969056069850922 0.98510068655014 0.99468582868576 0.994364023208618 0.965898871421814 0.962999165058136 0.937981247901917 0.933232188224792 0.961439669132233 0.961227655410767 0.926706671714783 0.95109099149704 0.945641756057739 0.931734919548035 0.830031752586365 0.934880554676056 0.944808185100555 0.96976912021637 0.993688464164734 0.89844012260437 0.979720711708069 0.977188766002655 0.987369477748871 0.954456329345703 0.813503623008728 0.93859326839447 0.955823600292206 0.96708083152771 0.972410440444946 0.972425818443298 0.974102139472961 0.977039813995361 0.974042236804962 0.975525736808777 0.977815330028534 0.977651119232178 0.978520154953003 0.979139864444733 0.980967700481415 0.980604350566864 0.980708122253418 0.981004774570465 0.981583714485168 0.980061411857605 0.981158673763275 0.982571601867676 0.981640338897705 0.978515625 0.981190502643585 0.978398084640503 0.979274928569794 0.97940331697464 0.981112122535706 0.97950267791748 0.982591152191162 0.986178815364838 0.985663294792175 0.985996007919312 0.985524356365204 0.98448234796524 0.983756124973297 0.982950866222382 0.981670916080475 0.981999635696411 0.979555010795593 0.974904119968414 0.969101071357727 0.961362183094025
0.972275793552399 0.983334720134735 0.986139237880707 0.988765358924866 0.990964770317078 0.99192863702774 0.99384593963623 0.993093609809875 0.994160771369934 0.994921326637268 0.994558870792389 0.994209825992584 0.995203018188477 0.995042622089386 0.994957804679871 0.99475485086441 0.995210409164429 0.9953773021698 0.995373606681824 0.995899736881256 0.994519233703613 0.994247317314148 0.993074774742126 0.993534564971924 0.993171989917755 0.993469476699829 0.988326966762543 0.984931409358978 0.974641919136047 0.966569602489471 0.952862620353699 0.959662199020386 0.946709096431732 0.924313008785248 0.875793397426605 0.948731064796448 0.924193978309631 0.966143667697906 0.985404014587402 0.978677868843079 0.890184044837952 0.866747915744781 0.948695242404938 0.960476458072662 0.967996120452881 0.975957989692688 0.985870540142059 0.991327285766602 0.990801572799683 0.993676900863647 0.994820594787598 0.993724286556244 0.994165778160095 0.995173633098602 0.996292233467102 0.994868218898773 0.992448925971985 0.990411818027496 0.987165689468384 0.987277686595917 0.986594676971436 0.981628835201263 0.978097379207611 0.960325419902802 0.97822242975235 0.97421658039093 0.833759605884552 0.963736951351166 0.662794172763824 0.883220672607422 0.839693546295166 0.902238309383392 0.909838557243347 0.910094916820526 0.882071137428284 0.802718222141266 0.926615238189697 0.973602950572968 0.966085851192474 0.982592761516571 0.974640905857086 0.986396789550781 0.976823747158051 0.985086441040039 0.982765138149261 0.982815146446228 0.978311061859131 0.977035522460938 0.970122098922729 0.936197340488434 0.965401649475098 0.9825718998909 0.986844956874847 0.964016914367676 0.975570559501648 0.950056433677673 0.91232168674469 0.897750735282898 0.954246997833252 0.949301838874817 0.940725147724152 0.961635708808899 0.982382893562317 0.969287872314453 0.952274978160858 0.936622440814972 0.936103284358978 0.906399726867676 0.982646524906158 0.977680802345276 0.985711276531219 0.97939544916153 0.970470428466797 0.973360538482666 0.967768430709839 0.97815352678299 0.994412302970886 0.960743486881256 0.95848560333252 0.989760220050812 0.98368901014328 0.974265277385712 0.91364723443985 0.866093993186951 0.941263675689697 0.950785756111145 0.967424511909485 0.968338787555695 0.971703112125397 0.971553266048431 0.974773108959198 0.978683233261108 0.978115379810333 0.978941440582275 0.978198885917664 0.980565369129181 0.98141485452652 0.98203706741333 0.982139587402344 0.981846570968628 0.981022238731384 0.981183171272278 0.983669757843018 0.983676791191101 0.982757031917572 0.980596125125885 0.98167359828949 0.980690538883209 0.980784714221954 0.980614840984344 0.982245743274689 0.981123387813568 0.980972051620483 0.983235001564026 0.986129879951477 0.985963761806488 0.985159516334534 0.983932137489319 0.982718050479889 0.983662009239197 0.979776799678802 0.978908836841583 0.974541962146759 0.968393206596375 0.961728751659393 0.931117951869965
0.969545602798462 0.975163757801056 0.981721460819244 0.983933925628662 0.989726841449738 0.989934623241425 0.992453813552856 0.991910219192505 0.99433821439743 0.994088470935822 0.99370813369751 0.994314432144165 0.995064616203308 0.994668900966644 0.994843721389771 0.995112001895905 0.9953493475914 0.9949089884758 0.994820296764374 0.995197236537933 0.995013892650604 0.994637370109558 0.99363124370575 0.992352426052094 0.990679979324341 0.9878870844841 0.986497163772583 0.972806870937347 0.963395416736603 0.943419635295868 0.93337208032608 0.92872542142868 0.934756457805634 0.905560791492462 0.834799468517303 0.914537966251373 0.941642940044403 0.960180342197418 0.973033249378204 0.962049424648285 0.96680223941803 0.886983156204224 0.904517412185669 0.934899210929871 0.954101383686066 0.960498154163361 0.973278641700745 0.985997915267944 0.990455389022827 0.992234826087952 0.993016242980957 0.993015944957733 0.994211256504059 0.994979977607727 0.994414985179901 0.992393434047699 0.990216553211212 0.989630997180939 0.989547610282898 0.987380623817444 0.984220445156097 0.980510890483856 0.975937485694885 0.968371093273163 0.943985462188721 0.843502998352051 0.881889760494232 0.786940217018127 0.853963851928711 0.841449797153473 0.746835231781006 0.883428812026978 0.885076284408569 0.823330938816071 0.896367073059082 0.97953987121582 0.971326112747192 0.941754341125488 0.979049265384674 0.987396478652954 0.981309235095978 0.944701731204987 0.984037160873413 0.980221211910248 0.98385614156723 0.985631704330444 0.982595801353455 0.971598327159882 0.970799028873444 0.946214020252228 0.968060970306396 0.97631299495697 0.988676428794861 0.980178773403168 0.975209951400757 0.869407832622528 0.902428925037384 0.896454632282257 0.938766479492188 0.918133914470673 0.911535084247589 0.923331379890442 0.952951669692993 0.947117269039154 0.944616913795471 0.98494428396225 0.96331650018692 0.957979917526245 0.977323412895203 0.965481102466583 0.958264946937561 0.938988268375397 0.930705368518829 0.948579907417297 0.944229662418365 0.96882438659668 0.987408101558685 0.961035370826721 0.962552607059479 0.977205574512482 0.988778412342072 0.987270593643188 0.972445845603943 0.906598389148712 0.860937654972076 0.934857904911041 0.95057737827301 0.963830351829529 0.970026254653931 0.970350384712219 0.976030349731445 0.978315711021423 0.978845417499542 0.978812038898468 0.980088889598846 0.981878817081451 0.982629299163818 0.983577489852905 0.982869029045105 0.981502175331116 0.981956720352173 0.983825027942657 0.984353601932526 0.984946966171265 0.98267126083374 0.983122229576111 0.982608497142792 0.981798768043518 0.982098460197449 0.982354462146759 0.983014941215515 0.98318475484848 0.982658207416534 0.982549130916595 0.98373681306839 0.986118972301483 0.984501242637634 0.982924103736877 0.981890618801117 0.981322944164276 0.980179905891418 0.976005017757416 0.972861468791962 0.949774026870728 0.908481121063232 0.911214292049408
0.949144244194031 0.969952881336212 0.976443588733673 0.980423092842102 0.986790776252747 0.987598776817322 0.991995930671692 0.990733683109283 0.993409395217896 0.991922676563263 0.993476450443268 0.99378913640976 0.993295907974243 0.99365109205246 0.995390117168427 0.995253086090088 0.994761347770691 0.994281888008118 0.994437515735626 0.995150685310364 0.994780480861664 0.994247317314148 0.993487179279327 0.993492305278778 0.990833640098572 0.988184750080109 0.980516731739044 0.963237822055817 0.945932686328888 0.874291062355042 0.847084105014801 0.853793501853943 0.887569427490234 0.885374367237091 0.825137138366699 0.876269340515137 0.98371422290802 0.944571495056152 0.950194776058197 0.978767931461334 0.990444958209991 0.907110810279846 0.833254158496857 0.918108642101288 0.898546636104584 0.91800183057785 0.969487965106964 0.979717373847961 0.986741781234741 0.99329662322998 0.99248206615448 0.992623448371887 0.994170665740967 0.994518220424652 0.993459403514862 0.991885364055634 0.990422368049622 0.989912390708923 0.989989578723907 0.988293707370758 0.986982583999634 0.983764588832855 0.977775514125824 0.966204404830933 0.950929939746857 0.973938584327698 0.837645173072815 0.758138477802277 0.838544309139252 0.950308203697205 0.84512734413147 0.785383582115173 0.770388662815094 0.915666520595551 0.990826725959778 0.896480023860931 0.927695274353027 0.968270778656006 0.983041763305664 0.893023014068604 0.988832712173462 0.95167601108551 0.983301162719727 0.984131753444672 0.982123792171478 0.9749755859375 0.977813422679901 0.978411614894867 0.977293908596039 0.956203103065491 0.969087421894073 0.983748197555542 0.976853311061859 0.9868004322052 0.862644672393799 0.966826438903809 0.807331919670105 0.899745225906372 0.944085717201233 0.933797657489777 0.939062416553497 0.947006642818451 0.953590333461761 0.946160674095154 0.970255792140961 0.973595321178436 0.989547729492188 0.980409860610962 0.963425040245056 0.952116250991821 0.943894386291504 0.909419178962708 0.871304929256439 0.936897814273834 0.934545576572418 0.935916841030121 0.952913701534271 0.944904208183289 0.946701645851135 0.975492000579834 0.989902496337891 0.982254266738892 0.905632555484772 0.981547951698303 0.880998909473419 0.874980211257935 0.928425133228302 0.940106153488159 0.95777416229248 0.969330847263336 0.970067918300629 0.976499199867249 0.976342260837555 0.980012893676758 0.980178594589233 0.981616497039795 0.982988715171814 0.98356431722641 0.982071399688721 0.982163429260254 0.983095645904541 0.984555840492249 0.985479712486267 0.985329627990723 0.983376741409302 0.983666241168976 0.98370748758316 0.983024537563324 0.983364641666412 0.983569145202637 0.983056783676147 0.983408808708191 0.982862710952759 0.982941329479218 0.981094539165497 0.982202708721161 0.982763230800629 0.980734884738922 0.979545712471008 0.976891160011292 0.977474927902222 0.961713075637817 0.958414316177368 0.95405787229538 0.958243191242218 0.969405949115753
0.93632698059082 0.95409744977951 0.968840360641479 0.976241588592529 0.981318175792694 0.983542263507843 0.987683892250061 0.98957496881485 0.990880250930786 0.990955352783203 0.993125259876251 0.991649687290192 0.991782605648041 0.993677139282227 0.993481159210205 0.994440674781799 0.99389660358429 0.993658006191254 0.993920147418976 0.993526756763458 0.993341684341431 0.992031037807465 0.989965975284576 0.989827692508698 0.988018870353699 0.982300698757172 0.970938622951508 0.950258612632751 0.878609299659729 0.796197235584259 0.843455493450165 0.799023687839508 0.774397969245911 0.836991548538208 0.790487825870514 0.615714013576508 0.983613669872284 0.90518718957901 0.965971946716309 0.983166575431824 0.998580932617188 0.940118432044983 0.888348519802094 0.802080690860748 0.962881922721863 0.980997085571289 0.922578573226929 0.977531790733337 0.982825517654419 0.988821506500244 0.988766610622406 0.99120819568634 0.994792580604553 0.992259323596954 0.992363452911377 0.991553246974945 0.990773260593414 0.989467024803162 0.989590466022491 0.98840856552124 0.986612200737 0.982443332672119 0.978177130222321 0.971565723419189 0.955591678619385 0.889768660068512 0.869027197360992 0.817663908004761 0.887303709983826 0.955106139183044 0.917269170284271 0.953457891941071 0.983144521713257 0.977975785732269 0.905433177947998 0.961664378643036 0.967163264751434 0.978753328323364 0.969246447086334 0.973829448223114 0.950782477855682 0.97295606136322 0.980991661548615 0.975945949554443 0.960207760334015 0.970888614654541 0.963022351264954 0.966168284416199 0.979746282100677 0.978993952274323 0.951247692108154 0.974015235900879 0.976016521453857 0.981830775737762 0.988417446613312 0.962020933628082 0.914448082447052 0.95633453130722 0.963805139064789 0.939933359622955 0.960332751274109 0.962171077728271 0.973520040512085 0.970840990543365 0.954494595527649 0.972592711448669 0.976373612880707 0.939905881881714 0.875396609306335 0.960054874420166 0.965199291706085 0.97474080324173 0.961236596107483 0.938052535057068 0.953096985816956 0.906072497367859 0.904628396034241 0.939927101135254 0.953451216220856 0.955395579338074 0.969486474990845 0.987494230270386 0.989775896072388 0.983823478221893 0.956438779830933 0.875391006469727 0.844475269317627 0.923086643218994 0.941309154033661 0.957621157169342 0.975301027297974 0.974025070667267 0.978235006332397 0.979610204696655 0.980780780315399 0.982587158679962 0.983813166618347 0.983042418956757 0.983587145805359 0.983735322952271 0.983983039855957 0.985539436340332 0.986065685749054 0.985248923301697 0.9851233959198 0.984533488750458 0.984728038311005 0.984080195426941 0.983545184135437 0.983984231948853 0.983847320079803 0.983627140522003 0.982833385467529 0.982218265533447 0.98141348361969 0.978846669197083 0.979278862476349 0.978642225265503 0.977390646934509 0.975361585617065 0.95398998260498 0.979129552841187 0.978736996650696 0.957883834838867 0.960373103618622 0.966287016868591
0.929857909679413 0.937476456165314 0.961657524108887 0.966526985168457 0.975701987743378 0.977663815021515 0.9803466796875 0.985322535037994 0.989487946033478 0.990811765193939 0.991983473300934 0.991283178329468 0.991953611373901 0.993114411830902 0.993092596530914 0.993492424488068 0.993804633617401 0.993328213691711 0.993046641349792 0.993615567684174 0.993033885955811 0.992197930812836 0.990129292011261 0.989517211914062 0.987110912799835 0.984147012233734 0.965360403060913 0.941913902759552 0.864572465419769 0.854691743850708 0.9980309009552 0.878001153469086 0.682588815689087 0.941435992717743 0.966506779193878 0.92782062292099 0.917008340358734 0.984571218490601 0.992195248603821 0.990770101547241 0.99447238445282 0.981978893280029 0.91700553894043 0.798490166664124 0.827524185180664 0.875433206558228 0.949162185192108 0.972365915775299 0.978215336799622 0.988070487976074 0.988038778305054 0.991064071655273 0.990424633026123 0.990586400032043 0.992222547531128 0.991225242614746 0.988851130008698 0.988392293453217 0.987886488437653 0.986985862255096 0.983341574668884 0.977654457092285 0.975324690341949 0.968128800392151 0.957120954990387 0.934063494205475 0.850199460983276 0.844838261604309 0.942088186740875 0.938698530197144 0.92973792552948 0.926627576351166 0.884698569774628 0.933778345584869 0.967169404029846 0.971758723258972 0.980744302272797 0.979254245758057 0.92570036649704 0.990137994289398 0.958469748497009 0.976443946361542 0.971022725105286 0.944892704486847 0.982463717460632 0.981763064861298 0.978979706764221 0.955143630504608 0.974984049797058 0.980556786060333 0.975061297416687 0.971645951271057 0.97511351108551 0.97137850522995 0.972844362258911 0.967804551124573 0.984036087989807 0.961884140968323 0.955137193202972 0.973397493362427 0.965944290161133 0.97433739900589 0.982464730739594 0.978520572185516 0.968595445156097 0.96263200044632 0.94406795501709 0.922491133213043 0.931685268878937 0.923350870609283 0.906629979610443 0.936495423316956 0.971921265125275 0.976210296154022 0.956137478351593 0.945968747138977 0.850284218788147 0.957967579364777 0.968201577663422 0.944489479064941 0.965481102466583 0.989869594573975 0.989173650741577 0.979450106620789 0.914768815040588 0.986861288547516 0.86955463886261 0.816977381706238 0.928269624710083 0.94153904914856 0.959861278533936 0.97171413898468 0.975316941738129 0.977918446063995 0.980725824832916 0.981513023376465 0.98307877779007 0.983016550540924 0.983803868293762 0.984094142913818 0.985191404819489 0.985246658325195 0.985005736351013 0.98463237285614 0.98534107208252 0.984839498996735 0.984586834907532 0.983429193496704 0.983174622058868 0.983733952045441 0.983414173126221 0.983414530754089 0.982592344284058 0.980983018875122 0.979351937770844 0.976296424865723 0.976258516311646 0.973721742630005 0.97301584482193 0.969785988330841 0.962099015712738 0.926497399806976 0.971106052398682 0.95772385597229 0.934785902500153 0.969999253749847
0.875042736530304 0.919756352901459 0.945562601089478 0.953486502170563 0.953410267829895 0.937112331390381 0.972989201545715 0.976693987846375 0.985570251941681 0.990311324596405 0.991661608219147 0.99211972951889 0.992306292057037 0.99211061000824 0.992686986923218 0.992402732372284 0.993323683738708 0.993212342262268 0.992776155471802 0.993412494659424 0.992595016956329 0.992156445980072 0.992108345031738 0.986790359020233 0.983902513980865 0.980493783950806 0.971898436546326 0.935508012771606 0.875971853733063 0.860267519950867 0.986478447914124 0.920729219913483 0.89732837677002 0.806787431240082 0.785814523696899 0.875793159008026 0.92655611038208 0.967415392398834 0.976359009742737 0.967811226844788 0.980671167373657 0.985197603702545 0.961096823215485 0.881951451301575 0.873459756374359 0.926464796066284 0.950632452964783 0.967886686325073 0.979328095912933 0.979342639446259 0.985217988491058 0.984044015407562 0.990796446800232 0.992340981960297 0.993537783622742 0.990309715270996 0.988886773586273 0.988941729068756 0.988353729248047 0.987532138824463 0.985956847667694 0.983772873878479 0.978419125080109 0.974152207374573 0.966472506523132 0.946896374225616 0.923413097858429 0.889037013053894 0.91465950012207 0.934425950050354 0.869183242321014 0.89575469493866 0.941326081752777 0.932771980762482 0.876623690128326 0.964631915092468 0.981583476066589 0.95453929901123 0.993048489093781 0.930643975734711 0.975686490535736 0.977914094924927 0.950905919075012 0.972270011901855 0.978392660617828 0.985764563083649 0.982641696929932 0.969601511955261 0.969846069812775 0.983694434165955 0.984399199485779 0.973478674888611 0.96244615316391 0.971432209014893 0.965756297111511 0.825766861438751 0.970795392990112 0.931320488452911 0.923140406608582 0.918969690799713 0.957787394523621 0.965208232402802 0.975644052028656 0.974860608577728 0.97801262140274 0.970771193504333 0.925354599952698 0.913551151752472 0.835526525974274 0.927594125270844 0.857621073722839 0.957563757896423 0.982857942581177 0.974850833415985 0.951404809951782 0.95807296037674 0.966632306575775 0.940555334091187 0.98693174123764 0.986319005489349 0.980305910110474 0.991097927093506 0.989008486270905 0.966657280921936 0.944891035556793 0.959463655948639 0.951180160045624 0.865498900413513 0.827015459537506 0.933285593986511 0.950435936450958 0.965862154960632 0.972295820713043 0.978889226913452 0.98141348361969 0.981444239616394 0.982512772083282 0.983630299568176 0.984934449195862 0.984795153141022 0.985176861286163 0.985124170780182 0.984968185424805 0.984032213687897 0.984870254993439 0.984713733196259 0.985085904598236 0.984344303607941 0.982075154781342 0.982924520969391 0.983148276805878 0.982180714607239 0.980982780456543 0.978789925575256 0.972109496593475 0.968212068080902 0.966036558151245 0.963925778865814 0.960747241973877 0.955399990081787 0.949619889259338 0.925141870975494 0.955713927745819 0.95191091299057 0.927855551242828 0.974562883377075
0.794942855834961 0.91791433095932 0.926605105400085 0.94257116317749 0.882281243801117 0.980693578720093 0.911303699016571 0.938262581825256 0.977508783340454 0.984256684780121 0.991174280643463 0.991219699382782 0.991801083087921 0.990195691585541 0.991159200668335 0.992060124874115 0.993172764778137 0.991773247718811 0.991025924682617 0.991032123565674 0.990632057189941 0.986725032329559 0.988351047039032 0.988319873809814 0.985143184661865 0.982198417186737 0.967201828956604 0.94999623298645 0.8834547996521 0.873463094234467 0.98783928155899 0.958164095878601 0.889209270477295 0.838894665241241 0.889939069747925 0.842260479927063 0.860656678676605 0.900173604488373 0.938438296318054 0.984928846359253 0.992229700088501 0.959629893302917 0.996501982212067 0.869279026985168 0.834563076496124 0.928011476993561 0.948601126670837 0.961311638355255 0.957526564598083 0.966065049171448 0.973933756351471 0.98593682050705 0.985445976257324 0.989556849002838 0.98942369222641 0.98858106136322 0.987541556358337 0.987665057182312 0.987129867076874 0.988131463527679 0.983911633491516 0.984496235847473 0.979268550872803 0.972864747047424 0.96555358171463 0.963148534297943 0.895771920681 0.913806796073914 0.926774799823761 0.97307950258255 0.922397792339325 0.920962750911713 0.951507866382599 0.953455865383148 0.904259979724884 0.949721276760101 0.977103412151337 0.931642115116119 0.986177563667297 0.955957114696503 0.976501226425171 0.983078122138977 0.965255856513977 0.968562006950378 0.991604626178741 0.973394811153412 0.963112354278564 0.976408183574677 0.983539462089539 0.987111687660217 0.985314548015594 0.984448134899139 0.97155374288559 0.974158227443695 0.972464501857758 0.975015223026276 0.950006604194641 0.926714241504669 0.967648804187775 0.964846253395081 0.921696066856384 0.942714273929596 0.936886370182037 0.95728462934494 0.967702746391296 0.937211155891418 0.880925297737122 0.888713777065277 0.927982270717621 0.948188483715057 0.976383864879608 0.984216034412384 0.97454559803009 0.983837723731995 0.975564360618591 0.967600762844086 0.987177729606628 0.977961838245392 0.970668792724609 0.875523447990417 0.958488464355469 0.968298435211182 0.969918489456177 0.966110169887543 0.990690171718597 0.955848157405853 0.990213751792908 0.918616354465485 0.848826944828033 0.880726635456085 0.93090432882309 0.957499623298645 0.971634745597839 0.976524174213409 0.979041337966919 0.981123447418213 0.983339965343475 0.984282553195953 0.985462725162506 0.985685050487518 0.984626233577728 0.984871029853821 0.983599901199341 0.984309673309326 0.984514057636261 0.98482084274292 0.984869599342346 0.983665883541107 0.981966137886047 0.981795489788055 0.980968117713928 0.980234026908875 0.97374302148819 0.968656241893768 0.940608859062195 0.944659352302551 0.934202313423157 0.938050806522369 0.934869527816772 0.926860272884369 0.884531915187836 0.905223309993744 0.94905811548233 0.961921989917755 0.972367584705353 0.868049561977386
0.822938978672028 0.854689180850983 0.904769599437714 0.922922194004059 0.855978548526764 0.995022535324097 0.798548400402069 0.985018789768219 0.940865993499756 0.980075657367706 0.987860560417175 0.990912199020386 0.99005925655365 0.991042733192444 0.990996599197388 0.992051005363464 0.990453720092773 0.98986804485321 0.987805485725403 0.988644242286682 0.9864302277565 0.987221539020538 0.987904608249664 0.98711234331131 0.985077023506165 0.979228436946869 0.975450217723846 0.956278324127197 0.901488184928894 0.875957190990448 0.868583261966705 0.860345542430878 0.849961042404175 0.923137605190277 0.904879093170166 0.815118014812469 0.989505052566528 0.864248812198639 0.905681192874908 0.951673805713654 0.98928165435791 0.986547589302063 0.980785191059113 0.865608513355255 0.863276839256287 0.923370957374573 0.93841677904129 0.928152501583099 0.901273369789124 0.948386490345001 0.951907098293304 0.976733684539795 0.98692387342453 0.988308370113373 0.988303005695343 0.987190186977386 0.988106250762939 0.988633215427399 0.987930774688721 0.985459923744202 0.98192822933197 0.980569779872894 0.981788456439972 0.97603315114975 0.971426069736481 0.95658403635025 0.95406711101532 0.913243472576141 0.887138962745667 0.954537868499756 0.906638920307159 0.930478811264038 0.957280158996582 0.952396154403687 0.894211053848267 0.974276661872864 0.959459483623505 0.971716165542603 0.979145586490631 0.955138325691223 0.976495027542114 0.980577766895294 0.969549834728241 0.970000624656677 0.988264799118042 0.974032163619995 0.977640092372894 0.985288262367249 0.987229406833649 0.988701462745667 0.988370478153229 0.986652374267578 0.985926628112793 0.980493545532227 0.970520615577698 0.958323001861572 0.947379052639008 0.973454117774963 0.948071718215942 0.951965093612671 0.909541487693787 0.938257217407227 0.965774238109589 0.963962852954865 0.948232650756836 0.912499308586121 0.955930531024933 0.934646010398865 0.940439701080322 0.971043407917023 0.938839673995972 0.90389758348465 0.976085007190704 0.95955902338028 0.96764349937439 0.980717062950134 0.98405909538269 0.98341429233551 0.985227823257446 0.980712115764618 0.955551087856293 0.951392114162445 0.948097229003906 0.96837306022644 0.973909795284271 0.91826868057251 0.971276521682739 0.986581683158875 0.919470369815826 0.813530325889587 0.933709025382996 0.949143886566162 0.965715169906616 0.975024044513702 0.97798353433609 0.980484127998352 0.982831001281738 0.98366367816925 0.984103798866272 0.98437637090683 0.984499335289001 0.983932971954346 0.98334151506424 0.983874440193176 0.983907639980316 0.983656167984009 0.984233319759369 0.983899712562561 0.982445895671844 0.981117069721222 0.979573547840118 0.974713742733002 0.966117024421692 0.92519599199295 0.933648467063904 0.835605323314667 0.882337152957916 0.873261094093323 0.8705775141716 0.896182954311371 0.822771787643433 0.882282257080078 0.942190051078796 0.931120574474335 0.944381237030029 0.929779946804047
0.894236266613007 0.791136980056763 0.894027352333069 0.873180568218231 0.867959856987 0.98394763469696 0.739504814147949 0.997513055801392 0.921805322170258 0.976282477378845 0.985698223114014 0.989844560623169 0.99036180973053 0.989587545394897 0.990047574043274 0.990192055702209 0.987306833267212 0.987142860889435 0.985090911388397 0.985931217670441 0.984939455986023 0.985294818878174 0.985689997673035 0.984818816184998 0.982298493385315 0.983345210552216 0.980089008808136 0.96973729133606 0.94987565279007 0.89040869474411 0.87394243478775 0.9013991355896 0.951488316059113 0.949001729488373 0.917205989360809 0.99188357591629 0.85015070438385 0.910060167312622 0.90898185968399 0.929015576839447 0.988618671894073 0.994413256645203 0.988043248653412 0.899278581142426 0.84465092420578 0.919995427131653 0.937694787979126 0.842880606651306 0.898401021957397 0.840811669826508 0.949811279773712 0.970111966133118 0.982294261455536 0.983234941959381 0.985649764537811 0.986718058586121 0.987660527229309 0.987385392189026 0.984669744968414 0.982456207275391 0.981102168560028 0.980393290519714 0.975544631481171 0.977676093578339 0.964682221412659 0.960244119167328 0.950423836708069 0.948147714138031 0.915906965732574 0.851026117801666 0.957353591918945 0.904985249042511 0.949930012226105 0.951296627521515 0.89629054069519 0.958466649055481 0.961378395557404 0.945001006126404 0.989593148231506 0.917033970355988 0.974357306957245 0.979605197906494 0.975596368312836 0.957408130168915 0.98143744468689 0.979237020015717 0.976691961288452 0.987905502319336 0.988397300243378 0.988812983036041 0.988012552261353 0.988601446151733 0.987067043781281 0.985500633716583 0.981381297111511 0.977012634277344 0.975153505802155 0.943609893321991 0.983305275440216 0.967236936092377 0.951864123344421 0.973288476467133 0.963121175765991 0.965376257896423 0.966585636138916 0.970504105091095 0.973258912563324 0.967590987682343 0.969987213611603 0.99156528711319 0.974188685417175 0.981943905353546 0.984223604202271 0.985519528388977 0.987857043743134 0.976174175739288 0.979185283184052 0.977127075195312 0.946868538856506 0.955253541469574 0.950358390808105 0.968496799468994 0.97680127620697 0.975533425807953 0.972075402736664 0.976316273212433 0.9434574842453 0.92600154876709 0.983461201190948 0.891746878623962 0.867827713489532 0.949315249919891 0.958907186985016 0.969699919223785 0.974227130413055 0.978977739810944 0.980875730514526 0.982542634010315 0.983126103878021 0.983653664588928 0.984164774417877 0.983484327793121 0.983204960823059 0.983527421951294 0.983166337013245 0.982897102832794 0.982561767101288 0.983063638210297 0.981692135334015 0.980466842651367 0.978273153305054 0.970920085906982 0.957330882549286 0.900531888008118 0.917879581451416 0.919313549995422 0.880149722099304 0.922416687011719 0.893328070640564 0.79609352350235 0.848983764648438 0.843425691127777 0.828847289085388 0.918066263198853 0.911071121692657 0.954509973526001
0.97009551525116 0.902718186378479 0.765424847602844 0.982367634773254 0.889349400997162 0.849224746227264 0.97385710477829 0.932152390480042 0.970149159431458 0.967253684997559 0.979953169822693 0.986267805099487 0.988283574581146 0.986859798431396 0.986007452011108 0.985353589057922 0.982967376708984 0.983232617378235 0.980145215988159 0.979900360107422 0.977958977222443 0.980059266090393 0.975330352783203 0.976946592330933 0.981076061725616 0.979648411273956 0.979305922985077 0.973157942295074 0.971451282501221 0.955569982528687 0.953388750553131 0.957723498344421 0.967310011386871 0.972342908382416 0.955772042274475 0.978930950164795 0.919291198253632 0.943962097167969 0.91028219461441 0.926683485507965 0.915495872497559 0.93803733587265 0.882126986980438 0.922665894031525 0.883236646652222 0.921081900596619 0.935186982154846 0.850724220275879 0.990849316120148 0.883877038955688 0.926721453666687 0.961967825889587 0.983022272586823 0.98355233669281 0.986860573291779 0.987699329853058 0.986109256744385 0.986327826976776 0.985126078128815 0.982163310050964 0.957130610942841 0.968787848949432 0.976524651050568 0.962798953056335 0.954278647899628 0.943121135234833 0.93991357088089 0.917901217937469 0.91134774684906 0.881075918674469 0.874012887477875 0.919795751571655 0.947154104709625 0.937206864356995 0.921558856964111 0.932268440723419 0.975288271903992 0.944776296615601 0.981327533721924 0.974232792854309 0.955376863479614 0.975415527820587 0.978965163230896 0.973241031169891 0.958775103092194 0.972216963768005 0.984067440032959 0.988406479358673 0.989252030849457 0.989294826984406 0.989313185214996 0.989210546016693 0.988679826259613 0.987221121788025 0.98573499917984 0.983261227607727 0.976889908313751 0.976300537586212 0.947652578353882 0.973762273788452 0.987652361392975 0.941074371337891 0.910772502422333 0.9566650390625 0.964144051074982 0.973223805427551 0.973807692527771 0.966638386249542 0.968215882778168 0.956137657165527 0.967406153678894 0.970752954483032 0.968864560127258 0.971273422241211 0.958663940429688 0.954684019088745 0.946688532829285 0.945367097854614 0.95337188243866 0.93504136800766 0.924352765083313 0.929016709327698 0.922903001308441 0.934281647205353 0.928356409072876 0.921232759952545 0.948679685592651 0.916198194026947 0.93583619594574 0.954577445983887 0.93266361951828 0.916561245918274 0.9524986743927 0.961733341217041 0.970717430114746 0.976049304008484 0.978562593460083 0.981359362602234 0.982354879379272 0.983413636684418 0.984155416488647 0.984020829200745 0.984053909778595 0.983416438102722 0.983322441577911 0.982577741146088 0.982585728168488 0.982055366039276 0.981433868408203 0.979426681995392 0.978441834449768 0.969995260238647 0.953555464744568 0.91043746471405 0.892379760742188 0.929727613925934 0.967638313770294 0.932299733161926 0.954418361186981 0.883533537387848 0.88216757774353 0.938463389873505 0.897387742996216 0.916317224502563 0.947736918926239 0.963756799697876
0.955855250358582 0.679549276828766 0.974242508411407 0.832424998283386 0.970650613307953 0.944839954376221 0.904098749160767 0.975412249565125 0.941581964492798 0.932455897331238 0.97577315568924 0.983097314834595 0.981758892536163 0.985009789466858 0.987441122531891 0.980762302875519 0.981747031211853 0.970697939395905 0.968267917633057 0.96475213766098 0.969638168811798 0.957249104976654 0.959679067134857 0.964730441570282 0.967305541038513 0.976419866085052 0.975212693214417 0.976543128490448 0.976159751415253 0.974206447601318 0.963539838790894 0.960218191146851 0.967446744441986 0.979959309101105 0.980465650558472 0.963290572166443 0.965922117233276 0.958015978336334 0.948559761047363 0.966961324214935 0.754400193691254 0.94362735748291 0.954802215099335 0.929858863353729 0.914916634559631 0.907495141029358 0.876565456390381 0.790994763374329 0.968883514404297 0.829482078552246 0.939119160175323 0.969485104084015 0.978456556797028 0.980063617229462 0.984946668148041 0.990527093410492 0.986046850681305 0.986848711967468 0.980960071086884 0.959334671497345 0.992657661437988 0.946410715579987 0.964197993278503 0.946553647518158 0.938371539115906 0.88496470451355 0.857327282428741 0.868269085884094 0.792905211448669 0.908244490623474 0.912624537944794 0.899902641773224 0.918042659759521 0.929678618907928 0.876903712749481 0.942937552928925 0.972373008728027 0.974804580211639 0.941810965538025 0.951327919960022 0.945068776607513 0.972272276878357 0.977057158946991 0.975824117660522 0.976657032966614 0.980540335178375 0.983016967773438 0.988008320331573 0.988044142723083 0.98958283662796 0.989578783512115 0.989516079425812 0.989463806152344 0.989019453525543 0.987289309501648 0.98527467250824 0.980284750461578 0.982029497623444 0.977762222290039 0.968668043613434 0.933599650859833 0.985641002655029 0.989580810070038 0.987031042575836 0.988328337669373 0.96496570110321 0.960210978984833 0.984320640563965 0.957336843013763 0.958521127700806 0.964082658290863 0.970300137996674 0.941723883152008 0.940003156661987 0.937836766242981 0.954243779182434 0.926916539669037 0.943268001079559 0.964207291603088 0.963299572467804 0.962905168533325 0.961292147636414 0.95005464553833 0.940398454666138 0.951078772544861 0.946785032749176 0.915902614593506 0.934030294418335 0.891874134540558 0.960393607616425 0.951978385448456 0.912859499454498 0.895122230052948 0.950971841812134 0.957939803600311 0.970475792884827 0.97527551651001 0.979193389415741 0.980175793170929 0.982980072498322 0.983790695667267 0.983490109443665 0.984474718570709 0.98402726650238 0.983636558055878 0.983120918273926 0.982474982738495 0.981854021549225 0.980265557765961 0.979643404483795 0.977263987064362 0.971950769424438 0.954854428768158 0.941908717155457 0.841057538986206 0.868992924690247 0.935112357139587 0.898504793643951 0.970682680606842 0.941498517990112 0.932678163051605 0.935022532939911 0.931411385536194 0.931904435157776 0.952226758003235 0.955047249794006
0.95805948972702 0.981516599655151 0.964824259281158 0.910639226436615 0.953944504261017 0.962249457836151 0.981174767017365 0.914673507213593 0.980562329292297 0.971169888973236 0.935440361499786 0.978126764297485 0.980161070823669 0.980517566204071 0.97915655374527 0.977100968360901 0.969183504581451 0.959316313266754 0.950288057327271 0.943239450454712 0.926399350166321 0.938639998435974 0.898609101772308 0.903090476989746 0.953872323036194 0.961976170539856 0.972476541996002 0.977824628353119 0.980535328388214 0.977795958518982 0.965994358062744 0.984856009483337 0.988532900810242 0.974016010761261 0.983547270298004 0.981509864330292 0.978024899959564 0.975142657756805 0.974634528160095 0.932716369628906 0.980376720428467 0.974191725254059 0.896994292736053 0.941751778125763 0.945264041423798 0.886395454406738 0.918334662914276 0.996713280677795 0.827927589416504 0.938258290290833 0.949175894260406 0.968790471553802 0.979007840156555 0.979921936988831 0.983997225761414 0.986226797103882 0.98250412940979 0.985083818435669 0.985628306865692 0.968656718730927 0.945228040218353 0.949861466884613 0.939616799354553 0.931493520736694 0.829642951488495 0.838405609130859 0.880940616130829 0.882959127426147 0.872047185897827 0.94313508272171 0.879542946815491 0.822001695632935 0.870698630809784 0.826084315776825 0.934035241603851 0.939291477203369 0.965523242950439 0.963342845439911 0.828506827354431 0.832934856414795 0.973737180233002 0.938153147697449 0.964562296867371 0.967516183853149 0.955426335334778 0.956157922744751 0.976092278957367 0.980014264583588 0.987396836280823 0.988458454608917 0.990314781665802 0.988999247550964 0.988263368606567 0.98899507522583 0.988520681858063 0.986500978469849 0.982557833194733 0.984997510910034 0.982277154922485 0.981341361999512 0.980958342552185 0.956270515918732 0.943684220314026 0.941323280334473 0.919573962688446 0.983038067817688 0.982916057109833 0.955764949321747 0.915425300598145 0.917070150375366 0.958610951900482 0.970255792140961 0.938234627246857 0.93516480922699 0.952282607555389 0.951936483383179 0.9603151679039 0.961677193641663 0.966963469982147 0.97171014547348 0.971226453781128 0.972453474998474 0.970271289348602 0.972727358341217 0.968896210193634 0.968910276889801 0.95309042930603 0.920103490352631 0.952183246612549 0.967048287391663 0.974142611026764 0.948745250701904 0.900969982147217 0.874436676502228 0.949162542819977 0.957581281661987 0.971507251262665 0.972805023193359 0.977765023708344 0.98033744096756 0.98233950138092 0.982582092285156 0.983796179294586 0.984435379505157 0.983260452747345 0.982002973556519 0.981457412242889 0.980796635150909 0.979389607906342 0.977938532829285 0.973304152488708 0.964428782463074 0.939693033695221 0.915037393569946 0.930753290653229 0.866951048374176 0.923026144504547 0.965644180774689 0.973915755748749 0.951272189617157 0.936476528644562 0.917865693569183 0.923638343811035 0.930350661277771 0.945283114910126 0.944699764251709
0.962853670120239 0.946717917919159 0.934816002845764 0.964550614356995 0.97726434469223 0.977124392986298 0.974803388118744 0.968077600002289 0.926309883594513 0.917747378349304 0.95680159330368 0.976758480072021 0.977036774158478 0.982361853122711 0.97101628780365 0.962501049041748 0.94887363910675 0.95237147808075 0.903538644313812 0.895504951477051 0.86491584777832 0.828670024871826 0.874770760536194 0.879517793655396 0.885437488555908 0.936891198158264 0.960568487644196 0.974832653999329 0.977699995040894 0.978451907634735 0.975394606590271 0.96566367149353 0.972185969352722 0.98319673538208 0.987035512924194 0.987841844558716 0.986185133457184 0.980692446231842 0.97824627161026 0.974950790405273 0.966324746608734 0.946247279644012 0.961867392063141 0.964081466197968 0.961468696594238 0.940576612949371 0.847432374954224 0.91024249792099 0.889397442340851 0.953970491886139 0.965195596218109 0.974859118461609 0.975889325141907 0.978804230690002 0.980073392391205 0.978166401386261 0.983865559101105 0.978114783763885 0.965544760227203 0.9699427485466 0.965507566928864 0.946522295475006 0.931877970695496 0.842465043067932 0.83512020111084 0.976319074630737 0.977086663246155 0.985752642154694 0.996421635150909 0.993797540664673 0.873748183250427 0.72718757390976 0.779306948184967 0.718952894210815 0.938201904296875 0.943174421787262 0.963753938674927 0.965057671070099 0.945065915584564 0.948176503181458 0.914870798587799 0.934489488601685 0.950805604457855 0.96314138174057 0.973380744457245 0.983181178569794 0.974254727363586 0.96440851688385 0.983903467655182 0.988232672214508 0.988587975502014 0.988015055656433 0.986166179180145 0.98739093542099 0.988411605358124 0.988188683986664 0.984828352928162 0.984236896038055 0.985829710960388 0.984446406364441 0.98472136259079 0.985013425350189 0.981666743755341 0.978467881679535 0.977063298225403 0.940288603305817 0.97037136554718 0.989231050014496 0.971437990665436 0.974220812320709 0.98161917924881 0.972606420516968 0.907076954841614 0.933108627796173 0.953038394451141 0.913060426712036 0.887300550937653 0.92697936296463 0.952908217906952 0.962357759475708 0.967148542404175 0.975576102733612 0.975140392780304 0.976261556148529 0.977757096290588 0.968855023384094 0.973072648048401 0.979656755924225 0.980046689510345 0.979059994220734 0.981879830360413 0.987397015094757 0.971879303455353 0.897687137126923 0.90541398525238 0.943221688270569 0.957200884819031 0.971038639545441 0.971749246120453 0.976646423339844 0.979690849781036 0.983107507228851 0.982759773731232 0.984146952629089 0.983212947845459 0.982237696647644 0.980366945266724 0.980840563774109 0.978891611099243 0.975959181785583 0.967223227024078 0.94309675693512 0.959974110126495 0.938379347324371 0.904809236526489 0.892728090286255 0.955986201763153 0.95106315612793 0.960245907306671 0.951404511928558 0.933882176876068 0.916029691696167 0.923221051692963 0.931684732437134 0.939482033252716 0.945766746997833
0.978241920471191 0.978697299957275 0.97825425863266 0.980299770832062 0.983213484287262 0.982298135757446 0.97963684797287 0.970278143882751 0.967927038669586 0.970987200737 0.971467137336731 0.972850918769836 0.976711332798004 0.962650239467621 0.951133012771606 0.92885810136795 0.932947337627411 0.844989895820618 0.906553685665131 0.749673783779144 0.807101249694824 0.71893835067749 0.89980012178421 0.879940271377563 0.820429801940918 0.933109939098358 0.95245885848999 0.970391631126404 0.979495227336884 0.980844855308533 0.980998039245605 0.984006285667419 0.986274719238281 0.987681746482849 0.989363431930542 0.989877045154572 0.988158524036407 0.985870122909546 0.984438419342041 0.982352614402771 0.982063770294189 0.980348765850067 0.97891491651535 0.975546360015869 0.97002500295639 0.954228520393372 0.942992448806763 0.910488903522491 0.943144738674164 0.955315351486206 0.958841860294342 0.9570671916008 0.971876978874207 0.97022533416748 0.977670252323151 0.97368323802948 0.971543073654175 0.963902235031128 0.966677367687225 0.956273436546326 0.955589592456818 0.933883249759674 0.86211109161377 0.878537058830261 0.979860663414001 0.988735854625702 0.991254448890686 0.989726662635803 0.998181939125061 0.958572149276733 0.957510054111481 0.877332508563995 0.875824511051178 0.909657597541809 0.969492256641388 0.972314536571503 0.981699883937836 0.994612038135529 0.98358827829361 0.949254274368286 0.978637158870697 0.956156492233276 0.958444595336914 0.979298412799835 0.981330096721649 0.986834645271301 0.959603548049927 0.960718154907227 0.982686936855316 0.985241949558258 0.986613214015961 0.986636519432068 0.98767477273941 0.987712919712067 0.986416578292847 0.987672746181488 0.987659513950348 0.985349833965302 0.985844612121582 0.985852360725403 0.986177504062653 0.986133754253387 0.984987556934357 0.984646320343018 0.982286751270294 0.977320551872253 0.955951511859894 0.963588953018188 0.961884319782257 0.960920810699463 0.950699985027313 0.951462507247925 0.976910710334778 0.90925806760788 0.865026533603668 0.918284475803375 0.933296382427216 0.935345649719238 0.933763682842255 0.930569469928741 0.925064146518707 0.945613384246826 0.96941727399826 0.977003991603851 0.960555255413055 0.958217620849609 0.962646782398224 0.960819661617279 0.962772369384766 0.95335578918457 0.926879227161407 0.965397715568542 0.988880932331085 0.927761316299438 0.834775805473328 0.929858863353729 0.9377720952034 0.956532418727875 0.970923066139221 0.97357451915741 0.978790044784546 0.980860948562622 0.982174336910248 0.982011377811432 0.981944024562836 0.980857968330383 0.980945885181427 0.980363309383392 0.976371586322784 0.969639539718628 0.958398103713989 0.891191601753235 0.972490847110748 0.939548552036285 0.884657382965088 0.891969859600067 0.917963743209839 0.944331407546997 0.947561204433441 0.962491810321808 0.965485751628876 0.958936750888824 0.95739221572876 0.956154048442841 0.955031991004944 0.952404022216797
0.987782776355743 0.985771119594574 0.987405300140381 0.986794471740723 0.98822146654129 0.984179437160492 0.985413074493408 0.981912136077881 0.97613263130188 0.974645435810089 0.977245569229126 0.975477039813995 0.960255265235901 0.93762332201004 0.940713107585907 0.888958930969238 0.839537262916565 0.896803736686707 0.919914364814758 0.922205984592438 0.837122201919556 0.8276247382164 0.943612158298492 0.931598365306854 0.854596555233002 0.890230119228363 0.941252946853638 0.963073015213013 0.975081622600555 0.978888630867004 0.9825679063797 0.984642624855042 0.987252533435822 0.988618493080139 0.989325881004333 0.98925256729126 0.988983809947968 0.988870084285736 0.98768675327301 0.985926926136017 0.985302031040192 0.985521554946899 0.985265970230103 0.978761911392212 0.981794774532318 0.970572054386139 0.96608579158783 0.964592814445496 0.965025186538696 0.956765592098236 0.943313479423523 0.942333579063416 0.948437631130219 0.960789203643799 0.96026623249054 0.947482049465179 0.94255530834198 0.951511561870575 0.912351846694946 0.95062643289566 0.903493881225586 0.926356852054596 0.939680457115173 0.975856125354767 0.98896461725235 0.947261154651642 0.954235076904297 0.958684265613556 0.98812597990036 0.995255827903748 0.994257688522339 0.975998163223267 0.922602832317352 0.988205850124359 0.988534688949585 0.977036952972412 0.990488111972809 0.990408003330231 0.988012909889221 0.986312866210938 0.988795220851898 0.990761518478394 0.986766159534454 0.976667463779449 0.960802793502808 0.981306910514832 0.942837595939636 0.951363921165466 0.97680276632309 0.986065089702606 0.986376881599426 0.988132417201996 0.98771333694458 0.98774653673172 0.987743556499481 0.987226605415344 0.988650560379028 0.98679792881012 0.985657811164856 0.987093269824982 0.98665726184845 0.986279964447021 0.985926687717438 0.985906720161438 0.983870625495911 0.981757283210754 0.979253649711609 0.966503143310547 0.963645458221436 0.968804895877838 0.97133469581604 0.962516784667969 0.966390669345856 0.944207191467285 0.936088025569916 0.979713439941406 0.98517370223999 0.986604690551758 0.946086704730988 0.918641448020935 0.925382137298584 0.925894439220428 0.952489614486694 0.95400059223175 0.988503754138947 0.967428028583527 0.976399779319763 0.966272532939911 0.969140112400055 0.949640154838562 0.928035795688629 0.900787532329559 0.988251507282257 0.948830604553223 0.873612344264984 0.831765294075012 0.927013516426086 0.93949955701828 0.958146095275879 0.969801485538483 0.972997188568115 0.97815865278244 0.980061054229736 0.981482088565826 0.980704009532928 0.980424761772156 0.98015832901001 0.976870775222778 0.976148009300232 0.965366661548615 0.920575618743896 0.954363167285919 0.952593743801117 0.878960072994232 0.877095699310303 0.86075633764267 0.945047497749329 0.951140880584717 0.965207278728485 0.958392918109894 0.972955107688904 0.969242870807648 0.960444092750549 0.928126454353333 0.958495199680328 0.907876551151276
0.988966822624207 0.990772008895874 0.990090191364288 0.991661489009857 0.988505065441132 0.987949311733246 0.986334621906281 0.986077070236206 0.981986403465271 0.977540194988251 0.974948942661285 0.957806766033173 0.926084995269775 0.923932194709778 0.826747119426727 0.851590156555176 0.900576174259186 0.9705491065979 0.936352372169495 0.986294209957123 0.964639782905579 0.967832148075104 0.995953738689423 0.97804468870163 0.861683249473572 0.864590466022491 0.918885052204132 0.955186545848846 0.971902012825012 0.981075882911682 0.983137190341949 0.984965980052948 0.986866295337677 0.988364398479462 0.989024579524994 0.989557027816772 0.989720284938812 0.989885866641998 0.989419400691986 0.988803148269653 0.987813949584961 0.988484263420105 0.987169146537781 0.985417902469635 0.982600927352905 0.983733057975769 0.976792931556702 0.971962034702301 0.962443590164185 0.937877774238586 0.859076678752899 0.866684854030609 0.928465247154236 0.92352020740509 0.923107206821442 0.935412585735321 0.898720860481262 0.847705602645874 0.966876864433289 0.795003592967987 0.93092542886734 0.975708842277527 0.980114102363586 0.981878936290741 0.970831871032715 0.976942420005798 0.894993782043457 0.977423846721649 0.99416309595108 0.965396165847778 0.975851774215698 0.974325954914093 0.986748158931732 0.984394192695618 0.948023915290833 0.959142565727234 0.985861301422119 0.983159363269806 0.96529746055603 0.954513728618622 0.979053139686584 0.979929327964783 0.985128879547119 0.983982264995575 0.981422901153564 0.983657598495483 0.932917594909668 0.943601608276367 0.976785898208618 0.9836745262146 0.987652182579041 0.987565755844116 0.987141907215118 0.98738706111908 0.987777531147003 0.987909853458405 0.988506674766541 0.987028419971466 0.987029016017914 0.986381769180298 0.985917448997498 0.986244797706604 0.985966742038727 0.98600846529007 0.984962224960327 0.983360826969147 0.979819655418396 0.979908108711243 0.981553435325623 0.979402422904968 0.963000118732452 0.929040849208832 0.977912366390228 0.938160359859467 0.969418883323669 0.965540766716003 0.992123365402222 0.980134308338165 0.970523953437805 0.888489603996277 0.918793916702271 0.940188586711884 0.946854114532471 0.934533715248108 0.950940310955048 0.969376742839813 0.962247967720032 0.954463124275208 0.972157418727875 0.915158927440643 0.857169508934021 0.964740991592407 0.905939221382141 0.986383438110352 0.980412244796753 0.877577722072601 0.840118944644928 0.925915479660034 0.942992866039276 0.957638740539551 0.974054038524628 0.973133862018585 0.979405224323273 0.979426801204681 0.980519950389862 0.979355335235596 0.978432297706604 0.978020310401917 0.966624081134796 0.956544816493988 0.914254188537598 0.802372872829437 0.969819307327271 0.862276613712311 0.840546905994415 0.891466021537781 0.933781385421753 0.97943902015686 0.996637105941772 0.989562094211578 0.981310367584229 0.977276682853699 0.967903196811676 0.987238645553589 0.997476398944855 0.993506729602814
0.989652216434479 0.991885602474213 0.991081178188324 0.991559743881226 0.990793943405151 0.990896046161652 0.987104475498199 0.98396623134613 0.98039573431015 0.972791373729706 0.965531945228577 0.952148020267487 0.892069280147552 0.80869734287262 0.829820394515991 0.965591430664062 0.995464384555817 0.962145388126373 0.992760121822357 0.973940908908844 0.990960955619812 0.890718340873718 0.976950109004974 0.992899060249329 0.871841788291931 0.800729513168335 0.920591235160828 0.941961169242859 0.968375265598297 0.974763035774231 0.980712890625 0.984129071235657 0.986750602722168 0.988041162490845 0.988192200660706 0.989051699638367 0.989505648612976 0.989669740200043 0.990275800228119 0.990176439285278 0.988585591316223 0.987293124198914 0.986616969108582 0.98590886592865 0.984900236129761 0.982160151004791 0.976549685001373 0.972076416015625 0.954546749591827 0.879304885864258 0.861111223697662 0.861371159553528 0.801751971244812 0.886763572692871 0.88787180185318 0.802762448787689 0.864213347434998 0.938227832317352 0.914133608341217 0.944589078426361 0.962737083435059 0.969930231571198 0.982582211494446 0.984679341316223 0.995749592781067 0.851076364517212 0.973789870738983 0.994001567363739 0.992824912071228 0.98911327123642 0.987486362457275 0.945932984352112 0.958334147930145 0.97752457857132 0.993840992450714 0.925010442733765 0.958895623683929 0.980901300907135 0.953860819339752 0.969346880912781 0.979238271713257 0.991967678070068 0.995375275611877 0.981153190135956 0.980084538459778 0.968729615211487 0.945309937000275 0.946563422679901 0.974137246608734 0.985877513885498 0.9871586561203 0.986773252487183 0.98804646730423 0.988312125205994 0.98876291513443 0.988870680332184 0.988184928894043 0.987919867038727 0.988199353218079 0.987047255039215 0.98583447933197 0.985709369182587 0.986604511737823 0.986638605594635 0.986216127872467 0.983859896659851 0.980637788772583 0.978994727134705 0.978357493877411 0.962690114974976 0.971262514591217 0.973643243312836 0.932556927204132 0.973546981811523 0.975196480751038 0.983988285064697 0.980586051940918 0.960288524627686 0.977187097072601 0.92106693983078 0.84864741563797 0.930395007133484 0.963192284107208 0.915397942066193 0.931998074054718 0.971862256526947 0.974796772003174 0.974029242992401 0.955491364002228 0.925917625427246 0.960535883903503 0.967031121253967 0.985571920871735 0.985587060451508 0.977737486362457 0.970395982265472 0.865023851394653 0.841115772724152 0.925331115722656 0.936088919639587 0.958339750766754 0.973839402198792 0.975258708000183 0.977680623531342 0.978641152381897 0.978128969669342 0.976998209953308 0.970905363559723 0.960079371929169 0.919371962547302 0.927120864391327 0.961081862449646 0.939033150672913 0.941695034503937 0.917665004730225 0.930319309234619 0.951608777046204 0.977972567081451 0.961643517017365 0.897031366825104 0.99279510974884 0.988152086734772 0.976494014263153 0.95683753490448 0.823687434196472 0.907709896564484
0.991618692874908 0.992018222808838 0.991297781467438 0.992369592189789 0.99259477853775 0.991283535957336 0.988216698169708 0.984508037567139 0.978015720844269 0.973996341228485 0.958961367607117 0.87375670671463 0.891279578208923 0.898158311843872 0.966437101364136 0.996422827243805 0.988729238510132 0.943610012531281 0.995937347412109 0.985158324241638 0.991010427474976 0.987305700778961 0.896325170993805 0.996584951877594 0.952258408069611 0.864407658576965 0.890925467014313 0.917727053165436 0.957368791103363 0.973801791667938 0.979344010353088 0.982961773872375 0.986363649368286 0.988057792186737 0.988117814064026 0.989392101764679 0.990023255348206 0.99058598279953 0.991265535354614 0.990129470825195 0.989907085895538 0.988873720169067 0.988304495811462 0.989199161529541 0.987378776073456 0.985592365264893 0.983745098114014 0.968711674213409 0.953584790229797 0.8953498005867 0.872616469860077 0.990220367908478 0.88019871711731 0.7677903175354 0.767756342887878 0.869750142097473 0.970565497875214 0.957262456417084 0.939256250858307 0.971831262111664 0.688777208328247 0.937287092208862 0.979527413845062 0.963385283946991 0.988881886005402 0.990268170833588 0.99440985918045 0.980141460895538 0.990880370140076 0.986198425292969 0.985773265361786 0.968383431434631 0.974932968616486 0.954416632652283 0.951325953006744 0.98344224691391 0.980086803436279 0.993087768554688 0.990378677845001 0.98605489730835 0.987015604972839 0.982757389545441 0.992150187492371 0.938672721385956 0.90511417388916 0.983071148395538 0.960338413715363 0.96731835603714 0.965816378593445 0.981645524501801 0.985367953777313 0.986019849777222 0.987929940223694 0.988901853561401 0.989295721054077 0.988635778427124 0.988258183002472 0.988180816173553 0.988138437271118 0.986869275569916 0.986691832542419 0.985666394233704 0.985406637191772 0.986543893814087 0.986627280712128 0.983606696128845 0.979341149330139 0.974237442016602 0.973990559577942 0.929250061511993 0.970899045467377 0.97069376707077 0.966147065162659 0.986559450626373 0.968466460704803 0.982401490211487 0.965919137001038 0.961164355278015 0.924864411354065 0.973712980747223 0.946162819862366 0.943447589874268 0.920005261898041 0.895896017551422 0.917111039161682 0.952029764652252 0.980949699878693 0.982172191143036 0.95833283662796 0.978687942028046 0.97748202085495 0.982520818710327 0.972475051879883 0.977067470550537 0.962145447731018 0.983259081840515 0.947584927082062 0.859879434108734 0.823301732540131 0.927403569221497 0.943184316158295 0.959562063217163 0.973666191101074 0.974833905696869 0.976061999797821 0.974748909473419 0.972480177879333 0.966676592826843 0.953163683414459 0.859479904174805 0.969753623008728 0.90604704618454 0.9177006483078 0.897229850292206 0.92691296339035 0.92571610212326 0.944092869758606 0.953315496444702 0.99308317899704 0.982323586940765 0.991319060325623 0.883969187736511 0.981327831745148 0.929649651050568 0.992907822132111 0.901934683322906
0.992664813995361 0.991661846637726 0.991221129894257 0.991763770580292 0.992638289928436 0.989906489849091 0.987625777721405 0.981890559196472 0.976916909217834 0.965571999549866 0.931336939334869 0.93946385383606 0.889446616172791 0.96577000617981 0.994877576828003 0.998472452163696 0.993670582771301 0.990988731384277 0.983085453510284 0.994584143161774 0.994352042675018 0.984940886497498 0.978257238864899 0.998435497283936 0.985784351825714 0.881384968757629 0.796175718307495 0.928321421146393 0.943964898586273 0.96503347158432 0.974837303161621 0.980315625667572 0.984438598155975 0.986793398857117 0.987602591514587 0.989215850830078 0.989993631839752 0.989881038665771 0.990549743175507 0.989447295665741 0.990293562412262 0.989994168281555 0.990242183208466 0.988305568695068 0.984709560871124 0.982920289039612 0.979261696338654 0.976636707782745 0.954419195652008 0.917019486427307 0.901748478412628 0.960252225399017 0.976076006889343 0.914003789424896 0.891568303108215 0.973751068115234 0.987932562828064 0.923964023590088 0.860302984714508 0.964214503765106 0.921029031276703 0.936370491981506 0.985565006732941 0.995303273200989 0.953649699687958 0.978374660015106 0.991630136966705 0.981715440750122 0.979444324970245 0.927959740161896 0.939598500728607 0.979025363922119 0.931251704692841 0.984308183193207 0.961012780666351 0.976182341575623 0.992190361022949 0.995028734207153 0.984918415546417 0.995323538780212 0.979738414287567 0.983365595340729 0.992872834205627 0.952613115310669 0.949530720710754 0.934612691402435 0.97288566827774 0.969734609127045 0.958497405052185 0.981709063053131 0.983250200748444 0.985932111740112 0.986898601055145 0.988496005535126 0.989213943481445 0.988744676113129 0.988448858261108 0.988499522209167 0.9880530834198 0.987057387828827 0.986865401268005 0.985301613807678 0.98303747177124 0.98433119058609 0.984889507293701 0.984700441360474 0.980475902557373 0.964514970779419 0.925920009613037 0.944836974143982 0.96147233247757 0.973350048065186 0.987607181072235 0.974620819091797 0.972153306007385 0.980210483074188 0.977361738681793 0.964661180973053 0.971710443496704 0.979729354381561 0.959813952445984 0.954357922077179 0.954369306564331 0.944083869457245 0.924551784992218 0.96278327703476 0.985853731632233 0.970593392848969 0.979027807712555 0.987793564796448 0.981935679912567 0.977049052715302 0.967795610427856 0.981679618358612 0.988865852355957 0.993056774139404 0.993893086910248 0.97552889585495 0.851334869861603 0.822802901268005 0.93281352519989 0.948692619800568 0.962736248970032 0.971860945224762 0.972952663898468 0.973041772842407 0.971427321434021 0.959708988666534 0.925249636173248 0.935858547687531 0.92741447687149 0.91879141330719 0.884215652942657 0.893396735191345 0.936864614486694 0.956118881702423 0.985431969165802 0.938820719718933 0.868502795696259 0.994227826595306 0.971122562885284 0.980897724628448 0.931276023387909 0.865045607089996 0.847247958183289 0.918695449829102
0.991361379623413 0.992711007595062 0.991979241371155 0.991931974887848 0.992311537265778 0.990202486515045 0.986833333969116 0.981777548789978 0.975037217140198 0.968282699584961 0.950949490070343 0.790858149528503 0.941485106945038 0.977271914482117 0.999200165271759 0.999068915843964 0.999380707740784 0.996709883213043 0.985644698143005 0.99609112739563 0.997147500514984 0.994725584983826 0.992703914642334 0.997339248657227 0.954967856407166 0.970995426177979 0.848197221755981 0.883587896823883 0.920959413051605 0.958913803100586 0.972435057163239 0.979945540428162 0.983985662460327 0.986065208911896 0.986800134181976 0.988421082496643 0.989010393619537 0.988859474658966 0.989777266979218 0.989636301994324 0.991299271583557 0.99103045463562 0.988555252552032 0.986548483371735 0.986522018909454 0.986670970916748 0.983327925205231 0.972145080566406 0.968777656555176 0.948209702968597 0.858591258525848 0.915629684925079 0.980909883975983 0.981736063957214 0.971713364124298 0.93146276473999 0.970064163208008 0.881033539772034 0.849990785121918 0.782268941402435 0.910370469093323 0.96246325969696 0.986975729465485 0.965602576732635 0.969164133071899 0.978042840957642 0.985868096351624 0.975849747657776 0.983877420425415 0.967721521854401 0.987279534339905 0.985150039196014 0.991330444812775 0.980438411235809 0.956594347953796 0.968396961688995 0.987595438957214 0.992384135723114 0.990192174911499 0.983372867107391 0.995033621788025 0.993010401725769 0.974555015563965 0.969030499458313 0.947256982326508 0.944508731365204 0.973991453647614 0.968818485736847 0.958355665206909 0.976729989051819 0.981492936611176 0.984072983264923 0.984310746192932 0.985272467136383 0.987166464328766 0.988384187221527 0.988744378089905 0.988481104373932 0.98700213432312 0.985878527164459 0.985038936138153 0.98384702205658 0.983555376529694 0.982032418251038 0.98201858997345 0.981963396072388 0.956437945365906 0.95797073841095 0.936367213726044 0.958453893661499 0.977754235267639 0.969904720783234 0.966169714927673 0.957644045352936 0.961273729801178 0.95042622089386 0.982267677783966 0.951625108718872 0.973416686058044 0.969273686408997 0.967089056968689 0.971296489238739 0.97329044342041 0.959358870983124 0.964517712593079 0.956471025943756 0.961259186267853 0.97815066576004 0.98112279176712 0.982209444046021 0.976222932338715 0.973865151405334 0.972932159900665 0.990009546279907 0.984426498413086 0.976909339427948 0.948520720005035 0.991117596626282 0.930376470088959 0.853715121746063 0.873547613620758 0.933662533760071 0.95835953950882 0.965682864189148 0.967997848987579 0.968363463878632 0.962943315505981 0.960240066051483 0.909497618675232 0.947662591934204 0.964212894439697 0.874383151531219 0.827344357967377 0.878589034080505 0.932413458824158 0.986746072769165 0.932162821292877 0.960326492786407 0.992314159870148 0.954010665416718 0.99619460105896 0.967968165874481 0.997605800628662 0.994909882545471 0.996097385883331 0.986200869083405
0.989792823791504 0.992154777050018 0.991843819618225 0.992296874523163 0.990448355674744 0.989554762840271 0.987473905086517 0.980563938617706 0.975806713104248 0.962059199810028 0.905952632427216 0.913033306598663 0.909887313842773 0.981658339500427 0.984226107597351 0.998924612998962 0.996346712112427 0.998007118701935 0.998891115188599 0.998916327953339 0.99601548910141 0.998246669769287 0.999032914638519 0.996202290058136 0.993198812007904 0.993088483810425 0.885347843170166 0.813550472259521 0.932466924190521 0.947349071502686 0.965477168560028 0.977443099021912 0.984249174594879 0.984823822975159 0.987173855304718 0.987613439559937 0.987910687923431 0.987786114215851 0.988171935081482 0.98978453874588 0.989989638328552 0.988807380199432 0.987192332744598 0.986131727695465 0.987131595611572 0.986840903759003 0.979601263999939 0.977505445480347 0.968015432357788 0.957329154014587 0.928690671920776 0.913633704185486 0.958902060985565 0.969571828842163 0.979846298694611 0.99097865819931 0.91855663061142 0.774691462516785 0.875634431838989 0.863126397132874 0.705511868000031 0.902782440185547 0.981023609638214 0.980661511421204 0.973744809627533 0.988759338855743 0.981981158256531 0.983615934848785 0.985208094120026 0.986913323402405 0.98976868391037 0.936307013034821 0.982805132865906 0.991984069347382 0.98200798034668 0.95370626449585 0.974296391010284 0.979568421840668 0.993479013442993 0.982075035572052 0.994877815246582 0.981351613998413 0.988796234130859 0.952868819236755 0.910028994083405 0.990299880504608 0.955739617347717 0.963432431221008 0.958219468593597 0.975923895835876 0.979344606399536 0.984364628791809 0.979802072048187 0.98321533203125 0.984991490840912 0.987961709499359 0.988585889339447 0.988187193870544 0.986722648143768 0.983304798603058 0.983316659927368 0.982199251651764 0.981801629066467 0.982212603092194 0.978524625301361 0.970300674438477 0.964511394500732 0.950828611850739 0.970915555953979 0.981781542301178 0.967243611812592 0.966235280036926 0.983120918273926 0.967500150203705 0.974298357963562 0.982653677463531 0.979170799255371 0.972130358219147 0.973345160484314 0.964138090610504 0.947189211845398 0.908962905406952 0.925144910812378 0.965003490447998 0.973463594913483 0.967075109481812 0.928181827068329 0.950681149959564 0.924989104270935 0.929006397724152 0.960067272186279 0.957896173000336 0.972361624240875 0.989349722862244 0.979807794094086 0.974345922470093 0.960736215114594 0.987989962100983 0.987705886363983 0.894312977790833 0.83632105588913 0.926253020763397 0.927219152450562 0.957505941390991 0.958264589309692 0.96162885427475 0.955358386039734 0.923514127731323 0.951613068580627 0.971729576587677 0.958973228931427 0.834011316299438 0.914795100688934 0.928849339485168 0.93603777885437 0.996175110340118 0.988873422145844 0.989353001117706 0.940464496612549 0.991082072257996 0.992148458957672 0.950758516788483 0.937118828296661 0.913193762302399 0.929942548274994 0.916128039360046
0.989000499248505 0.991294085979462 0.991554319858551 0.991934061050415 0.990971028804779 0.989145874977112 0.98718249797821 0.983684837818146 0.975259125232697 0.963914811611176 0.932210922241211 0.893122613430023 0.970099985599518 0.98534494638443 0.99746173620224 0.999138355255127 0.988004386425018 0.993189871311188 0.985983610153198 0.989960372447968 0.983342528343201 0.993562817573547 0.99888151884079 0.996625781059265 0.997959613800049 0.99649703502655 0.94407707452774 0.856332123279572 0.884234011173248 0.929955840110779 0.957260131835938 0.972882747650146 0.980308949947357 0.985018193721771 0.985671281814575 0.986451685428619 0.98652172088623 0.985760271549225 0.986902832984924 0.987982869148254 0.98789370059967 0.988232433795929 0.986580848693848 0.986371159553528 0.987726211547852 0.984079778194427 0.980866074562073 0.979943931102753 0.974858283996582 0.97023332118988 0.956462025642395 0.893843710422516 0.954458653926849 0.917225360870361 0.899716317653656 0.956567764282227 0.859462916851044 0.771270632743835 0.848048865795135 0.841753542423248 0.702102661132812 0.925596177577972 0.973405241966248 0.957723557949066 0.957031548023224 0.981032967567444 0.978606462478638 0.990713119506836 0.993361175060272 0.981419861316681 0.990332841873169 0.989993095397949 0.984407365322113 0.934783935546875 0.979477882385254 0.978001713752747 0.983096897602081 0.994015872478485 0.990985810756683 0.992889523506165 0.992307126522064 0.987308204174042 0.978143692016602 0.906219720840454 0.945973992347717 0.947053611278534 0.967337310314178 0.945135593414307 0.951468884944916 0.972650349140167 0.980936944484711 0.982764184474945 0.982378959655762 0.984586119651794 0.986016392707825 0.987365067005157 0.987204372882843 0.986639618873596 0.986198961734772 0.983905911445618 0.98009866476059 0.979182660579681 0.982497334480286 0.97908478975296 0.979233741760254 0.956894218921661 0.916716516017914 0.958222448825836 0.982887923717499 0.972023367881775 0.982064723968506 0.974339187145233 0.987228095531464 0.95711749792099 0.981563329696655 0.98364120721817 0.982169628143311 0.962930262088776 0.951173305511475 0.947746157646179 0.888713538646698 0.873946964740753 0.882246255874634 0.934614896774292 0.947160005569458 0.92953497171402 0.933660209178925 0.893947422504425 0.84449291229248 0.90646892786026 0.91162645816803 0.95023775100708 0.974320709705353 0.973791718482971 0.979786813259125 0.981324374675751 0.948894083499908 0.980412304401398 0.965504586696625 0.938613414764404 0.909975647926331 0.877208590507507 0.958944261074066 0.909191191196442 0.939210951328278 0.908328473567963 0.940294802188873 0.962425172328949 0.959934830665588 0.931959509849548 0.812116622924805 0.940245270729065 0.938018977642059 0.887948036193848 0.883808314800262 0.948574602603912 0.99776029586792 0.993577897548676 0.996202528476715 0.993880271911621 0.948646128177643 0.879263460636139 0.928091943264008 0.960807979106903 0.946502685546875 0.934146225452423
0.988685548305511 0.990162074565887 0.992081999778748 0.991336226463318 0.990537285804749 0.989362001419067 0.987073481082916 0.981656014919281 0.978727996349335 0.962079346179962 0.939432382583618 0.916768908500671 0.947987198829651 0.989336013793945 0.996572256088257 0.995448410511017 0.996394276618958 0.998703122138977 0.997932851314545 0.99640417098999 0.974017739295959 0.990413427352905 0.997740507125854 0.995234429836273 0.996106028556824 0.999747097492218 0.987054109573364 0.890638113021851 0.822000741958618 0.932358205318451 0.948757410049438 0.965781211853027 0.977522790431976 0.983045995235443 0.983716189861298 0.984283566474915 0.984031796455383 0.984946191310883 0.987379491329193 0.986058831214905 0.985449075698853 0.9850714802742 0.983869433403015 0.983814001083374 0.981067478656769 0.982333064079285 0.981543719768524 0.979298055171967 0.974633514881134 0.974886775016785 0.963257253170013 0.9380823969841 0.967307567596436 0.809653878211975 0.767875909805298 0.828709661960602 0.966451346874237 0.699151635169983 0.758182525634766 0.710606455802917 0.871247231960297 0.978820979595184 0.981884002685547 0.991365551948547 0.971740901470184 0.941880941390991 0.945541024208069 0.979470074176788 0.983814775943756 0.995698273181915 0.987216949462891 0.983755469322205 0.987673699855804 0.982462763786316 0.979236900806427 0.994289696216583 0.988169372081757 0.993942260742188 0.993276476860046 0.989752054214478 0.996391892433167 0.989661931991577 0.972979247570038 0.954160749912262 0.947673916816711 0.933926284313202 0.992471933364868 0.944321393966675 0.919109165668488 0.972791314125061 0.977588772773743 0.976818025112152 0.979703068733215 0.981040298938751 0.986404895782471 0.987708151340485 0.986980140209198 0.986337244510651 0.984590232372284 0.98255580663681 0.979302287101746 0.979971885681152 0.979243874549866 0.978079199790955 0.975471377372742 0.971760749816895 0.941137075424194 0.962988972663879 0.980843901634216 0.941648185253143 0.973718047142029 0.951942443847656 0.981651902198792 0.974016487598419 0.975877344608307 0.977486789226532 0.974762499332428 0.955275595188141 0.928440511226654 0.896458625793457 0.862835943698883 0.836217820644379 0.85117769241333 0.901562929153442 0.930517375469208 0.94228321313858 0.789999186992645 0.918074727058411 0.946909308433533 0.925511658191681 0.889732897281647 0.926778674125671 0.958070456981659 0.955152690410614 0.967564404010773 0.917837798595428 0.970783889293671 0.963014960289001 0.947891175746918 0.950802505016327 0.956623315811157 0.964112102985382 0.975243508815765 0.958457171916962 0.943529844284058 0.963897883892059 0.961815655231476 0.964820861816406 0.90544056892395 0.85594767332077 0.915697693824768 0.950540602207184 0.965684056282043 0.903138637542725 0.915108382701874 0.958865225315094 0.980403363704681 0.986641585826874 0.981975972652435 0.983526647090912 0.85839980840683 0.901334464550018 0.946397960186005 0.976790308952332 0.964443624019623 0.958306610584259
0.989473760128021 0.989177346229553 0.991584479808807 0.991485714912415 0.99139016866684 0.990196347236633 0.987244606018066 0.982469379901886 0.976638555526733 0.970352470874786 0.949666380882263 0.858873784542084 0.890497446060181 0.974064230918884 0.991324365139008 0.988325536251068 0.989091575145721 0.992594599723816 0.995711445808411 0.987209856510162 0.986878514289856 0.997714221477509 0.994305849075317 0.99507349729538 0.972026646137238 0.998450517654419 0.993065118789673 0.945576071739197 0.864050984382629 0.886615693569183 0.929638087749481 0.959099948406219 0.96929532289505 0.977732837200165 0.980643033981323 0.982090830802917 0.983473002910614 0.981508076190948 0.984652876853943 0.982040703296661 0.983392596244812 0.980753064155579 0.981916785240173 0.978761076927185 0.979807615280151 0.979977965354919 0.980754256248474 0.976402878761292 0.973047912120819 0.974469184875488 0.962928175926208 0.953832685947418 0.923464119434357 0.913804471492767 0.900677978992462 0.752254962921143 0.953099429607391 0.913162052631378 0.862609505653381 0.923884689807892 0.935682117938995 0.993018090724945 0.976539671421051 0.993440628051758 0.809103786945343 0.893170475959778 0.840838670730591 0.988966047763824 0.988813996315002 0.992501139640808 0.983383595943451 0.973277986049652 0.985698044300079 0.973959445953369 0.987123906612396 0.998633444309235 0.995034039020538 0.993828117847443 0.989991962909698 0.990272581577301 0.979161202907562 0.987540602684021 0.988515734672546 0.969419538974762 0.93132871389389 0.956164360046387 0.943312704563141 0.980400800704956 0.950231969356537 0.953746318817139 0.976972103118896 0.979119598865509 0.978714048862457 0.976743757724762 0.981304049491882 0.985591173171997 0.986114203929901 0.985394239425659 0.984530448913574 0.980764925479889 0.97435188293457 0.974070310592651 0.974728763103485 0.975156128406525 0.965679883956909 0.965197920799255 0.94943231344223 0.968088388442993 0.969198882579803 0.959643959999084 0.959373533725739 0.971595168113708 0.95717865228653 0.85798054933548 0.967099070549011 0.966144621372223 0.962027966976166 0.94353985786438 0.920293092727661 0.91153621673584 0.911765098571777 0.90128767490387 0.884986877441406 0.871562421321869 0.91015362739563 0.937279164791107 0.903116285800934 0.873188853263855 0.901900231838226 0.876454591751099 0.916427195072174 0.929051160812378 0.931294500827789 0.950271964073181 0.969534754753113 0.98253059387207 0.978045344352722 0.927497982978821 0.899870216846466 0.965163767337799 0.95070093870163 0.932222664356232 0.975756704807281 0.974319040775299 0.948522090911865 0.972192049026489 0.908673882484436 0.816904008388519 0.899617850780487 0.917220234870911 0.956838428974152 0.936716079711914 0.957618534564972 0.923427581787109 0.934689879417419 0.983760237693787 0.963649451732635 0.946161150932312 0.964768409729004 0.930784523487091 0.995460391044617 0.987737953662872 0.963755488395691 0.962575137615204 0.971617341041565 0.921508610248566
0.991740643978119 0.990449845790863 0.990547358989716 0.990702927112579 0.99064028263092 0.989608466625214 0.988201379776001 0.982430398464203 0.977889776229858 0.967727303504944 0.949790239334106 0.919194996356964 0.825698614120483 0.964257836341858 0.992415189743042 0.99716705083847 0.9877610206604 0.967876136302948 0.98616898059845 0.996553659439087 0.996464252471924 0.995723783969879 0.995554506778717 0.999408185482025 0.996634662151337 0.999296545982361 0.996690034866333 0.983756422996521 0.861662030220032 0.836901307106018 0.929175734519958 0.944828867912292 0.964580237865448 0.972511529922485 0.975405156612396 0.977927267551422 0.979342222213745 0.97652667760849 0.979807674884796 0.975778162479401 0.977425813674927 0.975849211215973 0.97338205575943 0.975386083126068 0.974545001983643 0.974949419498444 0.974001228809357 0.97346442937851 0.972688853740692 0.967295229434967 0.95867794752121 0.948124647140503 0.907151818275452 0.923772633075714 0.912543833255768 0.849268019199371 0.889886915683746 0.992890596389771 0.989330887794495 0.949295580387115 0.997054159641266 0.996875524520874 0.991067469120026 0.984770774841309 0.995886623859406 0.98608124256134 0.984061419963837 0.959138929843903 0.994084179401398 0.979754507541656 0.983537673950195 0.983473300933838 0.966067314147949 0.954320430755615 0.983535885810852 0.975898623466492 0.997462809085846 0.995887756347656 0.996194541454315 0.99072653055191 0.988069534301758 0.983312427997589 0.935516774654388 0.967798948287964 0.925359904766083 0.840684294700623 0.92028546333313 0.974185049533844 0.947952032089233 0.948458969593048 0.974253594875336 0.977454721927643 0.977628707885742 0.975091695785522 0.97413581609726 0.979082465171814 0.980503261089325 0.982004582881927 0.981891512870789 0.977600574493408 0.971080303192139 0.970198094844818 0.973759710788727 0.970661401748657 0.961017429828644 0.942549467086792 0.95282644033432 0.981037139892578 0.970089673995972 0.944585084915161 0.968921661376953 0.973860919475555 0.947048127651215 0.962472498416901 0.965244650840759 0.959274530410767 0.951159656047821 0.95151823759079 0.951601982116699 0.960578143596649 0.971953749656677 0.976849913597107 0.933323383331299 0.880068600177765 0.866259515285492 0.907524108886719 0.880851209163666 0.840819776058197 0.86878502368927 0.947057366371155 0.947257399559021 0.941531479358673 0.935416102409363 0.919415533542633 0.89944851398468 0.8777214884758 0.962487518787384 0.987626731395721 0.978779792785645 0.960327923297882 0.86090224981308 0.982990860939026 0.920051872730255 0.971002757549286 0.964845836162567 0.908445119857788 0.905378043651581 0.85105699300766 0.92842835187912 0.930389821529388 0.963459253311157 0.974207758903503 0.966191172599792 0.94225949048996 0.9657923579216 0.979139745235443 0.933999359607697 0.80711555480957 0.990736663341522 0.976715385913849 0.950667500495911 0.969076693058014 0.926720917224884 0.986398458480835 0.986089706420898 0.979233086109161
0.993761003017426 0.992531061172485 0.990596771240234 0.990017235279083 0.989793062210083 0.989445447921753 0.987485766410828 0.984322011470795 0.979176104068756 0.972547113895416 0.954902410507202 0.911668717861176 0.885893225669861 0.963848114013672 0.984141051769257 0.996206760406494 0.976750195026398 0.979234218597412 0.990025460720062 0.964983403682709 0.987779259681702 0.996381938457489 0.982093691825867 0.990218341350555 0.997153222560883 0.993705451488495 0.994723796844482 0.995321273803711 0.943135797977448 0.876462399959564 0.887329638004303 0.928526341915131 0.954481840133667 0.963615655899048 0.969565033912659 0.969637930393219 0.971874296665192 0.96939355134964 0.972666263580322 0.967342555522919 0.969318747520447 0.960246086120605 0.956140220165253 0.954827845096588 0.960074365139008 0.959507882595062 0.95935720205307 0.963136374950409 0.965821504592896 0.964811146259308 0.946862518787384 0.89979076385498 0.974666357040405 0.85517829656601 0.919215023517609 0.845901012420654 0.903492033481598 0.990650236606598 0.987412750720978 0.996441245079041 0.924391150474548 0.990402162075043 0.968822598457336 0.923674821853638 0.955509603023529 0.977671921253204 0.988592743873596 0.996601760387421 0.991828441619873 0.98761385679245 0.989925742149353 0.949917376041412 0.991716682910919 0.968158662319183 0.972350597381592 0.968510866165161 0.992314755916595 0.994040310382843 0.996974587440491 0.990908443927765 0.987426996231079 0.974138915538788 0.975708961486816 0.928395092487335 0.919587969779968 0.943236827850342 0.882630050182343 0.959858596324921 0.949470639228821 0.936468482017517 0.973406851291656 0.9772589802742 0.97917377948761 0.977965950965881 0.973847389221191 0.973063170909882 0.972582638263702 0.971944689750671 0.972350358963013 0.969396650791168 0.970575630664825 0.96901923418045 0.970189988613129 0.968999803066254 0.953445434570312 0.917243659496307 0.943094909191132 0.964504301548004 0.937855660915375 0.939672350883484 0.967008650302887 0.965238034725189 0.952555000782013 0.931931138038635 0.959136128425598 0.94757080078125 0.952994227409363 0.969212055206299 0.976355910301208 0.979670405387878 0.983695507049561 0.98654705286026 0.970905303955078 0.921679973602295 0.879986107349396 0.861205995082855 0.866262257099152 0.864935219287872 0.858763754367828 0.885287523269653 0.893734693527222 0.94039922952652 0.890400588512421 0.899597823619843 0.896653413772583 0.889758706092834 0.921788573265076 0.936702191829681 0.971749663352966 0.973139226436615 0.942346394062042 0.754589736461639 0.953988254070282 0.936234295368195 0.95972728729248 0.948137283325195 0.94569981098175 0.962303578853607 0.911859929561615 0.958157241344452 0.959670841693878 0.991131126880646 0.879232168197632 0.98371148109436 0.946130871772766 0.941527187824249 0.876163005828857 0.978031694889069 0.873298823833466 0.990763306617737 0.944697439670563 0.96364438533783 0.991777300834656 0.957755088806152 0.932767570018768 0.871705055236816
0.995376765727997 0.994421124458313 0.991815865039825 0.988407373428345 0.987899303436279 0.988731861114502 0.98804759979248 0.985122263431549 0.979494571685791 0.972841441631317 0.962323367595673 0.945208728313446 0.881040096282959 0.918997704982758 0.959170281887054 0.992678284645081 0.961438059806824 0.998064637184143 0.955448389053345 0.999050974845886 0.989277303218842 0.982696175575256 0.992137134075165 0.990591049194336 0.993937253952026 0.986640512943268 0.985136747360229 0.977034866809845 0.988587260246277 0.902470469474792 0.804651260375977 0.924349248409271 0.938319802284241 0.957935929298401 0.959241449832916 0.963207006454468 0.956002056598663 0.955304563045502 0.94824081659317 0.950413942337036 0.939415335655212 0.932897746562958 0.922976016998291 0.921916246414185 0.920540869235992 0.928769052028656 0.932924926280975 0.94680392742157 0.955089926719666 0.954506874084473 0.939206063747406 0.875121295452118 0.978011608123779 0.773628652095795 0.872871518135071 0.848433613777161 0.963148295879364 0.99548351764679 0.981491804122925 0.94999361038208 0.992936134338379 0.9373978972435 0.985399186611176 0.981796741485596 0.95971143245697 0.970267236232758 0.963132083415985 0.99512904882431 0.990580320358276 0.9847651720047 0.981397747993469 0.963875472545624 0.963347136974335 0.9845951795578 0.984323263168335 0.981278955936432 0.99303662776947 0.997956573963165 0.996324419975281 0.985111236572266 0.976124167442322 0.947172820568085 0.953805267810822 0.95079380273819 0.913817226886749 0.909154295921326 0.922194480895996 0.938775539398193 0.951673328876495 0.94242250919342 0.972062706947327 0.97724586725235 0.977560698986053 0.977201700210571 0.976963698863983 0.974794328212738 0.974647283554077 0.97186291217804 0.967652142047882 0.969106554985046 0.969834625720978 0.967807173728943 0.969829618930817 0.967235743999481 0.92614072561264 0.898417711257935 0.940017104148865 0.980225503444672 0.953333616256714 0.945519983768463 0.956286251544952 0.966931223869324 0.948650479316711 0.955601990222931 0.948302447795868 0.964319586753845 0.97980672121048 0.987249553203583 0.991031229496002 0.994771301746368 0.986520111560822 0.984964489936829 0.990699172019958 0.974434912204742 0.947674095630646 0.888932108879089 0.85459440946579 0.861108064651489 0.843462646007538 0.879120707511902 0.809167981147766 0.90904313325882 0.890851378440857 0.929766714572906 0.945538938045502 0.949081540107727 0.934482216835022 0.946827352046967 0.951727867126465 0.946668863296509 0.956619024276733 0.940588355064392 0.943168878555298 0.885059714317322 0.938751339912415 0.969756305217743 0.957936465740204 0.947262227535248 0.946373045444489 0.957480430603027 0.988164186477661 0.858655393123627 0.990971684455872 0.937778830528259 0.993417024612427 0.930119097232819 0.798377633094788 0.984946072101593 0.941409289836884 0.98167759180069 0.985851287841797 0.987549185752869 0.984668612480164 0.955979824066162 0.965632498264313 0.967448711395264
