NCOLS 173
NROWS 32
XLLCORNER 353952
YLLCORNER 6699888
CELLSIZE 16 
NODATA_value -3.4e+38 
0.922573447227478 0.947987377643585 1.06360113620758 1.29183304309845 1.50571644306183 1.74688816070557 2.01284193992615 2.25883936882019 2.31655645370483 2.50846362113953 3.09988808631897 3.51045703887939 3.51250267028809 2.85291957855225 2.22652769088745 1.92564368247986 1.73908293247223 1.72504758834839 1.61818468570709 1.43190860748291 1.24726033210754 1.52704381942749 1.62353825569153 1.634521484375 1.66210198402405 1.23667109012604 1.3575713634491 1.54448473453522 1.75762069225311 1.81401085853577 1.781858086586 1.75702714920044 1.87043106555939 2.34044480323792 2.33626127243042 2.04503870010376 2.03606104850769 2.08376574516296 2.06548047065735 2.12045550346375 2.17216682434082 2.31549406051636 2.44878458976746 2.72352457046509 3.08081221580505 3.13469743728638 3.08495378494263 2.759770154953 2.85255360603333 3.09281873703003 3.03652906417847 2.93640875816345 2.96885943412781 3.03771591186523 2.71459484100342 2.37496280670166 1.92013156414032 1.712406873703 1.70591390132904 1.91686761379242 3.66111731529236 1.00328135490417 -0.424239605665207 -0.368434309959412 0.167825564742088 0.730793535709381 1.31941914558411 1.99183285236359 2.26686310768127 2.24042344093323 2.09288692474365 2.21718335151672 2.54797434806824 3.03207683563232 3.37500214576721 3.66430282592773 4.01830625534058 4.06418466567993 4.11595964431763 4.16687297821045 4.11706733703613 4.03536176681519 4.64984035491943 8.55528736114502 10.8130989074707 15.2235383987427 23.8715667724609 14.7800588607788 6.15514135360718 1.69477880001068 1.64999759197235 3.02623772621155 2.77649021148682 -0.539907991886139 -0.308384597301483 -0.129302009940147 0.067719966173172 2.76176500320435 5.73573350906372 5.24358892440796 2.67935419082642 2.11317229270935 3.36072063446045 3.72521257400513 5.6141996383667 7.00923347473145 5.31124544143677 1.53532993793488 2.24285507202148 1.55608952045441 1.6383593082428 1.72007215023041 1.78174710273743 1.99845492839813 2.15809869766235 2.32844829559326 2.5362184047699 2.63250994682312 2.80534172058105 2.95034503936768 3.00763249397278 3.10321354866028 3.07227849960327 3.17375469207764 3.21752786636353 3.40857768058777 3.59460139274597 3.89252138137817 4.16061067581177 4.3132495880127 4.40578365325928 4.48707056045532 4.58503818511963 4.5806884765625 4.59543180465698 4.55826282501221 4.41020011901855 4.30047035217285 4.12110614776611 3.80788254737854 3.54728722572327 3.54982495307922 3.65024399757385 3.88375854492188 3.98617625236511 4.25545644760132 4.35034418106079 4.59887409210205 4.41153144836426 4.01276683807373 3.87610363960266 2.41653609275818 1.46091914176941 1.17985761165619 2.83790135383606 1.56589233875275 0.339966356754303 0.192518278956413 0.232513681054115 1.52353310585022 4.75650978088379 11.2788028717041 4.627854347229 1.68604469299316 3.09455633163452 3.61301493644714 3.22191333770752 3.3887243270874 2.26184487342834 0.495991706848145 0.901454091072083 1.36514341831207 1.83464181423187
1.02020561695099 1.01498138904572 1.05991780757904 1.19499516487122 1.37160789966583 1.57798910140991 2.00792551040649 2.14502668380737 2.14637351036072 2.32820630073547 2.67614698410034 3.35580849647522 3.71087050437927 3.73521995544434 3.00045037269592 2.31328749656677 1.98378205299377 1.7897367477417 1.78454923629761 1.67523396015167 1.48383045196533 1.27225506305695 1.58272540569305 1.70918333530426 1.77368056774139 1.78104865550995 1.26404917240143 1.38958585262299 1.60230660438538 1.80030000209808 1.87260007858276 1.8625396490097 1.84699356555939 2.18230414390564 2.67285799980164 2.3645396232605 2.26902985572815 2.23525500297546 2.19184327125549 2.06435179710388 2.09927248954773 2.0717990398407 2.11151838302612 2.33693146705627 2.64427947998047 2.71589159965515 3.01943731307983 2.63382148742676 2.36783027648926 2.93462133407593 3.22729110717773 3.21686220169067 3.19528198242188 3.42173504829407 3.42540621757507 3.14499187469482 2.85396766662598 2.97005867958069 2.37995457649231 2.01950716972351 2.07673811912537 0.326438903808594 -0.320600420236588 -0.203302294015884 0.237077116966248 0.762635231018066 1.32491457462311 1.86886894702911 2.34492635726929 2.49969029426575 2.50222516059875 2.58205604553223 2.73685574531555 2.94719815254211 3.16690421104431 3.4731912612915 4.01009368896484 4.14332103729248 4.18756532669067 4.24413824081421 4.29660892486572 4.25174283981323 4.17217683792114 5.48508262634277 8.18395328521729 11.6696519851685 19.7219944000244 17.2904052734375 6.8003101348877 3.48449897766113 1.0690495967865 3.13958024978638 -0.321865350008011 -0.506938755512238 -0.280442178249359 -0.0420760437846184 0.167731076478958 0.375388979911804 3.73828196525574 2.49779152870178 0.605291128158569 0.889391481876373 2.40505719184875 2.84883141517639 4.43558549880981 6.50415897369385 8.24391555786133 9.58029651641846 1.57106578350067 1.52584898471832 1.69122064113617 1.88196837902069 2.04738402366638 2.08723211288452 2.27787041664124 2.42862677574158 2.60100674629211 2.8486475944519 2.98668003082275 3.18237924575806 3.34103727340698 3.40378260612488 3.50015497207642 3.46030187606812 3.59787631034851 3.70347833633423 3.78976917266846 4.05532598495483 4.3666672706604 4.55044651031494 4.63138008117676 4.7033953666687 4.75961351394653 4.7643895149231 4.75181198120117 4.84320068359375 4.89109039306641 4.7841010093689 4.67996883392334 4.46835517883301 4.20426988601685 4.02199506759644 3.97476649284363 4.09821176528931 4.33308935165405 4.45029735565186 4.78784227371216 4.90358924865723 5.12020587921143 4.84038972854614 5.04304170608521 4.20357990264893 2.61734914779663 1.55523192882538 1.06902480125427 0.590464890003204 0.276047885417938 0.211741834878922 0.195762678980827 0.329099953174591 2.19006848335266 3.1067202091217 1.01659739017487 -0.315863251686096 -0.279116421937943 -0.210469231009483 -0.0612330958247185 0.0591855272650719 0.203134939074516 0.523233890533447 0.678257405757904 1.01640319824219 1.39183306694031
1.121297955513 1.11885392665863 1.17767179012299 2.54052877426147 1.33255589008331 1.4861456155777 1.70155107975006 1.8906831741333 1.93651783466339 2.25844025611877 2.47926878929138 2.85136318206787 3.61434698104858 3.95714974403381 3.9836254119873 3.19913196563721 2.42112946510315 2.0341808795929 1.83034801483154 1.84184849262238 1.73011112213135 1.53554785251617 1.31411981582642 1.45706367492676 1.70474982261658 1.88044238090515 1.89148330688477 1.29970610141754 1.4431164264679 1.63801443576813 1.86158883571625 1.94604861736298 2.00904107093811 2.04161882400513 2.60210847854614 2.4528534412384 2.18481183052063 1.97037494182587 2.0769374370575 2.07003378868103 2.03902840614319 1.92607700824738 1.94259977340698 2.15131282806396 2.16228008270264 1.96267759799957 2.08982849121094 1.74630355834961 1.68730437755585 2.44395565986633 3.11938500404358 3.47445940971375 3.54205775260925 3.6990602016449 4.00448703765869 3.98390555381775 4.33986663818359 3.96897220611572 3.64148497581482 3.01852703094482 2.5810010433197 2.15566325187683 0.503374218940735 -0.00168538105208427 0.3513063788414 0.764405012130737 1.2538548707962 1.85916447639465 2.28897738456726 2.58122563362122 2.70621490478516 2.7607421875 2.94654965400696 3.02985739707947 3.14930534362793 3.35534024238586 3.96752786636353 4.14401483535767 4.26364612579346 4.31573629379272 4.38101005554199 4.43897533416748 4.39777946472168 4.3152904510498 4.46470355987549 7.4737982749939 15.884108543396 20.8723049163818 9.96956539154053 4.6781268119812 0.225739642977715 1.51346063613892 -0.226676940917969 -0.263960301876068 -0.132881879806519 0.178219467401505 0.395094186067581 0.568281710147858 0.691699624061584 0.702229201793671 0.794215559959412 1.08731377124786 1.44831657409668 1.93874263763428 3.37893009185791 5.12635946273804 7.09631872177124 9.97100830078125 1.46444439888 1.53688502311707 1.77566003799438 2.00372719764709 2.20024967193604 2.28199434280396 2.29412937164307 2.43963956832886 2.58257269859314 2.75525331497192 3.05482864379883 3.28120565414429 3.542311668396 3.7309741973877 3.78403115272522 3.90325212478638 4.01801156997681 3.98089933395386 4.13553380966187 4.24751758575439 4.50359296798706 4.76135349273682 4.86568164825439 4.91337537765503 4.97320222854614 4.98250389099121 4.9705662727356 5.05040836334229 5.21076536178589 5.27024984359741 5.17164134979248 5.04260063171387 4.83213663101196 4.59961128234863 4.40587377548218 4.42084407806396 4.62744760513306 4.87247562408447 5.02083492279053 5.39681482315063 5.37120866775513 5.54373741149902 5.75765991210938 5.45307350158691 4.57376956939697 2.8647038936615 1.6406421661377 1.0809565782547 0.685687720775604 0.441150546073914 0.344003140926361 0.37980517745018 0.399502575397491 0.296904951334 0.129939168691635 -0.104248784482479 -0.148961052298546 -0.132604494690895 -0.116909861564636 0.0084779430180788 0.094396136701107 0.313915550708771 0.5832399725914 0.853080809116364 1.14894688129425
1.23004698753357 1.22126173973083 1.31524634361267 1.32564389705658 1.15632402896881 1.41545009613037 1.52213621139526 1.67750465869904 1.77509331703186 2.07060551643372 2.39799118041992 2.61780476570129 2.98522210121155 3.81980776786804 4.27845907211304 4.28800868988037 3.44447588920593 3.49931335449219 2.54611039161682 1.94709777832031 1.90664541721344 1.78071534633636 1.60433053970337 1.57296538352966 1.38268518447876 1.81835436820984 1.96473729610443 2.00292801856995 1.48943018913269 1.47531282901764 1.68829381465912 1.92193567752838 2.0108323097229 2.07327461242676 2.17898607254028 2.13454842567444 2.02949714660645 1.98543858528137 1.97536385059357 2.18034601211548 2.16788411140442 2.06199789047241 1.93935799598694 1.82619547843933 1.39282548427582 1.31088101863861 1.30705094337463 1.36086440086365 1.37841045856476 1.77343475818634 2.67564868927002 3.46993112564087 3.92859220504761 4.17746019363403 4.51769495010376 4.65614128112793 5.1460976600647 5.32113313674927 4.90441513061523 4.89004611968994 3.68676018714905 2.84583163261414 1.47752332687378 0.246498480439186 0.585237205028534 0.989292919635773 1.41469597816467 1.91007804870605 2.35279512405396 2.6028254032135 2.79874467849731 2.90155601501465 2.96772766113281 3.07349228858948 3.19082283973694 3.40367197990417 3.9287531375885 4.10927057266235 4.27303266525269 4.39940214157104 4.4585337638855 4.52685451507568 4.59061479568481 4.54889678955078 4.46078491210938 4.06282758712769 9.61210060119629 19.1326999664307 10.502420425415 4.44844198226929 0.613587737083435 0.637813329696655 0.300499737262726 0.237666457891464 0.146524995565414 0.471058994531631 0.700763821601868 0.876977741718292 1.02358877658844 1.0634503364563 1.2137702703476 1.38263177871704 1.70102858543396 2.14918994903564 2.33257412910461 4.14438915252686 5.6125373840332 8.17533206939697 1.57895040512085 1.59546935558319 1.90813410282135 2.13992953300476 2.31074094772339 2.40335607528687 2.43773651123047 2.41007709503174 2.5931122303009 2.75142288208008 2.9309663772583 3.29237031936646 3.58787727355957 3.87666845321655 4.09292507171631 4.2415885925293 4.30008745193481 4.43168210983276 4.39664649963379 4.56398391723633 4.68631315231323 4.88048458099365 5.07192802429199 5.13792848587036 5.23805236816406 5.31804084777832 5.28771686553955 5.33253479003906 5.46714639663696 5.63172388076782 5.66240262985229 5.58125257492065 5.43351602554321 5.22984218597412 5.01022243499756 4.85336637496948 4.94517278671265 5.18376588821411 5.46989440917969 5.60449075698853 5.91925525665283 6.12359762191772 6.03036165237427 6.23809576034546 5.93120241165161 5.01829814910889 3.14823603630066 1.87485826015472 1.52185761928558 1.16697657108307 0.853513598442078 0.539106845855713 0.473507821559906 0.431392073631287 0.355344384908676 0.154372945427895 0.0882195085287094 0.154851615428925 0.131434142589569 0.0869932398200035 0.200286135077477 0.288062870502472 0.446652263402939 0.722765326499939 1.05209505558014
1.31292271614075 1.36451601982117 1.41372609138489 1.3425794839859 1.29516363143921 1.31087267398834 1.40800189971924 1.54782605171204 1.6283655166626 1.886115193367 2.20023083686829 2.52051663398743 2.70743656158447 3.0928897857666 4.08445119857788 4.70744895935059 4.73130798339844 4.92708110809326 3.9526801109314 2.80004405975342 2.0713746547699 1.99281334877014 1.90138125419617 1.89963316917419 1.88220202922821 1.56614971160889 1.86409103870392 2.0856306552887 2.15028381347656 1.88398468494415 1.94026982784271 1.8375529050827 1.80809235572815 2.04609560966492 2.08495903015137 1.97222995758057 1.93213939666748 1.97555780410767 1.99792075157166 2.05311322212219 2.50529217720032 2.28973579406738 1.77340137958527 1.48229193687439 1.22885298728943 1.32756125926971 1.38477873802185 1.35074257850647 1.44315433502197 1.5851137638092 2.09323501586914 3.14769577980042 4.14591836929321 4.70906686782837 5.08694458007812 5.36586332321167 5.88827562332153 6.39889621734619 7.52759552001953 6.65223932266235 6.53622102737427 4.39083003997803 2.66960024833679 0.413158923387527 0.810752153396606 1.36576974391937 1.74792206287384 2.12352705001831 2.42923784255981 2.66323590278625 2.79679346084595 2.92591214179993 3.01407694816589 3.1374204158783 3.28374171257019 3.63271427154541 4.0047492980957 4.14496469497681 4.23215961456299 4.40713500976562 4.5493860244751 4.6087646484375 4.68333959579468 4.74563789367676 4.70216608047485 4.61497020721436 4.76133155822754 12.7243375778198 12.0407743453979 2.65594244003296 0.73903101682663 0.912133753299713 0.811120748519897 0.759936392307281 0.67739999294281 0.751870095729828 1.02611362934113 1.19628703594208 1.29478359222412 1.35417795181274 1.53185963630676 1.66378104686737 1.94547617435455 2.31324481964111 2.49041700363159 3.35561585426331 5.49820899963379 5.70368671417236 1.60666012763977 1.73773574829102 1.96690440177917 2.26980924606323 2.44729661941528 2.50088739395142 2.52906227111816 2.57034850120544 2.61018490791321 2.82268214225769 3.02260589599609 3.24751424789429 3.6380181312561 3.92818999290466 4.18298768997192 4.37073659896851 4.5920147895813 4.64891767501831 4.78158855438232 4.75345134735107 4.90521860122681 5.02055978775024 5.18310403823853 5.38856983184814 5.51292181015015 5.6030535697937 5.62472248077393 5.66801643371582 5.76456737518311 5.91296243667603 6.05242919921875 6.07940292358398 5.99023771286011 5.846848487854 5.66528272628784 5.44741058349609 5.41035270690918 5.49687576293945 5.8336820602417 6.26876974105835 6.45473003387451 6.44261789321899 6.63599395751953 6.51837205886841 6.76560640335083 6.49265670776367 5.57151412963867 3.54157757759094 2.34634590148926 1.96940767765045 1.44585680961609 1.04416012763977 0.741698503494263 0.578738868236542 0.508195996284485 0.421672970056534 0.346876442432404 0.346838295459747 0.318387687206268 0.284933894872665 0.26811745762825 0.353342533111572 0.422187000513077 0.584491610527039 0.967478573322296
1.41833674907684 1.51264297962189 2.77965092658997 1.50225389003754 1.35881316661835 1.38875007629395 1.39020645618439 1.42028152942657 1.51873791217804 1.72193574905396 1.98105931282043 2.30070948600769 2.62108063697815 2.78924512863159 3.3030903339386 4.46519422531128 5.2094612121582 5.39023447036743 5.70588874816895 4.70145130157471 3.22234010696411 2.40098690986633 2.46503067016602 2.1920862197876 2.04013538360596 2.00105333328247 1.64338636398315 2.00440430641174 2.26472806930542 2.3165385723114 2.3774995803833 2.15378212928772 1.55801212787628 1.79835164546967 2.06504273414612 2.0962290763855 1.99390804767609 1.94853889942169 1.99204003810883 2.00823354721069 2.14935493469238 1.96902740001678 1.86977827548981 1.70662748813629 1.42406237125397 1.25081861019135 1.27028381824493 1.46369504928589 1.51138389110565 1.74445176124573 2.01703500747681 2.58974099159241 3.81118059158325 5.01025724411011 5.57317781448364 6.04082727432251 6.53608560562134 7.29503870010376 8.4854040145874 10.084005355835 9.42069244384766 8.35007476806641 3.90406942367554 0.418976068496704 0.902622699737549 1.49559473991394 1.87149715423584 2.24266910552979 2.53597354888916 2.77615427970886 2.87054800987244 3.0213782787323 3.23641920089722 3.42489790916443 3.65695667266846 4.09542989730835 4.3144907951355 4.33905410766602 4.40188217163086 4.56083917617798 4.60200262069702 4.70883703231812 4.77342414855957 4.84980869293213 4.90948486328125 4.86879062652588 4.77923727035522 6.80302906036377 11.4392499923706 1.6681706905365 1.03899621963501 1.14721059799194 1.24365675449371 1.21297800540924 1.18753707408905 1.27201890945435 1.39084160327911 1.5051531791687 1.56476581096649 1.64873552322388 1.81350708007812 2.01503920555115 2.30126619338989 2.54036378860474 2.60311341285706 5.28588581085205 7.12530946731567 4.16592502593994 1.89355909824371 1.74805521965027 2.07907676696777 2.3302915096283 2.60465574264526 2.64868688583374 2.61666464805603 2.67899584770203 2.81509041786194 2.88312721252441 3.12571692466736 3.36143898963928 3.58955192565918 3.99969792366028 4.22975873947144 4.45228147506714 4.66487169265747 4.87382793426514 4.92545747756958 5.04869985580444 5.02928447723389 5.20007467269897 5.33321332931519 5.51118993759155 5.77288007736206 5.88042545318604 5.96332550048828 5.99321413040161 6.07223749160767 6.17808723449707 6.3511528968811 6.4881706237793 6.50753498077393 6.43863725662231 6.31984949111938 6.34307909011841 6.35986995697021 6.2077841758728 6.20347833633423 6.40234708786011 6.80798530578613 7.00728034973145 7.01491451263428 7.20141124725342 7.11628770828247 7.4255428314209 7.22434234619141 6.30147123336792 4.04628372192383 2.6240119934082 2.23783445358276 1.70135974884033 1.28165674209595 0.915245473384857 0.693952858448029 0.596674501895905 0.531196415424347 0.470878064632416 0.416428685188293 0.364940971136093 0.37745925784111 0.379439264535904 0.444519370794296 0.530457675457001 0.727139294147491
1.49490797519684 1.54134666919708 1.61057376861572 1.51012122631073 1.46511948108673 1.49967396259308 1.49134624004364 1.41259205341339 1.45408046245575 1.58546853065491 1.79220068454742 2.07264876365662 2.38706374168396 2.72515797615051 2.93277716636658 3.52397465705872 4.87769079208374 5.28946685791016 6.20740842819214 6.83014345169067 6.08884859085083 3.91308760643005 2.48260688781738 2.10414147377014 2.19596648216248 2.19514179229736 2.4247715473175 2.39587831497192 2.0895471572876 2.39734649658203 2.59492230415344 2.19816088676453 1.36666595935822 1.55846107006073 1.80686700344086 2.07309103012085 2.13770699501038 2.28070902824402 2.19838261604309 1.99423933029175 2.00906085968018 1.97895109653473 1.98617315292358 1.88788855075836 1.78559947013855 1.62113165855408 1.4824835062027 1.36556661128998 1.63555514812469 1.87545573711395 2.17431306838989 2.52374649047852 3.09607672691345 4.50337743759155 5.96439647674561 6.66616868972778 7.33676481246948 7.90927505493164 9.44067287445068 9.57613086700439 11.1609869003296 6.14232730865479 1.85173749923706 0.29513293504715 0.795421361923218 1.4210809469223 1.918585896492 2.3316695690155 2.67086625099182 2.9648597240448 3.15920042991638 3.40587091445923 3.61243057250977 3.88735437393188 4.16937971115112 4.34369230270386 4.53238344192505 4.61313629150391 4.66655588150024 4.75536489486694 4.78178596496582 4.76329898834229 4.88122749328613 4.94789266586304 5.02256155014038 5.08309459686279 5.04046106338501 4.95173692703247 6.91872024536133 3.34252953529358 1.82564914226532 1.66884613037109 1.76316928863525 1.81847608089447 1.79513216018677 1.75892055034637 1.79074656963348 1.84458112716675 1.91287970542908 2.00929403305054 2.13789582252502 2.35572552680969 2.59954714775085 2.9020459651947 3.07505679130554 8.5471248626709 7.44700860977173 2.35460615158081 2.04797887802124 2.05385828018188 2.11334490776062 2.53740072250366 2.66287279129028 2.79261374473572 2.76710724830627 2.8102662563324 2.97902917861938 3.12957954406738 3.21797919273376 3.46123242378235 3.7117977142334 3.99479246139526 4.22396516799927 4.55303430557251 4.74281311035156 4.91886043548584 5.13238477706909 5.19589519500732 5.31830167770386 5.31426906585693 5.49668836593628 5.65964460372925 5.85391092300415 6.14000701904297 6.23451375961304 6.35010814666748 6.37291622161865 6.47432804107666 6.59222173690796 6.80812072753906 6.95884370803833 7.07900047302246 7.14249515533447 7.19236898422241 7.06129693984985 6.96544313430786 6.75868797302246 6.71392250061035 6.92589330673218 7.40623044967651 7.63260316848755 7.66457509994507 7.9058985710144 7.92631006240845 8.26461505889893 8.09397411346436 7.11597919464111 4.5972318649292 2.9132559299469 2.49111175537109 1.9548499584198 1.45010375976562 1.04741990566254 0.787177562713623 0.632479548454285 0.566373646259308 0.491697758436203 0.435478508472443 0.462569832801819 0.479418367147446 0.457506418228149 0.560070216655731 0.706479012966156
1.53904163837433 1.60940206050873 1.6698842048645 1.65991318225861 1.61840200424194 1.58984434604645 1.53880476951599 1.51405310630798 1.44388568401337 1.49229311943054 1.64855432510376 1.85832738876343 2.12824106216431 2.45503330230713 2.84570598602295 3.07672953605652 3.78415656089783 4.87658309936523 5.67313051223755 7.42833042144775 9.00094985961914 8.6505012512207 4.22160148620605 2.46808385848999 2.18586325645447 2.4101619720459 2.70011925697327 3.17382454872131 1.59891819953918 2.18865299224854 2.77199935913086 2.65368700027466 1.32098388671875 1.37206280231476 1.56468236446381 1.83994996547699 2.37629437446594 2.74738669395447 2.0240170955658 1.95086765289307 2.0034396648407 2.0216953754425 2.00749635696411 2.01237034797668 1.99633741378784 1.98450708389282 1.83622777462006 1.56640779972076 1.68093621730804 1.95863330364227 2.34021902084351 2.6329939365387 3.02360391616821 3.59685015678406 5.30375099182129 5.86161613464355 8.04892635345459 9.07093715667725 10.3639402389526 11.0771188735962 9.77953815460205 3.81693315505981 2.37966918945312 0.177100405097008 0.762069046497345 1.44591581821442 1.97262275218964 2.50379610061646 2.87365198135376 3.37159466743469 3.6160843372345 3.82859206199646 4.04110479354858 4.1606616973877 4.29040431976318 4.44551134109497 4.68212652206421 4.80306243896484 4.86326026916504 4.89278745651245 4.89868783950806 4.9264087677002 4.90482425689697 5.06023120880127 5.13173007965088 5.20963764190674 5.265784740448 5.23048639297485 5.1007137298584 4.68439817428589 3.81357955932617 2.75999426841736 2.38910675048828 2.40345692634583 2.42988324165344 2.31700801849365 2.27420997619629 2.29646444320679 2.36826348304749 2.42990040779114 2.52876400947571 2.77250456809998 2.97191834449768 3.20017266273499 3.49282145500183 10.0470170974731 2.89432978630066 2.59834551811218 2.47096967697144 2.49894762039185 2.6323127746582 2.67979431152344 2.93713855743408 2.82053685188293 2.93795275688171 3.03484559059143 3.1396222114563 3.33576583862305 3.48154091835022 3.58439230918884 3.83458495140076 4.09364175796509 4.37595272064209 4.51943445205688 4.81323909759521 4.99477100372314 5.17535972595215 5.41078090667725 5.47905874252319 5.61463975906372 5.62898349761963 5.8200044631958 6.01194429397583 6.21212196350098 6.52846384048462 6.62348890304565 6.84491395950317 7.01632833480835 7.0581202507019 7.10601425170898 7.28165912628174 7.50175380706787 7.68964242935181 7.76217937469482 7.78707122802734 7.63808298110962 7.58401536941528 7.38258218765259 7.34494352340698 7.55368852615356 8.1254711151123 8.35777473449707 8.49700164794922 8.69717502593994 8.7701940536499 9.1186695098877 9.00167465209961 8.01740074157715 5.18586587905884 4.0243034362793 2.71440362930298 2.14275574684143 1.56708943843842 1.14588749408722 0.873517096042633 0.70786839723587 0.597878396511078 0.52761834859848 0.516561090946198 0.533883333206177 0.537171483039856 0.577844500541687 0.73350715637207
1.60743224620819 1.66273188591003 1.71425330638885 1.75377094745636 1.75441670417786 1.73702609539032 1.65826916694641 1.57444655895233 1.5671181678772 1.63356125354767 1.7225536108017 1.66262769699097 1.88759136199951 2.16753554344177 2.57721209526062 3.01297116279602 3.25148034095764 3.84313058853149 4.2000789642334 6.75379419326782 8.86149311065674 12.1955032348633 2.86730885505676 1.61183869838715 2.49033427238464 2.36727833747864 3.03420376777649 2.86086273193359 1.61386227607727 1.63005292415619 2.63899755477905 2.50507998466492 2.36320495605469 2.01853585243225 1.72742331027985 1.60615181922913 1.86368548870087 2.12390446662903 2.1460268497467 2.0436851978302 1.99301433563232 2.04702830314636 2.07504773139954 2.0604088306427 2.10324335098267 2.15820407867432 2.09373545646667 1.96139526367188 1.88715732097626 2.13466882705688 2.34062695503235 2.76721453666687 3.04806280136108 3.54430055618286 4.23524141311646 4.78775501251221 7.00331878662109 10.0567255020142 11.6487302780151 13.317346572876 9.07456016540527 1.47816050052643 -0.371086269617081 0.116678841412067 0.820936381816864 1.61778771877289 2.24301290512085 2.81519556045532 3.25780129432678 3.73688149452209 3.98828315734863 4.08792638778687 4.25516176223755 4.31884670257568 4.41140365600586 4.56892490386963 4.83933591842651 4.97905683517456 5.01963138580322 5.00769329071045 5.03868389129639 5.05004215240479 5.07977437973022 5.05333948135376 5.25267457962036 5.3313136100769 5.41028451919556 5.46467685699463 5.51036024093628 5.38695383071899 5.004714012146 4.07876110076904 3.26675939559937 2.78301405906677 2.74586343765259 2.77037239074707 2.76211094856262 2.76099038124084 2.81728982925415 2.96512532234192 3.03116583824158 3.17293500900269 3.30475187301636 3.40564036369324 3.53673839569092 3.66756081581116 3.2357017993927 3.07895016670227 3.15265989303589 3.23648262023926 3.10687780380249 3.14177823066711 3.05894994735718 3.15268635749817 3.07180714607239 3.27502131462097 3.38493967056274 3.49411725997925 3.72919583320618 3.96388959884644 4.1048321723938 4.22691297531128 4.46163177490234 4.67968463897705 4.75914287567139 5.06017971038818 5.26464939117432 5.45177793502808 5.69977521896362 5.79684400558472 5.93788528442383 5.97137308120728 6.17042684555054 6.39508962631226 6.60384559631348 6.96222686767578 7.21655654907227 7.38161277770996 7.53613662719727 7.56595420837402 7.61264133453369 7.78111410140991 8.08378314971924 8.33158779144287 8.41106700897217 8.44320392608643 8.30815315246582 8.31455993652344 8.16946411132812 8.06729793548584 8.29321479797363 8.98739719390869 9.19570350646973 9.37204837799072 9.62421131134033 9.80567455291748 10.1668148040771 10.188645362854 9.2534875869751 9.32349586486816 6.67248249053955 3.50769329071045 2.36934471130371 1.80177330970764 1.28042268753052 0.959741592407227 0.762571454048157 0.626497626304626 0.575543224811554 0.583016395568848 0.61153769493103 0.662100315093994 0.752203106880188
1.62283611297607 1.67584669589996 1.73794722557068 1.82462525367737 1.8998304605484 1.94752132892609 1.83739352226257 1.69842576980591 1.71468353271484 1.91576766967773 1.68359327316284 1.51065123081207 1.66766107082367 1.91948294639587 2.26743197441101 2.70391654968262 3.22470784187317 3.44290399551392 3.34090447425842 4.398268699646 8.27770233154297 12.0851888656616 1.08671033382416 1.0352668762207 1.87549364566803 3.0129930973053 2.84249758720398 2.54808664321899 1.82720875740051 1.52238929271698 1.79223811626434 2.19804692268372 2.52454829216003 2.77745389938354 3.24834561347961 2.0914032459259 1.69140386581421 1.9054753780365 2.18254280090332 2.23145389556885 2.13222908973694 2.05021500587463 2.12288498878479 2.15515732765198 2.20479726791382 2.2410671710968 2.27526211738586 2.21662259101868 2.11205410957336 2.30964708328247 2.53720545768738 2.73145222663879 3.27091193199158 3.72843837738037 4.15410661697388 4.64372634887695 5.82371091842651 8.46244621276855 12.5326681137085 14.5276756286621 8.13462352752686 -0.63537985086441 -0.281289875507355 0.210532546043396 1.01842975616455 2.00997924804688 2.91720175743103 3.38387584686279 3.64719867706299 3.80237984657288 4.02321147918701 4.1644926071167 4.26793432235718 4.38440227508545 4.47930097579956 4.63660192489624 4.87643241882324 5.03900861740112 5.12132978439331 5.17432594299316 5.16350221633911 5.19265842437744 5.21350622177124 5.23670244216919 5.23814105987549 5.46890163421631 5.61044263839722 5.68352270126343 5.73516321182251 5.77152109146118 5.46010828018188 5.03981304168701 4.36938238143921 3.62873506546021 3.01703119277954 3.08870100975037 3.20544004440308 3.23363423347473 3.27861738204956 3.40585684776306 3.4645574092865 3.38432884216309 3.40857100486755 3.46345114707947 3.5313184261322 3.66413903236389 3.84354543685913 3.92570757865906 3.8464207649231 3.66384768486023 3.54843235015869 3.49230527877808 3.5496666431427 3.38722276687622 3.51075172424316 3.4582884311676 3.67651534080505 3.92266917228699 4.0282883644104 4.1467661857605 4.36967897415161 4.47714900970459 4.59282112121582 4.7638840675354 4.93430423736572 5.00785064697266 5.33074378967285 5.55588102340698 5.741051197052 6.02944183349609 6.14238834381104 6.28889274597168 6.3503475189209 6.56159687042236 6.82287883758545 7.07432460784912 7.30190992355347 7.75321912765503 7.9596586227417 8.13548851013184 8.16711139678955 8.21371078491211 8.39328098297119 8.70315170288086 9.03436088562012 9.16793918609619 9.18632698059082 9.13065624237061 9.19017505645752 9.15160179138184 8.98516178131104 9.21575546264648 9.98740005493164 10.1094636917114 10.397421836853 10.6985483169556 11.0142345428467 11.4267206192017 11.6304960250854 12.3715963363647 11.8502950668335 8.22146224975586 4.3123459815979 2.66772985458374 1.99210011959076 1.40619683265686 1.03510713577271 0.820768356323242 0.663584113121033 0.634280204772949 0.658415377140045 0.722411334514618 0.817702054977417
1.61579370498657 1.68494701385498 1.74736595153809 1.86325073242188 1.95798695087433 2.01879405975342 1.98693597316742 1.86351203918457 1.71288013458252 1.79814386367798 1.52255833148956 1.43371295928955 1.61485254764557 1.73836624622345 2.02607011795044 2.43827486038208 2.9784836769104 3.30028104782104 3.18377208709717 3.57621645927429 5.30412530899048 10.1092376708984 2.472088098526 0.910168290138245 1.1279091835022 2.35565853118896 1.81632399559021 1.1182267665863 1.44028174877167 1.08970153331757 1.13044416904449 1.25464868545532 2.36618232727051 2.85760712623596 3.79938507080078 4.05912065505981 2.58758807182312 1.73958075046539 2.00655484199524 2.32265520095825 2.30264925956726 2.16700983047485 2.12815308570862 2.2143566608429 2.29159903526306 2.331374168396 2.34758234024048 2.40866470336914 2.39884185791016 2.87038040161133 3.08547592163086 3.19317626953125 3.35882806777954 3.51481246948242 4.31903553009033 5.0151801109314 5.48791074752808 7.18631267547607 11.2698936462402 13.9734210968018 6.57108497619629 -0.630198776721954 -0.0547873973846436 0.646546483039856 1.71471261978149 2.37021636962891 3.11635851860046 3.59271597862244 3.7674252986908 3.90353870391846 4.02485036849976 4.14792633056641 4.28972721099854 4.39731454849243 4.51879405975342 4.60465860366821 4.78437328338623 5.01870489120483 5.19024467468262 5.28208541870117 5.32881641387939 5.33434915542603 5.3657374382019 5.38483905792236 5.41397428512573 5.4518723487854 5.65101718902588 5.85439252853394 5.91757106781006 5.98035717010498 5.98686361312866 5.69593667984009 5.37951898574829 4.74342250823975 4.07601261138916 3.42346096038818 3.53333687782288 3.66858506202698 3.66774153709412 3.70154809951782 3.66712880134583 3.61488723754883 3.50801944732666 3.51248168945312 3.56825757026672 3.64020562171936 3.79076814651489 4.0301947593689 4.17095375061035 3.93622326850891 3.82451152801514 4.0115213394165 3.91450643539429 3.93283772468567 3.73125123977661 3.91319274902344 4.04359245300293 4.09150362014771 4.36430072784424 4.44283294677734 4.5356650352478 4.74564409255981 4.83356904983521 4.90806865692139 5.02156019210815 5.19643688201904 5.29263257980347 5.62412071228027 5.87037038803101 6.06869173049927 6.38389682769775 6.53048181533813 6.68952608108521 6.83288097381592 7.01514434814453 7.23709487915039 7.57944107055664 7.88422298431396 8.36202049255371 8.62611198425293 8.81597232818604 8.85448932647705 8.9104118347168 9.07317543029785 9.41869449615479 9.82645893096924 10.0431709289551 9.96642303466797 9.9712963104248 10.0458402633667 10.1026048660278 9.84328174591064 10.1445407867432 10.9659471511841 11.1969747543335 11.7114496231079 12.0124101638794 12.5742235183716 13.0245952606201 14.3254175186157 15.224160194397 15.1236200332642 10.8899793624878 5.68768548965454 3.12984371185303 2.43136358261108 1.83359861373901 1.39659428596497 1.09356987476349 0.893803358078003 0.682706356048584 0.73774129152298 0.779828190803528
1.60887336730957 1.68157160282135 1.76594710350037 1.8753342628479 1.98508453369141 2.02636790275574 2.06417894363403 2.0206401348114 1.877885222435 1.71482336521149 1.57748186588287 1.54180681705475 1.72012484073639 1.83962762355804 1.95164978504181 2.18712162971497 2.51448965072632 2.88919568061829 2.79573655128479 3.4486141204834 3.94359302520752 5.63328742980957 2.06138062477112 0.705165088176727 1.05593693256378 1.88703382015228 1.15829122066498 1.12742459774017 1.09089136123657 1.05449640750885 1.11025023460388 1.14605057239532 1.30647277832031 2.20771408081055 3.60088515281677 5.06266641616821 5.24158716201782 3.60763669013977 1.81362807750702 2.0370922088623 2.36671137809753 2.47555232048035 2.58624267578125 2.4539430141449 2.26711225509644 2.39020776748657 2.46093821525574 2.49786138534546 2.60090446472168 2.88470578193665 3.47110271453857 3.58446621894836 3.71438312530518 3.79104709625244 4.3999285697937 5.08013486862183 6.07558250427246 6.24285650253296 9.04300403594971 8.45982360839844 -0.624253273010254 -0.545628428459167 0.213419064879417 0.961673200130463 1.8602032661438 2.51361441612244 3.18525147438049 3.725417137146 3.87983202934265 3.93969511985779 4.0218939781189 4.15107250213623 4.27714157104492 4.41864824295044 4.52993726730347 4.65713357925415 4.75021362304688 4.93025064468384 5.17938375473022 5.3541522026062 5.456618309021 5.50498008728027 5.51220989227295 5.54575872421265 5.5699634552002 5.6032075881958 5.64324235916138 5.82256603240967 6.09787702560425 6.17411804199219 6.2495903968811 6.2790060043335 6.12621831893921 5.94279336929321 5.45950889587402 4.72799205780029 3.8004195690155 3.90352630615234 3.93736743927002 3.85337352752686 3.84908056259155 3.80634951591492 3.75157332420349 3.64191246032715 3.62533926963806 3.69006657600403 3.77112603187561 3.91861581802368 4.16798877716064 4.33282470703125 4.30113363265991 4.40859985351562 4.39605951309204 4.22050380706787 4.29698085784912 4.35853338241577 4.23808765411377 4.50808143615723 4.53671503067017 4.77469396591187 4.84057331085205 4.90633296966553 5.12810707092285 5.14442586898804 5.18702507019043 5.29050636291504 5.48690271377563 5.59924221038818 5.94198179244995 6.21784162521362 6.42028284072876 6.78879594802856 6.96857166290283 7.187659740448 7.36489534378052 7.50965356826782 7.75095987319946 8.15194988250732 8.51803874969482 9.02960968017578 9.42222118377686 9.58577060699463 9.61117172241211 9.64928436279297 9.85810470581055 10.2251415252686 10.7629680633545 11.1147193908691 10.9838066101074 11.0664768218994 11.1495780944824 11.4167146682739 11.1766309738159 11.4888525009155 12.3847503662109 12.7857837677002 13.2928705215454 14.0849943161011 14.9298543930054 15.9915409088135 17.4977645874023 20.0225067138672 21.3429775238037 15.713773727417 7.26900911331177 3.41692447662354 3.04924726486206 2.45132040977478 1.88784229755402 1.38926327228546 1.08745384216309 0.837029039859772 0.730411171913147
1.59175086021423 1.70098626613617 1.7514066696167 1.83016395568848 1.94161427021027 2.04486632347107 2.07729458808899 2.09438920021057 2.04110288619995 1.88855218887329 1.72290456295013 1.61871194839478 1.81271183490753 2.79546451568604 2.51206970214844 1.85062110424042 2.11711049079895 2.3663535118103 2.55113792419434 2.96310329437256 3.67448401451111 4.7445855140686 2.62603306770325 0.760165870189667 0.847900986671448 1.12717020511627 1.14607155323029 1.17969131469727 1.20175242424011 1.06840777397156 1.13212943077087 1.18606996536255 1.30242478847504 1.48049557209015 2.14554715156555 4.60428762435913 7.05382013320923 7.74173021316528 5.27692127227783 1.83442354202271 2.19623064994812 2.5697762966156 2.66557502746582 2.70927715301514 2.6093852519989 2.39908075332642 2.53427529335022 2.61281085014343 2.6752347946167 3.24973273277283 3.40966582298279 4.04949617385864 4.10850763320923 4.54276180267334 5.00172185897827 5.85122919082642 5.52520656585693 7.30593156814575 6.04999399185181 3.79318928718567 -0.417359322309494 -0.212420120835304 0.456816732883453 1.3488382101059 2.150554895401 2.71310019493103 3.24044990539551 3.82805943489075 3.95421957969666 4.00026178359985 4.06083345413208 4.15095233917236 4.27869272232056 4.41356754302979 4.56432580947876 4.67088794708252 4.80704593658447 4.9040994644165 5.08688306808472 5.34496068954468 5.53423118591309 5.64180994033813 5.69210720062256 5.70483303070068 5.73788166046143 5.77314329147339 5.80453729629517 5.79339265823364 6.07922172546387 6.37671804428101 6.45682621002197 6.53634405136108 6.60378122329712 6.61302947998047 6.57897901535034 6.02520704269409 5.13271284103394 4.00393390655518 4.05546379089355 4.07572364807129 3.99675178527832 4.06974744796753 3.94965219497681 3.89233946800232 3.77573847770691 3.74449753761292 3.81568241119385 3.90417146682739 4.05750799179077 4.31946992874146 4.49684762954712 4.5578761100769 4.68397235870361 4.67959070205688 4.69822549819946 4.63943290710449 4.7988076210022 4.65337991714478 4.93574333190918 4.95298767089844 5.17992782592773 5.21927118301392 5.28090524673462 5.44070482254028 5.43224954605103 5.47185945510864 5.58188915252686 5.80489253997803 5.92946863174438 6.2944130897522 6.61070489883423 6.82395315170288 7.20226955413818 7.45275211334229 7.68962955474854 7.8773455619812 8.06828308105469 8.31771469116211 8.793625831604 9.25551319122314 9.87443542480469 10.3422069549561 10.4101972579956 10.4364929199219 10.4922094345093 10.7557640075684 11.1514835357666 11.8108215332031 12.3751268386841 12.268874168396 12.3923845291138 12.5417556762695 13.0992994308472 12.7935590744019 13.416971206665 14.0819425582886 15.0309133529663 16.1862297058105 16.9779167175293 17.8824520111084 19.6876029968262 23.8379573822021 30.4176845550537 23.6390151977539 13.1238384246826 5.45964622497559 4.02057409286499 3.64933085441589 2.86702942848206 2.21991038322449 1.59755563735962 1.23615944385529 1.01690971851349
1.61877644062042 1.71039569377899 1.76358103752136 1.81778156757355 1.89792656898499 2.0148549079895 2.17611169815063 2.09345078468323 2.11757683753967 2.0626163482666 1.91867935657501 1.76681816577911 2.20612764358521 2.82471966743469 1.86631739139557 1.54764115810394 1.72003936767578 1.95107805728912 2.14970207214355 2.66188931465149 2.88251781463623 5.07816028594971 2.94332528114319 0.923282742500305 0.898111939430237 0.993394136428833 1.16759300231934 1.22940766811371 1.35547721385956 1.35636246204376 1.20142352581024 1.28920066356659 1.38410556316376 1.42758059501648 1.49030077457428 2.81829261779785 6.58793878555298 10.2346172332764 5.85212802886963 1.36803460121155 1.84576225280762 2.25017929077148 2.36181020736694 2.75437426567078 2.88529706001282 3.16651558876038 2.83995866775513 2.67436408996582 2.76661729812622 3.10787129402161 3.57537293434143 3.77125692367554 4.871169090271 5.85966968536377 5.93317604064941 3.87592649459839 3.46538114547729 5.68019676208496 3.20338702201843 1.26429009437561 0.508435308933258 0.0222227741032839 0.557700634002686 1.57972514629364 2.36855030059814 2.9771888256073 3.43653607368469 3.79798889160156 3.97755265235901 4.07648277282715 4.12675905227661 4.1887674331665 4.28318929672241 4.4181752204895 4.56112623214722 4.71075582504272 4.82608032226562 4.97675228118896 5.06437635421753 5.25324201583862 5.53091621398926 5.72254848480225 5.84049129486084 5.8920636177063 5.91130065917969 5.94400358200073 5.98668766021729 6.02049827575684 6.01520681381226 6.36238718032837 6.68601417541504 6.76913547515869 6.85359811782837 6.93084287643433 6.97474527359009 6.96383237838745 6.38564491271973 5.40385770797729 4.29912328720093 4.19747686386108 4.22273778915405 4.21185731887817 4.2422399520874 4.17575883865356 4.09620332717896 3.92385792732239 3.92436575889587 3.94951820373535 4.04591608047485 4.21300458908081 4.48599243164062 4.6740140914917 4.76141262054443 4.89749336242676 4.92071008682251 5.06736993789673 5.01682376861572 5.18491172790527 5.02191495895386 5.33814811706543 5.37352705001831 5.58736419677734 5.57710266113281 5.60400104522705 5.74935293197632 5.73534679412842 5.79326105117798 5.88969087600708 6.13933324813843 6.2917308807373 6.6681079864502 7.00607395172119 7.23018884658813 7.5212025642395 7.96663951873779 8.25720119476318 8.48410320281982 8.70396995544434 8.97331142425537 9.51805686950684 10.0363368988037 10.7366571426392 11.3427238464355 11.3123922348022 11.4118909835815 11.5755929946899 11.8452348709106 12.1813764572144 13.056468963623 13.9397411346436 13.7763195037842 14.366325378418 14.663950920105 15.9324283599854 16.7021980285645 16.386360168457 16.6635074615479 18.2391986846924 19.3572101593018 20.8713722229004 23.5648975372314 26.5308246612549 26.0282096862793 18.9236278533936 13.1874561309814 5.27581977844238 3.62001514434814 4.20475769042969 3.95905613899231 3.21804881095886 2.46425938606262 1.78252065181732 1.44696176052094
1.65893375873566 1.73152351379395 1.7739669084549 1.83750212192535 1.9073783159256 2.01798319816589 2.1010377407074 2.07740092277527 2.11883544921875 2.15491342544556 2.10900902748108 2.07480883598328 2.20839428901672 1.73419225215912 1.82778763771057 1.45532417297363 1.56163573265076 1.58625817298889 1.74347913265228 2.18076086044312 2.34209060668945 3.53121948242188 2.4970588684082 0.98698216676712 0.974114060401917 0.9944708943367 1.07160878181458 1.2960969209671 1.40192484855652 1.5088951587677 1.49510824680328 1.35165226459503 1.4221248626709 1.47500813007355 1.56026577949524 1.63235712051392 4.58037757873535 7.5357027053833 2.10457801818848 1.15940761566162 1.29413378238678 1.65336275100708 2.04040718078613 2.41577506065369 2.96908950805664 3.80243110656738 5.96433639526367 3.73908019065857 2.82199287414551 2.77854919433594 3.13011336326599 4.09952545166016 5.53632640838623 6.64024591445923 4.17629241943359 3.3964536190033 3.86384963989258 3.48200654983521 1.32934784889221 0.790382921695709 0.917820155620575 0.164090156555176 0.620087683200836 1.68650114536285 2.50245594978333 3.13240718841553 3.59204292297363 3.81747174263 3.94765186309814 4.10944747924805 4.2044734954834 4.25910615921021 4.32353591918945 4.42757272720337 4.56310415267944 4.71619558334351 4.87464332580566 4.99136209487915 5.1524224281311 5.24170589447021 5.44000339508057 5.72621488571167 5.92206478118896 6.04973363876343 6.09933948516846 6.12861108779907 6.16035556793213 6.21750545501709 6.25469160079956 6.34362840652466 6.6665096282959 7.02534008026123 7.11395978927612 7.20229053497314 7.30997705459595 7.3462290763855 7.36802673339844 6.77294921875 6.67518377304077 5.89805030822754 4.35469913482666 4.38108015060425 4.39250135421753 4.43538856506348 4.41076183319092 4.36121702194214 4.29713773727417 4.17097520828247 4.09600639343262 4.20359039306641 4.38416051864624 4.66679716110229 4.87749052047729 4.98659229278564 5.08186435699463 5.24137830734253 5.42310094833374 5.36879730224609 5.55513572692871 5.405837059021 5.75651025772095 5.77960777282715 5.96407318115234 5.89708518981934 5.93785667419434 6.08414888381958 6.04852151870728 6.12005805969238 6.22817277908325 6.50830745697021 6.67535448074341 7.05834197998047 7.27676916122437 7.7094669342041 8.06508255004883 8.53039836883545 8.89591503143311 9.1902494430542 9.38186073303223 9.60802364349365 10.2108507156372 10.8330154418945 11.7422561645508 12.4911041259766 13.3425397872925 13.6825866699219 13.0439796447754 13.7393102645874 14.4287538528442 14.7938232421875 15.5465822219849 17.2155208587646 17.4074153900146 17.6625747680664 19.0657520294189 19.8135814666748 20.1967029571533 20.5452041625977 21.6814861297607 22.9789218902588 23.9764156341553 26.3642444610596 21.0334663391113 17.1954536437988 13.6757965087891 4.17055606842041 -0.140572175383568 4.14592695236206 4.60274600982666 4.18597078323364 3.27898979187012 2.72968292236328 1.8713686466217
1.67654287815094 1.75053608417511 1.79540979862213 1.85725653171539 1.9485627412796 2.68638038635254 2.04909610748291 2.07029223442078 2.12269854545593 2.17189311981201 2.2182719707489 2.14372110366821 1.96490490436554 1.78727436065674 1.64417850971222 1.59165906906128 1.55268919467926 1.42588067054749 1.4967759847641 1.77734339237213 2.11734962463379 2.20700526237488 1.95054030418396 1.01073706150055 1.01312696933746 1.05897390842438 1.11186349391937 1.24068784713745 1.41405463218689 1.56998932361603 1.68362212181091 1.67884457111359 1.70280516147614 1.54249060153961 1.61766529083252 1.71694850921631 2.01801681518555 3.09589505195618 0.574977457523346 0.411231517791748 0.466525703668594 1.23121178150177 1.7206768989563 2.12864708900452 2.58272504806519 3.18709564208984 4.72046709060669 2.80559253692627 2.51887464523315 2.70983147621155 2.98781275749207 4.31489372253418 5.38267850875854 3.22342491149902 2.25049686431885 2.12811470031738 2.22094225883484 1.41751337051392 1.85469341278076 1.65937864780426 0.810384809970856 0.291298508644104 0.639735221862793 1.63418614864349 2.63276982307434 3.27139735221863 3.70213723182678 3.87415385246277 3.94247674942017 4.07451629638672 4.24112415313721 4.3389949798584 4.40025758743286 4.467613697052 4.5772271156311 4.72109699249268 4.88775396347046 5.05023050308228 5.17515182495117 5.35221242904663 5.43493938446045 5.63848114013672 5.93287229537964 6.13573932647705 6.2729549407959 6.32542419433594 6.36605072021484 6.42618131637573 6.49605417251587 6.61535930633545 6.64487028121948 7.01401519775391 7.40113353729248 7.48957872390747 7.58660697937012 7.72137212753296 7.76168584823608 7.81013870239258 7.40617942810059 7.46585369110107 6.33097219467163 4.52259969711304 4.54858160018921 4.58981704711914 4.64544916152954 4.60312604904175 4.55086755752563 4.48604154586792 4.35576200485229 4.26003217697144 4.37064981460571 4.56374979019165 4.86094760894775 4.96622228622437 5.20309734344482 5.3134298324585 5.48282527923584 5.68730163574219 5.65417671203613 5.90132522583008 5.77703475952148 6.14309883117676 6.17616128921509 6.33232307434082 6.23082542419434 6.27997541427612 6.42319393157959 6.40176868438721 6.47598218917847 6.58525705337524 6.89636373519897 7.10147380828857 7.29945755004883 7.70643186569214 8.19265937805176 8.60567760467529 9.11984348297119 9.52787113189697 9.8562536239624 10.0221920013428 10.273998260498 10.9238538742065 11.675256729126 12.9875440597534 14.1403932571411 15.5458126068115 16.1045989990234 15.4994344711304 15.9633150100708 16.8603782653809 17.2550220489502 18.7304077148438 20.4136085510254 20.7979946136475 20.9935970306396 23.0838527679443 25.1559772491455 26.4044055938721 26.534366607666 23.154447555542 24.6932754516602 24.0330181121826 17.7852191925049 17.3589344024658 13.1574735641479 -0.56988263130188 -1.88309752941132 1.78472089767456 4.4754810333252 5.01548671722412 4.65813970565796 3.69873929023743 2.75718760490417
1.74412512779236 1.79823708534241 1.82215702533722 1.88710129261017 2.00940942764282 2.05768990516663 2.04917311668396 2.06330585479736 2.0995945930481 2.17436027526855 2.20843100547791 2.23123812675476 2.17792510986328 2.00788927078247 1.82480502128601 1.71705567836761 1.61238241195679 1.5625786781311 1.44873797893524 1.61626553535461 1.78667986392975 1.61798357963562 1.09020531177521 1.07015109062195 1.13289523124695 1.16727554798126 1.20114314556122 1.26853859424591 1.35107314586639 1.51404750347137 1.77930188179016 1.88417375087738 1.92840468883514 1.88501286506653 1.71052491664886 1.80743408203125 1.85138845443726 1.66810524463654 1.33845269680023 0.748450994491577 0.501937329769135 0.617542624473572 1.3354229927063 1.81832659244537 2.28490543365479 2.77199411392212 3.21705317497253 3.03366637229919 3.07934045791626 2.78286933898926 2.81549382209778 3.96331000328064 3.12767696380615 2.61280417442322 2.6170825958252 2.51856637001038 2.16797280311584 1.66764163970947 1.56097042560577 3.26810073852539 1.66181075572968 0.813034057617188 0.70647007226944 1.42044281959534 2.6215443611145 3.39293694496155 3.77356219291687 3.88281536102295 3.98682188987732 4.06693506240845 4.20108652114868 4.38404273986816 4.4841194152832 4.55309581756592 4.62120151519775 4.74252414703369 4.88862037658691 5.06792688369751 5.23899507522583 5.36879253387451 5.55810403823853 5.64443016052246 5.84787082672119 6.15297698974609 6.36256265640259 6.51484203338623 6.57041501998901 6.68539619445801 6.77359580993652 6.81076383590698 6.89569997787476 6.95185661315918 7.39537954330444 7.82835578918457 7.91074800491333 8.00993633270264 8.1757230758667 8.23305320739746 8.49260139465332 8.61157035827637 8.00943470001221 6.82528686523438 4.73916339874268 4.80761289596558 4.83790731430054 4.87647485733032 4.81106090545654 4.75860404968262 4.6913914680481 4.55258846282959 4.46024179458618 4.54741954803467 4.72382402420044 4.864098072052 5.17848539352417 5.43322467803955 5.56034660339355 5.72963571548462 5.96016407012939 5.94790744781494 6.21013641357422 6.11041879653931 6.50906419754028 6.56045150756836 6.70126056671143 6.59690141677856 6.66046380996704 6.77984142303467 6.73799228668213 6.84442663192749 7.06387710571289 7.14921474456787 7.46983051300049 7.6864800453186 8.11576366424561 8.63705825805664 9.130859375 9.73117351531982 10.1308326721191 10.5167713165283 10.6549234390259 11.0151472091675 11.7294664382935 12.6271600723267 14.0434789657593 16.3371295928955 18.9208145141602 19.4377994537354 18.7540054321289 19.8355560302734 22.8676433563232 24.3231925964355 23.393726348877 24.6017360687256 26.3610420227051 26.3082675933838 24.3215408325195 22.187744140625 21.0923328399658 19.5625419616699 24.6409873962402 20.5283679962158 15.7910442352295 13.7709827423096 6.42451286315918 -2.59144258499146 -2.23518395423889 -1.38051724433899 3.18713283538818 4.96076822280884 5.82040023803711 4.41874408721924 2.73567748069763
1.82583212852478 1.88100039958954 1.91360008716583 2.30174231529236 3.10801076889038 2.02813315391541 2.07082486152649 2.08872723579407 2.10995984077454 2.14353108406067 2.1745080947876 2.24730944633484 2.28190970420837 2.22079229354858 2.03881525993347 1.9414496421814 1.78379857540131 1.6507271528244 1.57953929901123 1.4332594871521 1.26284074783325 1.16503834724426 1.07691586017609 1.09647369384766 1.17785036563873 1.23033106327057 1.27068293094635 1.30856108665466 1.35267472267151 1.43582510948181 1.62163126468658 1.68525075912476 2.06998372077942 2.13011789321899 2.12861704826355 1.90778362751007 1.94605803489685 1.91069555282593 1.67703628540039 1.46883428096771 0.913144409656525 1.06600022315979 0.992659389972687 1.6754264831543 1.99153184890747 2.45476603507996 2.81683301925659 3.23057270050049 3.42772698402405 3.37174415588379 3.00998830795288 2.83481907844543 2.73355865478516 2.68689751625061 2.71486210823059 2.72110939025879 2.56254363059998 2.31009960174561 1.79338848590851 2.4853835105896 1.89004421234131 1.16565501689911 0.92407613992691 1.31578624248505 2.48854565620422 3.28485727310181 3.77376556396484 3.90353989601135 3.99829292297363 4.11883401870728 4.19850492477417 4.33627033233643 4.53501033782959 4.6403751373291 4.71658086776733 4.78449249267578 4.91061925888062 5.06351137161255 5.25529909133911 5.4386510848999 5.57453298568726 5.78266763687134 5.90679025650024 6.07108068466187 6.393630027771 6.60588693618774 6.77108716964722 6.9218955039978 6.99401569366455 7.06451606750488 7.09979343414307 7.20610475540161 7.32263660430908 7.81376695632935 8.29984283447266 8.39849853515625 8.50326538085938 8.72718524932861 9.01944923400879 9.10179615020752 9.22926712036133 8.63197708129883 7.40390014648438 5.07916355133057 5.01306486129761 5.0460991859436 5.13106489181519 5.03853464126587 4.98354005813599 4.91192102432251 4.7690691947937 4.6822714805603 4.69777059555054 4.84533309936523 5.08312797546387 5.40802097320557 5.6859769821167 5.83304738998413 6.01856660842896 6.26909875869751 6.2675085067749 6.55008697509766 6.47059869766235 6.87599849700928 6.92383003234863 7.07052993774414 7.03912448883057 7.07815456390381 7.23652172088623 7.37271356582642 7.2765326499939 7.39552164077759 7.45091104507446 7.8163104057312 8.09082221984863 8.53023147583008 9.12588596343994 9.69028854370117 10.3382692337036 10.7407112121582 11.2164268493652 11.3866424560547 11.9309530258179 12.6831378936768 13.833779335022 15.1536159515381 19.6480674743652 23.9218940734863 29.2317905426025 28.1801204681396 25.2597122192383 21.5041408538818 21.4286231994629 26.9209785461426 29.1616344451904 24.9690971374512 21.3472213745117 21.3314151763916 21.058422088623 16.0655555725098 17.1988563537598 16.3283348083496 10.954140663147 5.24826335906982 -2.56535792350769 -2.69780206680298 -2.28690361976624 -1.64298641681671 -0.00693541066721082 1.7197163105011 5.46165657043457 4.17195892333984 0.778128385543823
1.89753007888794 1.91685748100281 2.21178936958313 3.34179711341858 1.94252383708954 1.98481905460358 2.06612324714661 2.09944581985474 2.12172532081604 2.15990328788757 2.18892312049866 2.23639678955078 2.27801370620728 2.32006669044495 2.25279259681702 2.23089456558228 2.04164791107178 1.83390665054321 1.66397213935852 1.5861177444458 1.43444776535034 1.26812589168549 1.17513501644135 1.09017586708069 1.16968262195587 1.2756552696228 1.32780253887177 1.35480487346649 1.36661672592163 1.42723035812378 1.54292690753937 1.71042835712433 1.72387158870697 2.22609186172485 2.30119633674622 2.32596397399902 2.08117151260376 2.09810900688171 2.0201530456543 1.82622015476227 1.82653117179871 1.59973096847534 2.01827001571655 1.68806052207947 1.89828372001648 2.11393928527832 2.5187246799469 2.95587563514709 3.58348751068115 3.81774258613586 3.93830919265747 3.24630808830261 2.94108366966248 2.91179919242859 2.86989808082581 2.78061199188232 2.83341145515442 2.84892916679382 2.51321363449097 1.91445076465607 1.56196665763855 1.33738613128662 1.31892073154449 1.36193084716797 2.34257507324219 3.09588599205017 3.63324117660522 3.89437007904053 4.02619791030884 4.12544822692871 4.25244379043579 4.33918762207031 4.48582553863525 4.69886541366577 4.80600309371948 4.88682985305786 4.94787740707397 5.08321332931519 5.24846267700195 5.4654712677002 5.65759420394897 5.79963636398315 5.9246187210083 6.16126537322998 6.31656551361084 6.64936971664429 6.8676233291626 7.01521396636963 7.22500991821289 7.29390430450439 7.37652683258057 7.41851902008057 7.53785085678101 7.73677921295166 8.29146671295166 8.84428882598877 9.15986633300781 9.26247310638428 9.37206268310547 9.66962337493896 9.81380939483643 9.9455623626709 9.36403369903564 8.09243106842041 5.60874891281128 5.23355531692505 5.30256700515747 5.4040412902832 5.28450965881348 5.22591257095337 5.15077352523804 5.00017881393433 4.91956186294556 4.89179468154907 5.05603981018066 5.30691719055176 5.6606388092041 5.97034978866577 6.13627433776855 6.32975673675537 6.61259412765503 6.6307430267334 6.924476146698 6.82201290130615 7.20805644989014 7.25687170028687 7.47492647171021 7.67655754089355 7.52692604064941 7.54784345626831 7.64757108688354 7.54088258743286 7.67901229858398 7.78276443481445 8.19379329681396 8.51714038848877 8.98625183105469 9.67864513397217 10.3190088272095 11.0554628372192 11.5093412399292 12.1778831481934 12.658148765564 13.2174348831177 13.8357877731323 14.8371133804321 16.9865608215332 25.5245780944824 27.132230758667 21.6854476928711 18.0118713378906 19.4774188995361 18.8685684204102 18.1123275756836 20.9422092437744 22.7354927062988 17.9699287414551 18.0071544647217 13.0069932937622 7.5333104133606 9.37513160705566 9.07486152648926 1.78771233558655 -2.03349828720093 -2.48864388465881 -2.51543021202087 -1.80846083164215 -0.375202268362045 -0.194573253393173 -0.0735616758465767 -0.769430756568909 -0.862203299999237 -0.591255843639374
1.8987877368927 1.95170617103577 2.38207983970642 1.94600892066956 1.94039273262024 1.95751118659973 2.04012870788574 2.10949635505676 2.15986227989197 2.17965769767761 2.20152020454407 2.23412847518921 2.28476786613464 2.33245015144348 2.37196207046509 2.33889222145081 2.27151989936829 2.07578873634338 1.85669839382172 1.67754113674164 1.60237634181976 1.46369075775146 1.28803133964539 1.21846425533295 1.15804541110992 1.2434595823288 1.33696675300598 1.3917909860611 1.41914570331573 1.44717419147491 1.53120684623718 1.63374876976013 1.79346346855164 1.8647677898407 2.42218852043152 2.50599932670593 2.54562044143677 2.25360512733459 2.24033546447754 2.14373850822449 1.89942300319672 2.03536891937256 2.03339815139771 2.55442070960999 2.80390191078186 2.14548492431641 2.25936555862427 2.76458644866943 3.24862408638 4.09048557281494 4.54750680923462 4.44506168365479 3.52122759819031 3.31179809570312 3.08067798614502 3.04288125038147 3.1158299446106 3.22986435890198 3.1164276599884 2.72291111946106 2.01315236091614 1.61347711086273 1.63000857830048 1.95162928104401 2.82476782798767 3.32007741928101 3.61056208610535 3.84147596359253 4.01718044281006 4.15698766708374 4.25643920898438 4.39297962188721 4.48646354675293 4.64512014389038 4.86904430389404 4.98234701156616 5.0653977394104 5.13172101974487 5.28696012496948 5.4651346206665 5.61542940139771 5.82911443710327 6.03480339050293 6.18544340133667 6.43862533569336 6.53684091567993 6.7500205039978 7.07905578613281 7.33324146270752 7.55486011505127 7.63083267211914 7.72275972366333 7.77294254302979 7.90683269500732 8.21974945068359 8.83469200134277 9.14651298522949 9.81719303131104 9.91712856292725 10.0730962753296 10.4169702529907 10.6413831710815 10.7789239883423 10.2251691818237 8.91905117034912 6.24973249435425 5.47765111923218 5.58957052230835 5.68981885910034 5.49869966506958 5.4828405380249 5.40458393096924 5.24821472167969 5.17624473571777 5.12156820297241 5.28350448608398 5.56732368469238 5.93132829666138 6.27186298370361 6.45705938339233 6.66080713272095 6.98800086975098 7.01921558380127 7.26612901687622 7.13303089141846 7.52765321731567 7.70778608322144 7.80351114273071 7.97647428512573 7.77983856201172 7.77112865447998 7.89785814285278 7.78410673141479 7.97949552536011 8.16212272644043 8.6166467666626 8.99781036376953 9.50144672393799 10.3112945556641 11.0616827011108 11.9570722579956 12.679801940918 13.698881149292 14.3934488296509 14.8362445831299 14.9445142745972 16.0734062194824 18.0492877960205 19.0875873565674 14.4068803787231 12.3355417251587 17.0836982727051 13.6135311126709 11.3356733322144 13.6545095443726 15.0059423446655 8.6998233795166 10.4582624435425 8.35289287567139 4.89218425750732 4.00941228866577 1.80263102054596 -2.18340706825256 -1.96141982078552 -1.69129931926727 -1.06447672843933 6.44135713577271 1.16535532474518 0.396703004837036 -0.113072156906128 0.28208926320076 -0.635561347007751 -0.699630498886108
1.85224270820618 1.97208571434021 2.63728165626526 1.94735264778137 1.94748651981354 1.98294198513031 2.01746201515198 2.09921741485596 2.15844869613647 2.20926284790039 2.21576833724976 2.26754236221313 2.28885793685913 2.33014440536499 2.37448692321777 2.35490798950195 2.38120794296265 2.31494307518005 2.1200692653656 1.88265097141266 1.69808554649353 1.63898408412933 1.49698317050934 1.33900308609009 1.34752082824707 1.22746860980988 1.30037212371826 1.39777398109436 1.45780694484711 1.49493062496185 1.53727662563324 1.6250833272934 1.67216229438782 1.75600612163544 2.03036689758301 2.65774893760681 2.73754787445068 2.77795743942261 2.43117165565491 2.4029266834259 2.30526781082153 2.24836134910583 2.62348008155823 2.48040652275085 2.60765886306763 3.36913824081421 2.85224890708923 2.57151007652283 3.11327433586121 3.71674299240112 4.7992959022522 5.43027544021606 5.97989368438721 5.60702466964722 4.36046504974365 3.32952427864075 3.38821458816528 3.43630981445312 3.50843620300293 3.44024395942688 3.04468417167664 2.41318917274475 2.14278507232666 3.04838991165161 3.85205698013306 4.1561484336853 4.5270037651062 4.71968698501587 4.65039110183716 4.14630508422852 4.2876501083374 4.3976149559021 4.5432710647583 4.64007997512817 4.81437635421753 5.0558295249939 5.16983270645142 5.26887655258179 5.38877868652344 5.46771335601807 5.64909267425537 5.82657623291016 6.08842086791992 6.31473112106323 6.47737455368042 6.73936653137207 6.84214496612549 7.03063869476318 7.39490652084351 7.67636585235596 7.9091591835022 8.00484752655029 8.09794044494629 8.17204284667969 8.31631278991699 8.7567663192749 9.14082431793213 9.81219387054443 10.584415435791 10.6954250335693 10.9275884628296 11.2943449020386 11.6212730407715 11.7786722183228 11.2650394439697 9.9337911605835 7.05674028396606 6.80632925033569 5.64318323135376 5.75336790084839 5.84464454650879 5.77497959136963 5.69846820831299 5.52918243408203 5.4706244468689 5.41357135772705 5.54046297073364 5.85203790664673 6.23537969589233 6.59856224060059 6.82106161117554 7.04540872573853 7.36961507797241 7.33785820007324 7.56550121307373 7.73632383346558 7.6155858039856 8.0341854095459 8.108811378479 8.22581672668457 8.02799320220947 8.06825828552246 8.21321296691895 8.09008312225342 8.37861633300781 8.61614799499512 9.07565307617188 9.53124046325684 10.0834531784058 11.0655193328857 12.0209627151489 13.1030473709106 13.8940553665161 15.1511135101318 16.1052722930908 16.1661148071289 16.7641925811768 17.2857818603516 18.6014232635498 11.2072620391846 9.07310962677002 11.9693193435669 11.032886505127 10.4868059158325 11.6366891860962 11.6908121109009 7.6604266166687 7.34877729415894 3.99314832687378 -0.30320405960083 -2.50700831413269 -2.8991367816925 -2.96949481964111 -1.95595693588257 -0.661803126335144 0.091231495141983 0.185555383563042 -1.21457898616791 -0.826703131198883 1.52116334438324 1.32265114784241 1.37246572971344 0.969527125358582
1.91043198108673 2.20005130767822 1.9812695980072 1.96004402637482 1.98649907112122 2.000563621521 2.01585364341736 2.05989789962769 2.1369481086731 2.20879173278809 2.25763320922852 2.28422045707703 2.32350182533264 2.33774042129517 2.34989666938782 2.36233019828796 2.38517022132874 2.42556548118591 2.36671805381775 2.15727615356445 1.90972971916199 1.73708426952362 1.68499684333801 1.57157254219055 1.7282350063324 1.56722128391266 1.40202653408051 1.36145639419556 1.47316336631775 1.541144490242 1.58785712718964 1.63084304332733 1.66843342781067 1.74868679046631 1.8310261964798 2.20961451530457 2.9065101146698 2.96968531608582 3.04236650466919 2.658766746521 2.57526326179504 2.66483020782471 2.68019413948059 3.1182005405426 3.31002855300903 3.38077592849731 4.78504753112793 4.52942895889282 2.94334602355957 3.58557891845703 4.3430757522583 5.73781776428223 6.31144428253174 7.31655597686768 6.79488134384155 5.33454418182373 3.57943534851074 3.65178513526917 3.76358079910278 3.87664818763733 3.87590050697327 3.5072283744812 3.36827707290649 4.00037479400635 4.7614598274231 5.1392674446106 5.54956722259521 6.06244945526123 6.58078002929688 6.54246616363525 4.60818099975586 4.36193180084229 4.50117540359497 4.66986274719238 4.79966497421265 4.99246740341187 5.25108098983765 5.37027788162231 5.48517799377441 5.61367273330688 5.70281839370728 5.90621662139893 6.08891105651855 6.36372089385986 6.62579870223999 6.79421854019165 7.0720043182373 7.17936325073242 7.35375165939331 7.74321985244751 8.05868911743164 8.29114246368408 8.41801643371582 8.52719402313232 8.61629962921143 8.77053356170654 9.06257820129395 9.72663879394531 10.5742788314819 11.471827507019 11.5958890914917 11.9272603988647 12.3395662307739 12.8029737472534 12.9694414138794 12.6678810119629 11.2208890914917 8.02187919616699 5.6889009475708 5.7948694229126 6.40473699569702 6.67623853683472 6.30840444564819 6.02419471740723 5.84635353088379 5.80466413497925 5.74005079269409 5.82627439498901 6.1692795753479 6.56641387939453 6.98074007034302 7.24136018753052 7.36931753158569 7.62456274032593 7.78337287902832 7.7778058052063 8.03210544586182 7.89171695709229 8.27657985687256 8.35623359680176 8.53861522674561 8.41743087768555 8.45635318756104 8.6298828125 8.53720092773438 8.85158920288086 9.11714172363281 9.60846614837646 10.2202682495117 10.8490314483643 12.0307474136353 13.1548433303833 14.1757946014404 15.0575342178345 16.4495086669922 17.6312599182129 17.0152740478516 15.9285717010498 16.5356540679932 13.8338747024536 8.96034622192383 6.70701503753662 5.36862277984619 6.32985544204712 7.42053842544556 7.13345050811768 4.78490352630615 2.54175305366516 -0.622462391853333 -3.48330473899841 -3.3231520652771 -3.04613757133484 -2.56323027610779 -1.1470023393631 0.111128702759743 1.12609124183655 0.512015104293823 -0.991681575775146 1.42225134372711 2.81072235107422 3.43464589118958 5.23254489898682 4.13566732406616
1.88520967960358 2.00447654724121 1.95632183551788 2.01179265975952 2.00833487510681 2.00672435760498 2.03156757354736 2.05693769454956 2.09544587135315 2.18087196350098 2.25006604194641 2.27835440635681 2.34340405464172 2.37636923789978 2.38283920288086 2.36309051513672 2.39198446273804 2.41980361938477 2.48219656944275 2.42239022254944 2.19626951217651 1.95894968509674 1.82193064689636 1.84776902198792 1.93464696407318 1.88668584823608 1.75976777076721 1.61807811260223 1.41852843761444 1.54089021682739 1.62082970142365 1.62637794017792 1.6944477558136 1.75166964530945 1.82953083515167 1.96039223670959 2.39161086082458 3.18219041824341 3.26359677314758 3.3618471622467 2.88516902923584 2.81337714195251 2.90827465057373 3.07360816001892 3.23834943771362 4.11846876144409 4.59579420089722 6.98090076446533 7.21606159210205 3.18951940536499 4.15259981155396 5.02423763275146 5.50519752502441 7.56681203842163 9.30026435852051 8.58074569702148 7.41272640228271 4.82008600234985 3.94302773475647 4.17016124725342 4.28227949142456 4.33333873748779 4.83046913146973 5.15754652023315 5.71444797515869 6.48136520385742 6.55121803283691 6.90208005905151 7.00599479675293 5.43759202957153 4.08717679977417 4.15775060653687 4.36412620544434 4.52941370010376 4.72913885116577 4.86759328842163 5.16146755218506 5.38745069503784 5.58894538879395 5.72079229354858 5.87088203430176 5.97141170501709 6.17762470245361 6.37534332275391 6.68151664733887 6.96274566650391 7.14934158325195 7.43624877929688 7.54980325698853 7.72610473632812 8.12473487854004 8.46844291687012 8.71692180633545 8.87423229217529 9.0168285369873 9.1129207611084 9.27468967437744 9.637131690979 10.5558862686157 11.4691619873047 12.5318574905396 12.7602529525757 13.148476600647 13.5950937271118 14.2413883209229 14.4319944381714 14.5197896957397 12.4434537887573 10.5422925949097 9.23879241943359 6.6343994140625 6.90229988098145 7.16133213043213 6.84964513778687 6.7242317199707 6.41593313217163 6.44131946563721 6.39874172210693 6.33127546310425 6.5190601348877 6.94229221343994 7.37744808197021 7.50856781005859 7.59438419342041 7.72100925445557 8.05967044830322 8.05746078491211 8.30783176422119 8.15906620025635 8.64766597747803 8.78260326385498 8.99714088439941 8.92181491851807 9.01250648498535 9.17632865905762 9.10067367553711 9.4178524017334 9.79399394989014 10.3478298187256 11.1164560317993 11.837908744812 13.1309700012207 13.5927991867065 15.4223470687866 16.4654006958008 18.0511207580566 18.9270496368408 18.697452545166 16.0177707672119 13.3132581710815 7.15326929092407 1.77898871898651 1.07026624679565 1.30409562587738 2.01862454414368 0.800012350082397 -1.69501042366028 -3.32278609275818 -3.60584926605225 -3.55376410484314 -3.33566164970398 -3.13177633285522 -1.57514524459839 0.375677496194839 2.53230547904968 2.89046812057495 2.73505091667175 1.13844561576843 2.8384120464325 5.07636833190918 6.26452302932739 5.92164134979248 0.80120986700058
1.86953234672546 1.95695340633392 2.02587032318115 1.96605288982391 2.02301621437073 2.03554749488831 2.04113268852234 2.06793332099915 2.09912896156311 2.13456702232361 2.22841596603394 2.25602889060974 2.32769179344177 2.39518976211548 2.41882658004761 2.4269003868103 2.399817943573 2.43116998672485 2.49034643173218 2.54362010955811 2.48543167114258 2.27447509765625 2.19679045677185 2.20220422744751 2.21327829360962 2.16266536712646 2.06030559539795 1.94716393947601 1.78930485248566 1.50352013111115 1.61146140098572 1.62237727642059 1.71716022491455 1.7844113111496 1.83279025554657 1.89364385604858 2.13632249832153 2.62596154212952 3.52831435203552 3.66296315193176 3.73315191268921 3.47270798683167 3.03872036933899 3.23057126998901 3.37207174301147 3.88150572776794 5.35197496414185 6.25187635421753 8.66169834136963 2.58931684494019 3.00948071479797 4.18730306625366 5.3212456703186 6.72404003143311 9.59665966033936 12.7934427261353 11.5540227890015 10.1934900283813 4.96740245819092 4.10169744491577 4.41477966308594 4.61353826522827 5.78278636932373 6.68590545654297 7.46153545379639 7.62916231155396 8.67887878417969 8.57822799682617 6.68618679046631 3.85794568061829 3.73271608352661 3.90473508834839 4.15863561630249 4.39612102508545 4.58639192581177 4.80336856842041 5.09455442428589 5.36188983917236 5.52748727798462 5.83203744888306 5.97557020187378 6.14194440841675 6.26013946533203 6.48582220077515 6.68495941162109 7.02716112136841 7.34793758392334 7.52602100372314 7.84330224990845 7.97009420394897 8.14260482788086 8.5450611114502 8.92825889587402 9.18431854248047 9.38749504089355 9.56503200531006 9.8580846786499 9.90504360198975 10.5226936340332 11.6358366012573 12.6105604171753 13.7980842590332 14.198938369751 14.6253309249878 15.1162405014038 16.0384941101074 16.1645164489746 16.1700668334961 16.9359092712402 15.7052488327026 12.895149230957 8.28485584259033 7.38883829116821 7.70512723922729 7.33999347686768 7.20687532424927 7.04466390609741 6.90424776077271 6.85936212539673 6.77728605270386 6.87596940994263 7.2624659538269 7.58425426483154 7.66147756576538 7.84666919708252 8.00051879882812 8.32816791534424 8.3364200592041 8.63021183013916 8.55889987945557 9.10626316070557 9.37410354614258 9.66032028198242 9.65731906890869 9.68654441833496 9.85008144378662 9.86117076873779 10.175895690918 10.6512441635132 11.2332601547241 12.1678066253662 12.678277015686 13.3545751571655 14.6665048599243 18.2431945800781 18.1166286468506 20.0214653015137 14.4723205566406 12.55455493927 9.7297477722168 2.26141095161438 -0.894170343875885 -2.07707452774048 -2.18502473831177 -2.30801224708557 -2.64141058921814 -3.00002884864807 -3.09371542930603 -3.26700615882874 -3.35563945770264 -2.90781712532043 -1.49710357189178 0.437594652175903 1.91525626182556 2.96497845649719 4.79259014129639 5.36552095413208 6.88393449783325 7.79679679870605 6.60094976425171 6.88892316818237 3.10272026062012 1.54440641403198
1.92379200458527 1.88608181476593 1.96765196323395 2.02921676635742 2.00880026817322 2.06259822845459 2.06857705116272 2.08496356010437 2.11121582984924 2.13820004463196 2.18552732467651 2.20473909378052 2.31349921226501 2.39275884628296 2.45795798301697 2.46422290802002 2.47533869743347 2.45335221290588 2.50048732757568 2.55868530273438 2.62995457649231 2.59305047988892 2.50916767120361 2.57710528373718 2.64066028594971 2.64563798904419 2.33702993392944 2.18120050430298 2.00705742835999 1.87719559669495 1.56557178497314 1.54907417297363 1.68206548690796 1.76380288600922 1.83492231369019 1.88427257537842 1.95665001869202 2.33163356781006 2.91931104660034 3.9483904838562 4.10947322845459 4.25228691101074 4.09349822998047 3.31768989562988 3.35589981079102 3.95115399360657 4.84064531326294 7.14923238754272 7.10817050933838 2.47607326507568 2.77559399604797 3.4065625667572 5.0445294380188 6.67131567001343 9.38108348846436 12.6156568527222 18.6706676483154 12.3571758270264 5.9835319519043 3.61881685256958 4.25743722915649 4.83036375045776 6.16734170913696 7.76727867126465 9.18382549285889 10.3669176101685 11.1960525512695 9.94234371185303 6.29572153091431 3.97244262695312 3.55404591560364 3.75519466400146 3.94525551795959 4.22709608078003 4.4901647567749 4.77999210357666 5.21069860458374 5.36537313461304 5.52648210525513 5.76628971099854 6.11500549316406 6.26149988174438 6.44767713546753 6.59033966064453 6.8217077255249 7.03583288192749 7.41101837158203 7.76898574829102 7.97044038772583 8.29188632965088 8.42657470703125 8.62781429290771 9.00784587860107 9.43797969818115 10.0338907241821 10.4340085983276 10.3521909713745 10.566237449646 10.9358568191528 11.7027044296265 12.9937000274658 14.0255765914917 15.3487997055054 15.9836778640747 16.4281520843506 17.3503131866455 17.7591743469238 17.8081531524658 18.6966037750244 21.3253917694092 19.7538318634033 16.6684055328369 10.8219518661499 7.9295015335083 8.33777618408203 7.89098834991455 7.7519736289978 7.55129337310791 7.42342662811279 7.31469774246216 7.18272924423218 7.18353414535522 7.48365831375122 7.5240306854248 7.90422391891479 8.11617279052734 8.27775287628174 8.6306734085083 8.72178936004639 9.09279441833496 9.10501480102539 9.76106929779053 10.1372661590576 10.42249584198 10.4731006622314 10.5020112991333 10.7126960754395 10.7989368438721 11.0536909103394 11.7122611999512 12.3742389678955 12.7296543121338 13.6108303070068 14.6141624450684 17.0675106048584 22.4637928009033 18.3846168518066 11.1001501083374 8.08256340026855 4.0508770942688 -1.84877359867096 -2.10046195983887 -2.03939533233643 -2.06368112564087 -2.08939290046692 -2.15605568885803 -2.34158802032471 -2.51614737510681 -2.58399748802185 -2.66359901428223 -2.21640777587891 0.450811713933945 3.79271793365479 2.81226682662964 3.81116318702698 5.49351930618286 7.72469615936279 10.8894920349121 4.66849279403687 2.204261302948 3.40672063827515 2.30884981155396 4.72111940383911
1.93002498149872 1.93234038352966 2.04158496856689 1.99870073795319 2.06901717185974 2.04087114334106 2.09796094894409 2.11501717567444 2.12068223953247 2.15519833564758 2.18658304214478 2.19877099990845 2.26303720474243 2.35193371772766 2.42842769622803 2.51455640792847 2.82950878143311 2.82777428627014 3.26315188407898 3.06120228767395 2.74730229377747 2.72540640830994 2.75664162635803 2.79143786430359 2.91511392593384 3.05502223968506 2.90785551071167 2.55027318000793 2.33803725242615 2.13023042678833 1.90453970432281 1.58508241176605 1.57999062538147 1.71663558483124 1.803990483284 1.88937079906464 1.93177270889282 2.02272582054138 2.57346248626709 3.28107714653015 4.39340686798096 4.51229047775269 4.6347827911377 4.57222890853882 3.71279740333557 3.79356670379639 4.67813634872437 6.48755407333374 7.75674295425415 2.57815742492676 2.69666123390198 2.8290159702301 3.79359316825867 6.75856304168701 8.56482982635498 12.6828441619873 12.5192747116089 2.57992768287659 1.52991557121277 2.5716872215271 3.80035424232483 4.98651170730591 6.330885887146 8.20377922058105 11.3294229507446 13.6970148086548 12.733325958252 6.88205909729004 3.1658992767334 3.20460963249207 3.36903476715088 3.56044220924377 3.83443570137024 4.05791902542114 4.39682054519653 4.86311340332031 5.24848031997681 5.39803552627563 5.60664558410645 5.78310871124268 6.05463981628418 6.42453622817993 6.57337617874146 6.78416776657104 6.94957447052002 7.19452619552612 7.41259527206421 7.83885478973389 8.24507522583008 8.44778823852539 8.7971658706665 8.93842220306396 9.24119758605957 9.5307731628418 10.1126594543457 11.3602104187012 11.9816045761108 12.6330595016479 12.8623657226562 13.5244293212891 13.3498935699463 14.9044589996338 15.8581981658936 17.06911277771 17.7477359771729 18.7871398925781 19.0525283813477 18.8502521514893 20.3759307861328 23.9348373413086 27.1442832946777 25.486047744751 23.2673187255859 14.6654396057129 8.58426570892334 9.09755611419678 8.59320163726807 8.36679077148438 8.02534198760986 7.85559606552124 7.74539375305176 7.58613920211792 7.43051767349243 7.44877576828003 7.71970558166504 8.16267204284668 8.42489719390869 8.68003940582275 9.10263156890869 9.27871513366699 9.68576908111572 9.80124282836914 10.4430513381958 10.9984874725342 11.3591432571411 11.4470434188843 11.5653266906738 12.1046733856201 12.3121061325073 12.6272354125977 12.6763877868652 13.6114912033081 14.0932331085205 14.973801612854 17.7880573272705 19.1793556213379 11.7745037078857 8.9766321182251 4.11403656005859 -1.13017642498016 -1.3362101316452 -1.82406163215637 -2.04830121994019 -1.77216720581055 -1.62894129753113 -1.44961035251617 -1.16195273399353 -0.725127041339874 -0.267673015594482 -0.675876557826996 -0.570268988609314 0.849969744682312 7.45381784439087 5.75041198730469 2.94869136810303 6.10952520370483 10.7937068939209 10.0520181655884 0.483245640993118 0.194087713956833 3.22787356376648 5.65020942687988 11.1081123352051
2.07827854156494 2.05691289901733 2.07157349586487 2.03014469146729 2.06950116157532 2.10821890830994 2.08343887329102 2.13436317443848 2.16761374473572 2.26777029037476 2.29188847541809 2.35562062263489 2.38759517669678 2.48087549209595 2.58483147621155 2.70026421546936 2.85204339027405 2.96779894828796 3.09926176071167 3.12456870079041 3.00007581710815 2.99232649803162 3.02710247039795 3.00674819946289 3.05207324028015 3.18386054039001 3.22171688079834 2.96414113044739 2.59665703773499 2.46382260322571 2.18495726585388 1.93713212013245 1.60892558097839 1.61837518215179 1.75477087497711 1.85396885871887 1.93822777271271 1.98311483860016 2.21186542510986 2.83151841163635 3.39640927314758 3.47131681442261 4.8274564743042 5.30832147598267 5.19153738021851 4.13366842269897 4.83842372894287 5.02043771743774 4.99861574172974 2.60343360900879 2.72083830833435 2.82520079612732 2.93580555915833 4.83469295501709 8.61491584777832 9.12724304199219 5.61648845672607 2.07126092910767 1.47886967658997 2.30186915397644 3.65486931800842 4.88473176956177 6.77283430099487 9.07061100006104 12.5849113464355 16.076997756958 10.4898319244385 4.82035446166992 3.97073793411255 3.07038354873657 3.24471044540405 3.40860652923584 3.66163277626038 3.97519063949585 4.30194568634033 4.85108137130737 5.22631692886353 5.4725399017334 5.64317083358765 5.85844993591309 6.05674505233765 6.35510683059692 6.75565671920776 6.92120218276978 7.15444469451904 7.35347700119019 7.60158205032349 7.85410213470459 8.30824279785156 8.77002811431885 9.08548736572266 9.37021636962891 9.71206951141357 9.90272617340088 10.1999883651733 11.4240427017212 13.0303764343262 14.3135213851929 15.5866289138794 15.871021270752 17.7993659973145 18.6830787658691 17.1280632019043 16.7238578796387 17.7324905395508 19.2921047210693 20.370512008667 20.8658084869385 20.9759197235107 25.0414276123047 31.4246063232422 33.7963714599609 36.8728637695312 34.2231178283691 20.4544353485107 10.9927177429199 9.67985439300537 9.25948905944824 8.89518451690674 8.46773815155029 8.37462902069092 8.21311283111572 7.93615865707397 7.69393253326416 7.65428495407104 7.96876525878906 8.50008964538574 8.86391544342041 9.19037055969238 9.67917728424072 9.95118713378906 10.3119115829468 10.3294277191162 11.0591993331909 11.8825550079346 12.5398721694946 13.6670799255371 13.8979930877686 13.7773151397705 13.77024269104 13.9738121032715 14.3758497238159 15.1639528274536 15.972186088562 17.1157474517822 16.1814422607422 13.591703414917 6.64580202102661 -0.994530498981476 -1.05041491985321 -1.00085687637329 -0.987092256546021 -1.35024845600128 -1.43224728107452 -0.59982967376709 -0.147429093718529 1.22764539718628 1.71242690086365 1.65800166130066 1.75836956501007 1.078000664711 1.30450105667114 1.78418052196503 -1.63006734848022 0.00453023333102465 6.15869331359863 9.73768615722656 2.30976581573486 -2.58070206642151 -2.42904210090637 4.09283685684204 11.0255908966064 11.8364934921265
2.24962449073792 2.2276599407196 2.2510712146759 2.2463550567627 2.27016305923462 2.29641890525818 2.32998204231262 2.39018535614014 2.53087854385376 2.63550209999084 2.65992307662964 2.71664357185364 2.75904059410095 2.82292795181274 2.88894104957581 2.96476244926453 3.07545781135559 3.17512655258179 3.29749631881714 3.25555801391602 3.22311592102051 3.16787695884705 3.18886661529541 3.20183181762695 3.18637228012085 3.24115753173828 3.24362730979919 3.28888893127441 3.02557063102722 2.64261436462402 2.50567626953125 2.21824288368225 1.96649873256683 1.86000752449036 1.70793533325195 1.78722584247589 1.89685213565826 1.97684144973755 2.05558609962463 2.35026693344116 2.81827902793884 2.87049508094788 3.69734454154968 5.5897479057312 6.38246393203735 7.65810203552246 4.80965995788574 3.93160939216614 5.31025886535645 2.49543309211731 2.69946146011353 2.81001543998718 2.89486360549927 2.97997975349426 5.11724996566772 2.8259105682373 2.63932657241821 2.44035792350769 2.20176982879639 2.09559226036072 3.62805104255676 5.33409833908081 6.95576095581055 9.42492294311523 13.6692571640015 16.6878070831299 8.80773830413818 5.27615165710449 5.10617208480835 4.80972719192505 3.1784565448761 3.28840827941895 3.48921203613281 3.77712392807007 4.22846746444702 4.73461246490479 5.1745777130127 5.46326065063477 5.71506547927856 5.91001653671265 6.13484859466553 6.35208702087402 6.683180809021 7.12743902206421 7.32244253158569 7.57018232345581 7.79317617416382 8.05386066436768 8.35116386413574 8.84525489807129 9.15885066986084 9.74497890472412 9.99509334564209 10.3987998962402 10.6611518859863 11.0109796524048 13.3738298416138 15.2380542755127 17.6361122131348 20.4098644256592 22.392276763916 22.9567337036133 21.8008460998535 17.527853012085 16.9958362579346 19.369701385498 21.2731876373291 22.3061466217041 22.6506366729736 23.3583278656006 31.4687080383301 36.6251068115234 32.9515380859375 22.2965145111084 4.81870412826538 6.47407102584839 8.80717849731445 10.0528440475464 9.90739440917969 9.50879096984863 9.0217342376709 8.9678201675415 8.66777801513672 8.23880767822266 8.01377010345459 7.90489530563354 8.33007049560547 8.94522285461426 9.38895797729492 9.8373851776123 10.3582849502563 10.6346311569214 10.827374458313 10.9772357940674 12.041314125061 13.1541404724121 14.4582052230835 15.6655378341675 15.6726522445679 15.9074907302856 15.9101324081421 15.8556232452393 16.3137798309326 17.5294513702393 17.51806640625 15.7104444503784 11.211407661438 1.16765332221985 -1.54918897151947 -0.878189384937286 -0.484721958637238 -0.102556087076664 0.257520854473114 0.205022215843201 -0.384288102388382 0.505199670791626 1.83959543704987 2.89168834686279 3.26263189315796 2.66234230995178 2.70044231414795 2.10288023948669 1.01122856140137 -0.746876299381256 -1.38443636894226 3.63841366767883 2.02074694633484 -2.57539176940918 -2.55609369277954 -2.33660936355591 2.66880011558533 7.86802911758423 2.48282861709595
2.38847947120667 2.41142511367798 2.44964075088501 2.52167320251465 2.57657098770142 2.59536528587341 2.62051296234131 2.72195196151733 2.84964919090271 2.93506979942322 2.9804413318634 3.02360701560974 3.055260181427 3.11894965171814 3.16968703269958 3.20300769805908 3.23777866363525 3.35175824165344 3.37733006477356 3.35760688781738 3.31498789787292 3.27951908111572 3.24559354782104 3.27845096588135 3.27390837669373 3.23799228668213 3.29736232757568 3.30430698394775 3.35070180892944 3.07617449760437 2.68209052085876 2.5465784072876 2.2606999874115 2.36365365982056 2.35071444511414 2.04099941253662 1.81122958660126 1.92304265499115 2.01558184623718 2.1635000705719 2.31668543815613 2.5999903678894 3.22824907302856 4.84283542633057 6.42086458206177 6.62553071975708 5.22530269622803 4.09445142745972 4.10018873214722 2.42566204071045 2.53075098991394 2.78790616989136 2.87803292274475 2.94074654579163 3.00190830230713 2.89692878723145 2.84840106964111 2.76916313171387 2.69929814338684 2.55548906326294 3.30149602890015 4.91080045700073 7.45679998397827 10.0145597457886 13.5077342987061 16.2525119781494 7.65493297576904 4.97075748443604 5.95695066452026 5.9897518157959 6.22924470901489 3.42180633544922 3.35052108764648 3.63140463829041 4.06646156311035 4.6414737701416 5.16984844207764 5.32754707336426 5.70557975769043 5.98821067810059 6.20762538909912 6.4333815574646 6.68505620956421 7.04917860031128 7.54022836685181 7.77417230606079 8.0216236114502 8.28081035614014 8.57836627960205 8.90807247161865 9.27862167358398 9.84083938598633 10.5029468536377 10.7675867080688 11.2001113891602 11.5522241592407 12.6821889877319 15.2818765640259 18.1419773101807 22.8195934295654 27.0246200561523 28.8137531280518 22.5084800720215 14.2653331756592 14.3640661239624 19.5403213500977 21.7501697540283 22.7290172576904 24.7433853149414 25.3578281402588 24.9529972076416 24.7735252380371 17.7218055725098 11.5923519134521 5.68135690689087 4.88477611541748 6.7835807800293 8.92961025238037 10.6314525604248 10.7897844314575 10.8343505859375 10.671441078186 9.76598072052002 9.07379341125488 8.58641147613525 8.37708187103271 8.21463203430176 8.76239585876465 9.44658374786377 9.96720695495605 10.5105571746826 11.0416688919067 11.3568916320801 11.6859931945801 12.263373374939 13.3616962432861 14.5536651611328 16.3620281219482 18.2195301055908 17.962366104126 19.0721530914307 18.3098487854004 18.9771995544434 19.8089408874512 17.1243762969971 12.6069269180298 4.82683801651001 -2.11965560913086 -2.00742101669312 -1.24927175045013 -0.180204197764397 0.838189363479614 1.41423797607422 1.54124903678894 1.10100603103638 0.472415030002594 1.37895953655243 2.78542327880859 4.79008340835571 4.78814554214478 3.73354959487915 3.53657937049866 0.534011125564575 -2.29967856407166 -2.36808824539185 -2.49101972579956 -2.60243129730225 -2.59934282302856 -2.43358492851257 -2.27912354469299 -2.14315319061279 -0.312438100576401 -2.35342311859131
2.6330406665802 2.69459390640259 2.77161574363708 2.89247751235962 2.96674418449402 2.9461498260498 2.97344446182251 3.03451538085938 3.10591435432434 3.17084264755249 3.22832036018372 3.26213455200195 3.27907037734985 3.31665182113647 3.39409208297729 3.39774298667908 3.42193293571472 3.46795773506165 3.43966555595398 3.43813824653625 3.41349720954895 3.37743353843689 3.39342498779297 3.44474363327026 3.36574792861938 3.32510423660278 3.29701209068298 3.35742521286011 3.36668276786804 3.41201567649841 3.13267660140991 2.92668294906616 2.60137438774109 2.44892311096191 2.40816879272461 2.37498354911804 2.05339241027832 1.82836365699768 1.95243072509766 2.05230760574341 2.09554409980774 2.32780408859253 3.06212210655212 4.97044134140015 5.26742935180664 6.57853031158447 3.24196004867554 2.23022150993347 2.37506413459778 2.42128491401672 2.49323344230652 2.64135050773621 2.88733768463135 2.96083331108093 3.01555299758911 3.06970572471619 3.07667541503906 3.08447360992432 3.02298426628113 2.99264597892761 3.25694751739502 4.64156484603882 7.29049491882324 10.5732793807983 13.078444480896 13.1855239868164 6.15962886810303 5.00343751907349 5.17764282226562 5.62370157241821 5.20245552062988 2.88591933250427 3.11741828918457 3.47818660736084 3.93210625648499 4.48705101013184 5.0812783241272 5.31096220016479 5.55190658569336 5.97485256195068 6.28645753860474 6.52743673324585 6.78513526916504 7.05169439315796 7.45814418792725 8.00564479827881 8.27083110809326 8.54012680053711 8.82967662811279 9.19784355163574 9.6057300567627 10.0014991760254 10.6825933456421 11.3954601287842 11.68004322052 12.150842666626 12.764368057251 14.8099050521851 17.239236831665 22.5946559906006 27.059139251709 33.2628746032715 16.9793548583984 10.4955291748047 11.6057252883911 17.6658096313477 21.6535129547119 24.3992958068848 25.258092880249 20.1868877410889 17.7899055480957 20.9251880645752 21.162727355957 17.4103622436523 5.79074335098267 9.48189830780029 9.36176013946533 7.7816367149353 10.1558122634888 11.7568130493164 13.5098161697388 13.4093656539917 12.1316070556641 10.6768379211426 10.0169076919556 9.40646648406982 8.85583877563477 8.58462524414062 9.17315673828125 9.85830688476562 10.5464363098145 11.321494102478 11.8101415634155 12.3628940582275 13.5141048431396 14.2315282821655 15.0905570983887 16.1753597259521 18.4566402435303 22.0151042938232 23.6239681243896 24.4085865020752 19.3202743530273 17.0455284118652 13.2488813400269 7.32983112335205 -0.45963978767395 -2.14904999732971 -1.97347950935364 -1.53595352172852 -0.316970109939575 1.36794424057007 2.26859354972839 2.40925073623657 2.18416833877563 1.43753683567047 0.883219301700592 1.8764488697052 3.80591249465942 3.05615520477295 0.904001116752625 -0.509130716323853 -1.92566025257111 -2.21182203292847 -2.30015850067139 -2.36251950263977 -2.37813711166382 -2.38564682006836 -2.33578157424927 -2.24365448951721 -2.09267544746399 -2.02746248245239 -2.13670110702515
2.91286683082581 2.99606418609619 3.1524977684021 3.32834672927856 3.44259357452393 3.36557078361511 3.32621908187866 3.32497143745422 3.32642960548401 3.35998630523682 3.39890217781067 3.42523384094238 3.44258332252502 3.47265577316284 3.52456021308899 3.55123972892761 3.57552433013916 3.53843998908997 3.52850556373596 3.50548434257507 3.49728655815125 3.54784893989563 3.64206457138062 3.68538093566895 3.68024802207947 3.42721772193909 3.3909010887146 3.36572360992432 3.42828679084778 3.43887257575989 3.47733473777771 3.19605779647827 2.97592973709106 2.63905572891235 2.50061702728271 2.43712401390076 2.39770698547363 2.07150816917419 1.85655069351196 1.98583924770355 2.09452557563782 2.2209165096283 2.62718987464905 3.99590706825256 3.20873117446899 2.5309751033783 1.6315621137619 2.16826200485229 2.33891534805298 2.46914339065552 2.52550053596497 2.60550045967102 2.73977708816528 2.97674083709717 3.0449686050415 3.14920282363892 3.26811504364014 3.28185105323792 3.28448176383972 3.21216726303101 3.22048759460449 5.36783456802368 7.87369108200073 10.7017507553101 12.7789373397827 11.8626403808594 6.17064714431763 4.1614089012146 3.7543249130249 3.89278173446655 2.27259230613708 2.5738570690155 2.95292973518372 3.25173163414001 3.82097291946411 4.39644384384155 4.96421670913696 5.25623226165771 5.54353046417236 5.80232715606689 6.27316331863403 6.61903190612793 6.88422393798828 7.18000507354736 7.46044445037842 7.91750812530518 8.52001571655273 8.80637073516846 9.16552257537842 9.49266910552979 9.92035961151123 10.4188022613525 10.8621788024902 11.669734954834 12.4430313110352 12.7516422271729 13.2689523696899 14.9729156494141 16.8543167114258 19.3855209350586 27.7899398803711 30.3304233551025 14.6761837005615 10.3655624389648 11.0285863876343 14.1241903305054 21.735523223877 21.8707847595215 18.0182132720947 19.3871021270752 17.2958564758301 18.207160949707 17.0602188110352 8.67107200622559 2.67118072509766 3.68104934692383 5.72248840332031 5.17149209976196 8.47495937347412 11.4959678649902 13.8709564208984 15.9406719207764 15.4408979415894 13.1786346435547 11.9887208938599 11.2198925018311 10.6793003082275 10.2576456069946 9.47567558288574 9.33985614776611 10.3550834655762 11.3094272613525 12.229887008667 13.0453290939331 14.1828994750977 15.1799573898315 15.9053678512573 17.1007061004639 19.3126182556152 22.792049407959 28.6815738677979 19.2576789855957 13.5633001327515 12.8100309371948 8.42869186401367 1.76594185829163 -2.48099446296692 -2.40243482589722 -1.74833559989929 -1.26311314105988 -0.408911168575287 1.18209218978882 2.60289025306702 3.24072575569153 2.97717976570129 2.62806820869446 1.6585248708725 1.19316244125366 1.63961267471313 0.551415741443634 -1.46806192398071 -1.59302377700806 -1.61713075637817 -1.80634820461273 -1.94227659702301 -2.06902813911438 -2.15626502037048 -2.11591815948486 -2.13694095611572 -2.13519334793091 -1.98319315910339 -1.80977416038513 -1.76198709011078
3.18170762062073 3.30485224723816 3.49184060096741 3.65171790122986 3.72834658622742 3.65069055557251 3.58658885955811 3.54616022109985 3.51047587394714 3.50086212158203 3.51452350616455 3.53145146369934 3.56309032440186 3.62904667854309 3.63965344429016 3.66817879676819 3.67421698570251 3.64191579818726 3.60201597213745 3.59354114532471 3.61578321456909 3.68479061126709 3.73791885375977 3.75560164451599 3.78827023506165 3.75139474868774 3.49821662902832 3.46271276473999 3.48074769973755 3.50916719436646 3.49507141113281 3.53998613357544 3.25086569786072 3.01320886611938 2.66918468475342 2.52515745162964 2.45499038696289 2.42535376548767 2.09617567062378 1.88507211208344 2.01878881454468 2.11528205871582 2.44255590438843 2.82643485069275 2.0940055847168 2.09456491470337 1.83386147022247 2.24520039558411 2.44055438041687 2.5238893032074 2.61377215385437 2.65431594848633 2.70980715751648 2.8360493183136 3.09700512886047 3.24894666671753 3.35508942604065 3.443443775177 3.43003058433533 3.40807151794434 3.40172624588013 5.35044622421265 8.9119987487793 11.5190124511719 12.6308794021606 11.2233591079712 6.73410987854004 4.32364320755005 3.92758584022522 2.78786134719849 1.98162734508514 2.33913683891296 2.79758882522583 3.24874997138977 3.78998422622681 4.35465478897095 4.93084239959717 5.23185777664185 5.48698234558105 5.78628730773926 6.0796799659729 6.61010789871216 6.98114538192749 7.28535127639771 7.62213802337646 7.92127752304077 8.43185043334961 8.72972583770752 9.44494247436523 9.88207340240479 10.2889223098755 10.7619657516479 11.389573097229 11.8596410751343 12.8499164581299 13.6966257095337 14.0468511581421 15.0524711608887 17.7333831787109 17.3058624267578 22.3610076904297 21.2074375152588 13.1072368621826 9.56341361999512 10.8794965744019 12.4418706893921 15.2304058074951 14.2098217010498 12.4608163833618 14.624303817749 15.233696937561 11.7459516525269 9.6052770614624 6.7745943069458 1.57531273365021 5.04630279541016 0.400697827339172 1.73784077167511 5.68041038513184 9.90253257751465 12.7417507171631 16.2788715362549 18.7323570251465 16.680643081665 14.7092266082764 13.7478723526001 11.8294334411621 9.97618579864502 9.53321361541748 9.62660121917725 9.64834308624268 10.8120899200439 11.9179983139038 12.7151889801025 14.407374382019 16.1100540161133 17.1797790527344 18.8577117919922 19.928918838501 24.6304359436035 22.6517963409424 10.8325319290161 7.55119514465332 4.80989980697632 -0.142687559127808 -2.58592414855957 -2.79595518112183 -2.56044840812683 -1.82874059677124 -1.02128732204437 -0.483996987342834 0.600147366523743 2.03997278213501 3.34912633895874 3.92398738861084 3.51555204391479 3.61928772926331 3.25220847129822 1.73344337940216 -0.974259793758392 -1.16344797611237 -1.26463758945465 -1.03192758560181 -0.891755163669586 -1.07599484920502 -1.27868974208832 -1.46513772010803 -1.66064953804016 -1.91931927204132 -1.98385775089264 -1.85438990592957 -1.68977451324463 -1.50521099567413
