NCOLS 172
NROWS 31
XLLCORNER 353936
YLLCORNER 6699264
CELLSIZE 16 
NODATA_value -3.4e+38 
0.603402078151703 0.5032559633255 0.137634038925171 -0.0301794968545437 -0.120877653360367 -0.22579488158226 -0.319941699504852 -0.400722324848175 -0.46996858716011 -0.554908454418182 -0.61395788192749 -0.669315099716187 -0.71919184923172 -0.760980606079102 -0.794798612594604 -0.829178988933563 -0.863568782806396 -0.891509294509888 -0.929658055305481 -0.952843368053436 -0.784891724586487 -0.563632428646088 -0.6158047914505 -0.381141543388367 -0.418839007616043 -0.492827028036118 -0.356834441423416 -0.33609476685524 -0.619765639305115 -0.789284229278564 -0.962662637233734 -1.02442216873169 -1.20888555049896 -1.37153828144073 -1.42332220077515 -1.79223787784576 -1.942622423172 -1.03565800189972 0.0512492842972279 -0.171036154031754 -0.143013894557953 0.953940510749817 4.23479604721069 6.82089376449585 5.93825674057007 5.16385555267334 4.62862682342529 4.27084636688232 3.71844553947449 3.00022792816162 2.6828236579895 2.24411201477051 1.92169713973999 1.82866418361664 1.59952688217163 1.28871989250183 0.630251169204712 0.43528139591217 0.139818698167801 -0.228238746523857 0.542924523353577 6.40182685852051 9.14215278625488 8.27437305450439 8.12306213378906 7.46734237670898 6.78576517105103 6.21177244186401 4.81899881362915 4.3850884437561 3.927241563797 3.67150974273682 3.54853200912476 3.83286595344543 5.58395099639893 6.09534311294556 4.03994655609131 3.34153151512146 3.11866807937622 2.80468344688416 2.40288949012756 2.03001403808594 1.48174273967743 1.00400567054749 0.648805797100067 0.387871235609055 18.048755645752 27.5510425567627 25.5443477630615 19.9492168426514 17.9931869506836 17.0371189117432 15.4072399139404 14.6952648162842 12.6127595901489 11.5860919952393 10.8554859161377 9.28410530090332 7.53953838348389 5.52024364471436 3.34047842025757 1.32886803150177 -0.0345969125628471 -0.431592524051666 -0.839587450027466 -1.28169560432434 -1.56204557418823 -1.74243891239166 -2.00102162361145 -2.19982361793518 -2.56255531311035 -2.95296692848206 -3.29899024963379 -3.44924759864807 -2.01131987571716 1.31935930252075 3.23769283294678 4.14776182174683 3.52675104141235 11.2562160491943 15.7544279098511 18.2175159454346 25.8978271484375 19.5541400909424 14.2259874343872 10.2082138061523 7.85873937606812 5.77653408050537 5.04827308654785 4.30347871780396 3.94368648529053 3.5984992980957 3.36777329444885 5.7755823135376 7.12142181396484 6.9726414680481 4.75539541244507 3.05940890312195 2.75424432754517 2.49363899230957 2.22770690917969 6.44073057174683 7.26340389251709 4.61879777908325 6.24974346160889 5.93866443634033 6.04132604598999 5.72343492507935 5.5456600189209 5.24893522262573 5.07680416107178 5.64346504211426 5.59578895568848 5.65509366989136 6.10251569747925 5.87295627593994 5.13315153121948 3.96377491950989 3.60589098930359 3.99945211410522 3.24078845977783 2.42026162147522 1.96564757823944 1.69155871868134 2.02059745788574 9.78408050537109 15.1785097122192 14.2487230300903 9.61576080322266 8.58688545227051 6.65154123306274 5.27595949172974
0.526871204376221 0.514382302761078 0.140427187085152 0.0142118241637945 -0.0799713730812073 -0.202993035316467 -0.306747436523438 -0.396368771791458 -0.480583310127258 -0.539535999298096 -0.61075496673584 -0.668834209442139 -0.728907823562622 -0.778279960155487 -0.816869497299194 -0.845731437206268 -0.757014811038971 -0.906431615352631 -0.941563963890076 -0.981042981147766 -1.01264476776123 -0.775705337524414 -0.390689671039581 -0.0257193390280008 -0.320804178714752 -0.403818279504776 -0.263618886470795 -0.314130276441574 -0.501937091350555 -0.654025852680206 -0.892472922801971 -0.898860573768616 -1.06446194648743 -1.3164165019989 -1.54179978370667 -1.84901893138885 -1.98244786262512 -0.765277206897736 -0.491825997829437 -1.01114153862 -1.8652880191803 -1.93082773685455 4.24230194091797 5.59273052215576 6.82301378250122 5.94462299346924 4.81640768051147 4.31846523284912 3.80306959152222 3.06959652900696 2.65919327735901 2.28364539146423 1.9482409954071 1.541628241539 1.34967422485352 0.890424430370331 0.278485745191574 -0.0216602273285389 -0.47528150677681 -0.593686580657959 1.5001677274704 8.88743305206299 7.98342895507812 9.39462089538574 9.13660049438477 7.33543968200684 6.5047779083252 5.60988855361938 4.93156337738037 4.53384113311768 4.04951763153076 3.82510352134705 3.5899350643158 3.98260879516602 5.74169397354126 3.5963773727417 3.04368233680725 2.86751365661621 2.49449372291565 2.15732669830322 1.74786567687988 1.21694314479828 0.867884039878845 0.908054351806641 -0.0998682826757431 -0.284517228603363 11.2986783981323 24.0463390350342 26.5290088653564 26.8555908203125 28.1283893585205 20.5982437133789 17.120433807373 17.0684509277344 14.9674730300903 12.6933279037476 11.0390424728394 9.47071075439453 7.32860040664673 4.72519063949585 2.01892590522766 0.151922658085823 -0.422809422016144 -0.702624261379242 -0.870764195919037 -0.934234380722046 -1.13368201255798 -1.55959260463715 -1.79945409297943 -2.03614163398743 -2.27311539649963 -2.73331642150879 -3.20019102096558 -3.47225832939148 -0.943846762180328 3.43613147735596 4.19904279708862 2.96419548988342 3.20130729675293 11.2568731307983 12.4934787750244 14.4340553283691 24.3503971099854 15.5006132125854 11.7210426330566 8.45728969573975 6.24527835845947 4.77546405792236 4.38481616973877 3.88315558433533 3.67104291915894 3.41971564292908 3.18421721458435 3.12935853004456 5.76243829727173 5.04854536056519 4.57535457611084 2.73687982559204 2.48589992523193 2.32613921165466 2.63903856277466 5.71575450897217 6.7365198135376 7.02621698379517 7.08375120162964 7.10899686813354 7.89418649673462 8.50990867614746 9.30351734161377 8.81186771392822 7.89695024490356 7.84847259521484 7.44275093078613 7.15854120254517 6.64690923690796 6.03640127182007 5.52590799331665 4.73578643798828 3.71252942085266 3.44941115379333 3.17359828948975 2.36571526527405 2.11201739311218 1.90055656433105 1.75591564178467 10.1928491592407 13.7339954376221 9.7558479309082 7.72342872619629 5.73605442047119 4.90852212905884 3.2669141292572
0.542010247707367 1.09458220005035 0.17934849858284 0.0424857102334499 -0.0178669430315495 -0.156956613063812 -0.280658900737762 -0.382800936698914 -0.470000565052032 -0.53287810087204 -0.610029637813568 -0.675170183181763 -0.745186686515808 -0.797195076942444 -0.835540413856506 -0.862555921077728 -0.771234273910522 -0.9205721616745 -0.960586845874786 -1.00395369529724 -1.04575765132904 -0.950941801071167 -0.261626780033112 0.122078098356724 0.0974645987153053 -0.204709187150002 -0.177061438560486 -0.2640780210495 -0.298974603414536 -0.512237548828125 -0.78610223531723 -0.804491102695465 -0.944961309432983 -1.08707022666931 -1.36605930328369 -1.85960733890533 -1.94294357299805 -0.954567193984985 -0.604400396347046 -1.57580709457397 -1.85718464851379 -1.97832691669464 2.72371101379395 5.91912221908569 6.54722595214844 6.17179870605469 5.00284290313721 4.33056926727295 3.56933927536011 2.96873378753662 2.27162528038025 2.02493262290955 1.71043002605438 1.23337340354919 0.779617130756378 0.439688861370087 0.0506966076791286 -0.163732826709747 -0.439383864402771 -0.64762407541275 4.12957954406738 10.8788623809814 7.61672735214233 7.90307188034058 9.61526584625244 6.66857099533081 6.13862705230713 5.02745628356934 4.59600877761841 6.98637008666992 4.26550054550171 3.96907019615173 3.78509020805359 3.99042558670044 3.32646322250366 2.901291847229 2.48774981498718 2.54543542861938 2.1283597946167 1.9692610502243 2.04371619224548 1.34214162826538 0.5653156042099 0.265753179788589 -0.320665687322617 -0.638617217540741 5.06549835205078 10.458890914917 10.9384117126465 27.6125602722168 26.4449310302734 24.9549407958984 20.1507186889648 17.869722366333 15.79554271698 13.2027273178101 11.2070007324219 8.67809867858887 5.81253528594971 2.70134329795837 0.614406824111938 0.0764637067914009 -0.386137962341309 -0.663372159004211 -0.773022890090942 -0.763102948665619 -0.725588738918304 -0.949637472629547 -1.38305568695068 -1.66089916229248 -1.99274337291718 -2.40622043609619 -2.90081286430359 -3.25168919563293 -2.46755933761597 3.42006993293762 4.66213369369507 2.84598255157471 4.34578323364258 9.56170272827148 12.974871635437 16.9273471832275 18.5064563751221 13.7308301925659 10.0550718307495 6.69294595718384 5.33309507369995 4.60279226303101 4.14653539657593 3.87976789474487 3.61245226860046 3.47785615921021 3.21457576751709 2.71347999572754 3.5493369102478 2.69622182846069 3.25681042671204 2.30948543548584 2.12974095344543 2.02503538131714 2.01291108131409 4.40750980377197 5.96826219558716 8.52793884277344 11.3254051208496 15.2618474960327 16.2647285461426 13.8407173156738 12.3271074295044 11.5962152481079 10.5074863433838 9.39493846893311 7.97373008728027 7.41655111312866 6.85026454925537 5.65426349639893 5.27242851257324 4.86783790588379 3.95821523666382 2.967524766922 2.60595059394836 2.22299408912659 2.06744027137756 1.91062211990356 1.80987215042114 10.3966846466064 12.7708930969238 8.45153045654297 6.9643292427063 4.07711029052734 3.11666679382324 1.78480696678162
0.196121096611023 0.478976339101791 0.0858277976512909 0.0754823684692383 0.0257232021540403 -0.0892122536897659 -0.231839329004288 -0.348634213209152 -0.448221862316132 -0.53678685426712 -0.601372301578522 -0.680022358894348 -0.75475025177002 -0.809692084789276 -0.850436687469482 -0.874364078044891 -0.898008406162262 -0.938080012798309 -0.980575144290924 -1.02413749694824 -1.06968665122986 -0.985747635364532 -0.244063451886177 0.349607616662979 0.207342177629471 0.115981236100197 -0.0139846531674266 -0.174760699272156 -0.241458117961884 -0.324209749698639 -0.600623488426208 -0.745571076869965 -0.84678328037262 -0.917421340942383 -1.14940822124481 -1.55323946475983 -1.7784252166748 -1.79652464389801 0.245871633291245 -1.40563118457794 -1.71702599525452 -1.79227268695831 0.400242567062378 6.37962055206299 6.404052734375 5.93418264389038 5.00998449325562 4.01747894287109 2.99002742767334 2.37048029899597 1.95576512813568 1.42730796337128 1.21239006519318 0.969198048114777 0.531717658042908 0.286183178424835 -0.00487252185121179 -0.257317095994949 -0.375061094760895 -0.413524895906448 7.14997863769531 8.01628875732422 5.75621795654297 8.60091018676758 8.29548168182373 5.31314611434937 5.50192832946777 6.22506713867188 4.67726373672485 4.48982906341553 4.24902582168579 3.89952182769775 4.63843727111816 3.77229642868042 3.54719471931458 3.33199000358582 3.18892312049866 3.57640767097473 2.58599710464478 1.38446986675262 0.970192134380341 1.23953378200531 1.91394293308258 -0.152167439460754 -0.27391529083252 -0.575121104717255 0.0460354648530483 5.17903280258179 5.56003475189209 11.7742938995361 21.3371086120605 20.2964992523193 21.256872177124 20.0592937469482 17.1971950531006 13.1169662475586 10.6060419082642 7.94022178649902 4.00904750823975 1.45896351337433 0.728395581245422 0.165763169527054 -0.232821047306061 -0.486792922019958 -0.609859764575958 -0.649603605270386 0.425039440393448 -0.526013076305389 -1.01971888542175 -1.33217525482178 -1.5322630405426 -1.91715562343597 -2.47163367271423 -2.92458462715149 -3.17207264900208 3.83025479316711 3.61448740959167 3.70474123954773 2.60444092750549 11.5098533630371 11.7012233734131 16.5187168121338 18.3691329956055 14.0349597930908 9.09362316131592 5.54133033752441 4.74295520782471 4.47955846786499 4.3242015838623 4.02772188186646 3.42001008987427 3.3637011051178 3.22777891159058 2.75501036643982 2.49207901954651 2.42603826522827 2.33850073814392 1.92685186862946 1.77813458442688 1.60884928703308 2.18012714385986 3.18738985061646 2.38397288322449 1.82953202724457 7.86810302734375 13.3785095214844 17.0666656494141 17.7848854064941 15.1565618515015 12.542594909668 10.6475858688354 9.60219287872314 7.7920618057251 7.04235553741455 6.50417518615723 5.51824235916138 4.3259391784668 4.02468347549438 3.59683871269226 2.62561774253845 2.51353454589844 2.23080444335938 2.03382039070129 1.89005053043365 1.95592510700226 12.6474523544312 10.4017601013184 6.25363922119141 5.5181713104248 3.67683053016663 2.15297198295593 1.34338939189911
0.125205874443054 0.243003010749817 0.125646680593491 0.10168045759201 0.0757467672228813 -0.0306106451898813 -0.166175559163094 -0.307620018720627 -0.419195115566254 -0.505731880664825 -0.594312787055969 -0.681496679782867 -0.758544921875 -0.82353276014328 -0.855014383792877 -0.693421602249146 -0.898744285106659 -0.94154816865921 -0.999028384685516 -1.0507675409317 -1.10094630718231 -1.13635683059692 0.0802308470010757 0.430610626935959 0.3702372610569 0.240141481161118 0.198752254247665 0.0138502102345228 -0.238655433058739 -0.205675333738327 -0.363814443349838 -0.566070258617401 -0.718919217586517 -0.754501819610596 -0.908282518386841 -1.19934844970703 -1.48124837875366 -1.66608834266663 0.952122688293457 -0.940974414348602 -1.48984456062317 -1.58973121643066 -1.52413856983185 5.76054525375366 7.10130262374878 5.13844156265259 4.43379592895508 3.78654193878174 2.10545325279236 1.59837436676025 1.47465574741364 1.15658175945282 0.939731419086456 0.692235827445984 0.498532116413116 0.291468173265457 -0.00353355519473553 -0.277502447366714 -0.352979272603989 4.67041158676147 6.49617576599121 8.42816734313965 6.91936540603638 6.38755369186401 4.8851957321167 5.27480983734131 9.47254753112793 4.99614524841309 4.33182621002197 7.43202638626099 6.79066896438599 8.02306842803955 5.28200340270996 4.12029933929443 5.07848882675171 4.42844581604004 3.70201230049133 3.1570463180542 1.83926331996918 0.579774439334869 0.118210047483444 0.996062815189362 0.817880570888519 -0.273624986410141 -0.248091533780098 -0.392547070980072 -0.373507440090179 3.13740873336792 4.91610050201416 8.78182125091553 12.6014566421509 14.6039609909058 18.325553894043 18.7202110290527 18.7419242858887 19.0311069488525 15.5023984909058 8.30917358398438 4.26533937454224 1.31609857082367 0.653891563415527 0.221506834030151 -0.10619243234396 -0.453709870576859 -0.480279147624969 3.15682983398438 2.5872917175293 0.898650169372559 -0.712815940380096 -1.04887664318085 -1.29917788505554 -1.59324538707733 -2.06684303283691 -2.44756078720093 -2.5204062461853 1.98127615451813 4.5529317855835 4.32155227661133 1.54841482639313 5.98274421691895 18.243444442749 16.5621185302734 18.2322559356689 14.7464122772217 9.17514991760254 5.27859020233154 4.75025272369385 5.40359544754028 4.15535068511963 3.86496949195862 3.51283979415894 3.22476601600647 3.08139109611511 2.90102314949036 2.33896040916443 2.21004223823547 2.03647518157959 1.73364067077637 1.55642712116241 1.42436361312866 1.9710431098938 1.37544345855713 1.15086209774017 1.03777301311493 8.58409595489502 13.6070594787598 13.002161026001 22.6294250488281 14.1355428695679 12.142128944397 9.93005180358887 8.91265106201172 7.66683006286621 5.82654809951782 5.3370509147644 4.90401649475098 3.85359859466553 3.14100933074951 2.84723615646362 2.62014150619507 2.52049827575684 2.24094748497009 2.00158429145813 1.90454435348511 1.82382488250732 9.34060287475586 9.16806316375732 4.05333471298218 3.90807127952576 3.1461284160614 1.85477471351624 1.63335132598877
0.144809514284134 0.139480590820312 0.131778031587601 0.122835248708725 0.0900675654411316 0.0132295042276382 -0.119249098002911 -0.261157780885696 -0.389333009719849 -0.487894773483276 -0.572603225708008 -0.679015457630157 -0.764780163764954 -0.830503702163696 -0.852216899394989 -0.879063189029694 -0.91997218132019 -0.964773535728455 -1.02063095569611 -1.07752394676208 -1.1489645242691 -1.02007639408112 0.0051255407743156 0.643487930297852 0.57370537519455 0.359571188688278 0.199896275997162 0.224174410104752 -0.0767730996012688 -0.118045978248119 -0.137068718671799 -0.303866386413574 -0.46864065527916 -0.552214860916138 -0.687153697013855 -0.901989638805389 -1.25455868244171 -1.48031413555145 1.15123736858368 -0.491593867540359 -0.803804218769073 -1.16001617908478 -1.31377851963043 4.03911733627319 6.12234115600586 4.43533182144165 3.68470239639282 2.7571325302124 2.05290293693542 1.36186599731445 1.03385996818542 0.949184417724609 0.630764186382294 0.538912534713745 0.396124273538589 0.274296820163727 -0.0396086946129799 -0.260470986366272 1.47996401786804 5.82682609558105 8.15929412841797 8.3925142288208 5.45674657821655 4.88481140136719 5.86857128143311 9.10320091247559 3.85662341117859 2.67031764984131 6.57665538787842 8.21040534973145 9.82737350463867 9.47268295288086 7.64630270004272 4.88649082183838 4.55341768264771 4.15366315841675 3.10555481910706 1.46620273590088 0.439748972654343 0.0879762172698975 -0.0313438251614571 -0.120665408670902 -0.149767383933067 -0.193896815180779 -0.0816923752427101 0.019765792414546 0.0737065896391869 3.03792285919189 7.02627038955688 6.96842956542969 6.75594663619995 8.45874786376953 10.8835515975952 10.0661888122559 9.99301719665527 19.8451156616211 21.579662322998 12.3383445739746 5.91481971740723 1.30568170547485 0.664117515087128 0.222190320491791 -0.0923817232251167 -0.33561983704567 -0.465319365262985 3.58640360832214 2.29224443435669 0.728320717811584 -0.133174270391464 -0.796600461006165 -1.02176821231842 -1.20718622207642 -1.44496548175812 -1.77442109584808 -1.73317503929138 -0.712925672531128 3.12773895263672 2.8931291103363 1.15657782554626 2.36891603469849 18.2572937011719 19.4095802307129 20.0163459777832 16.1471767425537 10.7949018478394 5.40584421157837 4.6826114654541 4.23676538467407 3.84496235847473 3.77018737792969 3.62872052192688 2.82382440567017 2.55189514160156 2.35603475570679 2.10048460960388 3.04424333572388 1.97553777694702 1.78689312934875 1.66283965110779 1.52186250686646 1.48116910457611 1.63144755363464 1.37646412849426 1.59662139415741 7.3844838142395 14.3442096710205 13.8507242202759 16.3153228759766 13.1040992736816 11.6757335662842 8.98791599273682 7.42841863632202 6.58596563339233 5.2047119140625 4.06363964080811 3.79251384735107 3.22321557998657 2.85667777061462 2.61306738853455 2.45130825042725 2.37750434875488 2.21290254592896 1.89501130580902 2.10070729255676 1.87005579471588 4.82773113250732 6.75255155563354 3.43765616416931 3.31358695030212 2.82513332366943 1.92777597904205 1.64990067481995
0.20416958630085 0.165122598409653 0.141324639320374 0.136528924107552 0.0674948766827583 0.0071171885356307 -0.0725246444344521 -0.221214532852173 -0.363581836223602 -0.471460849046707 -0.562516629695892 -0.668549180030823 -0.769419968128204 -0.835367321968079 -0.86670196056366 -0.911397874355316 -0.961088120937347 -1.00464904308319 -1.06260752677917 -1.12610340118408 -1.18765664100647 -0.659119129180908 -0.156203374266624 0.639883995056152 0.949756920337677 0.744236767292023 0.110025323927402 0.385818928480148 0.207503661513329 0.144949287176132 0.0531548671424389 -0.00504764216020703 -0.104479655623436 -0.326793730258942 -0.568528354167938 -0.843477785587311 -1.1865519285202 -1.31132829189301 1.52535355091095 0.152012556791306 -0.338551044464111 -0.441230416297913 -0.36761149764061 -0.36300602555275 3.17733955383301 4.22555065155029 3.27125811576843 2.77861595153809 2.07762312889099 0.963817417621613 0.694344401359558 0.559220671653748 0.521733224391937 0.400646984577179 0.29467985033989 0.223184645175934 -0.0328945033252239 -0.144090637564659 4.85914325714111 6.04260921478271 8.59985542297363 5.91364860534668 4.38429307937622 7.03917455673218 5.79206514358521 3.05139684677124 1.63632643222809 4.94820117950439 11.5453443527222 11.1986818313599 8.56988143920898 6.7034158706665 6.28004789352417 4.86766910552979 3.69110774993896 2.66823410987854 1.8325891494751 0.672264695167542 0.251822739839554 0.0575251951813698 -0.00107649189885706 -0.0313657112419605 0.101334415376186 0.608656227588654 1.73941516876221 0.719454288482666 0.754199028015137 1.69718790054321 5.63451242446899 4.5019702911377 3.62978053092957 3.1453115940094 2.74611377716064 3.96299910545349 7.06493186950684 11.8437271118164 30.5476226806641 18.8224067687988 7.78529977798462 1.53725159168243 0.70739358663559 0.153913006186485 -0.158277973532677 -0.231394395232201 -0.271537154912949 1.88603532314301 2.50821781158447 1.03729856014252 0.5610710978508 -0.0408111102879047 -0.656694054603577 -0.730691015720367 -0.951759397983551 -1.19504654407501 -1.25611293315887 -1.38774490356445 -0.286483079195023 2.12755441665649 0.365983873605728 1.99238240718842 10.322211265564 23.5030860900879 19.2458095550537 16.3893756866455 10.9075126647949 5.07708883285522 4.36413240432739 4.04013919830322 4.79148721694946 3.24421644210815 3.07150173187256 2.56488466262817 2.33592367172241 2.06228590011597 3.55203127861023 8.56315231323242 4.40543031692505 2.79130339622498 2.50584030151367 2.17349457740784 2.05637979507446 1.90367794036865 1.93473923206329 2.36853432655334 2.19731402397156 10.580641746521 14.9339284896851 13.725848197937 11.5996198654175 9.86776447296143 8.02330303192139 5.39323091506958 4.67329549789429 3.80140852928162 3.88674998283386 5.52968978881836 4.7814998626709 3.55456876754761 3.65027093887329 2.95298361778259 2.60907816886902 2.25199198722839 1.80532205104828 3.09308910369873 3.04372572898865 3.16674423217773 4.23713970184326 3.69587159156799 3.04925632476807 2.82270765304565 2.56137013435364 2.65158152580261
0.218718126416206 0.173825055360794 0.130620047450066 0.108052842319012 0.070527970790863 0.0248175859451294 -0.0394468829035759 -0.181471511721611 -0.326850831508636 -0.440814167261124 -0.553637683391571 -0.647064805030823 -0.761286973953247 -0.841200411319733 -0.890922784805298 -0.947390377521515 -0.995204210281372 -1.0244927406311 -1.10431909561157 -1.1968594789505 -1.23561453819275 -0.275848478078842 -0.122206389904022 0.441404789686203 1.18303143978119 1.05715262889862 0.495972275733948 0.534049689769745 0.606152415275574 0.485994786024094 0.435598254203796 0.211140051484108 0.15884567797184 -0.00478504784405231 -0.415114343166351 -0.632764995098114 -0.819148659706116 -1.08984851837158 1.10388147830963 1.21877241134644 0.746815025806427 0.411347627639771 0.783005118370056 0.346369564533234 0.231401681900024 3.72415280342102 2.47114539146423 1.7784606218338 1.28000891208649 0.854210317134857 0.573798298835754 0.471543788909912 0.400138676166534 0.219509050250053 0.172735393047333 0.125178501009941 0.203620746731758 0.182258427143097 3.34189128875732 6.82600069046021 5.14820718765259 4.64617490768433 6.33294868469238 4.07479095458984 3.50400567054749 0.46517476439476 0.222335159778595 3.86229395866394 7.58835363388062 9.11077976226807 8.2020263671875 7.87456130981445 4.52753734588623 3.59379768371582 2.6160581111908 1.67059326171875 1.03050887584686 1.21566069126129 0.872307181358337 0.730813324451447 0.717618942260742 0.712258458137512 0.732417106628418 1.57636499404907 2.38994407653809 1.91447222232819 1.91591858863831 1.70434272289276 1.80821764469147 1.7660129070282 1.9520697593689 2.01078414916992 1.88659167289734 1.8119637966156 3.28673052787781 7.98161220550537 34.3725204467773 21.3162021636963 11.3262767791748 1.61219465732574 0.650188267230988 0.264073133468628 -0.00979095045477152 -0.02214958332479 -0.0130768707022071 -7.48763750380022e-06 3.61617469787598 2.30246734619141 1.85928916931152 1.320188164711 -0.091541662812233 -0.472216755151749 -0.754070997238159 -0.776290893554688 -0.907037138938904 -1.08124876022339 -1.07195198535919 0.286100596189499 1.46573925018311 3.15702033042908 5.58150196075439 18.8496437072754 20.0313110351562 15.9024696350098 11.4414043426514 4.55392932891846 3.63688135147095 3.35578298568726 3.8413245677948 2.80414366722107 2.60704827308655 2.62310552597046 2.57168769836426 3.93729591369629 8.78275585174561 8.59566211700439 4.28337144851685 3.59409809112549 3.36500477790833 2.99474120140076 2.78180122375488 2.69127464294434 2.52028775215149 2.50278091430664 2.4598605632782 4.19950485229492 11.2448101043701 12.5505514144897 9.64504909515381 7.0886173248291 5.97741365432739 3.89075112342834 2.78213143348694 2.56010699272156 3.38706755638123 6.28240251541138 7.2452654838562 6.39614343643188 4.5785984992981 3.45587515830994 2.77902221679688 2.51191353797913 2.13517665863037 2.35773372650146 2.71474266052246 2.62824773788452 2.60777616500854 3.53297972679138 4.07245969772339 4.39386987686157 4.07923555374146 4.07652902603149
0.18247327208519 0.153567865490913 0.122169472277164 0.100249290466309 0.0586721003055573 0.0214735120534897 -0.0282831080257893 -0.147020310163498 -0.295221984386444 -0.407479286193848 -0.531262636184692 -0.641152918338776 -0.735753297805786 -0.825453221797943 -0.91168749332428 -0.975824177265167 -1.01982522010803 -1.05955266952515 -1.15229916572571 -1.26171064376831 -1.24623835086823 0.326662629842758 0.05089495703578 0.766353964805603 1.27641499042511 1.43221390247345 1.41513729095459 1.10807824134827 0.904100179672241 0.677634358406067 0.714454472064972 0.587202787399292 0.492047220468521 0.374216943979263 -0.155088856816292 -0.494195073843002 -0.677548885345459 -0.855943500995636 2.10342216491699 2.04313087463379 1.76008927822113 1.42662310600281 1.371750831604 1.13213682174683 0.878032624721527 0.759158432483673 1.61002540588379 1.33735394477844 0.774182558059692 0.698748707771301 0.398500591516495 0.266428083181381 0.244473919272423 0.223161429166794 0.272222101688385 0.228424578905106 0.248766988515854 3.04358959197998 3.20528364181519 5.9900541305542 4.53215599060059 5.06362676620483 2.73628091812134 5.61356925964355 2.95841550827026 0.877259790897369 0.139605566859245 0.867203891277313 2.70201230049133 5.05632209777832 5.89571809768677 6.29483032226562 4.90936708450317 2.31166648864746 2.10694408416748 1.8467378616333 1.60689067840576 1.73754262924194 1.63267540931702 1.66135537624359 1.57756233215332 1.58907771110535 1.76437425613403 1.77847075462341 1.9984964132309 2.14136552810669 2.09992361068726 2.27061176300049 2.47866249084473 2.32176375389099 2.1670298576355 2.10425329208374 2.02940940856934 1.88152861595154 1.86692249774933 6.62486219406128 30.0191593170166 18.7671489715576 11.0248794555664 3.61988759040833 0.984645068645477 0.448366641998291 0.190518736839294 0.08604746311903 0.108182407915592 0.116289764642715 0.226925015449524 4.90834379196167 2.55675888061523 1.86474800109863 0.902653396129608 -0.401913076639175 -0.475092083215714 -0.5152747631073 -0.565983653068542 -0.752537846565247 -0.795315325260162 0.17616368830204 1.89902579784393 1.87754774093628 1.15114176273346 14.3295660018921 19.4248428344727 12.8553295135498 10.0523767471313 5.03944540023804 3.56277370452881 3.28976511955261 3.12203311920166 2.97232747077942 2.89527225494385 3.42298293113708 5.19420719146729 7.92208862304688 9.69817447662354 5.08687496185303 4.3051872253418 4.01410675048828 3.51737546920776 3.03281235694885 2.8815279006958 6.22949504852295 4.12335538864136 3.0739381313324 2.85566282272339 2.81762719154358 6.66338062286377 8.57870006561279 7.90391635894775 5.98793268203735 3.50447130203247 2.7490918636322 2.44289183616638 2.0924277305603 2.98307776451111 3.59856796264648 10.3772830963135 6.39468336105347 4.78115224838257 3.58844137191772 2.16656446456909 1.9259740114212 3.63560366630554 1.64818525314331 2.03600430488586 3.65563273429871 3.87619304656982 4.3162579536438 5.88288497924805 6.88165760040283 6.47491312026978 6.37080335617065
0.151896670460701 0.112568289041519 0.102289818227291 0.0769258141517639 0.03012365847826 0.0104089677333832 -0.027138652279973 -0.132107898592949 -0.27030748128891 -0.383964061737061 -0.507444083690643 -0.63553524017334 -0.727035045623779 -0.804804742336273 -0.90195369720459 -0.984967350959778 -1.04628849029541 -1.12545073032379 -1.22884273529053 -1.33371138572693 -0.876466274261475 0.552246153354645 0.675037324428558 1.07237732410431 1.52050507068634 1.4428858757019 1.76475369930267 1.69912242889404 1.42143750190735 1.1246372461319 1.17070233821869 1.04148387908936 0.728150844573975 0.585241198539734 0.0636177733540535 -0.472235947847366 -0.614794433116913 -0.651057004928589 3.18003582954407 2.7293336391449 2.26068592071533 1.93965530395508 1.29582858085632 1.14343726634979 0.945001184940338 0.827422916889191 0.776005446910858 0.825931251049042 0.579038083553314 0.529034376144409 0.370606988668442 0.37367582321167 0.302825093269348 0.303877651691437 0.305000275373459 0.31580850481987 1.37941801548004 2.17450714111328 1.93139207363129 1.97875201702118 5.70133638381958 3.37524485588074 2.59783267974854 2.43392491340637 2.60372757911682 1.55436813831329 0.938686370849609 0.908806145191193 0.988088846206665 3.86506795883179 3.07672548294067 4.79642343521118 3.88560676574707 2.23968768119812 2.51685190200806 2.56401920318604 2.56286382675171 2.55476903915405 2.41237711906433 2.61081075668335 2.6074275970459 2.66162109375 2.5765585899353 2.45497608184814 2.68511319160461 2.96287322044373 2.81698322296143 2.6754355430603 2.74282288551331 2.78397417068481 2.54905796051025 2.27409791946411 1.83589053153992 1.65025174617767 2.7582471370697 10.9030609130859 22.2313327789307 16.1319198608398 9.90245246887207 5.93545436859131 2.41830778121948 0.771688520908356 0.32069730758667 0.216830253601074 1.98239493370056 0.123647198081017 0.0219963751733303 3.72468328475952 2.87394380569458 1.33835601806641 0.417426913976669 -0.120588943362236 0.0265011321753263 -0.186285674571991 -0.326902866363525 -0.466411888599396 -0.58950001001358 -0.689451694488525 0.76021009683609 1.21591889858246 2.91920781135559 10.9416751861572 13.9432249069214 10.5348052978516 9.17862796783447 6.56896591186523 4.72699213027954 4.23995876312256 4.3934907913208 4.11335611343384 4.02178239822388 5.1059136390686 7.6605806350708 8.88820648193359 7.63562250137329 5.04854726791382 4.55959272384644 4.09220504760742 3.56134104728699 2.96178007125854 4.79222011566162 7.85432291030884 6.62912130355835 3.25366115570068 3.19725680351257 3.19123268127441 3.01269435882568 4.63537263870239 5.87405920028687 5.04714584350586 3.769935131073 2.90125179290771 2.22779488563538 1.80833184719086 2.69996786117554 4.39356184005737 8.34431171417236 6.46970224380493 4.10217666625977 2.59404897689819 1.81872236728668 1.64868927001953 1.39475953578949 1.248415350914 3.29229593276978 5.16693449020386 6.06123685836792 7.00112199783325 8.41131687164307 9.09929180145264 9.97823429107666 9.12060451507568
0.108326010406017 0.0752959996461868 0.0636705085635185 0.0342572145164013 0.0299919173121452 0.00889387354254723 -0.0285448879003525 -0.134391620755196 -0.255801618099213 -0.365137487649918 -0.484252005815506 -0.619942426681519 -0.725683212280273 -0.806117415428162 -0.890162706375122 -0.978284299373627 -1.10876226425171 -1.21078872680664 -1.31909012794495 -1.42469131946564 -1.02406442165375 0.201074317097664 0.0746471360325813 0.917466700077057 1.73923540115356 2.0655529499054 2.09325790405273 2.1232738494873 1.88856816291809 1.52106785774231 1.4531797170639 1.32733356952667 0.973235070705414 0.662664592266083 0.16241343319416 -0.361388921737671 -0.547125577926636 -0.482319205999374 4.7333288192749 2.04957985877991 1.51675033569336 1.22401475906372 1.18335318565369 1.00158452987671 0.648438692092896 0.618284940719604 0.572136461734772 0.428863525390625 0.49627810716629 0.491081774234772 0.508879601955414 0.483458071947098 0.444970786571503 0.44605740904808 0.432792156934738 0.41449961066246 0.672401249408722 1.00383734703064 1.78081750869751 2.16944885253906 1.93345236778259 3.71257662773132 4.11735773086548 3.17061901092529 4.27939033508301 3.26191473007202 1.46566486358643 1.52510344982147 2.52742457389832 2.18825721740723 2.65354204177856 4.98319244384766 3.87278389930725 3.18987107276917 3.18494987487793 3.14673328399658 3.43124485015869 3.67847490310669 3.71803188323975 3.50118327140808 3.26597571372986 3.39425873756409 3.6701340675354 3.4294753074646 3.16814875602722 3.21425461769104 3.25961637496948 3.07639980316162 2.91909956932068 2.65133786201477 2.44481253623962 2.14960360527039 1.90630960464478 1.73707711696625 3.44500970840454 11.729513168335 16.8344078063965 14.8842515945435 8.29201602935791 7.40403938293457 3.91245675086975 1.85318672657013 0.431121796369553 0.209147959947586 2.40797138214111 0.401459485292435 0.0115286577492952 2.11511325836182 2.31616616249084 0.566100299358368 0.610022127628326 0.604531288146973 0.0437599420547485 -0.0461068153381348 -0.267166793346405 -0.336482524871826 -0.464224338531494 -0.630207419395447 -0.569728255271912 -0.2456394135952 3.74500513076782 7.33823680877686 10.3708600997925 13.1753044128418 12.1034603118896 9.2742919921875 7.60843467712402 6.12740564346313 5.42790126800537 5.0525074005127 5.06100988388062 7.23858880996704 9.01475811004639 8.90119361877441 5.73404788970947 5.57950115203857 4.77043342590332 4.1484227180481 3.79646110534668 3.40812849998474 3.73999953269958 6.35271644592285 3.89356899261475 3.3534517288208 3.14666104316711 3.12501192092896 2.98293662071228 2.6052086353302 6.28556632995605 6.32597875595093 5.60585832595825 4.33371734619141 3.00097751617432 2.21801114082336 2.02083301544189 5.93247509002686 5.72403144836426 5.03456687927246 2.45122885704041 1.92087459564209 1.44580221176147 1.25988304615021 0.947220504283905 0.763141274452209 1.09624314308167 5.99593830108643 9.98409366607666 12.7313194274902 11.9185037612915 12.1020765304565 11.4587287902832 11.7737274169922
0.0405558831989765 0.0391378328204155 0.0329473502933979 0.0303595308214426 0.026236716657877 0.037373960018158 -0.0246556363999844 -0.153846099972725 -0.266502410173416 -0.359185039997101 -0.465624898672104 -0.600286722183228 -0.717543959617615 -0.813690781593323 -0.897763967514038 -0.991743385791779 -1.16296899318695 -1.29774844646454 -1.40588521957397 -1.50867140293121 -0.684625566005707 -0.621748268604279 -0.135854065418243 0.950752437114716 2.25112819671631 2.56947708129883 2.16212224960327 2.07780385017395 2.20611763000488 1.94231081008911 1.53228712081909 1.49100697040558 1.20330917835236 0.728466808795929 0.206997945904732 -0.259612768888474 -0.487268030643463 1.6799498796463 4.17269659042358 1.77796471118927 1.36710834503174 0.68570739030838 1.14991283416748 0.72406131029129 0.404977977275848 0.50793981552124 0.51269119977951 0.540254056453705 0.58779764175415 0.773188829421997 0.664787590503693 0.882048726081848 0.902845144271851 0.803930163383484 1.06274056434631 1.77824187278748 2.27063465118408 2.32760190963745 3.15278482437134 3.54341268539429 3.92007279396057 6.05927991867065 8.20014762878418 7.13828754425049 4.58611679077148 4.82296419143677 3.81409239768982 2.99966359138489 3.30614566802979 2.87564706802368 4.07760953903198 4.34983062744141 4.02958106994629 4.34728050231934 4.52967500686646 4.43322467803955 4.21921873092651 4.41229486465454 4.8432035446167 4.55632829666138 4.28257369995117 4.01948165893555 3.99175477027893 3.93585109710693 3.59692478179932 3.29416751861572 2.9253363609314 2.70829606056213 4.3726978302002 6.37202119827271 6.58235883712769 6.07797908782959 7.47820281982422 7.72480869293213 7.09246253967285 8.37278461456299 14.833667755127 13.6409454345703 8.98623371124268 7.378249168396 4.88241386413574 2.57204842567444 0.605009138584137 0.150827959179878 2.34592366218567 1.97824716567993 0.335704386234283 0.102180182933807 1.73092615604401 1.4548727273941 3.71363759040833 1.36343288421631 0.109794549643993 -0.0748929157853127 -0.188286915421486 -0.247009918093681 -0.317338109016418 -0.372169584035873 -0.458034157752991 -0.596230804920197 -0.341286867856979 3.66675901412964 10.1760692596436 16.4765949249268 16.9386730194092 13.0377063751221 9.99471473693848 7.94756507873535 6.73528051376343 5.99596691131592 6.7636251449585 7.9326753616333 8.39592361450195 8.26831340789795 5.9911527633667 5.80900239944458 5.32489109039307 4.78465795516968 4.45393705368042 3.96359300613403 3.60877442359924 3.55208826065063 3.35928297042847 3.11083340644836 2.84113144874573 6.0508828163147 5.60092973709106 3.53778624534607 6.14937686920166 8.85297393798828 6.39032697677612 4.99238348007202 3.82649040222168 2.7359344959259 2.29618453979492 2.04074048995972 5.72527551651001 1.96386623382568 1.73500168323517 1.32526504993439 1.09957540035248 0.90086030960083 0.511260986328125 0.236663937568665 -0.0341614000499249 1.21673822402954 9.26804637908936 12.1414413452148 15.2453231811523 16.6445846557617 14.6918344497681 12.9827976226807
0.0344735495746136 0.0383407510817051 0.0478580258786678 0.0437469258904457 0.0351006239652634 -0.00384602835401893 -0.0513237118721008 -0.166532948613167 -0.272405117750168 -0.367557913064957 -0.470162689685822 -0.592263996601105 -0.713561475276947 -0.819801509380341 -0.92040491104126 -1.01537978649139 -1.16069602966309 -1.31797873973846 -1.45033097267151 -1.53318738937378 -1.5969523191452 -1.60879528522491 -1.10784006118774 0.569081246852875 2.33628082275391 2.9979932308197 2.87124466896057 2.50082921981812 2.37360978126526 2.23479723930359 1.77244508266449 1.61783957481384 1.50106799602509 1.10559105873108 0.526698768138885 -0.14953824877739 -0.176419705152512 4.20756196975708 1.40788400173187 1.14180278778076 0.891418039798737 0.538879990577698 0.644797265529633 0.617948830127716 0.568199455738068 0.548878073692322 0.555226922035217 0.64816689491272 0.925308763980865 0.879746079444885 0.937254965305328 1.29771888256073 1.79336559772491 2.19746732711792 2.90212106704712 3.96758341789246 4.01163578033447 4.02209186553955 4.10466146469116 3.14970898628235 2.06287455558777 5.51890420913696 12.4561080932617 11.0780773162842 7.03996706008911 6.48133897781372 6.28319835662842 4.94297790527344 4.77239084243774 4.2099609375 4.60172033309937 5.3476881980896 5.7400541305542 5.47691679000854 5.49951410293579 5.95348024368286 5.57570314407349 5.2565279006958 5.2450795173645 5.34250402450562 5.00674915313721 4.63994216918945 4.20045757293701 3.62338876724243 3.2429826259613 2.82566809654236 2.47479248046875 2.34318470954895 10.6929512023926 18.5261840820312 19.2535724639893 13.0206327438354 10.9440546035767 10.953987121582 10.120099067688 9.55554008483887 14.4126577377319 13.040379524231 9.58960628509521 7.75977468490601 4.66483449935913 2.48690605163574 0.829697787761688 0.147288113832474 0.437342166900635 3.71763706207275 1.49490129947662 0.349060714244843 2.593998670578 3.66014719009399 3.24616241455078 1.08668839931488 0.495754480361938 0.316424936056137 0.225497111678123 0.0487231984734535 0.0144671062007546 -0.117686487734318 -0.294896155595779 -0.474519848823547 -0.712476909160614 2.32350325584412 8.22549915313721 18.7603569030762 19.2383365631104 16.2832736968994 12.9984760284424 9.45309829711914 7.95659685134888 7.33254623413086 6.41388177871704 8.48015785217285 8.84073066711426 7.4277663230896 6.43831348419189 6.17253828048706 5.70338153839111 4.94802474975586 4.62313652038574 4.28844261169434 3.57858514785767 3.2904109954834 2.92786335945129 2.40597653388977 1.97992086410522 9.77906608581543 7.11682605743408 4.76707315444946 4.38429975509644 10.3566370010376 5.76054525375366 4.24621820449829 3.86042308807373 2.85121273994446 2.32431530952454 2.01943731307983 1.84586179256439 1.25496113300323 1.17572927474976 0.954677402973175 0.85232675075531 0.580682277679443 0.162257209420204 -0.424658626317978 -0.705271244049072 -0.247934326529503 3.92862153053284 8.68819046020508 13.7169790267944 16.4159297943115 15.2470064163208 13.6352939605713
0.0506606064736843 0.0465044975280762 0.0182780437171459 0.023095453158021 0.0108575141057372 -0.0131214652210474 -0.100695952773094 -0.203112259507179 -0.287774860858917 -0.377886384725571 -0.47891628742218 -0.594282865524292 -0.726857721805573 -0.831145226955414 -0.927427053451538 -1.03063154220581 -1.16598439216614 -1.33049404621124 -1.46259760856628 -1.58361148834229 -1.65607821941376 -1.74458706378937 -1.78687798976898 -0.235700234770775 1.66497755050659 3.01079916954041 3.07164525985718 2.47745704650879 2.26611995697021 2.43211913108826 2.14989018440247 1.72584092617035 1.6565203666687 1.32948768138885 0.686958730220795 0.264648616313934 0.196164026856422 2.38438034057617 0.68003636598587 0.598536372184753 0.643070995807648 0.609824299812317 0.799107611179352 0.663939714431763 0.629087448120117 0.565401911735535 0.504196524620056 0.587541103363037 0.781117022037506 0.632743358612061 0.741970658302307 1.60743403434753 1.64985799789429 1.9913774728775 2.88273739814758 3.2315731048584 3.0854606628418 3.34896874427795 2.93466520309448 2.83091473579407 1.25822114944458 6.18953323364258 9.64598274230957 12.9720249176025 13.1055212020874 10.326470375061 8.25977420806885 7.1895580291748 7.21217012405396 7.22057914733887 6.61477041244507 6.5521297454834 7.40310525894165 7.05723094940186 6.6005711555481 6.45722627639771 6.64144420623779 6.21713256835938 5.79455471038818 5.20106792449951 4.75739049911499 4.29897975921631 3.8284227848053 3.28849053382874 2.85088086128235 2.30770921707153 1.66031134128571 1.30701112747192 5.91548919677734 23.1044807434082 22.2770748138428 20.0590724945068 15.3260650634766 11.9398365020752 11.5230493545532 10.4322557449341 16.0003108978271 10.7458343505859 9.3970775604248 7.00188207626343 3.63161253929138 1.68278181552887 0.784411191940308 0.215304687619209 0.0871776342391968 3.79938292503357 0.480342298746109 1.33320355415344 4.57429695129395 2.53104114532471 1.26866126060486 0.886186838150024 0.749372482299805 0.573018431663513 0.443816810846329 1.23003733158112 0.291025847196579 -0.0758934989571571 -0.285683482885361 -0.486561983823776 -0.712685406208038 -0.768396079540253 5.2404580116272 18.433629989624 21.2056846618652 17.9665946960449 14.2506341934204 11.3219881057739 8.92577648162842 8.03044033050537 7.67439746856689 7.04693937301636 7.93449783325195 10.1579647064209 6.6788763999939 6.35734844207764 5.92261219024658 4.85219097137451 4.69453763961792 4.42174673080444 3.52714824676514 2.96310949325562 2.5195107460022 1.93250036239624 1.48027205467224 7.4678168296814 9.35964870452881 4.72735691070557 4.22005414962769 6.87222957611084 6.16112470626831 3.56476736068726 3.23272013664246 2.58722925186157 1.53969359397888 1.29729890823364 1.08219945430756 0.955015420913696 0.785833299160004 0.553869664669037 0.366272628307343 0.120533548295498 -0.179403781890869 -0.62628436088562 -1.05658376216888 -1.2142288684845 -0.30708235502243 7.85263395309448 13.7855978012085 16.077808380127 13.2424621582031 12.4958944320679
0.0310270618647337 0.0299314055591822 0.0243482813239098 0.00531827984377742 -0.0100195556879044 -0.0543635934591293 -0.154952555894852 -0.244995832443237 -0.333089292049408 -0.406171917915344 -0.492331445217133 -0.606899261474609 -0.746937930583954 -0.834306359291077 -0.932806670665741 -1.05115842819214 -1.17570245265961 -1.31434774398804 -1.47407114505768 -1.62933397293091 -1.71341991424561 -1.79717719554901 -1.87091934680939 -0.833919703960419 0.849018156528473 2.80653119087219 3.77292799949646 3.28859376907349 2.39151954650879 2.53756499290466 2.46049308776855 2.16552925109863 1.78721654415131 1.47832727432251 1.05785036087036 0.773194670677185 0.681984186172485 0.688192188739777 0.65930163860321 0.688792765140533 0.72860062122345 0.702888011932373 0.658848404884338 0.776163399219513 0.632457911968231 0.607259392738342 0.676284968852997 0.792929768562317 0.632553696632385 0.48149961233139 0.336801081895828 0.571536839008331 0.24379426240921 0.807668149471283 1.85142886638641 3.1488196849823 4.78180313110352 3.74748349189758 2.73945784568787 4.38729858398438 4.21296501159668 5.34123182296753 8.29106616973877 10.1980628967285 12.7942514419556 15.1699476242065 12.8241319656372 10.193886756897 8.88718891143799 9.71917629241943 9.28169918060303 8.60714912414551 8.05638408660889 8.36360263824463 7.8103814125061 7.28615570068359 6.52788400650024 6.06441926956177 5.603102684021 4.91306018829346 4.43381643295288 3.95046639442444 3.36761856079102 3.03619360923767 2.70493388175964 1.54630136489868 0.845821797847748 0.763647735118866 2.11352491378784 7.4078049659729 22.6978206634521 19.8081684112549 18.9593982696533 14.1894559860229 12.1837186813354 11.5522470474243 12.4926195144653 10.6253261566162 8.95201969146729 5.48562002182007 2.74719858169556 1.43418431282043 0.516236960887909 0.467275381088257 1.38770496845245 3.20117115974426 1.61030495166779 3.62240600585938 5.69067811965942 2.15478825569153 1.56306755542755 1.25915169715881 0.99649316072464 0.842550218105316 0.638764619827271 0.558595776557922 0.470535606145859 0.0647617056965828 -0.372881174087524 -0.557811439037323 -0.707327485084534 -0.78505152463913 3.03171110153198 14.4072504043579 20.6810932159424 20.576545715332 15.7753858566284 13.6343431472778 10.5856676101685 9.3066291809082 8.76922512054443 7.49262523651123 7.27353000640869 11.369647026062 6.6274676322937 6.12959861755371 5.73753356933594 4.92042684555054 4.40906763076782 4.10518026351929 3.30592966079712 2.40527129173279 2.13839268684387 1.85466206073761 1.49307823181152 3.90121078491211 7.9403133392334 7.35170078277588 4.1642484664917 4.48972415924072 4.81148147583008 2.76748204231262 2.02054762840271 1.70569276809692 1.07461619377136 0.872960865497589 0.606708645820618 0.317224860191345 0.166908577084541 0.419834762811661 1.1163957118988 0.957769870758057 -0.366168200969696 -0.52634060382843 -0.842063903808594 -1.05599188804626 -1.16018617153168 5.62303972244263 11.9236135482788 13.8557462692261 11.468451499939 10.4428987503052
0.0171236507594585 0.0148460194468498 0.00920651201158762 -0.00801996793597937 -0.0380281470716 -0.112381689250469 -0.215562060475349 -0.29879492521286 -0.388284236192703 -0.470611929893494 -0.542775869369507 -0.656681418418884 -0.762230217456818 -0.850922703742981 -0.940793573856354 -1.05940556526184 -1.18798673152924 -1.32701349258423 -1.49458563327789 -1.65359592437744 -1.77852642536163 -1.86043536663055 -1.78486394882202 -1.05350065231323 -0.222510889172554 2.07417988777161 3.59401321411133 3.90023136138916 3.34646034240723 2.72264719009399 2.43563365936279 2.60611462593079 2.22391366958618 1.64662230014801 1.19997072219849 0.733952820301056 0.728812217712402 0.819061577320099 0.780536830425262 0.72680139541626 0.778180301189423 0.996410965919495 1.18192613124847 1.60999774932861 1.3882976770401 1.04791259765625 1.42944204807281 1.52591395378113 0.525421321392059 0.423993140459061 0.303856015205383 0.304507672786713 0.287555932998657 0.81326299905777 2.42617344856262 4.47973537445068 5.67003488540649 4.39150094985962 2.4973840713501 3.59152436256409 4.85123491287231 7.43225431442261 10.9063358306885 13.2962951660156 11.4474067687988 12.974217414856 14.540376663208 14.1483736038208 12.1890058517456 10.5826005935669 10.9597845077515 10.2390632629395 9.35716438293457 8.247727394104 7.6724009513855 7.12578582763672 6.39364719390869 5.99676370620728 5.31305360794067 4.82978010177612 4.61297988891602 4.32465839385986 3.41742634773254 2.76019477844238 2.13142275810242 1.07226884365082 0.66778963804245 0.494521230459213 2.10536193847656 3.86052775382996 11.4924077987671 20.8370380401611 18.1093521118164 15.4750747680664 13.6069478988647 12.269082069397 11.3949413299561 10.0392751693726 7.87378025054932 4.64191865921021 2.01833200454712 0.991072833538055 1.02519166469574 0.909757256507874 4.59131765365601 3.79220199584961 2.67361521720886 5.32608699798584 4.13381910324097 2.9409544467926 1.96394598484039 1.26481246948242 1.19390201568604 1.05470061302185 0.842887043952942 0.703948259353638 0.563305020332336 0.363052845001221 -0.254121840000153 -0.591774582862854 -0.643291592597961 -0.722352802753448 1.79354071617126 8.5539083480835 20.3455257415771 22.6579322814941 15.9438352584839 13.9800844192505 11.6677198410034 10.5740900039673 9.76894760131836 8.18700313568115 7.62095737457275 7.5706524848938 6.77465629577637 5.68195104598999 5.49184083938599 4.88629388809204 4.153639793396 3.68708896636963 2.82440400123596 2.15437698364258 2.10012173652649 2.46646857261658 1.7242032289505 1.47250664234161 5.2910361289978 7.39907312393188 5.46050882339478 3.61168456077576 3.04411053657532 1.72226142883301 1.00372850894928 0.704877853393555 0.382341891527176 0.224162623286247 0.0186842530965805 -0.213244631886482 -0.176039472222328 -0.055006381124258 0.791579902172089 1.67763102054596 1.1350702047348 -0.114868022501469 -0.279864370822906 -0.594988644123077 -0.625191509723663 1.54638910293579 10.7344741821289 11.3402080535889 11.0649566650391 8.78722476959229
0.0073958532884717 7.98717883299105e-05 -0.0117968358099461 -0.0366278626024723 -0.105197332799435 -0.200178533792496 -0.282842606306076 -0.363641172647476 -0.456060647964478 -0.524549663066864 -0.616152405738831 -0.714209914207458 -0.797252357006073 -0.876976370811462 -0.964026153087616 -1.08175992965698 -1.20118200778961 -1.32712519168854 -1.5046067237854 -1.66891741752625 -1.84048116207123 -1.92532694339752 -1.97181487083435 -1.95803701877594 -0.696112275123596 0.801303744316101 2.31328725814819 3.22699379920959 4.37510299682617 4.21001195907593 2.63478183746338 2.62928938865662 2.41024136543274 1.59572839736938 1.29999208450317 0.916333854198456 0.778725147247314 0.882097542285919 1.06020617485046 0.991357982158661 1.16961455345154 1.11339116096497 1.1473445892334 1.22613501548767 1.03286421298981 1.13601064682007 1.88052618503571 1.70563519001007 0.654391288757324 0.785759925842285 1.16621434688568 0.538234353065491 0.530641674995422 0.613737165927887 1.97770953178406 3.77339649200439 5.34129238128662 7.16979074478149 3.78154706954956 3.1983654499054 2.97194600105286 2.34548449516296 13.3175230026245 17.1367835998535 17.7700958251953 14.3407516479492 15.2815074920654 16.1414585113525 14.1663179397583 12.5986852645874 11.0305423736572 9.8829345703125 9.20981597900391 8.4724760055542 7.8810920715332 7.37438535690308 6.56597757339478 5.95080661773682 5.19387769699097 4.64969825744629 5.41918897628784 4.87135934829712 3.27805352210999 2.56374526023865 1.67113387584686 0.810095727443695 0.412300884723663 0.279909670352936 2.52673292160034 4.6374716758728 8.19688892364502 17.0199432373047 16.3200531005859 15.1209869384766 13.983790397644 12.4485740661621 10.3319244384766 8.78470039367676 6.77246570587158 4.17147827148438 1.68950307369232 1.22202920913696 1.13801681995392 1.14186060428619 4.29196786880493 3.3589289188385 2.85568451881409 7.15718698501587 4.47468090057373 2.82311129570007 1.68916869163513 1.39024651050568 1.29944849014282 1.18682301044464 1.03650593757629 0.837032437324524 0.702711224555969 0.519475162029266 0.126123294234276 -0.536707401275635 -0.700515985488892 -0.723838210105896 -0.894164741039276 8.06261539459229 18.014232635498 21.5860118865967 15.4632377624512 14.1578969955444 12.3217220306396 10.562292098999 10.236629486084 9.33884429931641 7.66841220855713 7.30974292755127 6.65162086486816 5.49354982376099 5.2000789642334 4.80770778656006 4.27561616897583 3.76972198486328 2.72256112098694 1.82749366760254 1.81874346733093 7.06297540664673 1.76068377494812 1.40110087394714 1.31251752376556 5.83618116378784 5.20577716827393 2.02515435218811 1.30232548713684 0.452661335468292 0.273479431867599 0.048586193472147 -0.163540348410606 -0.277742266654968 -0.162030428647995 -0.192181587219238 -0.161260589957237 0.0277939550578594 0.137918934226036 1.32457482814789 2.20183491706848 1.40167486667633 0.448052793741226 0.164958655834198 0.0359644144773483 0.215276852250099 5.5789852142334 9.41363430023193 10.4343976974487 9.08150386810303
0.00602757511660457 -0.0181818529963493 -0.0375705845654011 -0.0842810645699501 -0.186886146664619 -0.273412853479385 -0.340884566307068 -0.426431804895401 -0.504995226860046 -0.627883553504944 -0.703321933746338 -0.748862206935883 -0.841684997081757 -0.908803761005402 -0.983458757400513 -1.09216892719269 -1.21274042129517 -1.33572995662689 -1.49815559387207 -1.70317101478577 -1.85920524597168 -1.95235919952393 -2.00834083557129 -2.08260154724121 -1.6754823923111 0.678787767887115 1.58119738101959 2.17196846008301 4.25505828857422 4.35140323638916 2.97648072242737 2.17685699462891 1.94298470020294 1.45602345466614 1.1406135559082 0.892980933189392 1.82790863513947 2.29455041885376 2.15165400505066 1.9501166343689 2.00953602790833 2.24421715736389 2.50788378715515 1.82435667514801 1.63215613365173 1.82281875610352 2.78122043609619 3.8914201259613 3.1335928440094 3.11367535591125 2.48110580444336 1.45810723304749 0.740436017513275 0.708089470863342 1.35898470878601 0.898038506507874 5.93312549591064 6.82362222671509 3.93406009674072 3.24222993850708 1.82097852230072 0.565259635448456 5.57105588912964 15.6084308624268 17.6517696380615 15.2455854415894 14.6532077789307 18.6855220794678 17.2842216491699 13.902174949646 12.0070209503174 11.2481422424316 10.0247459411621 9.34597969055176 8.88073062896729 7.84595823287964 6.42745542526245 5.32587862014771 4.47636222839355 4.00018548965454 3.48943185806274 3.34666681289673 2.5967264175415 2.13601398468018 1.32795751094818 0.555011570453644 0.290919035673141 0.0453133955597878 4.39383316040039 5.87900686264038 7.21374368667603 15.1508188247681 16.954797744751 13.4816150665283 12.6814279556274 11.4687480926514 9.18108558654785 7.57933235168457 5.87122774124146 3.69285011291504 1.77021384239197 1.3977974653244 1.26211249828339 1.70057272911072 6.0764741897583 3.55260276794434 3.1740710735321 4.85558986663818 5.53606081008911 2.89263772964478 1.70125615596771 1.53909838199615 1.4193115234375 1.31370329856873 2.72049450874329 1.17098867893219 0.957916557788849 0.731410324573517 0.450017929077148 -0.127305179834366 -0.153105154633522 -0.120976127684116 -0.873543500900269 4.78714656829834 15.6092920303345 19.7995853424072 15.2529182434082 13.8630590438843 12.5680179595947 10.5643825531006 10.8077726364136 9.52486705780029 8.12881851196289 7.14093923568726 6.58139801025391 5.80266523361206 5.39208984375 4.86698055267334 4.12021350860596 3.45683073997498 2.43595099449158 1.63175630569458 1.57677054405212 4.17713975906372 3.78801298141479 1.30691349506378 1.06276524066925 3.45464253425598 2.8846538066864 0.704541027545929 0.10595278441906 -0.167614325881004 -0.269653975963593 0.0384995862841606 -0.124064199626446 -0.0123648317530751 0.349015921354294 0.313087731599808 0.00862663518637419 0.302304208278656 0.365143090486526 0.852853834629059 1.65731704235077 2.6551558971405 2.09333109855652 1.57042944431305 0.860327661037445 0.898755967617035 1.50663828849792 7.04895639419556 8.55547142028809 8.13036632537842
0.015516608953476 0.0294311922043562 -0.0458095632493496 -0.148332238197327 -0.257317721843719 -0.333949267864227 -0.391409546136856 -0.467149406671524 -0.590699255466461 -0.697821378707886 -0.783949077129364 -0.82032698392868 -0.541727244853973 -0.811088621616364 -1.00904953479767 -1.01654362678528 -1.21481847763062 -1.34552955627441 -1.50335574150085 -1.67872476577759 -1.85765314102173 -1.97564482688904 -2.04169917106628 -2.14686512947083 -1.99642097949982 0.138816490769386 0.560822546482086 1.42958974838257 2.92167377471924 3.3716287612915 3.11772584915161 2.2907018661499 1.33074557781219 0.975721478462219 0.683133363723755 1.2295378446579 2.04311847686768 2.65618014335632 2.41004991531372 1.9138331413269 1.85678696632385 1.84954917430878 2.00443506240845 2.51954197883606 2.14940905570984 1.90496039390564 4.49085903167725 5.29368734359741 5.16867971420288 4.45326137542725 3.15600681304932 1.80708527565002 0.87040764093399 0.771280646324158 0.603396773338318 0.518606841564178 4.88465404510498 4.17120742797852 2.82388186454773 2.27736234664917 1.87743830680847 0.53963702917099 0.436273187398911 18.1532287597656 12.0035619735718 9.78844928741455 12.0910034179688 17.8814029693604 17.6994094848633 15.2342939376831 12.9064931869507 14.2602100372314 13.6235780715942 10.6996097564697 9.57106971740723 9.00327110290527 6.50875043869019 4.40609121322632 3.9084746837616 3.52643728256226 3.13605213165283 2.86223173141479 2.24059104919434 1.69277477264404 0.914760053157806 0.143590584397316 0.0338087901473045 -0.0666122287511826 4.43693447113037 6.81478214263916 10.5637445449829 13.0513029098511 14.5295124053955 13.2496700286865 11.2532205581665 9.56065273284912 7.95298957824707 6.59578466415405 5.33508634567261 3.5204131603241 2.02901172637939 1.59007346630096 1.45591068267822 2.55372714996338 6.38566493988037 3.85777926445007 2.02211809158325 2.72376561164856 6.51239824295044 5.30439615249634 2.89716196060181 1.71340012550354 1.59265542030334 1.45616269111633 3.78828501701355 1.47562170028687 1.2308669090271 1.01678705215454 0.825401365756989 0.405574947595596 2.718177318573 0.714974403381348 -0.769495010375977 3.21707653999329 11.0302963256836 17.3842353820801 17.2280693054199 13.189341545105 12.4335670471191 11.5788192749023 9.93890190124512 9.25457096099854 8.36693286895752 7.3278021812439 6.67046165466309 5.77116584777832 4.87357044219971 4.40926599502563 3.85955047607422 3.03406405448914 2.1377010345459 1.55236828327179 1.51820623874664 1.28371703624725 0.922544419765472 0.96932989358902 1.58084213733673 1.85347628593445 0.63851124048233 0.161139875650406 0.111255787312984 -0.0369486063718796 0.00845202896744013 0.904720187187195 0.97143816947937 0.652033507823944 0.526222169399261 0.644880175590515 0.43109318614006 0.478507161140442 0.73005348443985 0.738834261894226 1.3796501159668 3.1021876335144 2.91040587425232 2.69873571395874 2.38905644416809 1.66590356826782 1.61432456970215 3.53205442428589 4.2894139289856 8.91145992279053
0.141138404607773 0.0783474966883659 -0.111409313976765 -0.220154225826263 -0.316046893596649 -0.380096226930618 -0.429288595914841 -0.517247796058655 -0.633430659770966 -0.736642420291901 -0.836452841758728 -0.896409869194031 -0.423536658287048 -0.380884975194931 -0.846441686153412 -0.745024740695953 -0.984695136547089 -1.25286114215851 -1.4864718914032 -1.64071452617645 -1.81682503223419 -1.97650575637817 -1.90241396427155 -1.94625818729401 -1.4014937877655 -0.202063485980034 -0.487527132034302 1.21676552295685 1.8328275680542 1.95774412155151 2.28431582450867 1.78590750694275 0.685060262680054 0.173787623643875 0.482754647731781 0.735960304737091 1.58163690567017 2.367262840271 1.72455644607544 1.68366158008575 1.76861095428467 2.63719701766968 3.15885710716248 2.4017927646637 1.24879693984985 1.16828346252441 3.40423488616943 4.11098194122314 3.9390435218811 3.65489053726196 2.85347485542297 2.42628335952759 1.22440850734711 1.00024032592773 0.676213920116425 0.786632478237152 2.00702214241028 2.71088314056396 1.23209023475647 0.877070903778076 1.0401428937912 0.595357239246368 2.00185108184814 10.068811416626 7.69194889068604 8.80516052246094 10.1777648925781 15.0891246795654 16.4170112609863 14.1527471542358 12.0885038375854 20.0708656311035 23.180606842041 17.9220294952393 9.11497116088867 7.52652025222778 6.64058399200439 4.24395418167114 3.53704214096069 3.16391587257385 3.04804754257202 2.82229042053223 2.0724151134491 1.18339681625366 0.746723651885986 0.369056224822998 0.238129258155823 1.39297473430634 5.18212175369263 7.64525699615479 10.3984823226929 12.8458395004272 11.6157426834106 12.0568571090698 10.2248420715332 9.18674373626709 7.93531703948975 6.77521944046021 5.27140998840332 3.59120464324951 2.3426525592804 1.92663609981537 1.74923288822174 1.77078354358673 4.22485780715942 2.24338960647583 1.85129117965698 1.81982421875 6.37106657028198 7.24463796615601 3.64822244644165 1.91757845878601 1.67109441757202 1.56622231006622 2.56474280357361 1.56621479988098 1.39403235912323 1.18567895889282 1.61856997013092 2.21324586868286 0.857288658618927 1.49170398712158 0.294296592473984 4.11348915100098 9.03207969665527 13.3072261810303 15.0823488235474 16.4457149505615 12.8289060592651 11.8771696090698 10.3115701675415 9.21617031097412 8.24936485290527 6.63427400588989 5.91239356994629 5.23811626434326 4.15297794342041 3.60061311721802 2.97073030471802 2.43684816360474 1.76585066318512 1.05378985404968 0.997403681278229 0.925696671009064 0.751220107078552 1.64854383468628 0.955700695514679 0.847292065620422 0.491867542266846 0.184619039297104 0.5108722448349 0.164669066667557 0.05158980935812 1.03635799884796 1.43803834915161 1.09127223491669 1.29158854484558 1.00650894641876 0.962267994880676 0.922405183315277 1.0477032661438 1.1692191362381 1.77197825908661 3.82282948493958 3.85614728927612 2.91476607322693 2.79351735115051 2.50887894630432 2.36564326286316 2.25062823295593 2.72714567184448 7.10294342041016
0.683356702327728 0.376144528388977 -0.113969832658768 -0.289538651704788 -0.166349425911903 0.138814628124237 0.0572723373770714 -0.0395431630313396 -0.207999289035797 -0.244127005338669 -0.631679058074951 -0.745793104171753 -0.407348215579987 -0.387647449970245 -0.586222410202026 -0.70326167345047 -0.940723478794098 -1.20528507232666 -1.40094780921936 -1.45739126205444 -1.55555546283722 -1.71342754364014 -1.81429028511047 -1.83589482307434 -1.10146450996399 -1.34684658050537 -1.25120103359222 0.60395759344101 1.56350648403168 1.11120462417603 0.813947737216949 0.347029685974121 -0.0416763201355934 0.0672123655676842 0.242469012737274 0.685726702213287 1.96284532546997 2.67121267318726 2.82766032218933 1.83141160011292 2.09264779090881 4.2333197593689 5.2466197013855 2.76200938224792 2.10902762413025 2.53290176391602 1.95763421058655 2.61751818656921 3.17442440986633 2.47416424751282 1.58949780464172 1.57106387615204 2.49590849876404 0.885786056518555 0.810649693012238 1.25970256328583 1.7622879743576 2.20783734321594 1.44933092594147 1.04465973377228 1.29256546497345 3.81008553504944 4.05450391769409 4.23691320419312 5.81887102127075 8.37428283691406 9.01379108428955 9.87544441223145 15.832911491394 11.462779045105 8.1895580291748 13.5800867080688 28.0864582061768 18.0666351318359 9.46568202972412 7.1185040473938 6.25180006027222 4.94120836257935 3.76029849052429 3.51208162307739 3.78940033912659 3.28729128837585 2.08052062988281 1.19269156455994 1.21550178527832 1.23767566680908 1.07348680496216 2.17786288261414 7.06391716003418 7.65236902236938 9.13136768341064 10.9088563919067 11.9336042404175 12.3669214248657 11.4792900085449 9.51008319854736 8.64804649353027 7.27337408065796 5.67739295959473 3.80300521850586 2.67693066596985 2.25330758094788 2.01991081237793 1.96582508087158 1.96265804767609 2.09205842018127 1.91289806365967 1.87471294403076 6.07042264938354 8.01196193695068 4.06929874420166 1.93484675884247 1.76457297801971 1.66852486133575 2.34865117073059 2.81720232963562 1.63112235069275 1.43654608726501 1.32062339782715 1.3321658372879 4.63952541351318 4.60054731369019 1.61878108978271 2.03017497062683 6.52774333953857 10.2588129043579 13.1261329650879 16.3073444366455 14.3739786148071 11.7732715606689 10.0551910400391 8.24462795257568 7.47042942047119 5.98449516296387 4.77286005020142 4.00495624542236 3.25477409362793 2.63063716888428 1.8254656791687 1.25825762748718 1.19728136062622 0.961535155773163 0.787525355815887 1.09373939037323 3.06149649620056 2.54693055152893 1.18140769004822 1.4001145362854 1.03937220573425 0.587626457214355 0.912814259529114 0.760919868946075 0.557889103889465 0.793202936649323 1.07176780700684 1.86871159076691 2.3247537612915 1.52999198436737 1.44128823280334 1.70463538169861 1.77737557888031 1.71584248542786 2.69187164306641 3.48864102363586 3.68164205551147 2.97858214378357 2.87077164649963 2.92802429199219 2.90544366836548 2.74396014213562 2.90789890289307 4.75830554962158
0.529748320579529 1.21078729629517 1.85507166385651 1.43423211574554 0.919003307819366 0.738850235939026 0.979176223278046 0.507927894592285 -0.0035680802538991 0.0742312222719193 -0.27599361538887 -0.45950973033905 -0.429917871952057 -0.458624303340912 -0.554712951183319 -0.688509821891785 -0.884559512138367 -1.0295205116272 -1.15269780158997 -1.27913022041321 -1.40939128398895 -1.61002397537231 -1.70648384094238 -1.76624965667725 -1.34696567058563 -1.73615288734436 -1.66060388088226 1.92224991321564 0.704833209514618 -0.0273010767996311 -0.664694011211395 -0.678396821022034 -0.703000724315643 -0.274125754833221 0.319967269897461 1.07698202133179 2.57074522972107 3.11499094963074 2.0282678604126 0.671318888664246 1.84381258487701 5.95057964324951 7.83166694641113 5.03016519546509 2.60917830467224 2.77182483673096 1.97633588314056 1.99242770671844 2.08853578567505 1.84107851982117 1.22467601299286 1.22251093387604 1.23613262176514 1.08604466915131 2.11692905426025 1.73550617694855 2.05965304374695 1.85951125621796 0.991733610630035 0.997320950031281 4.47780466079712 7.76690340042114 9.0980806350708 6.30130624771118 5.37101411819458 5.67223978042603 5.98869895935059 6.92290639877319 14.27015209198 11.2289772033691 8.31148242950439 9.59326076507568 19.5922832489014 19.1163139343262 12.563289642334 8.36814498901367 7.10693168640137 6.35324239730835 5.2860426902771 4.68683862686157 4.84507846832275 4.70317649841309 3.05455923080444 2.13567304611206 2.20052099227905 2.01401305198669 1.82313203811646 2.7455723285675 9.03373241424561 6.00527954101562 5.57974052429199 8.33695697784424 9.74754238128662 16.717248916626 13.4568996429443 10.6949090957642 8.58919811248779 7.27153396606445 6.06190347671509 3.91809964179993 2.8649754524231 2.44443106651306 2.25168132781982 2.11464333534241 2.05989956855774 2.05894184112549 2.00789380073547 1.87973427772522 6.5408763885498 5.54959392547607 4.25847053527832 2.054518699646 1.93192756175995 1.88096964359283 3.65274620056152 4.19673299789429 1.85114169120789 1.64075684547424 1.46057236194611 2.31706619262695 6.72062206268311 3.58019876480103 0.443188339471817 1.57603740692139 7.29074335098267 9.60141563415527 13.5974588394165 13.8257904052734 14.6796636581421 10.4205179214478 9.21016502380371 6.92551517486572 5.70373678207397 4.57368898391724 3.48855710029602 2.53292608261108 1.75554776191711 1.41966021060944 1.23545968532562 1.04681754112244 0.963313698768616 0.777524352073669 0.515079975128174 0.667328655719757 3.59223008155823 3.11220145225525 1.8275545835495 1.91671693325043 1.95196688175201 1.38425815105438 1.22224521636963 1.54515957832336 1.29766690731049 0.985825896263123 1.2302987575531 1.49457991123199 2.67873477935791 2.8758270740509 2.43236923217773 2.67556953430176 3.15858912467957 3.10458493232727 3.20653343200684 3.17219424247742 3.30119943618774 3.39892363548279 3.34498000144958 3.28043937683105 3.32409238815308 3.28776907920837 3.26407623291016 3.6053032875061
4.02032279968262 4.06436920166016 3.25355648994446 3.24503445625305 1.98371028900146 1.18498229980469 1.2570960521698 0.764153063297272 0.308110654354095 0.081201046705246 -0.11862700432539 -0.335613667964935 -0.483012914657593 -0.50901848077774 -0.166759818792343 -0.674957871437073 -0.424631386995316 -0.812906324863434 -1.06723606586456 -1.17822015285492 -1.299724817276 -1.56807780265808 -1.64230215549469 -1.59009861946106 -1.62949681282043 -1.65509903430939 -1.62884867191315 0.298995643854141 0.456719368696213 -0.31244108080864 -0.828483760356903 -1.25029897689819 -1.31289827823639 -0.64371395111084 0.898368299007416 2.03765177726746 3.16443610191345 3.0131630897522 0.272075951099396 -0.610335290431976 -0.616445302963257 3.86137914657593 6.20742559432983 4.96560955047607 3.42104840278625 3.06008911132812 2.48027038574219 1.92350256443024 1.78896236419678 1.59389674663544 1.15510106086731 0.864899337291718 0.660963892936707 1.8973445892334 2.70134973526001 2.08884072303772 1.69557726383209 0.791060566902161 0.134780809283257 0.038851473480463 -0.134901061654091 10.4098205566406 9.0056266784668 6.04264688491821 3.85060739517212 3.08088564872742 4.03998804092407 7.47031497955322 8.50934028625488 8.30322074890137 8.1220121383667 9.62495136260986 13.4709701538086 19.8442440032959 14.4059181213379 10.4630393981934 8.37453269958496 7.25933313369751 6.78808498382568 6.40178728103638 6.43755197525024 5.96068859100342 4.29657983779907 2.68783140182495 2.50802135467529 2.27207732200623 2.21597003936768 2.35758113861084 10.6317167282104 5.80241537094116 4.57144737243652 4.37127590179443 8.6480073928833 20.0584354400635 12.5237865447998 10.4898414611816 8.64314270019531 6.61283254623413 5.6004638671875 3.79978942871094 3.065993309021 2.55108404159546 2.38202953338623 2.26856160163879 2.13773155212402 2.11246085166931 2.04339337348938 2.00538921356201 5.13862657546997 4.75325870513916 7.05996179580688 2.51120662689209 2.2094931602478 2.17207980155945 4.27512359619141 2.0950300693512 2.02315759658813 1.8845477104187 1.67791211605072 1.5608856678009 5.69154357910156 6.12082862854004 0.915596783161163 3.30171489715576 6.64979600906372 7.12770652770996 11.6787443161011 13.4444580078125 9.57471942901611 9.0820369720459 6.82835960388184 5.25933456420898 4.08683252334595 2.5414674282074 1.69697296619415 1.3975168466568 1.24413478374481 1.19526016712189 1.14229929447174 0.927995324134827 0.773695349693298 0.496948421001434 0.154853492975235 0.151701211929321 3.36170530319214 4.39887428283691 3.54559135437012 2.37125134468079 2.67918753623962 2.45061063766479 2.00703310966492 1.97016668319702 1.94394779205322 1.53326618671417 1.31709170341492 1.68480110168457 1.86549055576324 2.85374307632446 3.6355664730072 3.47001242637634 3.93645310401917 4.24694156646729 4.39840030670166 4.04947566986084 3.855628490448 3.77217364311218 3.82574439048767 3.72153615951538 3.60633659362793 3.64109516143799 3.58438467979431 9.38559246063232
6.07017135620117 5.01617956161499 3.66165924072266 3.43888735771179 2.22455024719238 1.4225834608078 1.00968861579895 0.78619110584259 0.383660823106766 0.00952142290771008 -0.0877635926008224 -0.325534850358963 -0.643422722816467 0.118033185601234 0.0402568429708481 -0.159880205988884 -0.434857994318008 -0.352241635322571 -0.763259768486023 -1.02881646156311 -1.14958012104034 -1.38683748245239 -1.54487061500549 -1.55961918830872 -1.60976696014404 -1.66518843173981 -1.76777267456055 -1.47092080116272 -0.640598714351654 -0.558391332626343 -1.30176103115082 -2.08200097084045 -2.28513789176941 -0.614259362220764 0.830902457237244 1.81711864471436 3.53628015518188 2.84622311592102 0.228806287050247 -0.814367949962616 1.49175107479095 3.98718452453613 5.50803327560425 5.37872934341431 4.81401586532593 4.11674356460571 2.85604667663574 2.16776084899902 1.73807394504547 1.16493129730225 0.74565726518631 0.625303328037262 0.544451653957367 2.61122679710388 3.07177925109863 2.01298022270203 1.41909754276276 0.458851337432861 0.0199245736002922 -0.196763589978218 -0.531296014785767 6.02049398422241 7.04333209991455 4.38367891311646 2.66860914230347 3.39428853988647 4.90077686309814 5.39409065246582 5.52149868011475 5.57885503768921 7.28058195114136 9.2728099822998 13.3295526504517 16.2732639312744 13.8736047744751 11.2047538757324 9.5157527923584 8.99450016021729 8.52968311309814 7.38361167907715 6.990562915802 6.41341924667358 4.95751142501831 3.13179016113281 2.68250441551208 2.52730584144592 2.4682149887085 3.46819877624512 9.88834381103516 5.64046382904053 4.05933046340942 3.6680736541748 9.10904788970947 20.2998065948486 11.5325422286987 9.51382160186768 7.50280666351318 5.28824615478516 4.51576471328735 3.66622805595398 3.20058846473694 2.67665457725525 2.41647911071777 2.37590312957764 2.36342740058899 2.34862923622131 2.27767181396484 2.27023434638977 4.16113328933716 3.70202040672302 6.78059768676758 4.10131216049194 2.43383955955505 2.49815559387207 2.91631937026978 2.28969383239746 2.25541591644287 2.22730135917664 1.98131251335144 1.70629715919495 9.07676219940186 5.97409629821777 1.2120795249939 2.66869974136353 7.56816673278809 8.10763359069824 8.69131469726562 10.2640247344971 6.20784091949463 7.22527933120728 5.81260299682617 3.15798735618591 1.53976666927338 1.39066362380981 1.337517619133 1.28111851215363 1.07407855987549 1.04307222366333 0.998546063899994 0.636378407478333 0.468168497085571 0.209014967083931 -0.248019352555275 -0.29147881269455 2.24992656707764 4.83284425735474 5.79889583587646 5.17083692550659 3.18851828575134 3.11526322364807 2.58415675163269 2.09031319618225 2.54307198524475 2.5447633266449 2.04274368286133 1.98276460170746 2.02023601531982 2.33485007286072 3.79758048057556 4.06737804412842 3.83306312561035 5.22151947021484 5.52666330337524 4.95110511779785 4.40198469161987 4.12332010269165 4.11600303649902 3.98034834861755 3.95146489143372 4.70988368988037 3.99753093719482 11.551308631897
5.82337236404419 5.71415042877197 4.0514874458313 2.6220498085022 1.97931289672852 1.05797362327576 1.21166455745697 2.22056818008423 1.31458961963654 0.0792657658457756 1.40804195404053 0.859523713588715 0.191286116838455 0.00897740945219994 0.681473970413208 0.443547278642654 -0.0416079685091972 -0.348430067300797 -0.695000827312469 -1.06716752052307 -1.16708886623383 -1.32763290405273 -1.48103845119476 -1.65908515453339 -1.7253086566925 -1.79060292243958 -1.91245794296265 -1.97505736351013 -1.53684151172638 -1.75204646587372 -2.26175737380981 -2.51696062088013 -2.6535484790802 1.81293201446533 2.5681357383728 2.51224970817566 3.39589476585388 4.25238513946533 0.781391859054565 -0.56820160150528 0.126446083188057 1.96238160133362 2.95859837532043 3.22196364402771 3.32029223442078 3.88737010955811 3.71568036079407 2.54090666770935 1.35920453071594 0.717530190944672 0.618451297283173 0.135353118181229 1.29701066017151 3.5675482749939 3.62619614601135 2.45725679397583 1.4132262468338 0.635450005531311 0.132023081183434 -0.287557423114777 -0.371229559183121 3.12359833717346 5.65880870819092 2.58454751968384 2.48742389678955 4.000403881073 4.46566534042358 3.4721212387085 3.93775820732117 5.85332298278809 8.02739238739014 10.1801452636719 13.8566474914551 13.9695777893066 14.0502510070801 13.2107248306274 12.2374305725098 10.7852249145508 9.79995346069336 8.64045906066895 7.48720026016235 6.79310703277588 5.57137584686279 3.80846667289734 3.04812288284302 2.82153105735779 2.76776671409607 4.2838716506958 9.6389684677124 6.76246643066406 4.20914268493652 3.57856726646423 9.187819480896 15.1638498306274 9.40451335906982 7.46814012527466 5.79511499404907 4.72863531112671 4.03185749053955 3.80737900733948 3.49143242835999 2.92020225524902 2.56317543983459 3.15628504753113 3.19733095169067 4.1280574798584 2.72698283195496 2.6935670375824 2.58921551704407 6.13092994689941 5.91314888000488 4.64221239089966 2.75537323951721 2.77092933654785 2.68114542961121 2.61339068412781 2.57610249519348 2.54631519317627 2.33219814300537 5.0010838508606 7.88381242752075 1.64127421379089 1.79643392562866 6.06934213638306 8.3014612197876 9.90202522277832 7.97142505645752 6.89460706710815 5.91671657562256 3.10989665985107 1.76593244075775 1.48260796070099 1.43831288814545 1.19610679149628 1.15872359275818 1.13201880455017 0.805831730365753 0.725753962993622 0.622010469436646 0.185928195714951 0.089934267103672 -0.124396339058876 -0.421204119920731 -0.556877315044403 0.173376992344856 3.32056021690369 5.73618459701538 6.32002830505371 4.97595310211182 3.72600555419922 3.8376133441925 3.23544073104858 3.02626800537109 3.07311797142029 2.56068992614746 2.09294939041138 2.02688932418823 2.10956048965454 3.44476103782654 4.11912631988525 4.37789678573608 5.39609432220459 5.64974546432495 5.18201065063477 4.78527688980103 4.43881130218506 4.23221683502197 4.21587944030762 4.14822864532471 4.00603580474854 10.8428535461426 11.3559265136719
4.93500232696533 5.54209089279175 4.05783128738403 2.48998999595642 0.71236127614975 -0.0987740829586983 0.101740956306458 4.84850549697876 3.95467567443848 2.34008502960205 1.21667945384979 1.83720171451569 1.16744112968445 0.764567732810974 0.72992068529129 0.547873914241791 0.0343610532581806 -0.412237405776978 -0.65887987613678 -0.995313882827759 -1.32884097099304 -1.46246480941772 -1.57365834712982 -1.72477006912231 -1.86473369598389 -1.96365201473236 -2.04404091835022 -2.12394857406616 -2.21434950828552 -2.43023824691772 -2.64660048484802 -2.9814305305481 -3.08033204078674 0.512002825737 1.19950675964355 -0.244888171553612 -1.19038367271423 -0.174732133746147 -0.329729288816452 -0.95161360502243 -0.586893618106842 -0.140973463654518 0.261834502220154 0.456096291542053 0.611730515956879 1.16529810428619 1.73476147651672 1.81816828250885 0.972720742225647 0.636689364910126 -0.0996883064508438 -0.408472418785095 1.41293430328369 2.46953010559082 2.79272699356079 2.11710000038147 1.35347259044647 0.532570064067841 0.157016530632973 -0.449402928352356 -0.642078399658203 3.43368148803711 3.17333555221558 1.15411853790283 1.97849273681641 3.90262484550476 3.86209678649902 4.73798704147339 7.16235733032227 8.67803001403809 10.1793746948242 12.924108505249 16.3544502258301 20.8229179382324 18.4281215667725 15.3728551864624 14.2853012084961 12.2781410217285 11.6067399978638 10.8692274093628 9.02212905883789 7.50083589553833 6.42131042480469 4.76621055603027 3.60480189323425 3.21335411071777 3.08452558517456 5.34377288818359 8.54073715209961 7.43179559707642 4.53260135650635 5.15786838531494 7.80487823486328 8.52206039428711 7.6975564956665 5.68461894989014 4.77829027175903 4.34003925323486 4.22347927093506 3.98827958106995 3.73570704460144 3.23905396461487 2.86175107955933 4.19809198379517 3.78292632102966 6.31612062454224 3.09987831115723 3.02199101448059 2.87526679039001 7.687575340271 5.76857757568359 3.7128758430481 3.65179371833801 3.25640034675598 3.18879342079163 3.1123149394989 6.64432430267334 3.13340353965759 3.06238675117493 3.5175473690033 2.57369589805603 5.11168670654297 2.42932558059692 4.92035818099976 5.92325782775879 6.56878471374512 6.1705493927002 3.23562288284302 1.92989110946655 1.61671388149261 1.34685802459717 1.29052329063416 1.25603544712067 0.917044818401337 0.88787043094635 0.845628023147583 0.400943040847778 0.254634499549866 0.101077660918236 -0.0126368654891849 -0.13711242377758 -0.330193102359772 -0.565870761871338 -0.716292321681976 -0.785294592380524 1.99984669685364 5.09715700149536 7.0515022277832 6.31493425369263 4.5913462638855 4.5890908241272 3.92128348350525 3.40705108642578 3.10585618019104 2.78732252120972 2.35015630722046 2.0464301109314 2.22110748291016 2.27102255821228 4.66425085067749 4.81900215148926 5.1372537612915 6.16112470626831 5.33217716217041 5.19667482376099 4.80381441116333 4.42718124389648 4.39434576034546 4.46939945220947 12.0343713760376 7.07509279251099 7.0257511138916
5.4937801361084 4.28459596633911 3.04096102714539 1.82538640499115 -0.257827788591385 -1.00004661083221 -0.0700094029307365 3.96643114089966 5.5031852722168 3.85724973678589 2.47298908233643 1.91858434677124 1.44108438491821 0.931323230266571 0.651136219501495 0.466170698404312 -0.0636304914951324 -0.456057071685791 -0.693080961704254 -0.922258138656616 -1.30140888690948 -1.61603057384491 -1.72705388069153 -1.89092922210693 -2.00161695480347 -2.09301376342773 -2.12677574157715 -2.31017231941223 -2.57855987548828 0.473286181688309 0.138590931892395 -2.36958026885986 -2.84242033958435 -1.8538943529129 -0.558403551578522 -0.589190363883972 -1.38161218166351 -1.83008599281311 -1.92153418064117 -1.52502262592316 -0.956028461456299 -0.841473460197449 -1.11807858943939 -0.673589527606964 -1.08286583423615 -0.946059107780457 -0.130893513560295 -0.981481432914734 -0.928808331489563 -1.19537878036499 -1.15842199325562 -0.832104444503784 0.313147395849228 1.85907125473022 1.48823666572571 0.69688880443573 -0.0139350173994899 1.38161599636078 0.737018704414368 -0.339574784040451 -0.418798476457596 1.96686792373657 0.694842040538788 -0.00746532855555415 1.96157610416412 5.16291093826294 6.83977508544922 8.36062526702881 11.3448810577393 11.1534204483032 11.2524614334106 12.0443992614746 16.8705940246582 21.487943649292 22.4496250152588 17.9574546813965 17.1945781707764 14.7744607925415 12.9373083114624 12.0110702514648 10.4869813919067 8.62969303131104 7.1711311340332 5.78331804275513 4.6270637512207 3.63526463508606 3.45492100715637 5.37589263916016 7.74168825149536 6.82410192489624 3.89129543304443 6.40511846542358 6.87785816192627 7.54172086715698 5.95990800857544 5.49337387084961 4.53534030914307 4.49128341674805 4.35592269897461 4.1908802986145 3.8991265296936 3.48834824562073 3.1044557094574 5.43736028671265 4.30090618133545 9.77463436126709 5.90016078948975 4.62510633468628 3.31840991973877 8.15138339996338 7.22054672241211 3.67251205444336 3.67908215522766 3.62629628181458 3.64687561988831 7.7660436630249 6.54335737228394 3.85780143737793 3.77052640914917 3.48076796531677 3.22092175483704 6.22360944747925 5.34946060180664 2.54128193855286 2.47838544845581 1.88820362091064 1.85144114494324 1.55878984928131 1.48921763896942 1.4185631275177 1.03376066684723 1.00130701065063 0.961878061294556 0.646904945373535 0.521575570106506 0.450665175914764 0.285356104373932 0.097971610724926 -0.0906325951218605 -0.240509673953056 -0.370536714792252 -0.505537390708923 0.00071168557042256 0.0800802335143089 -0.0630958005785942 0.241258904337883 4.15635585784912 6.73428678512573 6.10186576843262 5.63829660415649 4.68270254135132 4.58429718017578 3.84237694740295 3.17859435081482 2.9794933795929 2.57156562805176 2.29215574264526 1.93039226531982 2.12187957763672 4.06891107559204 4.67274522781372 6.20610904693604 6.84978437423706 6.03007030487061 5.54053735733032 5.15723371505737 4.84595203399658 4.71009492874146 9.21710395812988 6.85259056091309 6.23606061935425 7.57617425918579
3.79411959648132 2.38063716888428 1.44076120853424 1.56646716594696 1.43041896820068 -0.917788922786713 -1.1495509147644 2.71036744117737 4.1636061668396 4.38601064682007 2.96895861625671 2.0767297744751 1.25424313545227 0.757869601249695 0.503777146339417 0.0431074388325214 -0.283796072006226 -0.589058518409729 -0.900236785411835 -1.12742447853088 -1.40132308006287 -1.63910722732544 -1.81578326225281 -2.02368426322937 -2.15297293663025 -2.27714681625366 -2.4648973941803 -2.99614930152893 -3.23506116867065 -3.32581663131714 -1.41337275505066 -1.72840166091919 -1.84940278530121 -1.88023328781128 -1.73015952110291 -1.61111736297607 -1.95451736450195 -2.21195101737976 -1.75060629844666 -0.804543375968933 0.200151056051254 -0.703228294849396 -0.991606473922729 -1.17932510375977 -1.79976367950439 -0.712980329990387 -1.42904365062714 -1.62604987621307 -1.87326300144196 -1.17531073093414 -1.52856147289276 0.73955911397934 2.59402585029602 2.76759648323059 1.96921479701996 0.423867285251617 -0.533909618854523 0.763815760612488 0.423245459794998 0.00928755011409521 0.18427786231041 0.204505354166031 -0.440570056438446 -1.23770618438721 1.89208424091339 7.27202892303467 6.03877592086792 6.75157785415649 8.61934757232666 8.69826698303223 9.4998083114624 11.1954126358032 16.9634475708008 22.619291305542 23.1634960174561 21.0125923156738 18.5828456878662 16.0976142883301 14.0655298233032 12.5745487213135 11.6177816390991 9.91586494445801 8.085618019104 6.56555128097534 5.41693449020386 4.47278690338135 3.93503165245056 4.51682233810425 4.50463104248047 4.1130747795105 6.50436162948608 10.179669380188 6.4662766456604 7.13924646377563 5.20063400268555 4.89099788665771 4.71463966369629 4.55729293823242 4.45298194885254 4.30323076248169 4.0276985168457 3.57633829116821 3.2458598613739 3.23420643806458 4.22235774993896 14.2915506362915 7.59386301040649 6.98475074768066 4.64573812484741 3.97173142433167 4.8580584526062 4.12586450576782 4.07479524612427 6.96102666854858 10.388729095459 8.10565185546875 4.50585222244263 4.39296722412109 4.17157077789307 3.92626285552979 3.70346879959106 3.40371608734131 3.11425161361694 2.83460259437561 2.37521529197693 1.84279274940491 1.64150321483612 1.19417154788971 1.1469292640686 1.10225439071655 0.821928024291992 0.781878590583801 0.655511856079102 0.581286251544952 0.455493062734604 0.327501684427261 0.198759332299232 -0.0244413763284683 -0.0932716056704521 0.541124105453491 0.749853134155273 0.473153233528137 0.600858747959137 0.537291705608368 0.268126219511032 0.232671305537224 3.57840275764465 5.77801609039307 6.87080097198486 6.14048337936401 5.2260217666626 4.98037385940552 4.17416572570801 3.3953013420105 2.60798072814941 1.93962955474854 2.06120371818542 2.19024467468262 2.06414341926575 2.4076988697052 4.56289482116699 7.35855340957642 7.76575183868408 6.48965835571289 5.82240438461304 5.29598999023438 5.34569883346558 5.05167722702026 5.01532936096191 4.70020055770874 4.77578830718994 10.4480714797974
1.00375747680664 -0.218695282936096 -0.608489871025085 0.595748603343964 3.01327872276306 0.568488717079163 -1.05198907852173 -0.0495325177907944 4.05328035354614 3.57895231246948 2.54181981086731 1.93698132038116 0.936391234397888 0.268436312675476 0.047862246632576 -0.128674924373627 -0.38004532456398 -0.669307947158813 -0.929887652397156 -1.21171450614929 -1.41968190670013 -1.6895889043808 -1.97859501838684 -2.15688371658325 -2.31430840492249 -2.59897208213806 -2.95928907394409 -3.2577211856842 -3.44311881065369 -3.55923128128052 -3.6416335105896 -3.66239619255066 -2.38375306129456 -1.59973359107971 -0.517195224761963 -0.816234350204468 -2.01874184608459 -3.08175659179688 -2.90800786018372 0.136849403381348 1.79283106327057 -0.223701223731041 -1.78433775901794 -1.46500205993652 -1.96892750263214 -1.42120742797852 -1.68135571479797 -1.64414882659912 -1.99008512496948 1.13240718841553 0.503071486949921 1.12869298458099 3.81948399543762 2.26725816726685 0.75220650434494 -0.286755502223969 -1.08282625675201 0.325550645589828 1.22493362426758 0.888205230236053 0.0988971963524818 -1.16421115398407 -1.71036195755005 -2.16508483886719 0.14930759370327 4.81592035293579 5.26103782653809 6.11747264862061 7.41789770126343 7.77398061752319 7.07611036300659 7.09728717803955 20.2662258148193 22.3764171600342 23.7445011138916 23.6087417602539 19.9040870666504 18.305139541626 15.7229661941528 13.7558994293213 12.3878288269043 10.8847875595093 9.22434616088867 7.83570957183838 6.3580379486084 5.1357274055481 4.63018941879272 4.745276927948 4.66307735443115 4.63434743881226 8.45559406280518 10.731388092041 5.64774322509766 5.53445863723755 5.16717720031738 5.03340435028076 4.85891008377075 4.68211269378662 4.57571887969971 4.40725612640381 4.14852333068848 3.81583333015442 3.53005027770996 3.56665706634521 8.41466617584229 14.95751953125 11.4617338180542 7.70123386383057 5.49030208587646 4.96682262420654 4.52681875228882 4.6371636390686 5.38778114318848 6.86983299255371 4.78426599502563 4.70697212219238 4.72804021835327 4.60165357589722 4.34785509109497 4.05385637283325 3.87458801269531 3.63920664787292 3.27903461456299 2.88622736930847 2.3832414150238 1.87922835350037 1.39907956123352 0.943528652191162 0.866186499595642 0.74724143743515 0.713543355464935 0.64342325925827 0.565105259418488 0.721653938293457 0.827638566493988 1.62763166427612 1.80921840667725 1.47804689407349 1.101602435112 1.25675022602081 1.4371200799942 1.15163457393646 0.847749173641205 0.529706835746765 0.388925909996033 0.270819276571274 0.506868779659271 4.97171878814697 6.83712530136108 6.78021764755249 5.14155673980713 4.21963453292847 4.17097663879395 3.87311601638794 2.15442156791687 1.76708519458771 2.41478204727173 2.40497803688049 2.36468076705933 1.73021900653839 3.16091537475586 7.07820463180542 8.0808277130127 7.5962290763855 5.97984266281128 5.54336023330688 6.15759754180908 5.44155216217041 5.46486473083496 5.00145721435547 10.1755266189575 7.40275287628174
0.243011385202408 -0.143781051039696 -0.817415297031403 -0.820809662342072 2.14179611206055 1.29467809200287 0.241656318306923 -0.566930651664734 3.76559829711914 3.48386406898499 1.90516340732574 1.44195663928986 0.799191534519196 0.256738573312759 -0.115208074450493 -0.224887162446976 -0.445405721664429 -0.86803662776947 -1.06327056884766 -1.19433391094208 -1.48084807395935 -1.79579722881317 -2.07065868377686 -2.26792740821838 -2.55247402191162 -2.91306233406067 -3.12017416954041 -3.2694149017334 -3.44017052650452 -3.54439401626587 -2.96247887611389 -1.00352537631989 -1.27113544940948 -1.84048521518707 -1.07898771762848 -0.891131222248077 -1.08253812789917 -2.65834021568298 -2.93296885490417 -1.68550479412079 -0.253234446048737 1.1429215669632 -0.759780764579773 -0.922546982765198 -1.27429735660553 -1.49040949344635 -0.964495539665222 -1.21807634830475 -1.42631018161774 -0.16947016119957 0.941306591033936 1.50360774993896 2.37284350395203 0.0677733197808266 -0.114494942128658 -0.711493909358978 -1.19198715686798 -0.517058610916138 2.39509868621826 1.09714698791504 -1.05614912509918 -1.71985793113708 -2.16382098197937 -2.48854732513428 0.974628627300262 4.06234550476074 5.06104469299316 5.39661645889282 6.1073260307312 7.76721525192261 7.45790243148804 6.32126140594482 16.2727088928223 23.1991577148438 25.3431854248047 24.4741134643555 22.5468521118164 19.3209762573242 16.6313400268555 14.5564270019531 13.1447868347168 11.7373714447021 10.1561613082886 8.62111568450928 7.09196519851685 5.65668869018555 5.17130899429321 5.27398347854614 5.22380352020264 5.22230339050293 8.8488130569458 7.91930150985718 5.75680112838745 5.49424743652344 5.32408332824707 5.18861103057861 5.01820707321167 4.83489799499512 4.78647661209106 4.71480512619019 4.4836893081665 4.14154386520386 3.92157816886902 4.81967449188232 10.6974678039551 15.4931058883667 12.734715461731 9.09746360778809 7.62550830841064 6.73590135574341 6.12573719024658 5.44324779510498 5.12760639190674 5.06368064880371 4.9578685760498 4.86019039154053 4.73334932327271 4.6342077255249 4.38236284255981 4.10273694992065 3.89572167396545 3.70305037498474 3.35946035385132 2.77566981315613 2.35355353355408 1.87510848045349 1.4143180847168 1.031130194664 0.756683468818665 0.856982529163361 1.16914701461792 1.21135687828064 2.33832716941833 2.65063071250916 2.43990516662598 2.27301931381226 2.26590013504028 1.84245812892914 1.5562641620636 1.43929266929626 1.48535311222076 1.25721800327301 0.980334103107452 0.680749714374542 0.539032578468323 0.439317017793655 0.288263320922852 3.56112122535706 6.61860799789429 3.80317616462708 2.23448777198792 1.42327892780304 4.21923303604126 1.32648992538452 1.10420966148376 3.69587159156799 2.07890725135803 2.25451922416687 1.94975781440735 1.16762661933899 1.31477189064026 3.32684755325317 6.20892095565796 6.0796012878418 5.81031227111816 7.71553421020508 8.01093196868896 6.67115354537964 6.12289237976074 5.53322887420654 10.7475671768188 5.61990976333618
-0.00154001847840846 -0.346177667379379 -0.975383698940277 -1.14360737800598 1.94674241542816 1.22540998458862 1.07924151420593 0.0607189573347569 2.06727004051208 3.05376505851746 1.64471018314362 1.22034215927124 0.631687641143799 0.229754239320755 -0.418194621801376 -0.571464002132416 -0.755779445171356 -0.959409773349762 -1.08707499504089 -1.19234228134155 -1.47287952899933 -1.84127271175385 -2.17963647842407 -2.37706708908081 -2.73096084594727 -3.00682663917542 -3.13561677932739 -3.15550971031189 -3.19956135749817 -3.24463725090027 -2.46551418304443 -1.73332822322845 -2.06229043006897 -2.02316236495972 -2.37167072296143 -1.92577028274536 -2.02237105369568 -2.80488300323486 -3.3296160697937 -3.33828353881836 -0.500203013420105 2.55323648452759 1.18257486820221 0.0896134227514267 -0.433750569820404 -0.608586549758911 -0.692369997501373 -0.791519641876221 -0.912668347358704 -1.11678910255432 0.29511621594429 0.413137316703796 0.063220202922821 -0.183944582939148 -0.314237087965012 -0.650713741779327 -1.19198870658875 -0.421960592269897 1.35988831520081 0.626781582832336 -0.928958237171173 -2.09441447257996 -2.60467410087585 -2.68269181251526 0.45228573679924 3.73731279373169 5.16653490066528 4.92595291137695 4.87746143341064 6.93914031982422 7.76203346252441 6.77692651748657 6.92855978012085 23.7252750396729 23.9769611358643 24.89772605896 24.4741268157959 20.7857227325439 18.4327526092529 15.8838262557983 14.0162115097046 13.075647354126 11.3216285705566 9.41740322113037 7.94945001602173 6.37578868865967 5.83416986465454 5.83153295516968 5.59743452072144 5.5596399307251 7.97630167007446 6.9830904006958 6.58033275604248 5.70013904571533 5.52034950256348 5.47178220748901 5.44384288787842 5.23137283325195 4.99914312362671 4.87125492095947 4.73590755462646 4.51882648468018 4.39236736297607 7.56851577758789 9.18297386169434 17.0425224304199 11.5697565078735 9.77943420410156 8.03489589691162 7.34663772583008 6.48636817932129 5.3089747428894 5.19830274581909 5.07169818878174 4.95787239074707 4.85777902603149 4.76749420166016 4.52383184432983 4.24398612976074 3.99304723739624 3.80138087272644 3.51943755149841 3.09842753410339 2.63248491287231 2.2888081073761 1.85086381435394 1.35125172138214 2.05616211891174 2.11980628967285 3.55333065986633 3.7099711894989 3.31643056869507 3.04867362976074 3.24641942977905 2.81133890151978 2.40489172935486 1.90574407577515 1.54755437374115 1.45529234409332 3.02908778190613 2.49423432350159 1.67937183380127 1.26272165775299 0.933551073074341 0.886533677577972 1.10447788238525 0.962941288948059 0.937779664993286 2.59737944602966 3.06930708885193 1.4319155216217 1.14231181144714 2.81777453422546 2.47004103660583 1.53019952774048 2.84129500389099 2.77100372314453 1.1444638967514 1.06896996498108 1.04768323898315 1.03195595741272 1.98815274238586 3.00285863876343 3.14057302474976 4.81636476516724 7.64438629150391 8.57274913787842 7.92904949188232 6.55876970291138 6.15142488479614 6.44323778152466 6.73049449920654
