NCOLS 172
NROWS 31
XLLCORNER 354032
YLLCORNER 6701056
CELLSIZE 16 
NODATA_value -3.4e+38 
1.47937476634979 2.90965747833252 5.44021081924438 8.88394737243652 10.8438749313354 9.47366046905518 8.77749919891357 6.602783203125 5.8940372467041 0.603571712970734 0.784588158130646 1.04782474040985 1.72908282279968 1.84426176548004 2.15749597549438 3.21359038352966 2.7071099281311 2.56577634811401 3.44002270698547 4.70132732391357 5.77387809753418 4.56510353088379 2.44187045097351 3.33297395706177 -1.35379207134247 -2.83995747566223 -2.69914126396179 -2.32621026039124 -1.96384274959564 -1.4675509929657 -1.26926362514496 -0.703468322753906 -0.0390396900475025 0.777773141860962 2.14205455780029 3.11803030967712 9.13586807250977 11.802830696106 5.12713527679443 0.10582422465086 0.593823850154877 1.61562275886536 2.37627553939819 1.4113529920578 -0.358525604009628 -3.14436817169189 -2.97948122024536 -2.53514862060547 -2.26332831382751 -1.9540239572525 -1.71049213409424 -1.26599323749542 -0.782252669334412 -0.261559724807739 -0.207283318042755 -0.128434717655182 0.0398403629660606 0.434700846672058 0.600752890110016 0.181499734520912 0.019214428961277 0.133857801556587 -0.428066045045853 -0.766677141189575 -0.24150039255619 -0.783797264099121 -1.02754044532776 -0.964061200618744 -0.880569338798523 -0.810704946517944 -0.763162136077881 -0.58928507566452 -0.710534453392029 -0.694706559181213 -0.671874105930328 -0.649605810642242 -0.611392557621002 -0.584125816822052 -0.540196537971497 -0.477114021778107 -0.417503118515015 -0.357492297887802 -0.280971229076385 -0.258037120103836 -0.232295602560043 -0.203102260828018 -0.161883547902107 -0.129675477743149 -0.110383622348309 -0.0878214761614799 -0.082866296172142 0.162148252129555 -0.0696221962571144 -0.0352968834340572 -0.00807822402566671 0.0210823696106672 0.0381404235959053 0.0704736039042473 0.091303177177906 0.117713071405888 0.14399379491806 0.148895606398582 0.208290368318558 0.332786738872528 0.494465559720993 1.01900458335876 1.57752525806427 0.159078031778336 0.188216596841812 0.245820507407188 0.201626345515251 0.3879214823246 0.128666892647743 0.238631770014763 0.106979347765446 0.125497698783875 0.371557086706161 0.0550013296306133 0.21696674823761 0.0542164146900177 0.0708128958940506 0.0742383971810341 0.0765946954488754 0.0876860395073891 0.0952307730913162 0.134128868579865 0.145261541008949 0.1690943390131 0.232759982347488 0.313540071249008 0.438050985336304 0.597331643104553 0.771560430526733 0.956608891487122 1.77274250984192 1.36601173877716 2.01460933685303 2.53355312347412 2.92697381973267 3.108074426651 3.40312385559082 3.59982013702393 3.7613697052002 3.84457564353943 3.92982816696167 4.01865720748901 4.14651155471802 4.25258016586304 4.36528825759888 4.47754287719727 4.58000612258911 4.62302780151367 4.67145442962646 4.81152296066284 4.95684385299683 5.06865978240967 5.09344339370728 5.1869797706604 5.45394897460938 5.6151967048645 5.75807046890259 5.98126745223999 6.24733448028564 6.57972097396851 6.86384773254395 7.18114471435547 7.6862621307373 8.30794048309326 8.83573913574219 9.18170738220215 9.72266292572021 10.3204383850098
0.665335714817047 1.52455055713654 3.07845449447632 4.99191808700562 6.60690832138062 9.07548141479492 10.8287010192871 10.578106880188 5.03424167633057 3.32848143577576 1.61753523349762 1.86896359920502 2.00802445411682 2.07926940917969 2.20459985733032 2.48894691467285 2.77448272705078 2.08865737915039 3.08427000045776 4.79819107055664 5.80351734161377 3.83484268188477 2.67892575263977 2.14311099052429 0.327271789312363 -2.02401375770569 -1.79502189159393 -1.47757017612457 -1.12721705436707 -0.86240017414093 -0.410974353551865 0.0950913801789284 0.813531339168549 2.40087056159973 4.53129768371582 8.37518692016602 14.5431566238403 11.5999345779419 1.20999300479889 -1.89153409004211 -1.52388000488281 -0.693821310997009 0.796051681041718 -1.09823274612427 -2.99465036392212 -2.85955023765564 -2.53909659385681 -2.30181789398193 -2.05428957939148 -1.75509166717529 -1.29198479652405 -0.829305350780487 -0.399063169956207 -0.181770861148834 -0.189145818352699 -0.195399269461632 -0.0970483273267746 0.308192521333694 0.425768047571182 0.586883544921875 0.359285265207291 0.0053219823166728 0.123567424714565 0.0562091022729874 -0.151254191994667 -0.14258673787117 -1.00647485256195 -0.966214656829834 -0.896318972110748 -0.817889988422394 -0.748949229717255 -0.507065415382385 -0.514354050159454 -0.680457532405853 -0.654876112937927 -0.63088470697403 -0.60340803861618 -0.577712893486023 -0.534390926361084 -0.465817272663116 -0.397134780883789 -0.326210111379623 -0.292762696743011 -0.262461215257645 -0.241959914565086 -0.216084063053131 -0.178814351558685 -0.156926602125168 -0.135553315281868 -0.111963264644146 -0.0751320347189903 -0.0982418209314346 -0.0813036486506462 -0.0519797205924988 -0.0341184325516224 0.0107702873647213 0.0370290093123913 0.0563430860638618 0.0655597746372223 0.0839501470327377 0.129626274108887 0.204993650317192 0.258081704378128 0.406467646360397 0.798274517059326 1.64361655712128 0.077358677983284 0.0801010429859161 0.0949635878205299 0.126160234212875 0.154855251312256 0.368640720844269 0.637093782424927 0.0714437440037727 0.0339584611356258 0.0628103911876678 0.502402186393738 0.0474965982139111 0.0497459322214127 0.0563790388405323 0.0671447739005089 0.0699866414070129 0.0712871477007866 0.0762968212366104 0.0831347182393074 0.163295716047287 0.134338304400444 0.194903880357742 0.262812048196793 0.353498041629791 0.482816398143768 0.663714587688446 0.865618050098419 1.09328579902649 1.36332178115845 1.88498532772064 2.50758242607117 2.92058038711548 3.24696612358093 3.43426847457886 3.58638453483582 3.68072319030762 3.7662308216095 3.84799838066101 3.93665862083435 4.02969694137573 4.12209558486938 4.16379928588867 4.1647572517395 4.27689933776855 4.37446784973145 4.41238498687744 4.36585569381714 4.47598314285278 4.63447761535645 4.79873657226562 4.9022421836853 4.92025947570801 5.13171482086182 5.33035612106323 5.45568990707397 5.66110372543335 5.92823600769043 6.24787664413452 6.5422682762146 6.69066619873047 7.1348876953125 7.64632320404053 8.36803150177002 8.78152656555176 9.55687236785889 10.2409210205078
0.581430792808533 1.41781234741211 2.34520602226257 3.7463653087616 6.08407878875732 8.63636684417725 10.5008583068848 10.8857259750366 7.76399183273315 8.41664409637451 1.9408928155899 1.97549998760223 2.3077278137207 2.97351408004761 1.84686899185181 1.94303297996521 2.33129405975342 2.34694576263428 3.67264151573181 4.72683954238892 2.98506689071655 1.33976352214813 2.0445442199707 1.63814520835876 0.0572804100811481 -1.39515364170074 -1.23623549938202 -0.86786687374115 -0.390537232160568 -0.21770304441452 0.409433454275131 2.02679014205933 3.54204034805298 5.63834142684937 7.41623449325562 9.85599231719971 13.6962718963623 8.62074089050293 -0.105703890323639 -2.16894173622131 -3.09338879585266 -3.19733095169067 -3.07797384262085 -2.97007727622986 -2.77300643920898 -2.4268581867218 -2.28085565567017 -2.04736566543579 -1.82264077663422 -1.47071754932404 -0.875788807868958 -0.51166707277298 -0.0119442213326693 -0.0343768931925297 -0.0908591598272324 -0.0480950176715851 0.0231190081685781 0.410105317831039 0.362140536308289 0.0913850963115692 0.264010787010193 0.217599779367447 0.172134503722191 0.157814517617226 -0.237634658813477 -0.392757058143616 -0.826723337173462 -0.946838140487671 -0.894657135009766 -0.8212531208992 -0.752981007099152 -0.615157783031464 -0.469408214092255 -0.584862470626831 -0.641187369823456 -0.621214509010315 -0.586226522922516 -0.544904589653015 -0.496894598007202 -0.434639155864716 -0.373383700847626 -0.323044091463089 -0.289133429527283 -0.260284870862961 -0.23568269610405 -0.209411308169365 -0.194949433207512 -0.180298641324043 -0.15622290968895 -0.130550518631935 -0.11075434833765 -0.088628463447094 -0.0911958068609238 -0.0522690340876579 -0.042158417403698 -0.0174895655363798 0.0255004651844501 0.0444413833320141 0.0304552558809519 0.0370852425694466 0.0776795595884323 0.0564741715788841 0.13805116713047 0.36432421207428 0.996055424213409 0.606033742427826 0.0598280355334282 0.12176226079464 0.169616341590881 0.203995078802109 0.255164057016373 0.276213943958282 0.475684434175491 0.145462229847908 0.281428843736649 0.0404651090502739 0.133502632379532 0.130989134311676 0.0448230169713497 0.0500656105577946 0.05601542070508 0.0658839344978333 0.0853772982954979 0.0649858340620995 0.0832243040204048 0.107948325574398 0.142537206411362 0.218734294176102 0.301127970218658 0.396238714456558 0.526807367801666 0.731262683868408 0.985715329647064 1.45079076290131 1.93200409412384 2.40031290054321 2.69428944587708 3.05010962486267 3.33052587509155 3.51525616645813 3.59166884422302 3.66650485992432 3.70490002632141 3.67564558982849 3.75984764099121 3.84797883033752 3.93651103973389 3.97165989875793 3.93258547782898 3.95833921432495 4.05294990539551 4.15104913711548 4.17812395095825 4.24813652038574 4.39516925811768 4.55143404006958 4.636314868927 4.70381832122803 4.87037229537964 5.08253955841064 5.21998357772827 5.38139200210571 5.67466020584106 5.94048595428467 6.27104997634888 6.70239114761353 7.13778877258301 7.72247982025146 8.21401214599609 9.50790309906006 10.3322801589966 11.2312717437744
1.01875102519989 1.32233619689941 2.20486807823181 3.36871218681335 5.59953927993774 7.65388011932373 9.55822467803955 10.7994241714478 8.11643886566162 7.46711874008179 3.56163835525513 2.58684110641479 3.2394711971283 3.49479269981384 1.74766969680786 1.25152397155762 1.08227360248566 1.22915434837341 2.00446343421936 1.50572240352631 -0.129299759864807 -0.488055467605591 -0.103476159274578 -1.18698644638062 -0.813888907432556 -0.981952428817749 -0.815733790397644 -0.54592627286911 0.660826981067657 1.63101804256439 2.66763710975647 3.78688621520996 5.34485960006714 7.02243900299072 8.49212646484375 9.86317825317383 11.9643297195435 5.76395273208618 0.678693830966949 -0.412099182605743 1.04899978637695 -2.17510747909546 -2.99989151954651 -2.83881711959839 -2.46108603477478 -2.15763330459595 -2.00296187400818 -1.82711589336395 -1.34732270240784 -0.948732197284698 -0.412013560533524 0.0358413010835648 0.280486106872559 0.0966725125908852 0.0386227890849113 0.0943644344806671 0.115899831056595 -0.0721830874681473 -0.0154888750985265 0.13555046916008 0.254222333431244 0.0503111593425274 -0.096093662083149 -0.154687017202377 -0.0668789744377136 -0.595174908638 -0.914859592914581 -0.893094897270203 -0.866963028907776 -0.812858283519745 -0.758822917938232 -0.704182088375092 -0.615123212337494 -0.590626537799835 -0.622197866439819 -0.604057133197784 -0.56428998708725 -0.523258030414581 -0.471454530954361 -0.420837193727493 -0.373419433832169 -0.334549218416214 -0.297515243291855 -0.271935611963272 -0.245814383029938 -0.230073183774948 -0.22186304628849 -0.201724350452423 -0.179560124874115 -0.153769105672836 -0.129533708095551 -0.112566269934177 -0.0896978676319122 -0.0710249543190002 -0.0653913766145706 -0.0423440709710121 -0.00798130128532648 0.00739089632406831 0.00971949845552444 0.0254492834210396 0.0234357956796885 0.0357143133878708 0.0716198608279228 0.690437257289886 2.11021590232849 -0.00671021454036236 0.0687771961092949 0.0949823334813118 0.116153478622437 0.125472232699394 0.144840940833092 0.183298200368881 0.268854767084122 0.485532879829407 0.141985684633255 0.124514155089855 0.0429700016975403 0.0486680082976818 0.0724067986011505 0.163186445832253 0.0468307957053185 0.0490480698645115 0.135797560214996 0.130989134311676 0.0568954572081566 0.08696199208498 0.150232329964638 0.243570998311043 0.336152166128159 0.44519379734993 0.611501932144165 0.871057212352753 1.37546265125275 2.01446270942688 2.37709522247314 2.66671967506409 2.82857799530029 2.99891567230225 3.22424483299255 3.35376071929932 3.42988967895508 3.50367951393127 3.53401303291321 3.4996166229248 3.48346614837646 3.56363582611084 3.64796304702759 3.70429730415344 3.69689917564392 3.72054243087769 3.83249473571777 3.93309259414673 3.97364044189453 4.05192852020264 4.18763399124146 4.31832599639893 4.46560859680176 4.68530035018921 4.81696319580078 5.02207899093628 5.31148862838745 5.62954521179199 6.00125408172607 6.45853471755981 6.7468147277832 7.25574827194214 7.83661985397339 8.29924011230469 9.08906269073486 10.345344543457 11.2184391021729 12.2881259918213
1.25158214569092 1.4189258813858 2.12575101852417 3.65834307670593 5.23654174804688 7.27739667892456 9.01125717163086 8.59091186523438 8.1541576385498 6.2125129699707 4.76026916503906 4.61393928527832 5.26596307754517 5.55728054046631 4.74237823486328 1.62649989128113 1.99674832820892 0.706396877765656 0.350247740745544 -0.14135730266571 -0.931688129901886 -1.4410285949707 -1.38255941867828 -1.29803955554962 -0.755161464214325 0.00939389318227768 0.455385357141495 1.02982807159424 2.01364398002625 2.88103556632996 3.71669340133667 4.28769397735596 5.38175535202026 7.09865379333496 9.09410762786865 10.2363739013672 8.10449123382568 5.23185682296753 4.62908935546875 5.16396713256836 3.54318261146545 -1.5516437292099 -2.47908782958984 -2.31728839874268 -2.14285612106323 -1.92635846138 -1.69565105438232 -1.28518903255463 -0.809312462806702 -0.355698347091675 0.144449189305305 0.35159632563591 0.663822829723358 0.749942004680634 0.89637553691864 1.03296780586243 -0.163936465978622 -0.113050423562527 0.0192625280469656 0.137857228517532 0.112656995654106 -0.241322815418243 -0.382792592048645 -0.307186037302017 -0.283008813858032 -0.565731644630432 -0.876252412796021 -0.852367877960205 -0.827161014080048 -0.792496383190155 -0.755637764930725 -0.7090784907341 -0.667313575744629 -0.629999458789825 -0.6104576587677 -0.595856189727783 -0.557340085506439 -0.504597842693329 -0.456629455089569 -0.421504974365234 -0.38572108745575 -0.350845545530319 -0.315802305936813 -0.293182581663132 -0.270590931177139 -0.254508227109909 -0.236846327781677 -0.22294108569622 -0.206578254699707 -0.178867742419243 -0.16304050385952 -0.135321170091629 -0.0995940864086151 -0.0903323814272881 -0.0800430774688721 -0.0666721612215042 -0.03402354195714 -0.0182041674852371 0.00038057824713178 0.0501700937747955 0.0791060701012611 0.125040575861931 0.528880655765533 1.49372434616089 -0.0299053862690926 -0.0219845604151487 0.00932122394442558 0.0403075143694878 0.0528713837265968 0.0988401249051094 0.131076216697693 0.195396348834038 0.227781370282173 0.24224379658699 0.414277911186218 0.52872359752655 0.0351102910935879 0.0447341613471508 0.0686433687806129 0.0372095815837383 0.0825564414262772 0.113428801298141 0.131207704544067 0.0394320450723171 0.149356439709663 0.54914402961731 1.47832584381104 0.264748126268387 0.354908883571625 0.490130007266998 0.697527647018433 1.13647830486298 1.81499648094177 2.26951742172241 2.53080582618713 2.7752788066864 2.87878203392029 2.94297862052917 2.98195099830627 3.10413217544556 3.17951416969299 3.24498748779297 3.2973005771637 3.28737950325012 3.27744698524475 3.36031413078308 3.43089056015015 3.49135541915894 3.56155133247375 3.64251756668091 3.72750687599182 3.88158059120178 4.03203058242798 4.15901517868042 4.26765298843384 4.39656019210815 4.67197847366333 5.01111602783203 5.39476871490479 5.66914081573486 5.85865020751953 6.05838584899902 6.54704666137695 6.97896718978882 7.23635673522949 7.68209838867188 8.15650367736816 8.77128314971924 9.38620281219482 9.97722911834717 11.0431613922119 12.2186498641968
1.24031043052673 1.42678046226501 2.06772422790527 3.67992877960205 5.17133188247681 6.82193803787231 9.15312480926514 6.11342334747314 5.92729759216309 5.54041433334351 5.14370346069336 7.23633193969727 9.18845367431641 8.61441802978516 9.85477256774902 4.35108041763306 3.7829806804657 1.97569370269775 1.79796230792999 -0.297561347484589 0.234246864914894 -1.60444748401642 -1.42294454574585 -0.923259079456329 0.0685889348387718 1.19279098510742 1.97518026828766 2.34807920455933 2.43358302116394 2.74478054046631 3.31940865516663 3.69104790687561 3.9452383518219 4.22509479522705 5.79041957855225 7.08932733535767 5.76175308227539 4.11818170547485 2.89317202568054 1.8327112197876 0.0409084148705006 -1.89863908290863 -2.1406397819519 -1.99424982070923 -1.81923139095306 -1.59099340438843 -1.20729672908783 -0.81561279296875 -0.356448888778687 0.30506831407547 0.91233617067337 1.09031748771667 1.36166572570801 1.50771248340607 1.4954035282135 0.776490330696106 0.00647501926869154 -0.00479409657418728 0.0763220191001892 0.162972316145897 0.240489542484283 -0.52529776096344 -0.577113211154938 -0.474816232919693 -0.484772652387619 -0.614557385444641 -0.71900874376297 -0.816228449344635 -0.78995019197464 -0.769016206264496 -0.74887615442276 -0.71162885427475 -0.66601574420929 -0.637071013450623 -0.609488844871521 -0.572170674800873 -0.538931906223297 -0.500909626483917 -0.492144197225571 -0.460926473140717 -0.422554701566696 -0.383369505405426 -0.359206080436707 -0.327743411064148 -0.302268385887146 -0.27617746591568 -0.259010672569275 -0.238852351903915 -0.223540306091309 -0.213037431240082 -0.195333063602448 -0.162133097648621 -0.122546046972275 -0.109978161752224 -0.10828660428524 -0.0828030407428741 -0.065016932785511 -0.0562039688229561 -0.0406871028244495 -0.034441702067852 0.0151741281151772 0.214145928621292 0.560959160327911 0.629936635494232 -0.0443074740469456 -0.034063134342432 -0.0226850714534521 -0.011960344389081 0.00358314835466444 0.0418365523219109 0.0777928158640862 0.189092621207237 0.261543154716492 0.295501321554184 0.229465812444687 0.21199443936348 0.0471289083361626 0.091844454407692 0.123135447502136 0.159586951136589 0.258657515048981 0.0404589548707008 0.129254281520844 0.429043978452682 0.547873735427856 0.114614106714725 0.17016975581646 0.337325483560562 0.375910311937332 0.528447926044464 0.811323225498199 1.47860586643219 1.98325800895691 2.35457682609558 2.61383509635925 2.71285796165466 2.79290699958801 2.85606575012207 2.88011407852173 2.88598561286926 2.9679000377655 3.03798890113831 3.10355353355408 3.16452693939209 3.2240936756134 3.32211780548096 3.39786291122437 3.47480869293213 3.61229157447815 3.74425220489502 3.84495139122009 4.04207849502563 4.30743980407715 4.64671039581299 4.84747648239136 4.96877431869507 5.13810205459595 5.46965980529785 5.8277006149292 6.04088592529297 6.23592758178711 6.45348644256592 6.87855243682861 7.22653579711914 7.51806259155273 7.82982969284058 8.59484767913818 9.13835430145264 9.76466274261475 10.4459133148193 11.1854133605957 11.9457397460938
1.24652361869812 1.41075217723846 2.29935264587402 3.51935315132141 5.37975215911865 8.14256191253662 9.67653846740723 4.02434301376343 3.87789249420166 4.3220157623291 4.9228367805481 6.9775824546814 9.29268741607666 9.34010410308838 8.9589729309082 10.2648448944092 5.28445386886597 2.31119012832642 1.95281708240509 -0.0116461561992764 -1.3765070438385 -1.30352103710175 -0.85528576374054 -0.0549567230045795 0.638055324554443 1.57125663757324 2.15777611732483 2.18885707855225 2.04520964622498 1.93094837665558 1.98428046703339 1.8006135225296 1.63178467750549 1.57204258441925 1.56909620761871 2.83152723312378 3.17788314819336 1.65159463882446 0.613836109638214 0.719561576843262 -0.0268518179655075 -0.642749309539795 -1.6135665178299 -1.43079423904419 -1.19030606746674 -0.9674032330513 -0.687966227531433 -0.410558074712753 0.249231830239296 0.886868834495544 1.58566677570343 1.68867874145508 1.87742602825165 1.88856768608093 1.88023591041565 1.09779119491577 0.263493180274963 0.25535175204277 0.123217523097992 0.0372538715600967 0.208688676357269 -0.693188965320587 -0.727396428585052 -0.542700707912445 -0.524377763271332 -0.627973079681396 -0.606044054031372 -0.75367796421051 -0.770192980766296 -0.751986145973206 -0.731142580509186 -0.707751393318176 -0.67230761051178 -0.640149831771851 -0.61497950553894 -0.576236367225647 -0.554623067378998 -0.545417249202728 -0.54013592004776 -0.515440762042999 -0.473990678787231 -0.435892999172211 -0.400409370660782 -0.368063986301422 -0.33597719669342 -0.308481395244598 -0.290105521678925 -0.272094637155533 -0.252404123544693 -0.246104285120964 -0.22704890370369 -0.17491514980793 -0.152965798974037 -0.139305636286736 -0.0934642255306244 -0.115818962454796 -0.0888542979955673 -0.0761621296405792 -0.0657540112733841 -0.0613739304244518 -0.0507606454193592 0.134609118103981 0.30801123380661 0.56728333234787 -0.0620069354772568 0.0218839254230261 -0.0524280592799187 0.0861559435725212 -0.0368830151855946 -0.0433513075113297 -0.0154956914484501 0.0232503563165665 0.110953219234943 0.177884876728058 0.317231714725494 0.0517245456576347 0.0613602660596371 0.186805009841919 0.479345142841339 0.136620089411736 0.237504526972771 0.243493586778641 0.26562637090683 0.361734479665756 0.393508344888687 0.235981702804565 0.191581279039383 0.665025651454926 0.384265005588531 0.557793319225311 0.959571778774261 1.58748197555542 2.03948259353638 2.34905171394348 2.46994876861572 2.56534481048584 2.63294172286987 2.69566893577576 2.73224902153015 2.79729437828064 2.88809061050415 2.98424649238586 3.07811808586121 3.20585536956787 3.31215453147888 3.41100645065308 3.48928999900818 3.63263392448425 3.86588454246521 4.17691850662231 4.36949586868286 4.47683238983154 4.70530557632446 4.98855781555176 5.15006017684937 5.29252099990845 5.48396348953247 5.71322250366211 6.07159471511841 6.27740573883057 6.48540639877319 6.70847511291504 6.99719953536987 7.3306884765625 7.66351127624512 8.06877994537354 8.5136833190918 8.99635219573975 9.59274673461914 10.2358293533325 10.8904056549072 11.2508573532104
1.12835705280304 1.4440598487854 2.19770407676697 3.47668695449829 5.98791837692261 11.891282081604 4.83790397644043 3.22131180763245 3.70376086235046 4.30844974517822 5.23859024047852 7.10586309432983 8.41543769836426 9.51869106292725 11.494086265564 12.7213802337646 2.71680378913879 2.07520961761475 0.722731828689575 -0.0296156983822584 -1.44396150112152 -1.48299694061279 -1.11329483985901 -0.195067822933197 0.879764318466187 1.31143641471863 1.37685835361481 3.20991373062134 3.74783444404602 0.0960209965705872 -0.0538096055388451 -0.11243749409914 -0.0189444683492184 -0.115084670484066 0.0757977068424225 0.795904815196991 0.375436305999756 -0.041445579379797 -1.8345046043396 -1.58528256416321 -0.571904063224792 -0.208973273634911 -0.699792921543121 -0.829107165336609 -0.639788269996643 -0.456113576889038 -0.199892789125443 0.198687523603439 1.00258278846741 1.62796306610107 2.01444697380066 2.21559572219849 2.3268928527832 2.25882935523987 1.33341693878174 1.06945598125458 0.682110249996185 0.421565324068069 0.445647209882736 -0.118699043989182 -0.528001725673676 -0.487499803304672 -0.761512696743011 -0.552937686443329 -0.490910619497299 -0.583950698375702 -0.650998294353485 -0.783332586288452 -0.758113503456116 -0.735152304172516 -0.712828576564789 -0.699653506278992 -0.669977724552155 -0.652763247489929 -0.609858214855194 -0.618578791618347 -0.597872495651245 -0.587176859378815 -0.57349818944931 -0.55332750082016 -0.525120615959167 -0.484186559915543 -0.445269525051117 -0.407899022102356 -0.373314410448074 -0.347609221935272 -0.320976465940475 -0.304722130298615 -0.289277940988541 -0.272386848926544 -0.245232284069061 -0.198294386267662 -0.184845566749573 -0.167321085929871 -0.147880956530571 0.171068415045738 -0.131405115127563 -0.0711568742990494 -0.0953599810600281 -0.0875002890825272 -0.0783613547682762 -0.0513493493199348 0.110724061727524 0.383768916130066 0.268178582191467 0.377663016319275 1.10651016235352 1.45954155921936 0.670338809490204 -0.138444140553474 -0.107912264764309 -0.0631342008709908 0.0114919822663069 0.0646641626954079 0.216324716806412 0.108450643718243 0.127686187624931 0.138244986534119 0.368866086006165 0.09018924087286 0.170919209718704 0.175646752119064 0.187760934233665 0.261604726314545 0.363784641027451 0.1854198127985 0.2298973351717 0.886187374591827 0.384369164705276 0.56817752122879 1.22569537162781 1.52493917942047 1.94562816619873 2.21712779998779 2.3632025718689 2.46706199645996 2.52315759658813 2.58583426475525 2.68679523468018 2.79318571090698 2.93289852142334 3.04773879051208 3.20370769500732 3.42434334754944 3.70281887054443 3.87200474739075 3.96607899665833 4.05583000183105 4.22440576553345 4.4879355430603 4.64484310150146 4.75735330581665 4.91842889785767 5.17793703079224 5.34607648849487 5.51391553878784 5.68268251419067 5.83510065078735 6.09035921096802 6.40226793289185 6.61390066146851 6.83640003204346 7.08402109146118 7.34488439559937 7.71627950668335 8.18643379211426 8.58241271972656 9.01164531707764 9.46688556671143 9.91093826293945 10.7316379547119 11.2778263092041
1.24210929870605 1.68258774280548 2.35151553153992 3.21343302726746 6.35456228256226 12.971887588501 7.07072496414185 3.02269721031189 3.58049011230469 5.38864517211914 7.77414512634277 9.22954368591309 11.1250200271606 11.5148372650146 11.7120943069458 4.84267807006836 2.8762469291687 2.58437418937683 1.25068211555481 -1.22224521636963 -1.23033082485199 -1.34689927101135 -1.54856431484222 -0.769659340381622 0.110680922865868 1.58940351009369 3.84424829483032 6.34220552444458 6.94759368896484 -1.57569980621338 -1.72274696826935 -1.66012382507324 -1.83643794059753 -1.84192228317261 -1.74467742443085 -1.64129602909088 -1.73178899288177 -1.64485991001129 -1.61623597145081 -1.323561668396 -0.962860524654388 -0.704583168029785 -0.623423159122467 -0.404218524694443 -0.16380363702774 0.147582978010178 0.59528374671936 1.1330498456955 1.56414842605591 1.81122612953186 2.06079769134521 2.40756916999817 3.0041663646698 1.67641484737396 1.12948763370514 0.953704476356506 0.931709706783295 0.630401015281677 0.489794582128525 -0.155659630894661 -0.671610355377197 -0.678910791873932 -0.57668125629425 -0.428040117025375 -0.368412613868713 -0.37270450592041 -0.511963665485382 -0.775403499603271 -0.760366976261139 -0.733714640140533 -0.718014895915985 -0.693817257881165 -0.540299773216248 0.0194113962352276 -0.656306207180023 -0.654623687267303 -0.636922478675842 -0.633216381072998 -0.607932448387146 -0.581729650497437 -0.562343299388885 -0.528659164905548 -0.496481746435165 -0.462817490100861 -0.427309155464172 -0.39193719625473 -0.365404814481735 -0.349240303039551 -0.329693108797073 -0.309208005666733 -0.256896138191223 -0.241543769836426 -0.222278296947479 -0.202134668827057 -0.177156239748001 -0.156181991100311 -0.144567623734474 -0.126040741801262 -0.120420433580875 -0.115986399352551 -0.0599613338708878 0.174827829003334 0.33101823925972 0.333694815635681 0.395109087228775 0.928810715675354 1.91645765304565 2.44575643539429 1.83670508861542 -0.231446325778961 -0.211693301796913 -0.159411743283272 -0.0751929059624672 0.00175489718094468 0.11274578422308 0.34989258646965 0.0442368015646935 0.0939752236008644 0.116184629499912 0.0924342647194862 0.105272017419338 0.126347899436951 0.132418304681778 0.163295716047287 0.137103617191315 0.205561444163322 0.836638689041138 0.308835119009018 0.426325708627701 0.855800032615662 0.919846892356873 1.36044323444366 1.74005973339081 1.9889463186264 2.19961667060852 2.346186876297 2.46879553794861 2.58410477638245 2.74761724472046 2.89248299598694 3.05169892311096 3.25719380378723 3.5270574092865 3.74093127250671 3.97693729400635 4.11791849136353 4.20898056030273 4.30789184570312 4.41700267791748 4.65182209014893 4.80209970474243 4.92142057418823 5.04669284820557 5.19925928115845 5.45557355880737 5.64612340927124 5.77949523925781 5.9519510269165 6.16681385040283 6.46002197265625 6.67658185958862 6.91187143325806 7.19016695022583 7.51564788818359 7.88615608215332 8.37649917602539 8.76920986175537 9.20984840393066 9.67778301239014 10.126895904541 11.258020401001 11.8037614822388
1.11547780036926 1.459113240242 2.44522976875305 3.74707818031311 6.90541362762451 8.14549350738525 7.86081075668335 3.44073414802551 4.26401853561401 6.82103967666626 8.71663761138916 10.6878252029419 13.4368591308594 13.1552801132202 8.14214706420898 5.15691423416138 5.9802041053772 1.80851030349731 2.18310070037842 -1.91389274597168 -1.89117217063904 -1.92052745819092 -1.55154228210449 0.858504831790924 2.98430442810059 4.29263591766357 9.38863754272461 13.417085647583 9.99985504150391 1.31045746803284 -2.40123414993286 -2.27405571937561 -2.02403283119202 -1.99414789676666 -1.97722494602203 -1.88554584980011 -1.66611409187317 -1.55872845649719 -1.47449147701263 -1.18787920475006 -0.670880556106567 -0.44472873210907 -0.229817464947701 0.00562962796539068 0.321723461151123 0.872693359851837 1.06567406654358 1.59306490421295 2.23281049728394 2.81269812583923 3.09023809432983 2.92782545089722 3.28534936904907 2.3085560798645 1.14712727069855 0.796414494514465 0.809297859668732 0.647638261318207 0.419284164905548 -0.24600824713707 -0.627505898475647 -0.598361194133759 -0.504881203174591 -0.347328543663025 -0.389341086149216 -0.297021776437759 -0.0336181856691837 -0.384233355522156 -0.765213429927826 -0.747810184955597 -0.715456068515778 -0.466949194669724 -0.250413626432419 -0.198744043707848 -0.315264701843262 -0.556438028812408 -0.673618197441101 -0.670303404331207 -0.653900027275085 -0.627099096775055 -0.600466191768646 -0.563737511634827 -0.540386021137238 -0.510594189167023 -0.480782598257065 -0.44708251953125 -0.418631315231323 -0.39839294552803 -0.367878556251526 -0.329437464475632 -0.302832782268524 -0.29349359869957 -0.269393295049667 -0.247161418199539 -0.219578728079796 -0.196094498038292 -0.173462763428688 -0.130035787820816 -0.00869936775416136 0.0776728615164757 0.0119273606687784 0.407714128494263 0.678840577602386 0.812301576137543 0.955496609210968 1.21311283111572 1.58359265327454 2.19155120849609 2.25288271903992 1.18646645545959 -0.274686247110367 -0.24011667072773 -0.181860983371735 -0.0938403904438019 -0.0131847048178315 0.232764735817909 0.320892602205276 0.0250404272228479 0.122765630483627 0.0490063689649105 0.066314660012722 0.089905209839344 0.109788812696934 0.232951402664185 0.255492329597473 0.216616541147232 0.579917907714844 0.336109757423401 0.361400693655014 0.500807523727417 0.83824610710144 1.26296722888947 1.59506714344025 1.8455411195755 2.10866284370422 2.35328960418701 2.50202322006226 2.65558934211731 2.84420990943909 2.97355008125305 3.26604104042053 3.56651568412781 3.7858555316925 3.92893815040588 4.13168239593506 4.27223062515259 4.37084102630615 4.46363544464111 4.56029987335205 4.69422101974487 4.92305612564087 5.05165433883667 5.15945386886597 5.28704452514648 5.53025245666504 5.67330121994019 5.86103820800781 6.01891899108887 6.25110673904419 6.59526300430298 6.81671380996704 7.08326196670532 7.36063194274902 7.72968912124634 8.06873321533203 8.81204986572266 9.21806144714355 9.67603874206543 10.1579246520996 10.6373739242554 11.160756111145 11.6645584106445
1.50744092464447 1.75920927524567 2.63739347457886 3.19385981559753 4.84594774246216 4.55321311950684 7.19268798828125 3.69321393966675 4.53576183319092 6.30687189102173 8.04781341552734 10.5681076049805 12.7402448654175 11.6178398132324 10.8361597061157 6.07608556747437 6.63831329345703 2.34372496604919 -0.533729314804077 -1.92190277576447 -1.84903287887573 -0.812748551368713 2.4353187084198 4.76333475112915 6.75286626815796 9.24920463562012 11.4862422943115 10.7381925582886 4.15830659866333 2.54622888565063 -1.64245629310608 -2.4215567111969 -2.28593683242798 -2.21886467933655 -2.09171104431152 -1.8766987323761 -1.67703938484192 -1.57031893730164 -1.4799417257309 -1.1989860534668 -0.514350473880768 0.102287009358406 0.247311607003212 0.498650878667831 0.702099621295929 1.05639052391052 1.8694349527359 2.29968810081482 2.69923090934753 3.35058546066284 4.03297424316406 3.88837480545044 3.34737777709961 3.26747179031372 1.5235652923584 0.826040506362915 0.62758868932724 0.541611015796661 0.552750051021576 -0.11534807831049 -0.583219647407532 -0.508414089679718 -0.446839511394501 -0.28823310136795 -0.189089521765709 -0.224498391151428 0.0118367178365588 0.143064841628075 -0.523205280303955 -0.627287626266479 -0.542579233646393 -0.367923587560654 -0.153644740581512 -0.0958616137504578 -0.0503999516367912 -0.0125675480812788 -0.536386430263519 -0.704464077949524 -0.681362748146057 -0.669583141803741 -0.637848317623138 -0.605411887168884 -0.58932626247406 -0.563503384590149 -0.537841618061066 -0.507854163646698 -0.486124873161316 -0.458829402923584 -0.295068383216858 0.34169664978981 -0.377011179924011 -0.35569640994072 -0.329107522964478 -0.301134645938873 -0.272421091794968 -0.245913922786713 -0.223501414060593 0.00803958438336849 0.172183439135551 0.254929900169373 0.256549000740051 0.330258905887604 0.582396030426025 0.785329043865204 0.898739278316498 1.20048630237579 1.38415455818176 1.83863604068756 2.3067421913147 0.937305212020874 0.87101423740387 -0.27782279253006 -0.27295258641243 -0.198926404118538 -0.0907274484634399 -0.00969964452087879 0.0473281852900982 0.35138151049614 0.40485954284668 0.0245787855237722 0.0303506478667259 0.0465896166861057 0.0914356335997581 0.168057158589363 0.301659345626831 0.250554919242859 0.347678422927856 0.26483154296875 0.35646915435791 0.465370088815689 0.754801332950592 1.16275978088379 1.5943158864975 1.97463202476501 2.32499289512634 2.54957222938538 2.67297458648682 2.80343270301819 2.93644309043884 3.21952104568481 3.36003732681274 3.75717759132385 3.94642496109009 4.06967210769653 4.15771722793579 4.35324096679688 4.45111608505249 4.55617904663086 4.66812515258789 4.75938320159912 4.94548273086548 5.07387590408325 5.22328805923462 5.37662267684937 5.63147783279419 5.80599355697632 5.98268985748291 6.15529012680054 6.42424583435059 6.73012638092041 6.97007846832275 7.44174432754517 7.7298059463501 8.04292869567871 8.38587760925293 8.75334358215332 9.15085315704346 9.59812927246094 10.0643177032471 10.5312404632568 10.6972503662109 10.6772508621216
1.92864382266998 2.28064775466919 3.10307621955872 7.02304124832153 3.29357528686523 3.18834090232849 4.03656625747681 4.17893505096436 4.9136848449707 5.50569438934326 6.3646764755249 8.5515022277832 10.6855745315552 9.90203475952148 9.68968772888184 8.02560615539551 5.24088716506958 3.07737064361572 -0.123562604188919 0.750548839569092 1.49017369747162 2.70816016197205 4.11735391616821 6.26702213287354 8.63651084899902 11.3115768432617 8.41463947296143 8.10648250579834 4.30007743835449 4.66919040679932 1.58742141723633 -2.4374623298645 -2.3554949760437 -2.16763925552368 -2.00357127189636 -1.85272455215454 -1.73001313209534 -1.64030373096466 -1.46771502494812 -1.21483278274536 -0.675431489944458 0.228909581899643 0.536308467388153 0.669256865978241 1.24070823192596 1.77350783348083 2.06371450424194 2.24318480491638 2.58013987541199 3.06005954742432 3.82028961181641 4.17060375213623 4.04376602172852 3.19750785827637 2.57999801635742 1.23807954788208 0.669970035552979 0.372896373271942 0.355691194534302 0.402236878871918 -0.517369031906128 -0.513113915920258 -0.387141615152359 -0.254365980625153 -0.0931650921702385 -0.0412064790725708 -0.155568242073059 -0.0660888776183128 -0.0344241484999657 -0.383372783660889 -0.391785591840744 -0.388639569282532 -0.243610888719559 -0.0537535734474659 0.129001557826996 0.188826724886894 -0.255925476551056 -0.726978480815887 -0.711654126644135 -0.69142097234726 -0.666737616062164 -0.645948767662048 -0.630335748195648 -0.609037041664124 -0.58788388967514 -0.451630085706711 -0.557768940925598 -0.516981840133667 -0.258397966623306 0.0687936320900917 -0.451707452535629 -0.429847300052643 -0.39963287115097 -0.367050260305405 -0.284383207559586 -0.223031803965569 -0.130670487880707 0.143153637647629 0.75146895647049 0.149169385433197 0.267770171165466 0.28931850194931 0.366378962993622 0.419633120298386 0.644235789775848 0.815445005893707 1.12045407295227 1.17932641506195 1.42325520515442 1.02402317523956 0.88915091753006 0.237497970461845 -0.279524266719818 -0.246113270521164 -0.165040463209152 -0.0788174122571945 -0.00761624611914158 0.139999821782112 0.0852953419089317 0.0579016543924809 0.0683618634939194 0.0707414522767067 0.0835316404700279 0.178012698888779 0.207910045981407 0.18852037191391 0.21398900449276 0.288097202777863 0.407404571771622 0.536416947841644 0.753874897956848 1.18491852283478 1.71071708202362 2.22699046134949 2.52897500991821 2.6420567035675 2.79421138763428 3.09066820144653 3.23431921005249 3.34141230583191 3.45744609832764 3.74015879631042 3.98089337348938 4.15555429458618 4.24296903610229 4.39009857177734 4.48685693740845 4.61566877365112 4.69642877578735 4.8154993057251 5.07137203216553 5.20252370834351 5.33389520645142 5.52300357818604 5.77596187591553 5.94730949401855 6.21010446548462 6.41190004348755 6.61301422119141 6.84555912017822 7.1070761680603 7.37786865234375 7.67069530487061 7.97781562805176 8.31825733184814 8.56826305389404 8.73700141906738 9.02347946166992 9.42278575897217 9.8607873916626 10.1773595809937 10.0999813079834
2.40090322494507 2.72235345840454 4.78992033004761 8.26435375213623 9.61435031890869 3.102707862854 3.42537879943848 4.44198226928711 4.91672945022583 5.24109411239624 5.85243225097656 6.60545635223389 7.45259046554565 7.08910608291626 6.69282674789429 6.97153806686401 3.46565651893616 1.28415489196777 1.46015274524689 2.03508186340332 3.00603103637695 4.20349788665771 5.21517372131348 7.0354700088501 9.89383029937744 13.4545106887817 9.64881992340088 6.60723161697388 6.67844676971436 5.81008815765381 0.696481049060822 -2.45124244689941 -2.33162260055542 -2.05625247955322 -1.8584897518158 -1.69140005111694 -1.49473226070404 -1.34106993675232 -1.21082210540771 -0.973101615905762 -0.499717026948929 0.310253262519836 0.567568957805634 1.16095018386841 1.50986194610596 1.77031338214874 1.98817527294159 2.1421365737915 2.35333657264709 2.75576400756836 3.41750955581665 4.08261823654175 3.68293452262878 3.66893577575684 2.74261498451233 1.94359040260315 0.943792104721069 0.45953893661499 0.178438112139702 0.195697814226151 -0.204727217555046 -0.47870609164238 -0.430350542068481 -0.311166137456894 -0.172327473759651 0.0650370344519615 -0.124249950051308 -0.0971320271492004 0.195001155138016 0.226815730333328 0.1416305154562 -0.324758350849152 -0.366632729768753 -0.200246676802635 0.00209686812013388 0.126617833971977 0.148242101073265 -0.568567276000977 -0.737039923667908 -0.717893004417419 -0.530690550804138 -0.686805307865143 -0.665371894836426 -0.645578503608704 -0.412775337696075 0.011174188926816 -0.61187332868576 -0.579560458660126 -0.518679618835449 -0.509608745574951 -0.510148227214813 -0.490208357572556 -0.475050061941147 -0.453448534011841 -0.355845540761948 -0.28594645857811 -0.173308506608009 -0.0683281496167183 0.0380851291120052 0.171601161360741 0.0480090156197548 0.148846045136452 0.156700193881989 0.191746592521667 0.291400641202927 0.457741975784302 0.586334109306335 0.705362558364868 0.825895428657532 0.853396356105804 0.683655858039856 0.16274930536747 -0.260087251663208 -0.241114020347595 -0.206423297524452 -0.131247833371162 -0.0565489493310452 0.0132133718580008 0.0848513767123222 0.231869995594025 0.048016082495451 0.0483098737895489 0.0686198100447655 0.14573647081852 0.150444105267525 0.163727536797523 0.175399780273438 0.279945760965347 0.426970541477203 0.573335945606232 0.776109397411346 1.19347274303436 1.66578590869904 2.11422920227051 2.40896439552307 2.7015163898468 3.02255725860596 3.20433282852173 3.31211161613464 3.42152047157288 3.59955668449402 3.78081941604614 3.96943545341492 4.21466779708862 4.2879900932312 4.47078466415405 4.57617616653442 4.69879388809204 4.79368352890015 4.96411466598511 5.20032167434692 5.33348608016968 5.51292133331299 5.66318225860596 5.8194842338562 6.00219058990479 6.18791055679321 6.36423587799072 6.5692138671875 6.7865686416626 7.04184913635254 7.2732195854187 7.43073701858521 7.57608985900879 7.86883878707886 8.20000076293945 8.44678974151611 8.60789108276367 8.82748603820801 9.20613098144531 9.60049915313721 9.24474716186523
2.75998616218567 3.18168878555298 7.12110233306885 7.43139600753784 6.28229999542236 3.78854203224182 3.74927949905396 3.92689204216003 4.89437913894653 5.60375356674194 6.73242616653442 11.9178457260132 6.22061204910278 4.54035234451294 4.20562648773193 3.71965217590332 1.99595081806183 2.07501435279846 2.07390522956848 2.56115365028381 3.72212195396423 4.97261571884155 6.6663990020752 9.16278076171875 12.8320589065552 12.4474935531616 10.3656206130981 9.47193622589111 8.69486522674561 6.34572696685791 -2.29752063751221 -2.15153980255127 -1.96578991413116 -1.81993687152863 -1.64719080924988 -1.43090724945068 -1.20620250701904 -0.975484788417816 -0.750758826732635 -0.46703764796257 -0.0334908626973629 0.411927729845047 1.0317634344101 1.3067638874054 1.49391317367554 1.6770646572113 1.8430757522583 2.04326891899109 2.15258646011353 2.48714566230774 3.06084084510803 3.78787040710449 4.43071508407593 2.93992042541504 3.10743141174316 2.24244856834412 1.11658084392548 0.934601187705994 0.408506691455841 0.0288233961910009 -0.00375660392455757 -0.428854078054428 -0.418751627206802 -0.241028249263763 -0.0661336481571198 0.0259496662765741 0.176177337765694 0.0285227205604315 0.166608333587646 0.538599193096161 0.63269567489624 0.448365449905396 -0.296038240194321 -0.266621351242065 -0.136596694588661 -0.0321975089609623 -0.0840385854244232 -0.145100235939026 -0.58079206943512 -0.749345600605011 -0.557148277759552 -0.711259365081787 -0.708867311477661 -0.592989504337311 -0.246185824275017 -0.505188703536987 -0.650801539421082 -0.625724911689758 -0.587598085403442 -0.575724244117737 -0.233399927616119 -0.49488952755928 -0.539833843708038 -0.527001142501831 -0.503278851509094 -0.48521026968956 -0.41904404759407 -0.308473736047745 -0.196985155344009 -0.105918385088444 0.0100813591852784 0.410050243139267 -0.119564518332481 -0.109434977173805 -0.0106914648786187 0.0662456974387169 0.143974885344505 0.252425611019135 0.4421366751194 0.559258639812469 0.725463926792145 -0.165686264634132 -0.258251845836639 -0.244834512472153 -0.223592057824135 -0.181002557277679 -0.107844717800617 -0.0188163183629513 0.028922263532877 0.0621884539723396 0.0694424211978912 0.0724613517522812 0.0755908936262131 0.104318022727966 0.219507545232773 0.154037952423096 0.169629603624344 0.263693034648895 0.425553351640701 0.594817161560059 0.819548666477203 1.09315264225006 1.42999517917633 1.84610939025879 2.31297945976257 2.71468734741211 2.96474504470825 3.09994292259216 3.21311068534851 3.42204523086548 3.74363732337952 3.86546277999878 4.05878782272339 4.27602910995483 4.4015326499939 4.57500648498535 4.6834979057312 4.79390430450439 4.90587711334229 5.04738998413086 5.19164657592773 5.33588218688965 5.45572328567505 5.59884738922119 5.75937938690186 5.93678045272827 6.11475563049316 6.24428987503052 6.38095855712891 6.54211807250977 6.69551944732666 6.94166278839111 7.16940498352051 7.3348560333252 7.49037551879883 7.65850639343262 7.93932342529297 8.10522174835205 8.25020790100098 10.4944295883179 13.5401191711426 7.60840463638306
2.69892621040344 3.20209336280823 4.98672485351562 7.45222949981689 6.3817834854126 4.54013347625732 4.48358678817749 4.01308441162109 5.51578712463379 8.08528518676758 10.5536127090454 14.2192163467407 10.7502965927124 3.81367516517639 3.23580241203308 4.24425029754639 2.72660493850708 2.75135326385498 2.94084882736206 3.67399954795837 5.17877960205078 6.38751602172852 7.81597280502319 9.59889316558838 13.1604175567627 14.300407409668 14.7090272903442 13.4657125473022 8.11677742004395 3.33123230934143 0.738738358020782 -0.978691697120667 -1.60900962352753 -1.52460980415344 -1.34381985664368 -1.13542127609253 -0.902612924575806 -0.674287974834442 -0.293493270874023 0.000717977527529001 0.273600339889526 0.926748692989349 1.25688087940216 1.37448465824127 1.47652542591095 1.55166852474213 1.67302417755127 1.74816846847534 1.93995976448059 2.09799337387085 2.62083530426025 3.25080871582031 4.45036315917969 3.0187292098999 2.29092860221863 2.69210338592529 1.58414542675018 1.2325633764267 0.758735001087189 0.0990649685263634 0.207691475749016 -0.109255574643612 -0.321795910596848 -0.212186679244041 0.0520155653357506 0.181173950433731 0.284201830625534 0.441276133060455 0.21841362118721 0.636048913002014 0.981170058250427 0.77366316318512 0.188813060522079 -0.152347013354301 0.0226762276142836 -0.251745492219925 -0.272119522094727 -0.0801658779382706 -0.0528929680585861 -0.383482068777084 -0.775575220584869 -0.67720901966095 -0.752400696277618 -0.618538379669189 -0.236418828368187 -0.555823385715485 -0.695766150951385 -0.658072948455811 -0.650666356086731 -0.515795111656189 -0.308967441320419 -0.389587998390198 -0.279639393091202 -0.602048993110657 -0.585077166557312 -0.561925768852234 -0.538603842258453 -0.499710708856583 -0.452265501022339 -0.375615328550339 0.311767727136612 -0.0253946408629417 -0.156848073005676 -0.379808783531189 -0.28465336561203 -0.267801493406296 -0.171325698494911 0.0491303689777851 0.292759835720062 0.485949486494064 0.624213635921478 -0.0929314717650414 -0.279137015342712 -0.271198332309723 -0.249461099505424 -0.209401443600655 -0.122782833874226 -0.0502186976373196 0.0106497220695019 0.0428664013743401 0.0698514059185982 0.0742296129465103 0.0779079645872116 0.133446231484413 0.132079511880875 0.13553512096405 0.148257911205292 0.254913032054901 0.415355861186981 0.606856822967529 0.836361467838287 1.03810620307922 1.27205467224121 1.53484404087067 2.02776622772217 2.39022636413574 2.63858842849731 2.91454529762268 3.07756543159485 3.47128200531006 3.83573365211487 3.9825234413147 4.20773410797119 4.36484527587891 4.48063039779663 4.56083726882935 4.68309211730957 4.77873802185059 4.88932132720947 5.01517820358276 5.13376617431641 5.26129198074341 5.38097763061523 5.50032234191895 5.6425085067749 5.68710231781006 5.85874128341675 6.0344557762146 6.17191696166992 6.29684495925903 6.31056547164917 6.49840116500854 6.73460102081299 6.89248514175415 7.03239583969116 7.05754852294922 7.09910297393799 7.2689733505249 7.55491065979004 14.665581703186 19.8225212097168 8.44284343719482
2.86577558517456 3.3214910030365 3.22808504104614 4.40617609024048 5.65110063552856 4.93044948577881 5.35240888595581 5.45734977722168 7.03085994720459 9.31209659576416 12.3250684738159 12.7967405319214 14.1786470413208 9.2871265411377 2.64903378486633 2.79368305206299 3.3749086856842 4.22993898391724 4.83101511001587 5.19476270675659 6.08928775787354 7.43939542770386 8.7848539352417 7.96654224395752 10.4569511413574 12.2840585708618 11.8089780807495 9.80752277374268 6.7705454826355 6.0029878616333 4.11874914169312 1.29601430892944 1.27630865573883 -1.00613784790039 -0.980260848999023 -0.798337876796722 -0.591125428676605 -0.215201616287231 0.0482632480561733 0.315080881118774 0.880013763904572 1.13421523571014 1.2479339838028 1.30474710464478 1.38398122787476 1.40299558639526 1.31095623970032 1.46435785293579 1.62284970283508 1.79628479480743 2.0931224822998 2.81483292579651 4.39094066619873 3.39499640464783 2.07680583000183 2.01753187179565 2.6623067855835 1.36739003658295 1.10617566108704 0.387129217386246 0.292780339717865 0.219125062227249 -0.151125878095627 -0.0955694988369942 0.0857478827238083 0.267084777355194 0.316764622926712 0.498946368694305 0.699977576732635 0.84057205915451 0.662061750888824 0.661269545555115 0.243433311581612 0.340153098106384 0.0950078442692757 -0.328774362802505 -0.331916153430939 -0.259654700756073 -0.0681789144873619 -0.0604061707854271 -0.473936021327972 -0.801764070987701 -0.697150349617004 -0.51833575963974 -0.363675355911255 -0.516006827354431 -0.712693452835083 -0.708996415138245 -0.438605695962906 -0.120101869106293 -0.512250542640686 -0.342932879924774 -0.115061208605766 -0.621167719364166 -0.657017946243286 -0.633731067180634 -0.603942215442657 -0.565882682800293 -0.527912557125092 -0.48348668217659 -0.150919511914253 0.410050243139267 -0.433633148670197 -0.402373552322388 -0.383318454027176 -0.370299190282822 -0.353847712278366 -0.257028877735138 -0.0491705201566219 0.280643403530121 0.506069719791412 0.618476927280426 -0.329393416643143 -0.308273792266846 -0.277975827455521 -0.228647455573082 -0.159771546721458 -0.0718618556857109 -0.018576143309474 0.0140704791992903 0.0168265718966722 0.0552614815533161 0.0656168237328529 0.112763553857803 0.128293186426163 0.123407781124115 0.177632138133049 0.270084261894226 0.400508314371109 0.585832476615906 0.801069736480713 0.999180316925049 1.20113122463226 1.41647589206696 1.7113950252533 2.1230947971344 2.43154072761536 2.61859273910522 2.95292711257935 3.5796275138855 4.03308486938477 4.16001272201538 4.24299383163452 4.35717487335205 4.45624780654907 4.57161235809326 4.63107967376709 4.7092113494873 4.81355476379395 4.93011474609375 5.06421852111816 5.06574106216431 5.18467044830322 5.30212926864624 5.41468048095703 5.44181823730469 5.50297355651855 5.6729588508606 5.80072975158691 5.92450571060181 5.94256162643433 5.9871654510498 6.00122785568237 6.21972274780273 6.44150733947754 6.62341976165771 6.85939836502075 7.84323978424072 9.81254291534424 16.6108283996582 26.118049621582 14.2412796020508
3.07883524894714 3.10265350341797 3.69273066520691 4.01323366165161 4.42018842697144 5.11626529693604 5.82737874984741 5.76384973526001 6.73594903945923 8.39980506896973 11.0470838546753 14.1200332641602 12.9078340530396 11.6520166397095 3.67936086654663 3.76940417289734 4.11118650436401 4.68408870697021 5.47511434555054 5.15170526504517 5.02025556564331 6.32046794891357 6.21707725524902 5.98364019393921 7.42862701416016 9.06807136535645 8.00603199005127 7.44453763961792 6.40565729141235 3.36929297447205 4.66713714599609 4.55605936050415 3.65957617759705 5.06122875213623 -0.592689752578735 -0.350137740373611 -0.0602503381669521 0.114063046872616 0.463788628578186 0.906733751296997 1.06054079532623 1.06375682353973 1.15918445587158 1.26885533332825 1.11081838607788 1.03967702388763 1.08702957630157 1.14260339736938 1.27713692188263 1.48535180091858 1.75856304168701 2.45780873298645 3.34850764274597 3.46031832695007 2.28190588951111 2.06789708137512 2.20530390739441 3.23409795761108 1.35272705554962 0.820789158344269 0.885641098022461 0.184851601719856 0.0248481798917055 0.0400125049054623 0.124560937285423 0.217712894082069 0.260968089103699 0.42482316493988 0.972791850566864 1.22233641147614 0.724603474140167 0.0889699757099152 0.335522383451462 0.54393994808197 0.0982590019702911 -0.0783558785915375 -0.219480231404305 -0.548823058605194 -0.258869230747223 -0.0353598855435848 -0.00139335857238621 -0.50469696521759 -0.604497134685516 -0.154047712683678 -0.335317492485046 -0.62317556142807 -0.531332492828369 -0.677441239356995 -0.206817224621773 0.16802217066288 -0.634252786636353 -0.335016965866089 -0.0479205958545208 -0.450305104255676 -0.720185458660126 -0.704830229282379 -0.674008429050446 -0.635313868522644 -0.583994030952454 -0.54505330324173 -0.518809020519257 -0.494151711463928 -0.475800156593323 -0.461594998836517 -0.425868183374405 -0.404962182044983 -0.38659480214119 -0.107793919742107 -0.277740627527237 -0.0216790195554495 0.258725821971893 -0.256881684064865 -0.0753779262304306 -0.352159470319748 -0.329874873161316 -0.265688329935074 -0.19838260114193 -0.134784698486328 -0.0598115660250187 -0.0284040234982967 -0.00304353539831936 0.0533173307776451 0.0692894831299782 0.10278644412756 0.117187820374966 0.130684331059456 0.191172704100609 0.273349940776825 0.374445497989655 0.520134747028351 0.724075376987457 0.934419751167297 1.13692450523376 1.3309565782547 1.55119359493256 1.85131192207336 2.15774631500244 2.35532927513123 2.83818221092224 3.63298034667969 3.99551129341125 4.11353921890259 4.19939136505127 4.28831148147583 4.40412330627441 4.49104118347168 4.48552942276001 4.54020214080811 4.64204454421997 4.74835634231567 4.86568307876587 4.88106632232666 4.8609471321106 4.97824430465698 5.07696437835693 5.10074758529663 5.15091848373413 5.16713380813599 5.28255271911621 5.44233369827271 5.61254262924194 5.77720546722412 5.87326574325562 5.95887184143066 6.16639709472656 7.04758214950562 8.14942455291748 9.67199993133545 11.8147850036621 15.258264541626 26.1406764984131 21.1885719299316
3.48813366889954 3.80952215194702 3.92005825042725 4.0125789642334 4.17615270614624 4.62217283248901 5.39923143386841 5.64117860794067 5.1494140625 5.89525604248047 7.86676549911499 10.5485610961914 10.3991527557373 9.32898235321045 5.43498229980469 3.12862539291382 3.26558947563171 3.83511900901794 4.16665649414062 4.4039740562439 4.27797079086304 4.34867906570435 4.35180854797363 4.33067321777344 4.56611633300781 5.74357414245605 5.53617763519287 4.00234699249268 3.35340356826782 2.0478789806366 3.02402997016907 4.39005470275879 2.30308651924133 0.125306457281113 -0.0563307516276836 0.0471727214753628 0.302301019430161 0.652755558490753 0.857038497924805 1.26991355419159 1.75531470775604 1.44530284404755 1.11364507675171 0.83076411485672 0.850608646869659 0.886002600193024 0.935867786407471 1.00453364849091 1.04956030845642 1.18559241294861 1.39191091060638 1.7041482925415 2.81834506988525 2.94302368164062 2.66376543045044 2.41592645645142 2.40808701515198 2.73828077316284 3.57789921760559 1.2087436914444 1.24644947052002 0.463117718696594 0.521142721176147 0.875514268875122 0.924672663211823 0.584616601467133 0.239622130990028 0.274947166442871 0.570056080818176 0.904965758323669 0.969848871231079 0.212786734104156 0.143133148550987 0.298544853925705 0.138686716556549 0.190151765942574 -0.192337408661842 -0.696145713329315 -0.562448024749756 -0.226890861988068 0.00933003798127174 0.0789296180009842 -0.446992665529251 -0.28340956568718 -0.319308042526245 -0.761166155338287 -0.358436822891235 -0.157312527298927 0.0839907750487328 0.369726657867432 -0.523901879787445 -0.306959420442581 -0.200533539056778 -0.332804054021835 -0.484645009040833 -0.770163118839264 -0.741540610790253 -0.713652014732361 -0.662755966186523 -0.614935338497162 -0.589740574359894 -0.554897546768188 -0.16316594183445 1.77080452442169 -0.506154954433441 0.0336318463087082 -0.439188152551651 -0.0799268186092377 -0.149649098515511 -0.373278230428696 -0.374452948570251 -0.381836086511612 -0.157640367746353 -0.394929081201553 -0.373451083898544 -0.315819144248962 -0.258800864219666 -0.194440752267838 -0.125435709953308 -0.0801063403487206 -0.0395551137626171 0.0249940622597933 0.0573450848460197 0.101349979639053 0.139354333281517 0.16742892563343 0.202274546027184 0.293680816888809 0.432758271694183 0.567807614803314 0.660546481609344 0.858991384506226 1.08747661113739 1.31862878799438 1.50244867801666 1.71038019657135 1.94681477546692 2.19616317749023 2.49912858009338 3.30458378791809 3.7191858291626 3.93718314170837 4.05563688278198 4.14995765686035 4.23778867721558 4.32144737243652 4.33933591842651 4.2793984413147 4.36190462112427 4.4695200920105 4.57666826248169 4.59296131134033 4.62515211105347 4.63876008987427 4.70407772064209 4.82659816741943 4.95369005203247 5.04350709915161 5.06787919998169 5.21895360946655 5.39110422134399 5.56279802322388 5.6403660774231 5.71919727325439 6.04990577697754 7.66636562347412 8.87290859222412 10.5292615890503 12.9023151397705 16.8319320678711 21.3107566833496 25.6685562133789
4.51298093795776 4.12075614929199 4.20951509475708 4.11486530303955 3.5673463344574 3.45502519607544 3.53749251365662 3.73276972770691 3.97724795341492 3.70395660400391 4.09384679794312 5.71706676483154 7.827064037323 8.04783725738525 6.12578296661377 3.97148942947388 3.10685467720032 3.19781899452209 3.38015866279602 3.71719813346863 2.99473834037781 3.23038148880005 2.90652370452881 2.54714012145996 3.29522228240967 3.40974426269531 3.44423079490662 2.11966967582703 1.49354469776154 1.50162148475647 1.47777938842773 1.36861658096313 0.162194758653641 0.163571655750275 0.290359526872635 0.521788716316223 0.76096773147583 0.867463350296021 1.76005721092224 2.92762780189514 1.51365482807159 0.74467658996582 0.745103657245636 0.713143765926361 0.727355182170868 0.758975684642792 0.805208802223206 0.879128158092499 0.921648263931274 0.984471321105957 1.12357687950134 1.34564137458801 1.63845348358154 2.36211776733398 2.51922130584717 2.54258036613464 2.65993404388428 2.62212538719177 2.86367654800415 2.90359330177307 1.04714262485504 0.941264569759369 1.02335405349731 1.53651976585388 1.70414865016937 1.56955361366272 0.919838190078735 0.373291879892349 0.573402583599091 0.479160755872726 0.588727951049805 0.580395936965942 0.139362901449203 -0.121051259338856 0.102056577801704 0.317122459411621 -0.269681185483932 -0.636078536510468 -0.587766051292419 -0.49820876121521 -0.00678237760439515 0.225115045905113 0.26917576789856 -0.1880754083395 -0.670758783817291 -0.608187556266785 -0.407598316669464 0.038481280207634 0.352146446704865 0.487636417150497 -0.228605225682259 -0.168049499392509 -0.280103832483292 -0.154156997799873 -0.172502741217613 -0.835919320583344 -0.821808159351349 -0.796737253665924 -0.746107041835785 -0.707367241382599 -0.672645330429077 -0.629864811897278 -0.0746470987796783 0.69059431552887 -0.54410994052887 -0.498870104551315 -0.131528720259666 0.434651225805283 -0.279816955327988 0.00805962271988392 -0.463664770126343 -0.445512413978577 -0.441034406423569 -0.446864008903503 -0.421487748622894 -0.370013654232025 -0.321057140827179 -0.267834782600403 -0.20948500931263 -0.143896147608757 -0.0828326418995857 -0.032530490309 0.00210935738869011 0.0909633040428162 0.179947569966316 0.162021085619926 0.236140236258507 0.31684085726738 0.482031494379044 0.64816290140152 0.753099977970123 0.844096183776855 1.02937233448029 1.28045797348022 1.44979631900787 1.64913666248322 1.86640751361847 2.11574459075928 2.31519103050232 2.68300771713257 3.46489071846008 3.67337346076965 3.81190252304077 3.89995718002319 3.98052835464478 4.06442928314209 4.08139038085938 4.11189842224121 4.12135791778564 4.16776990890503 4.26798534393311 4.36418294906616 4.47086477279663 4.53850364685059 4.52992010116577 4.64626026153564 4.76622819900513 4.8326416015625 4.99726343154907 5.10465908050537 5.23663949966431 5.38877105712891 5.4846339225769 5.9178409576416 6.57867288589478 7.09566402435303 7.77706384658813 9.26054096221924 11.3353023529053 14.5862693786621 16.210657119751 15.2074012756348
5.40325403213501 4.81336688995361 4.1477689743042 4.26952648162842 3.45368671417236 3.03002190589905 2.63347554206848 2.68387985229492 2.73673725128174 2.69630122184753 2.72660255432129 2.62727904319763 2.71454620361328 3.03139805793762 2.80273675918579 2.28010964393616 2.38298964500427 2.4549195766449 2.26977467536926 2.17017269134521 1.98211455345154 2.05896639823914 2.29849147796631 2.66545128822327 3.30972719192505 3.48660802841187 3.06504368782043 1.96459197998047 2.72127771377563 4.44524765014648 4.06269693374634 2.95250105857849 1.13185393810272 0.649465680122375 0.672696352005005 0.73895663022995 0.884028077125549 0.983491718769073 1.65463125705719 2.48790264129639 1.0026923418045 0.738357186317444 0.647725105285645 0.654993057250977 0.656110644340515 0.680342733860016 0.72418999671936 0.782547771930695 0.835389912128448 0.916947066783905 0.972383618354797 1.12789213657379 1.31482601165771 1.6957916021347 2.22170448303223 2.47079873085022 2.55574703216553 2.68152904510498 2.4685366153717 2.75245499610901 1.83677339553833 1.54137766361237 1.67863953113556 1.78132653236389 2.24275541305542 2.42856192588806 2.18906164169312 0.917270660400391 0.519565105438232 0.543926239013672 0.261034369468689 0.406853884458542 0.161615505814552 -0.181463852524757 0.0139335859566927 0.0167612843215466 -0.280568271875381 -0.528803288936615 -0.50871467590332 -0.43598610162735 -0.227246031165123 0.090923398733139 0.197378024458885 0.134745717048645 -0.390530496835709 -0.430804520845413 -0.33171808719635 -0.0354145281016827 0.41903829574585 0.678315401077271 0.181764379143715 -0.0553928166627884 -0.268731832504272 -0.0105594722554088 -0.0322248302400112 -0.329634964466095 -0.884340584278107 -0.8700150847435 -0.816165745258331 -0.788937628269196 -0.766017377376556 -0.710830390453339 0.175863161683083 2.11515426635742 -0.165966302156448 0.0364185646176338 -0.65423309803009 0.889055371284485 2.4312481880188 -0.61968857049942 -0.568342208862305 -0.531417429447174 -0.505318701267242 -0.493654400110245 -0.479990750551224 -0.432800054550171 -0.384923696517944 -0.334721893072128 -0.278218895196915 -0.208077907562256 -0.130211591720581 -0.0773089453577995 -0.0255834590643644 0.0388597957789898 0.126768097281456 0.164939180016518 0.28310638666153 0.358523011207581 0.443603962659836 0.596335232257843 0.729204475879669 0.88102251291275 1.04685473442078 1.23571395874023 1.43482208251953 1.65197241306305 1.83112704753876 2.06104040145874 2.25038623809814 2.41774034500122 2.77051472663879 3.08404207229614 3.28107142448425 3.46277594566345 3.64512753486633 3.74118161201477 3.88624691963196 3.96669602394104 4.03759241104126 4.0363507270813 4.13502836227417 4.22137212753296 4.30198097229004 4.41254615783691 4.5058012008667 4.60838603973389 4.71137189865112 4.8168625831604 4.89019632339478 5.0522289276123 5.24141120910645 5.44455623626709 5.87105226516724 6.26137065887451 6.56005716323853 7.00153541564941 7.43221712112427 7.96792650222778 8.78626346588135 9.760329246521 10.5508594512939 12.111891746521
4.92506122589111 5.24126386642456 7.73882436752319 10.3411703109741 5.62194395065308 1.90240442752838 1.93043839931488 1.86682236194611 1.75578355789185 1.88900864124298 1.62821078300476 1.78005313873291 1.72335278987885 1.50678443908691 1.59109997749329 1.67955958843231 2.31352782249451 2.51033353805542 2.48416662216187 1.93240797519684 1.77935302257538 1.57825672626495 1.72670030593872 2.29808449745178 2.87898302078247 2.21975374221802 1.17176961898804 0.488842785358429 0.561734974384308 1.43928050994873 1.36773157119751 1.2920161485672 1.62534701824188 2.87901282310486 1.09454131126404 0.638833403587341 0.642243266105652 0.718756914138794 1.1842954158783 1.87848925590515 0.982481062412262 0.590939521789551 0.603475332260132 0.622012078762054 0.660430133342743 0.673145294189453 0.703297793865204 0.762321054935455 0.826110303401947 0.890493869781494 0.934582650661469 0.989946961402893 1.17157423496246 1.40918350219727 1.66192245483398 1.97132110595703 2.36632776260376 2.47214126586914 2.39598703384399 2.24459671974182 3.13806247711182 1.93758344650269 2.14292669296265 2.33433222770691 2.51371932029724 2.89823174476624 2.90788531303406 2.19649577140808 1.29609417915344 0.273157685995102 0.334388613700867 -0.0221707932651043 -0.055283535271883 -0.140052750706673 0.00260913232341409 -0.262769192457199 -0.154197975993156 -0.551838755607605 -0.520655333995819 -0.424264281988144 -0.326527327299118 -0.0973847433924675 0.044874332845211 0.708206713199615 1.46218991279602 -0.442016422748566 -0.164572775363922 -0.116379432380199 0.342427462339401 0.600652158260345 0.484959185123444 0.209453642368317 -0.0415207110345364 0.198962613940239 0.0224849823862314 -0.208415478467941 -0.946000039577484 -0.912442624568939 -0.868024885654449 -0.844343960285187 -0.820752680301666 -0.801506102085114 0.346778124570847 1.92523813247681 -0.427739471197128 0.0296156983822584 0.688982605934143 -0.768974423408508 -0.181737065315247 -0.693611264228821 -0.6803098320961 -0.649472057819366 -0.611590147018433 -0.596361041069031 -0.573985934257507 -0.537124633789062 -0.4863361120224 -0.417687952518463 -0.329813539981842 -0.263461470603943 -0.182249546051025 -0.111035831272602 -0.0517281293869019 0.0157438013702631 0.0875269845128059 0.2001663595438 0.35382941365242 0.479742079973221 1.03232598304749 1.23593592643738 0.677236914634705 0.819633960723877 1.01049149036407 1.21231698989868 1.43720471858978 1.59106886386871 1.78230726718903 2.01363730430603 2.20792102813721 2.38208436965942 2.54430913925171 2.7817702293396 2.97640085220337 3.1536922454834 3.33902812004089 3.50174045562744 3.73876094818115 3.81827759742737 3.87803220748901 3.90864944458008 4.06416511535645 4.21977376937866 4.30584812164307 4.33331918716431 4.40478658676147 4.49945735931396 4.59942674636841 4.86003160476685 5.06194972991943 5.22095441818237 5.41576147079468 5.66202545166016 6.04310369491577 6.46633529663086 6.77021026611328 7.10372018814087 7.50457382202148 8.10207462310791 8.67847537994385 9.43735408782959 10.3382768630981 11.404390335083
6.1806058883667 7.14409923553467 7.9704852104187 9.6766185760498 6.62087249755859 2.50320053100586 0.852752208709717 1.03843092918396 1.1424058675766 1.00370848178864 0.955323815345764 0.99206155538559 1.15282166004181 1.14431607723236 1.2353378534317 1.41388976573944 1.52144825458527 1.47922718524933 1.6816953420639 1.47649013996124 1.47463274002075 1.25521421432495 1.04760372638702 1.11543643474579 1.46828651428223 0.875488698482513 0.590949714183807 0.620527565479279 0.683731377124786 0.917378783226013 1.03145349025726 1.20820033550262 2.022794008255 3.09036493301392 0.942494750022888 0.58829653263092 0.612513303756714 0.787424743175507 1.64984047412872 1.39402604103088 0.570837795734406 0.568519771099091 0.591369330883026 0.627791404724121 0.675140380859375 0.719388604164124 0.743840575218201 0.788007855415344 0.853867948055267 0.972871959209442 1.07589507102966 1.15290021896362 1.23215508460999 1.34445786476135 1.41225302219391 1.65302836894989 1.94651031494141 2.44621872901917 2.53369283676147 2.14026665687561 2.34529638290405 2.87852215766907 2.28189969062805 2.69837856292725 2.78659296035767 2.93200826644897 3.20082378387451 3.60907888412476 3.9911732673645 0.288873583078384 -0.52626496553421 -0.154676094651222 -0.0705831423401833 0.00271841534413397 -0.439705282449722 -0.501664578914642 -0.458145678043365 -0.49266305565834 -0.372882217168808 -0.289937615394592 -0.190067782998085 -0.0411589853465557 0.0583517141640186 -0.0943248271942139 0.134322255849838 -0.0697694197297096 0.141056776046753 -0.0591499507427216 0.265132397413254 0.464067041873932 0.494848549365997 0.389137208461761 0.31602281332016 0.488469630479813 0.133748516440392 -0.372171759605408 -0.99685400724411 -0.954344987869263 -0.289686352014542 0.00952128320932388 -0.903062403202057 -0.879346609115601 1.63492202758789 2.83615756034851 0.294883996248245 -0.148788511753082 -0.488415002822876 0.251062482595444 -0.851615607738495 -0.811509191989899 -0.791743516921997 -0.759972095489502 -0.722546279430389 -0.693541347980499 -0.672732651233673 -0.658898115158081 -0.61613130569458 -0.51538074016571 -0.457205355167389 -0.386844336986542 -0.316066950559616 -0.234171718358994 -0.1389180123806 -0.0755260363221169 0.0284725595265627 0.209061920642853 0.366195827722549 1.05686557292938 1.63744711875916 1.85201621055603 0.784410119056702 0.923228144645691 1.09380507469177 1.30720829963684 1.57494127750397 1.76820468902588 1.9389261007309 2.07642507553101 2.24025368690491 2.40472626686096 2.55905961990356 2.72108888626099 2.91277360916138 3.0538649559021 3.20496249198914 3.35087203979492 3.57456660270691 3.65346956253052 3.72530150413513 3.79000282287598 3.91169428825378 4.08281755447388 4.2104058265686 4.36623334884644 4.48275899887085 4.60755395889282 4.73563480377197 4.96633958816528 5.12886476516724 5.3839282989502 5.59320831298828 5.81801509857178 6.16178274154663 6.4829568862915 6.8113808631897 7.16726303100586 7.55309867858887 8.09425735473633 8.60202312469482 9.16388511657715 9.78017425537109 10.4701480865479
6.15608549118042 7.01174259185791 7.94385147094727 7.23279476165771 6.29799604415894 5.04965353012085 2.20161080360413 0.479098170995712 0.618897676467896 0.493343949317932 0.326333850622177 0.510253489017487 0.814932942390442 0.90472811460495 1.00894474983215 1.09493482112885 0.959412276744843 0.79192578792572 0.58693653345108 0.629215657711029 0.518200039863586 0.542011976242065 0.563741207122803 0.579514145851135 0.585198700428009 0.59621649980545 0.602513194084167 0.77314704656601 0.918028771877289 1.09381568431854 1.21827566623688 1.30099236965179 1.33324444293976 2.11833262443542 0.98768413066864 0.585641860961914 0.683674693107605 0.850798010826111 1.45892715454102 0.671113610267639 0.607121586799622 0.640686452388763 0.692897796630859 0.725512802600861 0.811706364154816 0.89218282699585 0.919935584068298 0.946972250938416 0.997212469577789 1.03037393093109 1.10114347934723 1.19920742511749 1.28847563266754 1.39882445335388 1.43784487247467 1.59619784355164 1.81509971618652 2.10182237625122 2.47232103347778 2.54549288749695 2.45315599441528 2.64965987205505 3.19922375679016 2.90712189674377 3.21561288833618 3.2563624382019 3.41129040718079 4.40456819534302 4.88957595825195 2.26626253128052 -0.353512436151505 -0.665563344955444 -0.358935415744781 -0.254716575145721 -0.246513664722443 -0.589411020278931 -0.552929222583771 -0.537457525730133 -0.480777412652969 -0.444762587547302 -0.390649348497391 -0.295041590929031 -0.247372522950172 -0.195281729102135 0.0661025419831276 0.349209576845169 0.371051669120789 0.0597299821674824 0.262400358915329 0.259518086910248 0.355998545885086 0.361776649951935 0.368818283081055 0.441918134689331 0.0161875486373901 0.209235087037086 0.0346973575651646 -0.305880278348923 -0.740911304950714 -0.975878238677979 -0.949226379394531 -0.626797020435333 2.28639364242554 2.30938792228699 1.2135021686554 1.5807056427002 -0.908707797527313 -0.570725381374359 -0.682713389396667 -0.962297320365906 -0.903048157691956 -0.865640699863434 -0.819857358932495 -0.443461656570435 -0.131603851914406 -0.781546533107758 -0.723817408084869 0.6195969581604 -0.641433715820312 -0.531694233417511 -0.44405198097229 -0.366486579179764 -0.276877105236053 -0.194182768464088 -0.0518682897090912 0.185798496007919 0.634450852870941 2.10205793380737 1.36173784732819 1.34863126277924 0.758305847644806 0.917418658733368 1.1296534538269 1.39504373073578 1.69793462753296 1.88599586486816 2.04614114761353 2.17743754386902 2.30116248130798 2.41747641563416 2.58738875389099 2.77400684356689 2.9706175327301 3.10689878463745 3.34348464012146 3.42101240158081 3.49349498748779 3.58198118209839 3.76202487945557 3.91777515411377 4.02009582519531 4.12360382080078 4.28077125549316 4.41446876525879 4.53500890731812 4.65700626373291 4.80858469009399 4.97974348068237 5.17619228363037 5.40536785125732 5.619065284729 5.83696508407593 6.1415228843689 6.45309448242188 6.80315589904785 7.1598334312439 7.55488586425781 7.84956645965576 8.30113792419434 8.81506252288818 9.40663909912109 10.0587673187256
4.7233681678772 5.31678867340088 5.90621471405029 6.31876468658447 5.989089012146 4.99162101745605 5.10905742645264 0.980377972126007 0.108487017452717 0.0791705995798111 0.166307657957077 0.308779537677765 0.412469655275345 0.404696673154831 0.439908087253571 0.456001192331314 0.474553942680359 0.496233105659485 0.510965883731842 0.519663870334625 0.526575446128845 0.543186843395233 0.559182167053223 0.577363669872284 0.588512539863586 0.611729741096497 0.762345492839813 0.859445512294769 0.948210060596466 1.08649921417236 1.12651062011719 1.22104597091675 1.30540502071381 1.49504852294922 0.954963266849518 0.596626698970795 0.738353967666626 0.949683845043182 0.878801167011261 0.678482890129089 0.730255603790283 0.778255820274353 0.820628106594086 0.826439738273621 0.848934888839722 0.906491100788116 1.01597428321838 1.03907680511475 1.06989133358002 1.10733866691589 1.15715837478638 1.20870912075043 1.35450720787048 1.41566264629364 1.48463940620422 1.6326756477356 1.75680327415466 2.04788255691528 2.5128972530365 2.7510998249054 2.80069971084595 2.86045241355896 3.26962184906006 3.42057704925537 3.49166703224182 3.74669551849365 3.95587062835693 4.4755973815918 4.71010112762451 3.14412307739258 2.54995083808899 1.3434841632843 -0.801026225090027 -0.562263607978821 -0.520910501480103 -0.611590087413788 -0.585550487041473 -0.532380282878876 -0.459937661886215 -0.402243465185165 -0.36831146478653 -0.329241812229156 -0.252052783966064 -0.16357333958149 -0.0572574585676193 0.603172242641449 0.886214673519135 0.343916386365891 0.521989583969116 0.105048194527626 0.157285198569298 -0.0045489058829844 -0.0506868213415146 0.5574010014534 1.05597794055939 0.706601858139038 0.246581971645355 0.0349159240722656 -0.464510977268219 -0.621510088443756 -0.481543093919754 -0.0470409132540226 3.76823687553406 2.70263934135437 1.71377062797546 1.60325515270233 1.4203200340271 -0.427479952573776 -1.15326499938965 -1.12121427059174 -1.01322484016418 -0.958433449268341 -0.640310406684875 -0.10614101588726 -0.455386430025101 -0.857971549034119 2.3231897354126 -0.846268355846405 -0.813436210155487 -0.687932550907135 -0.595580816268921 -0.544875383377075 -0.468510866165161 -0.359735667705536 -0.147332221269608 0.182835429906845 0.660682260990143 1.45446312427521 1.55930233001709 1.01858806610107 0.723145484924316 0.891749620437622 1.13981556892395 1.42383515834808 1.69676339626312 1.92746233940125 2.14285087585449 2.28898668289185 2.40542483329773 2.58670020103455 2.72749948501587 2.92683982849121 3.18326425552368 3.31533789634705 3.45780396461487 3.53625059127808 3.61621141433716 3.69978380203247 3.83616805076599 3.95650887489319 4.05889701843262 4.16862964630127 4.2983226776123 4.43414115905762 4.56295299530029 4.68097496032715 4.82445955276489 5.04719924926758 5.26459980010986 5.44363260269165 5.61630868911743 5.83696794509888 6.20219087600708 6.54108285903931 6.82744646072388 7.09861087799072 7.56029176712036 8.04217147827148 8.42530155181885 8.83562850952148 9.27976417541504 9.78349018096924
3.7816698551178 4.25034809112549 4.66380786895752 5.0234546661377 5.55823373794556 4.75741195678711 5.23861598968506 2.91524291038513 0.171737760305405 0.0834375321865082 -0.0245518442243338 0.130356103181839 0.30630362033844 0.400842308998108 0.437106996774673 0.454815208911896 0.468550950288773 0.487712830305099 0.498306900262833 0.509786188602448 0.530129849910736 0.547670841217041 0.55785870552063 0.578555226325989 0.599662721157074 0.666695058345795 0.764373540878296 0.845974028110504 0.917673528194427 1.23618161678314 0.786261916160583 0.787730693817139 0.861085414886475 0.955140769481659 1.28132104873657 0.614333033561707 0.712801933288574 0.732119977474213 0.73346883058548 0.738233685493469 0.756318092346191 0.796131193637848 0.862309455871582 0.898189723491669 0.933122992515564 0.95801055431366 1.01116859912872 1.11640453338623 1.16930532455444 1.19659876823425 1.21656000614166 1.26040291786194 1.41096091270447 1.59612762928009 1.69272422790527 1.85377097129822 1.94119584560394 2.11246490478516 2.51658964157104 2.85810708999634 3.0832257270813 3.19537425041199 3.34477758407593 3.6259605884552 3.74385547637939 3.94329953193665 4.18176698684692 5.12594270706177 6.62401294708252 3.93117094039917 5.34500551223755 0.9362673163414 -0.811495423316956 -0.708222329616547 -0.64899355173111 -0.617294430732727 -0.601167559623718 -0.57569032907486 -0.470683127641678 -0.399458467960358 -0.13198633491993 -0.365238726139069 -0.311930060386658 -0.207848891615868 -0.0602897517383099 0.526299059391022 1.03597211837769 0.737947463989258 0.780205249786377 -0.00870166067034006 -0.0554337985813618 -0.0935217067599297 0.336410284042358 0.921695470809937 0.567105770111084 0.49641939997673 0.679312467575073 0.448980122804642 0.0591494180262089 -0.290894508361816 0.147277653217316 0.633702993392944 3.67131638526917 2.86218452453613 2.256183385849 3.17981791496277 4.31120204925537 -0.530690550804138 -1.30535900592804 -1.24364829063416 -1.11049628257751 -1.06100499629974 -0.242804944515228 0.0359267890453339 -1.00504064559937 0.284734576940536 3.62308645248413 -0.990368545055389 -0.922635734081268 -0.844607412815094 -0.776079833507538 -0.747921586036682 -0.685368537902832 -0.579903423786163 -0.309980750083923 0.180804431438446 1.09153020381927 1.49839305877686 1.69410336017609 0.621345043182373 0.763052880764008 0.928619861602783 1.07116150856018 1.41863441467285 1.70555925369263 1.95918583869934 2.16806674003601 2.40119314193726 2.57381796836853 2.72833752632141 2.95586490631104 3.15785789489746 3.28992509841919 3.37547039985657 3.48470139503479 3.56524085998535 3.65409111976624 3.73995161056519 3.83984851837158 3.95970153808594 4.0873327255249 4.19762468338013 4.34618473052979 4.52990961074829 4.68953943252563 4.81823539733887 4.95348024368286 5.2123007774353 5.47887182235718 5.70263385772705 5.87656688690186 6.06434106826782 6.32688045501709 6.72218132019043 7.05319881439209 7.3630576133728 7.65908479690552 7.97352647781372 8.48557567596436 8.8809118270874 9.31643581390381 9.79457187652588
3.47623586654663 3.68201041221619 4.17359447479248 4.72853946685791 5.21234321594238 4.74777603149414 4.95475769042969 3.42560315132141 4.17582178115845 0.32537305355072 -0.104633167386055 0.0352527759969234 0.234398633241653 0.364892065525055 0.412681132555008 0.448010593652725 0.46633568406105 0.482582837343216 0.495152920484543 0.509069919586182 0.536680936813354 0.557131290435791 0.570086419582367 0.853785574436188 1.76228857040405 1.64723348617554 1.19973862171173 1.32046520709991 0.953174233436584 0.494637936353683 0.520171165466309 0.553127825260162 0.580624938011169 0.618510961532593 0.661823689937592 0.662191152572632 0.708937585353851 0.778026401996613 0.790152907371521 0.791825890541077 0.818714261054993 0.851696014404297 0.884846568107605 0.956247627735138 1.0078057050705 1.0507276058197 1.07178199291229 1.13401329517365 1.31518805027008 1.36776793003082 1.38637912273407 1.44575703144073 1.500972032547 1.63642430305481 1.82363307476044 1.92124378681183 2.03589367866516 2.18143773078918 2.4059591293335 2.79201531410217 3.13721299171448 3.34041738510132 3.63683009147644 3.86714816093445 4.20785188674927 4.34141874313354 4.66215038299561 7.16982126235962 10.8238906860352 1.76700294017792 2.1317150592804 1.42486619949341 2.59061789512634 -0.695757150650024 -0.679516673088074 -0.622424304485321 -0.562297761440277 -0.631157279014587 -0.545408606529236 -0.466846793889999 -0.173677518963814 -0.0582341738045216 -0.306507438421249 -0.239306971430779 -0.158354923129082 0.139601960778236 0.739285945892334 0.990756809711456 0.851784765720367 -0.0770581513643265 -0.14448419213295 0.156916379928589 0.51402622461319 0.0630289614200592 0.130415409803391 0.502914428710938 0.953556597232819 0.845311164855957 0.763706505298615 -0.0793379545211792 0.793592035770416 1.44677889347076 3.49283289909363 2.79610657691956 2.42984366416931 2.89639234542847 3.49763703346252 1.50352585315704 -1.39203858375549 -1.27934169769287 -1.21488797664642 -1.17103171348572 -0.375497937202454 -0.0532208196818829 -0.92134040594101 -0.608745038509369 0.795283496379852 -1.06431603431702 -0.500517189502716 0.00525924563407898 -1.00281000137329 -0.95317554473877 -0.893009901046753 -0.807496130466461 -0.60917603969574 0.037628535181284 0.396521627902985 0.767899513244629 0.89320707321167 0.66923987865448 0.70934933423996 0.820576906204224 1.04608571529388 1.397216796875 1.73178458213806 1.97354543209076 2.1574375629425 2.40305948257446 2.69937968254089 2.81974935531616 3.02143311500549 3.20962381362915 3.32007932662964 3.38208103179932 3.48908662796021 3.60104584693909 3.6766951084137 3.76192879676819 3.87156271934509 4.03260517120361 4.19816541671753 4.30874633789062 4.47306108474731 4.70196390151978 4.89544439315796 5.05936574935913 5.21237707138062 5.36123895645142 5.6534218788147 5.91300773620605 6.15142250061035 6.33522510528564 6.54488468170166 6.76947021484375 7.10483407974243 7.455641746521 7.75608015060425 8.0756139755249 8.41993618011475 8.7338228225708 9.15994071960449 9.61857414245605
3.1914918422699 3.35057044029236 3.87915349006653 4.54099035263062 5.05378580093384 4.93292093276978 5.58622455596924 2.76219177246094 2.6889750957489 2.91013336181641 -0.11554066836834 -0.065668985247612 0.143524706363678 0.289010971784592 0.401094764471054 0.445351660251617 0.466453611850739 0.48364046216011 0.496459722518921 0.514903008937836 0.615145325660706 1.60681092739105 1.77402532100677 1.45569860935211 3.22752094268799 1.33160614967346 0.461824148893356 0.497593104839325 0.513544619083405 0.52424830198288 0.535979449748993 0.566205203533173 0.626558125019073 0.656872451305389 0.674585461616516 0.70945006608963 0.742501556873322 0.773638069629669 0.839617729187012 0.870884776115417 0.901568114757538 0.912646532058716 0.950181901454926 0.999065160751343 1.13744413852692 1.1703519821167 1.2216637134552 1.26051330566406 1.35164213180542 1.43372428417206 1.48381614685059 1.55817818641663 1.56639397144318 1.64593863487244 1.86170196533203 1.96094012260437 2.0968177318573 2.23238468170166 2.41488575935364 2.69341707229614 3.25509238243103 3.61612439155579 4.33353567123413 4.64930486679077 5.03808355331421 5.61607217788696 6.09947061538696 7.49653434753418 11.7942180633545 1.49135935306549 1.67252492904663 3.25811743736267 5.53442335128784 0.712119817733765 -0.828879356384277 -0.693625807762146 -0.642290592193604 -0.620573461055756 -0.587522804737091 -0.506656527519226 -0.296038240194321 0.0293288305401802 -0.116775579750538 -0.113230727612972 -0.300225049257278 -0.0555772334337234 0.334156394004822 0.596144735813141 0.0919206067919731 0.522180795669556 0.867176532745361 -0.148214772343636 -0.0455476716160774 -0.013380192220211 0.0737185701727867 0.437246561050415 1.00603806972504 0.853751420974731 0.892169177532196 0.198434069752693 0.735404849052429 1.43696689605713 3.4482319355011 3.13509345054626 2.67030811309814 2.57324981689453 3.90682625770569 5.01674127578735 -1.5018390417099 -1.39727509021759 -1.28126001358032 -0.959865987300873 -0.601546823978424 -0.452490627765656 -0.581816494464874 -0.57549923658371 0.16515351831913 -0.815640211105347 -0.170330762863159 0.750874817371368 1.20597863197327 -1.15529894828796 -1.1017689704895 -1.00551199913025 -0.892825067043304 -0.247571438550949 0.277139693498611 0.392036706209183 0.429724842309952 0.559959352016449 0.688390374183655 0.847558796405792 1.01450157165527 1.32081615924835 1.63160991668701 1.85112285614014 2.03032827377319 2.28201794624329 2.54277062416077 2.66818523406982 2.87013697624207 3.07515144348145 3.21851778030396 3.3473904132843 3.54325819015503 3.6908106803894 3.76981663703918 3.84855794906616 3.96339440345764 4.17658996582031 4.37534713745117 4.53017997741699 4.64691925048828 4.83081531524658 5.04980087280273 5.2785005569458 5.4404673576355 5.59604120254517 5.76703357696533 5.96231985092163 6.24857044219971 6.42768955230713 6.62504100799561 6.85989141464233 7.10805225372314 7.2762508392334 7.57120084762573 7.89769983291626 8.1968469619751 8.39924335479736 8.80963230133057 9.25394344329834
3.07110357284546 3.33941674232483 3.62290859222412 4.30489158630371 5.3873815536499 7.03681993484497 3.40904426574707 2.89760160446167 2.47683787345886 2.89740753173828 -0.0976193696260452 -0.0501776598393917 0.183585554361343 0.291353017091751 0.389820963144302 0.656871497631073 0.451138198375702 0.472462892532349 0.74330872297287 0.975231230258942 1.17895686626434 2.450119972229 1.2572728395462 2.93971967697144 4.34249639511108 0.718621134757996 0.490029841661453 0.499407738447189 0.552076578140259 0.571841597557068 0.590381622314453 0.624068796634674 0.648327827453613 0.711306214332581 0.746850252151489 0.754524528980255 0.789000868797302 0.813288629055023 0.849328398704529 0.981355607509613 1.02194893360138 1.03396499156952 1.06126880645752 1.09801638126373 1.19643843173981 1.26406276226044 1.29730653762817 1.34548115730286 1.39126992225647 1.44660615921021 1.55694544315338 1.62077021598816 1.63900601863861 1.76224601268768 1.8317323923111 2.12255144119263 2.27748012542725 2.40240120887756 2.67625641822815 2.95047903060913 3.30760312080383 3.83173966407776 4.45019340515137 4.87135171890259 5.35819911956787 6.06328916549683 6.88382387161255 7.3725266456604 10.0295553207397 2.86870455741882 3.03690123558044 2.96091222763062 2.50491833686829 2.40569424629211 -0.78692352771759 -0.709550619125366 -0.636829078197479 -0.564941167831421 -0.543352484703064 -0.492778956890106 -0.378591865301132 -0.0960938408970833 0.114050351083279 0.314622670412064 0.108545236289501 0.030790489166975 -0.287629961967468 -0.0805005580186844 0.622246742248535 1.15271210670471 0.195165067911148 0.032818328589201 0.0516765080392361 0.0667637810111046 0.119121082127094 0.152488589286804 0.608280599117279 0.660272479057312 0.487832516431808 0.505078434944153 0.816787302494049 1.83413708209991 2.62972903251648 4.37029790878296 3.32703828811646 2.72849702835083 4.16264820098877 5.23571681976318 -1.54350161552429 -1.48557150363922 -1.21966946125031 -0.949500620365143 -0.455495715141296 0.0289326794445515 0.0159689821302891 -0.540388524532318 0.129950955510139 -0.136897221207619 0.567174017429352 1.60103034973145 2.11271238327026 -0.477009385824203 -1.29105520248413 -1.25452423095703 -1.12828576564789 -0.72262316942215 -0.119472980499268 0.0876851379871368 0.140568003058434 0.277732253074646 0.511513710021973 0.7970911860466 0.980335414409637 1.15219521522522 1.36064922809601 1.54710865020752 1.75005316734314 2.01741909980774 2.17807412147522 2.34838533401489 2.59061861038208 2.82724905014038 3.00924968719482 3.14391732215881 3.51251792907715 3.82555294036865 3.98549580574036 4.05683374404907 4.13052606582642 4.27540826797485 4.49787569046021 4.70490217208862 4.82451581954956 4.95432376861572 5.10432243347168 5.3493709564209 5.50213479995728 5.67757797241211 5.84445762634277 6.01279544830322 6.15146398544312 6.27552270889282 6.46992444992065 6.69088554382324 6.9157567024231 7.06535625457764 7.25084257125854 7.57539224624634 7.81723880767822 8.04307556152344 8.44275283813477 8.85800933837891
2.57970595359802 2.87649822235107 3.34496235847473 3.99254131317139 6.29626893997192 4.70497226715088 2.46303844451904 2.98504948616028 3.15593671798706 0.72283548116684 3.52341294288635 6.03723239898682 2.47231793403625 0.0553247034549713 0.187271177768707 0.305112421512604 0.560040771961212 0.656653046607971 0.852525055408478 1.0244300365448 1.2855212688446 1.79699337482452 1.73690056800842 4.06574440002441 3.12584567070007 0.53685075044632 0.538711071014404 0.54627513885498 0.560397863388062 0.616384983062744 0.66068023443222 0.688705623149872 0.70927631855011 0.73248964548111 0.849650740623474 0.874563813209534 0.896823763847351 0.908840119838715 0.929410994052887 1.00878322124481 1.08276832103729 1.12218415737152 1.15143740177155 1.17562294006348 1.20510458946228 1.29249393939972 1.37991261482239 1.40932846069336 1.44659185409546 1.49068403244019 1.70587956905365 1.71341860294342 1.78967595100403 1.92601764202118 1.96477615833282 2.08084440231323 2.26892900466919 2.38542604446411 2.60967445373535 2.87803983688354 3.19414091110229 3.64058256149292 4.03412437438965 4.71262836456299 5.29551887512207 6.00942993164062 6.82321166992188 7.01619863510132 8.62911319732666 7.09600257873535 3.75258159637451 2.60633587837219 1.2239066362381 -0.311488419771194 -0.197719529271126 0.0914971381425858 0.246909812092781 -0.533480107784271 -0.47308212518692 -0.449914187192917 -0.434879422187805 -0.00661845318973064 0.294016569852829 0.450332432985306 0.429815739393234 -0.0830140635371208 0.0921050235629082 0.627286851406097 -0.0756647884845734 -0.0332152061164379 0.157954558730125 0.0508634075522423 0.146877005696297 0.167707994580269 0.220530241727829 0.269813150167465 0.439949691295624 0.867117881774902 0.918003022670746 1.00273597240448 1.16374027729034 1.71134531497955 2.15397715568542 3.06326532363892 4.20942354202271 3.33866286277771 3.30613970756531 3.70993757247925 -0.601471662521362 -1.50957238674164 -0.964800179004669 -0.842052757740021 -0.412167489528656 0.274038761854172 -0.128277838230133 -0.07108174264431 0.66303151845932 0.612357795238495 0.861003458499908 1.33149683475494 1.20271527767181 -0.181859999895096 0.168199762701988 -0.721175253391266 -1.34674537181854 -1.15633392333984 -0.778205335140228 0.0260366797447205 0.0768327489495277 0.670598328113556 1.07017982006073 1.92645251750946 2.62216258049011 0.7831010222435 0.965029239654541 1.05117797851562 1.30647420883179 1.60038042068481 1.68955910205841 1.89207243919373 2.22033619880676 2.53194236755371 2.73185920715332 3.06900334358215 3.42505526542664 3.85023331642151 4.14185094833374 4.20279216766357 4.2641282081604 4.39262533187866 4.51147365570068 4.71512031555176 4.84729528427124 5.00608110427856 5.1635594367981 5.28249359130859 5.35322141647339 5.51488542556763 5.69447040557861 5.86088895797729 5.98211002349854 6.0241870880127 6.2091007232666 6.41957759857178 6.59660339355469 6.7446665763855 6.93312692642212 7.23784637451172 7.46589183807373 7.51464223861694 7.88498163223267 8.29156303405762
2.31732892990112 2.58096265792847 3.0003502368927 4.93589735031128 2.43660283088684 1.7261221408844 1.4239444732666 3.40678477287292 5.28376293182373 3.97462892532349 2.91244983673096 0.450113862752914 -0.104636065661907 -0.0537736527621746 0.0533316992223263 0.171808436512947 0.299667507410049 0.617240905761719 0.940276086330414 1.047199010849 1.35420429706573 1.89736092090607 3.36065769195557 5.76207304000854 1.2390763759613 0.593464732170105 0.59615558385849 0.607535183429718 0.616955518722534 0.641281962394714 0.751767933368683 0.774822413921356 0.802941977977753 0.827398180961609 0.890506327152252 0.958882331848145 0.981188178062439 0.999421834945679 1.02449679374695 1.0433144569397 1.09915482997894 1.17607665061951 1.21771371364594 1.25794053077698 1.28165531158447 1.31988060474396 1.48751604557037 1.52953386306763 1.55882394313812 1.60580563545227 1.64040982723236 1.63557195663452 1.73485887050629 1.82595098018646 1.90606796741486 2.08688426017761 2.22161722183228 2.34036588668823 2.48908972740173 2.67250800132751 2.93329429626465 3.29776835441589 3.67572355270386 4.62884855270386 5.3957142829895 6.03704309463501 6.64697647094727 7.92979431152344 9.54819297790527 7.56698560714722 3.22561454772949 3.24755120277405 0.835600733757019 -0.118298709392548 0.697723984718323 0.26345220208168 -0.126371949911118 -0.258220374584198 -0.400555372238159 -0.391282945871353 -0.365273416042328 0.0335703752934933 0.421818017959595 0.488824784755707 0.274981290102005 0.335085272789001 0.53573077917099 0.197924435138702 -0.0501505844295025 -0.0300807785242796 -0.0153694255277514 0.0303285699337721 0.341301083564758 0.376723796129227 0.441347777843475 0.512771248817444 0.625478327274323 0.872738182544708 0.955088198184967 1.06375527381897 1.25325262546539 1.30408012866974 1.52764785289764 2.10252356529236 3.17310786247253 3.16694450378418 3.93364548683167 5.27239894866943 -0.484426468610764 -1.189333319664 -0.525103330612183 -0.514966726303101 -0.404700547456741 -0.077695868909359 0.115743920207024 0.475315630435944 0.843405961990356 0.909793496131897 1.38802587985992 1.84998297691345 0.738288938999176 0.583428263664246 1.15273940563202 1.30571973323822 -1.09847402572632 -1.19596314430237 -0.513165712356567 0.437157779932022 0.921258449554443 1.88386571407318 4.50830316543579 6.34431028366089 5.92405557632446 0.00895197689533234 0.249105915427208 0.43719294667244 2.80689311027527 6.15099716186523 1.95367383956909 1.12980079650879 1.75438392162323 2.19953036308289 2.60854029655457 3.01661705970764 3.38631558418274 3.75083637237549 4.10142374038696 4.17481231689453 4.26606702804565 4.39387369155884 4.50855827331543 4.60304260253906 4.61947679519653 4.83718395233154 5.01278305053711 5.12596464157104 5.13384580612183 5.25011301040649 5.41646814346313 5.57651329040527 5.70954084396362 5.75858068466187 5.94938325881958 6.14377593994141 6.32150268554688 6.31857252120972 6.48956823348999 6.76466131210327 7.0303750038147 7.38558006286621 7.77227973937988 8.19343757629395
1.58018016815186 2.91195917129517 4.19680118560791 1.91287887096405 2.47554564476013 3.44399213790894 4.5016713142395 3.6377260684967 3.50135254859924 2.94348692893982 2.02287578582764 0.912968754768372 -0.0127861136570573 -0.113236598670483 -0.0487096048891544 0.0777297168970108 0.191733330488205 0.322017043828964 0.608759343624115 0.972321927547455 1.31864404678345 1.90034353733063 3.3023955821991 4.56377744674683 0.863311529159546 0.671128749847412 0.678142309188843 0.691112875938416 0.703997850418091 0.727827131748199 0.78760427236557 0.846046566963196 0.874601364135742 0.901417791843414 0.92435896396637 0.975242674350739 1.04347407817841 1.0785768032074 1.10470414161682 1.13708698749542 1.16134142875671 1.27754271030426 1.31173086166382 1.34038972854614 1.3826459646225 1.42392671108246 1.44262135028839 1.44940042495728 1.49019336700439 1.54254412651062 1.56900894641876 1.62317657470703 1.85712695121765 1.88468205928802 1.97935938835144 2.1374397277832 2.21322655677795 2.32609963417053 2.47598361968994 2.78117775917053 3.14154744148254 3.46191930770874 3.84861278533936 4.59919452667236 5.42103719711304 6.43266153335571 7.162682056427 7.85999536514282 8.66936779022217 7.24701738357544 5.99018907546997 4.08334493637085 1.68527281284332 0.456513345241547 0.662171006202698 0.309240639209747 -0.373027354478836 -0.187610968947411 0.0656380876898766 -0.205197870731354 0.0232772827148438 0.20881162583828 0.00755418930202723 0.485177725553513 1.38328158855438 0.123038835823536 0.0151630192995071 0.157380819320679 0.142868518829346 0.14984917640686 0.157976642251015 0.17446793615818 0.319609761238098 0.350262403488159 0.417226135730743 0.493681281805038 0.607646942138672 0.605892062187195 0.670525550842285 0.737100601196289 0.915361046791077 1.21597933769226 1.45156598091125 1.98680078983307 3.09719324111938 3.82628893852234 3.5213782787323 4.24424505233765 0.294064372777939 -0.611675500869751 0.496460378170013 -0.32096341252327 -0.171304136514664 0.218812108039856 0.418479859828949 0.830233335494995 1.21892285346985 0.955386579036713 1.18089544773102 1.37440752983093 0.966817140579224 0.95302402973175 1.49642050266266 3.10094809532166 4.55440425872803 5.09391975402832 0.913078010082245 -0.129233852028847 0.602871716022491 4.4973201751709 9.1183500289917 11.1326742172241 10.7089166641235 6.65928411483765 -0.77051043510437 -0.570310771465302 2.23740196228027 2.65943074226379 0.240769580006599 0.876672208309174 1.38565242290497 1.8567521572113 2.38639879226685 2.88658213615417 3.31675410270691 3.66522407531738 3.94540643692017 3.97825527191162 4.07415056228638 4.1986231803894 5.84493494033813 7.2788348197937 4.11214447021484 4.26583337783813 4.53232622146606 4.81326246261597 4.92279243469238 4.99875020980835 5.16408443450928 5.32293844223022 5.34767866134644 5.40328788757324 5.58207893371582 5.76214838027954 5.95642232894897 6.11445045471191 6.34109210968018 6.60234022140503 6.9133939743042 7.26242351531982 7.6373987197876 8.04440689086914
