NCOLS 172
NROWS 31
XLLCORNER 353904
YLLCORNER 6700848
CELLSIZE 16 
NODATA_value -3.4e+38 
14.301381111145 17.3367557525635 18.4845180511475 17.2832202911377 17.0710182189941 14.5480585098267 12.2793035507202 12.1861305236816 12.4438457489014 11.8422746658325 10.1603994369507 11.9100122451782 15.4058685302734 18.5137767791748 11.5011177062988 9.21512031555176 13.3516683578491 16.7659530639648 15.6194791793823 12.1795930862427 9.02343463897705 9.03723430633545 10.1933364868164 10.9599952697754 12.2635059356689 12.5805730819702 12.4478969573975 11.9615516662598 12.6425361633301 12.2464952468872 12.9995803833008 12.3277711868286 11.8104219436646 8.99203777313232 10.0233821868896 10.5219173431396 7.60220575332642 5.57608938217163 5.03901290893555 14.4208335876465 17.2112693786621 10.7993898391724 9.22370529174805 10.9781856536865 11.3792705535889 12.7612781524658 15.3181381225586 13.996470451355 10.9279527664185 9.85926151275635 9.49134159088135 8.84223079681396 7.97538757324219 6.95567560195923 6.2386212348938 5.50307178497314 5.10565853118896 4.87182331085205 4.73870325088501 4.60606050491333 4.38119840621948 3.9572913646698 3.45383810997009 2.97871732711792 2.97744417190552 3.01800584793091 3.06771039962769 3.24174880981445 3.3312349319458 3.06608629226685 2.83253931999207 3.17453789710999 3.29254913330078 3.25994944572449 2.9807014465332 2.75851440429688 2.08681201934814 1.25322234630585 0.892919838428497 0.380523830652237 -0.0176397655159235 -0.322188943624496 -0.462449252605438 -0.471832126379013 -0.468246817588806 -0.460482209920883 -0.214351966977119 0.338518738746643 0.968804121017456 1.41180384159088 1.50815761089325 1.47010672092438 1.43537747859955 1.58734977245331 1.5906708240509 1.38739454746246 0.762860119342804 0.209883719682693 -0.106008507311344 -0.383936434984207 -0.535153090953827 -0.564441442489624 -0.539494693279266 -0.521637797355652 -0.481541693210602 -0.444146871566772 -0.405430525541306 -0.378208488225937 -0.368767648935318 -0.353730767965317 -0.364562720060349 -0.363138824701309 -0.340736657381058 -0.310245424509048 0.261162847280502 0.426986932754517 0.451784282922745 0.363498657941818 0.467922300100327 0.109521947801113 0.31111204624176 0.433184891939163 0.527135133743286 0.652287423610687 0.762465417385101 0.873841345310211 0.882050156593323 0.773816764354706 0.609164118766785 0.512702107429504 0.479324996471405 0.506308674812317 0.518576085567474 0.496341347694397 0.448565155267715 0.451510459184647 0.462512046098709 0.472660601139069 0.48566398024559 0.621433019638062 0.679910361766815 0.763768255710602 0.961384654045105 1.21959066390991 1.52712392807007 1.751429438591 1.96121418476105 1.95537209510803 1.87102842330933 1.78951299190521 1.57239902019501 1.44264161586761 1.27214574813843 1.07747864723206 0.940629005432129 1.05792307853699 1.01380205154419 0.981254041194916 0.940979599952698 0.748423516750336 0.616309881210327 0.501185536384583 0.425374656915665 0.382129818201065 0.368928194046021 0.385207235813141 0.448474735021591 0.589826464653015 0.725695192813873 0.802378535270691 0.835836052894592 0.83042985200882
12.5947847366333 15.9574489593506 18.2706470489502 17.0123634338379 16.5145359039307 15.3924493789673 13.2451658248901 11.8117637634277 10.5051593780518 12.9359760284424 12.1734447479248 12.7124967575073 17.1110515594482 22.3781337738037 21.2124977111816 15.4675035476685 13.8809051513672 16.3562450408936 15.8250846862793 13.2898635864258 10.9715900421143 8.57398223876953 9.61990547180176 10.5810470581055 12.2428503036499 12.5661993026733 13.663257598877 12.2734451293945 14.6063785552979 12.7070035934448 12.2593116760254 12.2631406784058 11.6929578781128 14.4388341903687 19.256591796875 18.0671901702881 18.9666938781738 22.8770046234131 28.335485458374 24.0063323974609 16.806884765625 13.1854572296143 12.8463983535767 11.4558820724487 10.9414310455322 11.3550863265991 13.3381795883179 12.3771162033081 9.47396564483643 9.80127429962158 8.67301177978516 8.39933300018311 7.49212455749512 6.26483345031738 5.38871192932129 5.18056583404541 4.81241798400879 4.58742713928223 4.52105283737183 4.42890501022339 4.24973917007446 3.84181642532349 3.34796524047852 3.00188255310059 2.92422008514404 2.96331381797791 3.16059494018555 3.22385883331299 3.1927125453949 2.87863659858704 2.74690699577332 3.07982397079468 3.19772624969482 3.16132020950317 2.89405345916748 2.65719771385193 1.80040955543518 1.16409695148468 0.648431956768036 0.22323314845562 -0.146778643131256 -0.416594117879868 -0.519946396350861 -0.549541175365448 -0.541972041130066 -0.53947114944458 -0.4135422706604 0.289602935314178 0.848616898059845 1.18862283229828 1.28268814086914 0.967557787895203 0.919013977050781 1.05597305297852 1.13372468948364 0.906815588474274 0.418198943138123 0.00492998585104942 -0.379309982061386 -0.565684795379639 -0.623650670051575 -0.637912154197693 -0.621118485927582 -0.599706292152405 -0.573894500732422 -0.539875090122223 -0.494535326957703 -0.450238972902298 -0.413527756929398 -0.414333581924438 -0.415138214826584 -0.412433236837387 -0.375139892101288 -0.35281178355217 0.187205523252487 0.37360805273056 0.39547273516655 0.317332595586777 0.191155284643173 0.0834915712475777 0.252994656562805 0.430059731006622 0.534423172473907 0.597335457801819 0.703808069229126 0.807562291622162 0.832754671573639 0.731613278388977 0.586459994316101 0.494118362665176 0.456864953041077 0.496188193559647 0.502054870128632 0.449339777231216 0.438945859670639 0.44206765294075 0.461564213037491 0.461312681436539 0.47433415055275 0.606640219688416 0.660586595535278 0.690531671047211 0.811117231845856 1.11347794532776 1.45557177066803 1.66438460350037 1.81383669376373 1.92087316513062 1.75506663322449 1.62119090557098 1.51366889476776 1.40513837337494 1.24298965930939 1.05433523654938 0.929984033107758 1.02376759052277 0.995509564876556 0.955392897129059 0.905001997947693 0.687264859676361 0.580744028091431 0.47137063741684 0.371097207069397 0.32682529091835 0.337067812681198 0.342096328735352 0.278818696737289 0.394568175077438 0.596190750598907 0.633813202381134 0.636442005634308 0.61175000667572
12.4862747192383 14.0463438034058 17.4235744476318 17.7644538879395 16.9130344390869 16.1458110809326 17.207218170166 15.3323812484741 16.4159545898438 14.8576250076294 12.5335645675659 13.4248952865601 17.3627395629883 18.7125606536865 19.8910026550293 17.7061347961426 14.0078907012939 14.4817562103271 13.9885215759277 13.2263555526733 18.0056228637695 14.6947460174561 9.43285846710205 9.99206638336182 12.0454874038696 19.0519886016846 22.2801132202148 21.1429557800293 14.3705110549927 14.1036319732666 12.9849367141724 11.324803352356 12.2454462051392 15.5697727203369 16.7596549987793 18.1955375671387 20.293773651123 23.8837985992432 25.6518077850342 21.7759857177734 25.1188220977783 19.6959037780762 13.5557155609131 12.0314702987671 10.2986545562744 11.445463180542 9.71673583984375 8.89964008331299 11.2070121765137 8.2729606628418 8.16494560241699 7.89406061172485 7.02069520950317 5.74860048294067 4.9915189743042 4.87732934951782 4.52583122253418 4.32458162307739 4.29032468795776 4.23574018478394 4.11788892745972 3.72785925865173 3.23812222480774 2.93910813331604 2.91435027122498 2.92039060592651 3.10654807090759 3.15735602378845 2.89773201942444 2.57359862327576 2.79242181777954 2.98418617248535 3.08769154548645 3.0535581111908 2.79225540161133 2.56541776657104 1.73027527332306 1.02652764320374 0.558807373046875 0.0956079140305519 -0.293510317802429 -0.484090894460678 -0.592535972595215 -0.617739915847778 -0.624289572238922 -0.616341114044189 -0.587579488754272 -0.103365629911423 0.561916470527649 0.863076865673065 0.75601726770401 0.476613193750381 0.526530206203461 0.543963432312012 0.62710839509964 0.309084683656693 0.00934692099690437 -0.248533099889755 -0.516088128089905 -0.659980654716492 -0.698429703712463 -0.710948169231415 -0.696687936782837 -0.671814620494843 -0.642044484615326 -0.602256715297699 -0.566531479358673 -0.520984351634979 -0.481052458286285 -0.463723957538605 -0.473117262125015 -0.433111429214478 -0.422984451055527 -0.397259533405304 0.100684009492397 0.285609096288681 0.316979765892029 0.258432596921921 0.144053310155869 0.0497682578861713 0.192502111196518 0.370109379291534 0.473053246736526 0.548626065254211 0.631660282611847 0.690959811210632 0.685202300548553 0.592570185661316 0.496848523616791 0.465253055095673 0.444821417331696 0.480373740196228 0.484617203474045 0.43758636713028 0.428586959838867 0.433496475219727 0.45126411318779 0.452968716621399 0.50040590763092 0.594529509544373 0.645068168640137 0.611097157001495 0.670640408992767 0.855851709842682 1.26592946052551 1.48449683189392 1.65793824195862 1.79481053352356 1.72023689746857 1.51551914215088 1.37561166286469 1.24341201782227 1.17178094387054 1.12971711158752 0.915644288063049 0.98093980550766 0.947501540184021 0.903918623924255 0.754395365715027 0.575971961021423 0.505827009677887 0.411625772714615 0.309764087200165 0.230169489979744 0.279378920793533 0.293288588523865 0.24690043926239 0.263684421777725 0.316944867372513 0.358910113573074 0.38912308216095 0.398885101079941
12.1238613128662 13.2379674911499 15.256950378418 17.7123680114746 17.2766933441162 16.3125877380371 15.8501491546631 16.5671463012695 17.5691814422607 14.2451553344727 12.1609325408936 12.7261114120483 15.2828283309937 15.2114696502686 14.7729272842407 15.198070526123 13.0923748016357 12.8235101699829 12.1596736907959 15.8566236495972 17.4024600982666 21.8212776184082 19.6826934814453 19.2665386199951 15.267297744751 15.1072311401367 17.6948471069336 17.8035449981689 13.9308395385742 14.4965715408325 11.1389932632446 9.85132694244385 12.2304534912109 15.7240190505981 17.3793163299561 19.3341979980469 20.7740325927734 22.3229713439941 22.0390148162842 22.8581237792969 22.140588760376 19.7477245330811 13.4118709564209 13.2271604537964 13.3069152832031 9.70250129699707 9.4736499786377 11.2455596923828 8.5414924621582 7.70389604568481 7.58736705780029 7.05610418319702 5.70955848693848 5.32698154449463 4.65587091445923 4.3670015335083 4.0152416229248 3.9976806640625 4.0850944519043 4.03264665603638 3.85084915161133 3.54695868492126 3.1305410861969 2.89761114120483 2.88515257835388 3.40855431556702 3.06229519844055 3.10434436798096 2.8413143157959 2.60423135757446 2.8805718421936 2.93720030784607 2.97308611869812 2.92559933662415 2.65613293647766 2.38220810890198 1.64299738407135 0.908398032188416 0.45091250538826 -0.0432778596878052 -0.417267054319382 -0.562707543373108 -0.646576344966888 -0.662645697593689 -0.669468224048615 -0.677395343780518 -0.670248687267303 -0.625959098339081 -0.184734106063843 0.176097929477692 0.0966434702277184 0.0278654880821705 -0.0148642444983125 0.023904437199235 0.0692980587482452 -0.142306804656982 -0.342956244945526 -0.534754872322083 -0.687077760696411 -0.739257216453552 -0.765264511108398 -0.774214863777161 -0.76470685005188 -0.750530481338501 -0.721441149711609 -0.677582442760468 -0.631557285785675 -0.586847722530365 -0.557828426361084 -0.529435038566589 -0.511528789997101 -0.498025119304657 -0.468624323606491 -0.147861286997795 0.0854511857032776 0.205133065581322 0.223012164235115 0.166724354028702 -0.056081261485815 -0.00941568426787853 0.160512059926987 0.310629934072495 0.401430726051331 0.492204427719116 0.568176031112671 0.610527157783508 0.579465448856354 0.47435051202774 0.416549682617188 0.42521208524704 0.433907359838486 0.462042480707169 0.466275691986084 0.423823118209839 0.418940812349319 0.421969473361969 0.439392685890198 0.452157139778137 0.575497686862946 0.59882652759552 0.628016471862793 0.559356272220612 0.595275580883026 0.747799456119537 0.995414257049561 1.17885589599609 1.39658772945404 1.54693984985352 1.55567252635956 1.45720100402832 1.35093975067139 1.17284715175629 1.01136767864227 0.953982532024384 0.873648226261139 0.964007675647736 0.927638411521912 0.879705548286438 0.68548846244812 0.518774211406708 0.45671933889389 0.378386527299881 0.275187581777573 0.174071058630943 0.107662156224251 0.141655027866364 0.120218001306057 0.152357161045074 0.267925888299942 0.191082507371902 0.204230949282646 0.227495208382607
11.2734489440918 12.8696622848511 14.2839517593384 16.3039493560791 17.1870536804199 16.7201595306396 16.6280879974365 15.8603315353394 16.5290126800537 15.1599941253662 10.7817659378052 12.0132341384888 13.8515434265137 13.1811771392822 12.2198858261108 11.2213258743286 11.9024295806885 11.8491096496582 11.4729900360107 15.1369724273682 17.9081077575684 19.800931930542 20.3705615997314 17.8844394683838 15.0620536804199 15.0659189224243 14.3776807785034 15.7912673950195 13.5163526535034 11.7242879867554 9.96899318695068 9.34982109069824 11.1610240936279 14.1158790588379 15.8930416107178 17.5756797790527 19.393180847168 20.5232639312744 19.0304508209229 17.9558219909668 15.6249675750732 14.8693780899048 14.4883766174316 11.9188594818115 11.2513341903687 12.5497703552246 8.98527431488037 8.46506690979004 7.92799091339111 7.12772703170776 6.78649187088013 5.99634599685669 5.33152961730957 5.03173208236694 4.39574432373047 3.99413084983826 3.80408930778503 3.81940340995789 3.78151202201843 3.74858260154724 3.63768744468689 3.28478336334229 3.26172590255737 2.89204216003418 2.88551020622253 2.92321085929871 3.74801135063171 3.0607442855835 2.7931797504425 2.55683183670044 2.81873083114624 2.87867403030396 2.83366179466248 2.71262145042419 2.46591925621033 2.17616391181946 1.27094280719757 0.696819067001343 0.198650524020195 -0.237088561058044 -0.493368834257126 -0.596495151519775 -0.707299947738647 -0.718778550624847 -0.732283413410187 -0.733280301094055 -0.735611915588379 -0.723537445068359 -0.656596660614014 -0.47656387090683 -0.401993989944458 -0.368650704622269 -0.414489388465881 -0.328011244535446 -0.390357196331024 -0.483132094144821 -0.643741607666016 -0.752439618110657 -0.812282383441925 -0.815868973731995 -0.839152455329895 -0.840885102748871 -0.834762871265411 -0.823529481887817 -0.796360969543457 -0.760218501091003 -0.700581848621368 -0.657920002937317 -0.62471741437912 -0.589113771915436 -0.547537624835968 -0.510142982006073 -0.545241296291351 -0.0496472492814064 0.083303302526474 0.128383845090866 0.0726458430290222 -0.0234656203538179 -0.140655115246773 -0.0692590847611427 0.100706942379475 0.248962596058846 0.334387719631195 0.413809686899185 0.482519775629044 0.518734514713287 0.485782951116562 0.397842735052109 0.371331244707108 0.395080149173737 0.414487779140472 0.445892542600632 0.453453421592712 0.412194639444351 0.404703617095947 0.411077916622162 0.429662138223648 0.440953105688095 0.561862468719482 0.609374523162842 0.556723535060883 0.496832817792892 0.895351231098175 0.594146311283112 0.723002970218658 0.857080638408661 1.03212010860443 1.17523968219757 1.23533165454865 1.22263073921204 1.19284677505493 1.12819349765778 0.997401416301727 0.883679091930389 0.837282717227936 0.944452166557312 0.906019747257233 0.817093074321747 0.641581952571869 0.511259913444519 0.423594057559967 0.366400450468063 0.264178216457367 0.158860951662064 0.088770255446434 0.0888662561774254 0.0866654589772224 0.0949266776442528 0.161951914429665 0.185176223516464 0.178841903805733 0.160378262400627
10.5134353637695 12.0165719985962 13.5563497543335 15.1429920196533 15.4467086791992 15.6757555007935 15.2253036499023 14.8727989196777 15.4764804840088 14.2310829162598 11.8118877410889 11.3993806838989 12.737325668335 11.8073587417603 10.7066221237183 10.1125364303589 10.6521005630493 10.5959815979004 10.3519144058228 13.0340051651001 16.0514068603516 18.799690246582 18.7526721954346 19.6074867248535 19.5243701934814 16.9457740783691 14.4348564147949 13.6960849761963 11.7057971954346 10.8389110565186 9.90002059936523 9.30886459350586 10.4394197463989 12.806113243103 14.3326683044434 15.6853923797607 17.1666660308838 18.4388122558594 16.8722343444824 15.227442741394 13.110523223877 11.9465494155884 12.1385688781738 11.8026990890503 10.7572717666626 8.96344757080078 8.08259773254395 7.90519905090332 7.26318359375 6.59813785552979 6.36805629730225 5.66159915924072 5.01620626449585 4.45967483520508 4.10335159301758 3.81820464134216 3.62341356277466 3.65983080863953 3.62048935890198 3.56320691108704 3.42644643783569 3.18982172012329 3.00061440467834 3.0138795375824 2.90886640548706 2.94207215309143 3.06170988082886 3.06030035018921 2.75159239768982 2.5298171043396 2.77312898635864 2.81826758384705 2.73746562004089 2.46049475669861 2.21152997016907 1.58245623111725 0.869963645935059 0.547195136547089 0.115329764783382 -0.334185153245926 -0.532209038734436 -0.636488914489746 -0.763810336589813 -0.779394328594208 -0.792558789253235 -0.799597084522247 -0.795930683612823 -0.786694943904877 -0.775086402893066 -0.724073052406311 -0.642097294330597 -0.646674454212189 -0.616258978843689 -0.584841310977936 -0.629965245723724 -0.721516609191895 -0.83082240819931 -0.86324280500412 -0.893514096736908 -0.894427418708801 -0.893314778804779 -0.88503485918045 -0.883506238460541 -0.879969656467438 -0.859052002429962 -0.832172334194183 -0.773731768131256 -0.74059122800827 -0.706463158130646 -0.660278677940369 -0.595128774642944 -0.577562689781189 -0.591260135173798 -0.150385811924934 0.0131075363606215 0.0478157438337803 -0.0192318558692932 -0.100165665149689 -0.222871735692024 -0.0165347643196583 0.136186882853508 0.184992536902428 0.268611550331116 0.339581787586212 0.389936685562134 0.40966534614563 0.36985769867897 0.300380975008011 0.298766791820526 0.342308670282364 0.386594891548157 0.416203647851944 0.416434168815613 0.387799024581909 0.400678396224976 0.41133052110672 0.420251697301865 0.429959893226624 0.546492218971252 0.592645883560181 0.537431657314301 0.487049430608749 0.501616775989532 0.520128667354584 0.58152973651886 0.640667736530304 0.742956459522247 0.868853747844696 0.968227088451385 0.991116166114807 0.965114235877991 0.960505068302155 0.922040164470673 0.846561074256897 0.916449964046478 0.886885643005371 0.841206252574921 0.809264779090881 0.628005027770996 0.501136898994446 0.432397395372391 0.342144370079041 0.261854082345963 0.157568112015724 0.0868396535515785 0.076518677175045 0.0644197016954422 0.0671008601784706 0.130020245909691 0.170186966657639 0.164395824074745 0.152895346283913
9.99624538421631 11.042085647583 12.3266716003418 13.968090057373 14.4692420959473 14.9122772216797 14.8891048431396 14.9230184555054 13.626124382019 11.578161239624 10.9469861984253 10.9127578735352 11.6510248184204 10.6364860534668 9.56453704833984 9.07573223114014 9.57776260375977 9.51542854309082 9.46529960632324 11.2240839004517 13.6437921524048 15.6033182144165 15.6165828704834 14.3062906265259 14.6575336456299 14.1044597625732 13.3432035446167 12.0794277191162 10.9733171463013 9.87375164031982 9.41034126281738 9.14964294433594 10.4845952987671 11.9468574523926 13.2683391571045 14.2749814987183 15.9128561019897 17.6197280883789 16.5091018676758 15.1541900634766 14.7075395584106 13.0603647232056 10.6330509185791 9.40102958679199 8.38805389404297 7.56929302215576 7.51421022415161 7.33318758010864 6.75509452819824 6.26461505889893 6.02887535095215 5.38250684738159 4.53680086135864 4.04678869247437 3.94574999809265 3.65986824035645 3.47617387771606 3.52347803115845 3.48832106590271 3.42931079864502 3.26493573188782 3.01729846000671 2.88828349113464 2.87084698677063 2.89210224151611 3.03797173500061 3.06645607948303 2.98916673660278 2.64867258071899 2.61824059486389 2.74408531188965 2.77012920379639 2.68783855438232 2.40995121002197 2.14551997184753 1.3429000377655 0.70327240228653 0.199481531977654 -0.11308154463768 -0.38447630405426 -0.563550412654877 -0.666050791740417 -0.785141587257385 -0.834813952445984 -0.853850126266479 -0.861127853393555 -0.854563534259796 -0.840955018997192 -0.833114683628082 -0.836313307285309 -0.839972674846649 -0.826094806194305 -0.814966976642609 -0.810738623142242 -0.846583127975464 -0.879784286022186 -0.904469430446625 -0.921687364578247 -0.943164229393005 -0.950011610984802 -0.948809146881104 -0.93329644203186 -0.933736264705658 -0.934528827667236 -0.928163826465607 -0.903324663639069 -0.852346420288086 -0.822566568851471 -0.799326360225677 -0.751227140426636 -0.696273326873779 -0.655353665351868 -0.699973821640015 -0.347784042358398 -0.222619161009789 -0.105615340173244 -0.135072693228722 -0.30015629529953 -0.266558647155762 -0.0826726481318474 0.0840895026922226 0.159217908978462 0.19311685860157 0.242963507771492 0.294763147830963 0.316586971282959 0.276591420173645 0.214860275387764 0.231541514396667 0.281010121107101 0.345412790775299 0.389349400997162 0.367409646511078 0.323954552412033 0.380555987358093 0.401178568601608 0.408133804798126 0.416533291339874 0.522299408912659 0.568272829055786 0.520594954490662 0.474874645471573 0.449387043714523 0.482414215803146 0.513018190860748 0.554705142974854 0.621880710124969 0.702078819274902 0.788585722446442 0.823854982852936 0.856736540794373 0.845256686210632 0.852430880069733 0.805527925491333 0.894923567771912 0.865887999534607 0.826959669589996 0.692434430122375 0.592006921768188 0.494712114334106 0.397107154130936 0.309171676635742 0.222676768898964 0.148026272654533 0.0849589556455612 0.0642059147357941 0.0518967546522617 0.0658776611089706 0.0881380513310432 0.131777420639992 0.14417627453804 0.137617811560631
9.69099807739258 10.5743551254272 11.5452013015747 12.7729635238647 13.4566230773926 13.5636806488037 14.0162220001221 13.8536386489868 12.5647325515747 10.8327407836914 10.55797290802 11.0947265625 9.26798534393311 8.39653778076172 8.19098377227783 8.50358200073242 8.59833335876465 8.77567100524902 9.14300727844238 9.86454296112061 11.5028476715088 12.6374387741089 13.2872486114502 12.9691829681396 13.1454210281372 13.3820743560791 12.4899587631226 11.6279897689819 10.2948293685913 9.42049026489258 9.2241268157959 9.11303901672363 10.6827144622803 11.8000869750977 12.5077772140503 13.3550291061401 14.7748517990112 16.0028343200684 14.9322061538696 13.4794692993164 12.2937812805176 11.0177659988403 9.18614292144775 7.59997940063477 7.01781415939331 6.93121433258057 6.81298971176147 6.38612174987793 5.97176551818848 5.93842649459839 5.75674200057983 5.08818864822388 4.37312078475952 3.85575747489929 3.60877656936646 3.34103322029114 3.38072609901428 3.42147421836853 3.38419532775879 3.32114768028259 3.15895795822144 2.89102339744568 2.76669907569885 2.79478216171265 2.86092829704285 3.00546073913574 3.02382040023804 2.76144933700562 2.57543110847473 2.71957230567932 2.74646425247192 2.73699402809143 2.64356637001038 2.34702014923096 2.03280353546143 1.29994571208954 0.521807670593262 0.0630362182855606 -0.23943455517292 -0.495942354202271 -0.639908134937286 -0.752867579460144 -0.849900722503662 -0.896434426307678 -0.907796740531921 -0.915963768959045 -0.912959933280945 -0.893414616584778 -0.882824718952179 -0.887302994728088 -0.900661408901215 -0.912321090698242 -0.752506971359253 -0.935815215110779 -0.909852206707001 -0.933170258998871 -0.942513227462769 -0.966985166072845 -0.974310278892517 -0.9801424741745 -0.98685222864151 -0.980724990367889 -0.983657360076904 -0.985414803028107 -0.974780201911926 -0.954796671867371 -0.907714366912842 -0.882102370262146 -0.85815554857254 -0.832193791866302 -0.788537859916687 -0.75936371088028 -0.795928061008453 -0.469774663448334 -0.328951418399811 -0.336147516965866 -0.28395739197731 -0.371259987354279 -0.387978911399841 -0.213799968361855 -0.0493087209761143 0.0292268302291632 0.0741066783666611 0.0966785326600075 0.114660456776619 0.109729491174221 0.108996972441673 0.104988023638725 0.149524226784706 0.236764505505562 0.302954316139221 0.345919519662857 0.321149587631226 0.254237085580826 0.313095510005951 0.37899050116539 0.377918601036072 0.402500748634338 0.454695194959641 0.511341035366058 0.470810115337372 0.435580343008041 0.426254659891129 0.450417131185532 0.479959398508072 0.518338918685913 0.554475367069244 0.621638715267181 0.683185756206512 0.726338744163513 0.767080724239349 0.77792102098465 0.778685510158539 0.740638256072998 0.872632265090942 0.84690797328949 0.812090516090393 0.632610976696014 0.494263976812363 0.445146292448044 0.361163556575775 0.267390727996826 0.211953461170197 0.119117118418217 0.129131332039833 0.136658161878586 0.245011046528816 0.0617206729948521 0.0676587074995041 0.0930832549929619 0.10777509957552 0.129003256559372
9.3093204498291 10.1021709442139 11.1200733184814 11.7148656845093 12.1724491119385 12.4629392623901 12.758526802063 12.647289276123 11.3720998764038 9.79026031494141 9.93482685089111 10.3294916152954 8.76152324676514 7.73111915588379 7.65113830566406 7.97454071044922 8.16648960113525 8.3869457244873 8.71692371368408 9.06355476379395 10.0160799026489 11.7282199859619 12.2638120651245 11.787745475769 12.0209712982178 11.7590160369873 11.2088041305542 10.3944091796875 9.25865650177002 9.20118427276611 8.97905158996582 8.55422973632812 9.89741516113281 10.9369897842407 12.0290937423706 13.0866088867188 13.9471654891968 13.1932764053345 12.3346939086914 11.2453927993774 10.4695625305176 9.14674091339111 7.46852207183838 6.77301597595215 6.65326452255249 6.56682157516479 6.47381258010864 6.00674724578857 5.70629596710205 5.59890508651733 5.23474931716919 4.47449684143066 4.24486207962036 3.73219680786133 3.45409226417542 3.26619648933411 3.32688570022583 3.36399745941162 3.28873777389526 3.10757780075073 2.95979905128479 2.73507809638977 2.65709781646729 2.71039390563965 2.78073239326477 2.97370982170105 2.99171042442322 2.72729992866516 2.50781083106995 2.71195268630981 2.69844102859497 2.66089272499084 2.51749348640442 2.24397230148315 1.92236459255219 1.0370991230011 0.448724269866943 -0.0847869664430618 -0.4412941634655 -0.605060994625092 -0.719115376472473 -0.837618589401245 -0.93850302696228 -0.968250572681427 -0.962000846862793 -0.963715076446533 -0.965908288955688 -0.955959379673004 -0.945005238056183 -0.940953314304352 -0.947648704051971 -0.826177060604095 -0.549266993999481 0.778853118419647 -0.962266325950623 -0.996111631393433 -1.01073777675629 -1.01622176170349 -1.02049922943115 -1.01250302791595 -1.01128315925598 -1.01821410655975 -1.02964246273041 -1.03079009056091 -1.01517367362976 -0.989465773105621 -0.959664642810822 -0.948184847831726 -0.946955919265747 -0.909806668758392 -0.823452591896057 -0.833207249641418 -0.710243940353394 -0.537104070186615 -0.47288653254509 -0.426182210445404 -0.489240795373917 -0.598888993263245 -0.504205226898193 -0.333827763795853 -0.1690913438797 -0.0883215963840485 -0.0512715503573418 -0.056086041033268 -0.0437749251723289 -0.0271673984825611 -0.0855813100934029 -0.0708839073777199 -0.0102661326527596 0.0930414646863937 0.191571637988091 0.24134860932827 0.223590642213821 0.177201852202415 0.162780210375786 0.279263526201248 0.326147168874741 0.406831175088882 0.387896865606308 0.404491245746613 0.372623175382614 0.367145091295242 0.380436658859253 0.407726347446442 0.43974557518959 0.487816244363785 0.538909137248993 0.600549757480621 0.613753497600555 0.632625043392181 0.697318434715271 0.733219683170319 0.737074494361877 0.754233539104462 0.848229765892029 0.826433837413788 0.761985003948212 0.584112405776978 0.476547479629517 0.401615232229233 0.342934310436249 0.256539046764374 0.168233901262283 0.107044294476509 0.0736855268478394 0.1827342659235 0.229718521237373 0.120566323399544 0.0603378191590309 0.0556391589343548 0.0833747088909149 0.111639633774757
8.83856391906738 9.39746379852295 10.6605768203735 11.0486421585083 11.2937574386597 11.535623550415 11.468147277832 10.9459629058838 9.78590202331543 9.0606632232666 9.35753345489502 9.74486351013184 9.50361728668213 9.82141971588135 7.64251470565796 7.63021945953369 7.73717164993286 7.9625768661499 8.21419239044189 8.66286277770996 9.78253936767578 10.5278749465942 10.7648277282715 10.9164981842041 10.9571933746338 10.5884447097778 10.2066965103149 9.58133125305176 8.79401397705078 8.65243053436279 8.37140846252441 8.02393627166748 9.10808658599854 10.0436029434204 10.9324398040771 11.9602136611938 12.628490447998 11.9935359954834 11.1884689331055 9.64368438720703 8.51533985137939 7.62910985946655 6.83179521560669 6.46328067779541 6.35268640518188 6.24324798583984 6.15421342849731 5.71989297866821 5.52459764480591 5.3287935256958 4.82771062850952 4.33462619781494 3.88447213172913 3.65130019187927 3.40528655052185 3.23122954368591 3.26945495605469 3.2250862121582 3.1362292766571 2.9609169960022 2.67556571960449 2.53963589668274 2.56883764266968 2.65232825279236 2.7174060344696 2.87649250030518 2.95929527282715 2.70155644416809 2.48109483718872 2.68000769615173 2.69074153900146 2.57426929473877 2.33732843399048 2.07959294319153 1.45564818382263 0.793521881103516 0.385800570249557 -0.109337590634823 -0.547429621219635 -0.738553583621979 -0.824396371841431 -0.913308918476105 -0.96811830997467 -1.03452670574188 -1.02674210071564 -1.02395713329315 -1.01406490802765 -1.01190459728241 -1.00668168067932 -1.00117266178131 -0.992508590221405 -0.962220728397369 -0.800480246543884 0.0283043012022972 -1.02657473087311 -1.04865825176239 -1.05022501945496 -1.05814409255981 -1.06279420852661 -1.06992506980896 -1.06764209270477 -1.0598361492157 -1.06214880943298 -1.05924701690674 -1.05881714820862 -1.05974948406219 -1.05768811702728 -1.0410430431366 -1.02249825000763 -0.972237169742584 -0.878073751926422 -0.926064014434814 -0.67106556892395 -0.578539252281189 -0.609499990940094 -0.607867300510406 -0.679901540279388 -0.745181262493134 -0.494970172643661 -0.331498712301254 -0.253874480724335 -0.191612124443054 -0.1705072671175 -0.197453066706657 -0.168451473116875 -0.157261326909065 -0.300677359104156 -0.237683445215225 -0.139948964118958 -0.057742066681385 0.0423778183758259 0.0757337585091591 0.0693987160921097 0.0428744107484818 0.011393609456718 0.140609502792358 0.19115586578846 0.2714664041996 0.280516386032104 0.243950262665749 0.234703883528709 0.279611229896545 0.335755199193954 0.357297599315643 0.387427031993866 0.436617821455002 0.494469165802002 0.527712345123291 0.538867056369781 0.56045001745224 0.610621273517609 0.667190849781036 0.694517970085144 0.826902210712433 0.796422064304352 0.766265451908112 0.746633946895599 0.570152580738068 0.462181240320206 0.383882164955139 0.323849141597748 0.251384049654007 0.154926583170891 0.0849189087748528 0.102063588798046 0.126262962818146 0.154786378145218 0.096271425485611 0.16049537062645 0.0515537187457085 0.0588199608027935 0.0942411869764328
8.40796566009521 8.88624095916748 9.90513610839844 10.2678823471069 10.5587587356567 10.7780141830444 10.3574247360229 9.89602470397949 8.97247314453125 8.99469661712646 8.92799758911133 9.2893238067627 8.56016540527344 8.97142028808594 8.29065322875977 7.52953481674194 7.42689990997314 7.56873989105225 7.84085035324097 8.18399333953857 9.12328815460205 9.55636119842529 10.0466890335083 10.1836891174316 10.1932792663574 9.93044281005859 9.60373783111572 9.05386257171631 8.47491264343262 8.26427268981934 7.90848827362061 7.86644554138184 8.53960990905762 9.22567653656006 10.069016456604 10.9053182601929 11.4953336715698 10.9898996353149 10.2211084365845 8.81517219543457 7.81838846206665 6.99103403091431 6.26155948638916 6.21252536773682 6.11756801605225 6.01422739028931 5.90887117385864 5.54741668701172 5.40446758270264 5.18875694274902 4.69456195831299 4.01283407211304 3.66779351234436 3.52559494972229 3.30681920051575 3.13973546028137 3.16403150558472 3.12497782707214 3.04829740524292 2.87063479423523 2.59065866470337 2.49464631080627 2.49682855606079 2.57756042480469 2.75015497207642 2.82782578468323 2.8222496509552 2.58506464958191 2.45447158813477 2.63995933532715 2.6541907787323 2.56101870536804 2.29048991203308 2.0525016784668 1.39005196094513 1.03303945064545 0.253400355577469 0.232976466417313 -0.630725622177124 -0.854019582271576 -1.00138711929321 -1.01913022994995 -1.06975865364075 -1.10641515254974 -1.10015463829041 -1.08361506462097 -1.0721355676651 -1.06187808513641 -1.05628263950348 -1.05120575428009 -1.04573905467987 -1.05140125751495 -0.565507054328918 -1.0566623210907 -1.07073652744293 -1.09195029735565 -1.09727334976196 -1.1106926202774 -1.1125020980835 -1.11551368236542 -1.11560487747192 -1.11272633075714 -0.972293376922607 -1.1103001832962 -1.11374485492706 -1.12070727348328 -1.12285995483398 -1.11711585521698 -1.08703052997589 -1.02934658527374 -0.933000862598419 -1.01723861694336 -0.77581000328064 -0.708601951599121 -0.739358305931091 -0.803155481815338 -0.877057552337646 -0.848276138305664 -0.595839202404022 -0.414114475250244 -0.324515134096146 -0.293798178434372 -0.319694429636002 -0.313855350017548 -0.252113163471222 -0.409257888793945 -0.492037355899811 -0.418611854314804 -0.306449234485626 -0.249663069844246 -0.176225885748863 -0.129085823893547 -0.139593303203583 -0.173703074455261 -0.197935432195663 -0.092660091817379 0.00270193046890199 0.0986538827419281 0.130165159702301 0.125187024474144 0.141552314162254 0.184651404619217 0.25786966085434 0.287780910730362 0.320453733205795 0.357126414775848 0.408226907253265 0.457292109727859 0.492550015449524 0.520275473594666 0.556879639625549 0.608690619468689 0.670839190483093 0.80843311548233 0.783666372299194 0.746865391731262 0.727486491203308 0.529722154140472 0.446505427360535 0.366817057132721 0.292197436094284 0.214817494153976 0.142975404858589 0.0815136358141899 0.0730179995298386 0.216365709900856 0.210411757230759 0.0606797151267529 0.052789855748415 0.0506724864244461 0.0459800213575363 0.0982430428266525
8.00369548797607 8.44023132324219 9.23885250091553 9.58906745910645 9.90892314910889 10.1198072433472 9.73895931243896 9.05488014221191 8.31059551239014 8.50131988525391 8.96258640289307 8.31746101379395 8.07765483856201 7.7585015296936 7.558424949646 7.40849256515503 7.22134399414062 7.24626445770264 7.39036989212036 7.67174816131592 8.53069972991943 8.97543621063232 9.43930530548096 9.53619575500488 9.58833599090576 9.34438228607178 9.06038379669189 8.29999351501465 8.16995906829834 7.96608924865723 7.63500928878784 7.648362159729 8.40974998474121 8.93586158752441 9.48390293121338 9.98050117492676 10.5161094665527 9.68528652191162 8.61710834503174 7.79864597320557 6.9408164024353 5.9660496711731 5.933837890625 5.78244638442993 5.73565196990967 5.76900815963745 5.63683748245239 5.28239822387695 5.13617420196533 4.99000072479248 4.41825580596924 3.87587642669678 3.51004195213318 3.41442012786865 3.15899062156677 3.05129098892212 3.08312892913818 3.03986310958862 2.94880175590515 2.79393410682678 2.52251744270325 2.43405032157898 2.43753361701965 2.51929473876953 2.67254734039307 2.74405884742737 2.57019472122192 2.36842966079712 2.53275227546692 2.617671251297 2.61257147789001 2.53784441947937 2.27448034286499 2.03107476234436 1.60193109512329 1.48580455780029 1.60335552692413 -0.198238626122475 0.00368830212391913 -0.965635299682617 -1.08910083770752 -1.1408064365387 -1.17751228809357 -1.17939186096191 -1.17319178581238 -1.15876090526581 -1.13777232170105 -1.12265396118164 -1.1091001033783 -1.11332273483276 -1.11430728435516 -1.12281143665314 -0.942013084888458 -1.11299264431 -1.11483669281006 -1.137775182724 -1.15376830101013 -1.17174232006073 -1.17200541496277 -1.17018675804138 -1.15561890602112 -1.14998376369476 -1.1691859960556 -1.17354679107666 -1.14889192581177 -1.16737246513367 -1.18121612071991 -1.18429017066956 -1.1500118970871 -1.08975732326508 -1.01130437850952 -1.09014189243317 -0.850336670875549 -0.798805594444275 -0.840195178985596 -0.972711622714996 -1.0421975851059 -0.964939832687378 -0.687064528465271 -0.514959573745728 -0.432271748781204 -0.41782534122467 -0.447439223527908 -0.455945163965225 -0.477249920368195 -0.674896240234375 -0.663275897502899 -0.583461821079254 -0.501838564872742 -0.463169485330582 -0.408390194177628 -0.35472959280014 -0.346342891454697 -0.400129586458206 -0.397898495197296 -0.343459695577621 -0.266991227865219 -0.197433993220329 -0.0897062867879868 -0.0694390833377838 0.00857705529779196 0.075626440346241 0.123839981853962 0.172559142112732 0.216002926230431 0.27873483300209 0.329582840204239 0.369676768779755 0.424478560686111 0.489345997571945 0.537532448768616 0.581249713897705 0.644556820392609 0.780559480190277 0.764622211456299 0.73040246963501 0.605300962924957 0.450109869241714 0.388290047645569 0.323940753936768 0.247471511363983 0.179832890629768 0.112768493592739 0.1360844373703 0.170412719249725 0.199263140559196 0.168639823794365 0.209385350346565 0.0442816391587257 0.0438224263489246 0.0396457463502884 0.0720385611057281
7.82136154174805 8.26438140869141 8.64289665222168 8.97636032104492 9.32253932952881 9.55439853668213 9.19768810272217 8.22133350372314 7.84572649002075 8.02026271820068 8.48658752441406 7.98190402984619 7.64989614486694 7.47585439682007 7.36139488220215 7.09459590911865 6.99648237228394 6.96660804748535 6.96404695510864 7.32326412200928 8.04652214050293 8.39846611022949 8.86973857879639 8.95217227935791 9.04272079467773 8.81262397766113 8.38745784759521 7.9187273979187 7.89208078384399 7.69147634506226 7.33743143081665 7.14839649200439 7.87010431289673 8.25492382049561 8.81742286682129 9.23477649688721 8.89635181427002 8.24007511138916 7.08042287826538 6.3273720741272 5.75849962234497 5.64773273468018 5.67929315567017 5.56126499176025 5.45707607269287 5.35813522338867 5.02353429794312 4.9727725982666 4.8345103263855 4.53727102279663 3.95943784713745 3.74160003662109 3.3295042514801 3.12770676612854 2.91559767723083 2.95461773872375 2.98932003974915 2.9576530456543 2.86365914344788 2.70012450218201 2.43232011795044 2.37045979499817 2.39109468460083 2.44954228401184 2.60718154907227 2.67064690589905 2.48841261863708 2.36740231513977 2.60956406593323 2.62390351295471 2.58775591850281 2.50133371353149 2.24008512496948 1.94662964344025 1.75534629821777 1.86365628242493 2.31874179840088 -0.42707684636116 -0.75006902217865 1.72343349456787 2.40096235275269 -1.20060443878174 -1.25130784511566 -1.25381422042847 -1.24255621433258 -1.2400951385498 -1.21516621112823 -1.18683612346649 -1.17081320285797 -1.17203009128571 -1.19303929805756 -1.19383239746094 -1.1886191368103 -1.17788648605347 -1.17405796051025 -1.18553137779236 -1.20805287361145 -1.22608649730682 -1.22456574440002 -1.21495246887207 -1.21089601516724 -1.21981728076935 -1.22043240070343 -1.20174407958984 -1.18999540805817 -1.21384906768799 -1.23332822322845 -1.25032031536102 -1.21146392822266 -1.14490807056427 -1.07240998744965 -0.929446578025818 -0.834776282310486 -0.840591013431549 -0.897545456886292 -1.03570103645325 -1.19502317905426 -0.993477523326874 -0.787610769271851 -0.621882319450378 -0.535565733909607 -0.517345607280731 -0.544209599494934 -0.567951083183289 -0.613665759563446 -0.749410152435303 -0.763127744197845 -0.740985333919525 -0.726673901081085 -0.670268416404724 -0.615376710891724 -0.572813749313354 -0.567521691322327 -0.62607878446579 -0.620689630508423 -0.57359766960144 -0.519796431064606 -0.457263082265854 -0.35461288690567 -0.25611874461174 -0.185799941420555 -0.102156721055508 -0.0394236296415329 0.0177124291658401 0.0482508204877377 0.115870609879494 0.192328795790672 0.253470838069916 0.348628014326096 0.450639128684998 0.532746195793152 0.583132326602936 0.618711829185486 0.754142284393311 0.726420521736145 0.694463729858398 0.536437451839447 0.399226725101471 0.365062564611435 0.302418917417526 0.226145565509796 0.139092311263084 0.073856346309185 0.0641425102949142 0.169415518641472 0.124398767948151 0.171944439411163 0.25751006603241 0.3564493060112 0.0412231832742691 0.0293439906090498 0.0671649724245071
7.59169101715088 7.98115730285645 8.33118152618408 8.724289894104 8.93702697753906 8.7950611114502 8.59368705749512 7.73597145080566 7.40859651565552 7.56081628799438 8.00194072723389 7.58071756362915 7.24910449981689 7.26450872421265 7.15101051330566 6.86837911605835 6.8011417388916 6.84427928924561 6.73343658447266 6.86844825744629 7.48048830032349 8.04500484466553 8.2525806427002 8.4415283203125 8.26195430755615 8.11785984039307 7.74816608428955 7.55717849731445 7.37375736236572 7.13620138168335 6.78632259368896 6.45747184753418 7.15022230148315 7.37932443618774 7.89669179916382 8.35402488708496 8.16596412658691 7.61168146133423 6.56519269943237 5.9253945350647 5.38589811325073 5.39638757705688 5.39094829559326 5.32406759262085 5.21457242965698 5.11477947235107 4.80933332443237 4.81164026260376 4.61300706863403 4.16730642318726 3.84042692184448 3.63314652442932 3.19082832336426 2.98868703842163 2.835697889328 2.9021532535553 2.89288663864136 2.81101059913635 2.64142251014709 2.51423335075378 2.27483057975769 2.29974246025085 2.37199926376343 2.38142132759094 2.5430474281311 2.60359168052673 2.42103576660156 2.2921507358551 2.53535151481628 2.592689037323 2.53287816047668 2.40477085113525 2.16409730911255 2.23858118057251 2.06754326820374 2.17408728599548 2.68078351020813 0.370874106884003 0.352196753025055 1.12285542488098 1.10525381565094 -1.29220175743103 -1.37016797065735 -1.33947241306305 -1.3251953125 -1.31466889381409 -1.29197812080383 -1.25519979000092 -1.23098170757294 -1.23782551288605 -1.25394797325134 -1.25956237316132 -1.26271545886993 -1.25450825691223 -1.25259923934937 -1.25459206104279 -1.26832520961761 -1.2680789232254 -1.27241277694702 -1.29047572612762 -1.28571760654449 -1.27668046951294 -1.24903392791748 -1.23434543609619 -1.23185241222382 -1.25781333446503 -1.27604329586029 -1.29615092277527 -1.26924526691437 -1.19681131839752 -1.1196585893631 -0.854358375072479 -0.827031493186951 -0.881483614444733 -0.959451019763947 -1.10458445549011 -1.29772043228149 -1.10999941825867 -0.856426179409027 -0.702280282974243 -0.636082231998444 -0.61706554889679 -0.63424289226532 -0.667411684989929 -0.728301405906677 -0.844107985496521 -0.870548903942108 -0.838537395000458 -0.836182594299316 -0.865309953689575 -0.817955851554871 -0.761454463005066 -0.780259728431702 -0.83973503112793 -0.861221253871918 -0.815998375415802 -0.744703114032745 -0.675665199756622 -0.585405945777893 -0.502388060092926 -0.426081150770187 -0.329534083604813 -0.260946750640869 -0.22219617664814 -0.2047109156847 -0.160431459546089 -0.0858273655176163 -0.017503784969449 0.148409098386765 0.280412942171097 0.406882435083389 0.502431452274323 0.631631910800934 0.724036872386932 0.692452311515808 0.597326934337616 0.468840688467026 0.36725190281868 0.322626620531082 0.281226009130478 0.206236407160759 0.118176482617855 0.0560163743793964 0.0550905987620354 0.067966990172863 0.0855044722557068 0.191897347569466 0.170108541846275 0.428777605295181 0.19405859708786 0.0329021662473679 0.0873527750372887
7.29294729232788 7.63815832138062 7.9358344078064 8.29531288146973 8.50680541992188 8.20504570007324 7.84023952484131 6.96749353408813 6.91555547714233 7.12811517715454 7.51143646240234 7.13773536682129 7.08392953872681 7.0789361000061 6.86100101470947 6.66743946075439 6.62706184387207 6.6851019859314 6.57912635803223 6.68550395965576 7.39369058609009 7.7118616104126 7.84115171432495 8.05190944671631 7.85234498977661 7.73059511184692 7.33507823944092 7.29129838943481 7.10449647903442 6.85175848007202 6.52784395217896 6.23594236373901 6.76343679428101 6.85241317749023 7.3433895111084 7.7647533416748 7.63668012619019 7.11385011672974 6.17143249511719 5.58905506134033 5.08605241775513 5.20054244995117 5.19536304473877 5.09282112121582 4.98883485794067 4.8906078338623 4.62670230865479 4.65091896057129 4.46017169952393 4.03079557418823 3.63441300392151 3.26312232017517 3.11012816429138 2.90697193145752 2.78449368476868 2.8215537071228 2.79005241394043 2.6979353427887 2.56686925888062 2.29871606826782 2.2054488658905 2.27040648460388 2.32162356376648 2.37102794647217 2.4868323802948 2.53874230384827 2.36178255081177 2.22311687469482 2.43799710273743 2.52563810348511 2.49511885643005 2.25088143348694 2.41361093521118 2.64361429214478 2.88094758987427 2.33504366874695 2.95351767539978 2.06460976600647 1.38705146312714 0.722131431102753 -0.874227583408356 0.154553145170212 -1.42291700839996 -1.42586493492126 -1.40668404102325 -1.38003849983215 -1.35946273803711 -1.32312369346619 -1.31722056865692 -1.31464397907257 -1.31602942943573 -1.31505525112152 -1.32022309303284 -1.32661128044128 -1.32988715171814 -1.32346737384796 -1.3185693025589 -1.32044577598572 -1.34531986713409 -1.34849715232849 -1.34099245071411 -1.32507526874542 -1.2900128364563 -1.28366470336914 -1.27287518978119 -1.29000675678253 -1.30534625053406 -0.772515892982483 -1.30075562000275 -1.25629496574402 -1.19199168682098 0.354332029819489 -0.828909277915955 -0.897779703140259 -0.973962724208832 -1.12262213230133 -1.27913594245911 -1.0586211681366 -0.789581120014191 -0.722672283649445 -0.688577771186829 -0.665761590003967 -0.693282246589661 -0.740646719932556 -0.802577972412109 -0.913436770439148 -0.946702778339386 -0.933673918247223 -0.948220789432526 -0.995235621929169 -1.01948523521423 -1.01563537120819 -1.01463043689728 -1.05598342418671 -1.09765219688416 -1.02795732021332 -0.970037639141083 -0.912407517433167 -0.838136434555054 -0.751653015613556 -0.684037029743195 -0.634432971477509 -0.636101901531219 -0.608690023422241 -0.567419946193695 -0.511885702610016 -0.478637397289276 -0.377301096916199 -0.172921285033226 -0.0153337670490146 0.115844205021858 0.194593101739883 0.518408596515656 0.646047711372375 0.642357289791107 0.511028707027435 0.414245635271072 0.329122185707092 0.277498543262482 0.23616786301136 0.174977585673332 0.0971588417887688 0.165044233202934 0.051314327865839 0.0470916442573071 0.198921635746956 0.143279254436493 0.20505528151989 0.258516132831573 0.243358179926872 0.305128991603851 0.121163070201874
6.99011707305908 7.29543113708496 7.54007196426392 7.86016988754272 8.06193733215332 7.77016115188599 6.96755266189575 6.54693222045898 6.66335439682007 6.78258609771729 7.08325242996216 6.82204103469849 6.92646265029907 6.74584817886353 6.6039457321167 6.53184938430786 6.66867780685425 10.0074329376221 13.3719825744629 10.8733949661255 6.84125852584839 6.91599130630493 7.05901765823364 7.36716175079346 7.48405933380127 7.37476015090942 7.0759744644165 7.03639602661133 6.85743093490601 6.62966299057007 6.33799457550049 6.15549802780151 6.38680696487427 6.43248701095581 6.8726167678833 7.26938819885254 7.17716884613037 6.69473028182983 5.78961658477783 5.16751289367676 4.97626876831055 4.96636819839478 4.89252758026123 4.77851057052612 4.7945351600647 4.69094514846802 4.4563512802124 4.49132442474365 4.29354286193848 3.90769934654236 3.39545321464539 3.14512205123901 3.007732629776 2.82947635650635 2.7174961566925 2.74248337745667 2.7060911655426 2.63409042358398 2.5133810043335 2.21738338470459 2.19187641143799 2.22796583175659 2.26334309577942 2.41427969932556 2.48479294776917 2.42683744430542 2.21825075149536 2.06472182273865 2.34048342704773 2.41091394424438 2.35092401504517 2.17952489852905 2.64163136482239 2.9408597946167 3.06476449966431 2.58851790428162 4.33594465255737 2.60456371307373 0.621694087982178 -0.0626214146614075 -0.846263229846954 -0.374746650457382 1.86332881450653 1.01557004451752 -0.228646203875542 -1.43553745746613 -1.41354393959045 -1.39596688747406 -1.38703608512878 -1.36990261077881 -1.36698007583618 -1.3708211183548 -1.38145124912262 -1.39075899124146 -1.38934171199799 -1.38047647476196 -1.39477550983429 -1.39267492294312 -1.38763213157654 -1.38718950748444 -1.37407493591309 -1.34394979476929 -1.33870899677277 -1.325927734375 -1.31639492511749 -1.32305228710175 -1.19200384616852 -0.882377028465271 -1.20760345458984 -1.3142021894455 -1.28890514373779 -0.55499804019928 0.745705246925354 -0.140483051538467 -0.434895247220993 -0.369480788707733 1.16556119918823 -1.02095055580139 -0.813705801963806 -0.750234007835388 -0.727241635322571 -0.729602158069611 -0.750612258911133 -0.776743054389954 -0.84635066986084 -0.971295297145844 -1.01661396026611 -1.01143896579742 -1.03134870529175 -1.05727815628052 -1.0798579454422 -1.14737248420715 -1.23675203323364 -1.28198683261871 -1.25330543518066 -1.17678165435791 -1.16233110427856 -1.14385712146759 -1.12267363071442 -1.08413231372833 -1.0569109916687 -1.06997966766357 -1.0488246679306 -1.01776015758514 -0.981905698776245 -0.950400948524475 -0.961676836013794 -0.837148606777191 -0.605041921138763 -0.444012522697449 -0.344829320907593 -0.0500607155263424 0.301760852336884 0.523639619350433 0.550174057483673 0.40765106678009 0.328534543514252 0.280014842748642 0.218426793813705 0.156958982348442 0.104905001819134 0.0742175281047821 0.0488720647990704 0.0327165797352791 0.036219235509634 0.0445027984678745 0.0849222093820572 0.139233946800232 0.15174525976181 0.258308798074722 0.167557716369629 0.139861240983009
6.81618022918701 7.04115581512451 7.23557186126709 7.49323844909668 7.68257999420166 7.41601848602295 6.62234783172607 6.42912912368774 6.43537712097168 6.59932518005371 6.40466165542603 6.58725023269653 6.54030561447144 6.5461311340332 6.41782426834106 6.44939994812012 6.52252006530762 6.33630084991455 6.18707847595215 6.22811603546143 6.26938819885254 6.44706678390503 6.5577335357666 6.79148960113525 6.92838621139526 6.92473173141479 6.85321855545044 6.79886054992676 6.63269805908203 6.42485427856445 6.20808839797974 6.01984167098999 6.06417465209961 6.37368631362915 6.67703771591187 6.84694290161133 6.29022312164307 5.63158464431763 5.1349024772644 4.59347486495972 4.80496692657471 4.80539798736572 4.7306022644043 4.6256365776062 4.51410961151123 4.33098316192627 4.33773851394653 4.27418375015259 4.15178442001343 3.68427157402039 3.29332137107849 3.00848531723022 2.92066025733948 2.70707654953003 2.64761018753052 2.67873597145081 2.63558125495911 2.56423330307007 2.42017555236816 2.15945291519165 2.15068387985229 2.14212417602539 2.17244362831116 2.37394785881042 2.42776083946228 2.2373628616333 1.97267162799835 1.82511496543884 2.03787589073181 2.12870025634766 2.10116004943848 1.99476802349091 2.40140318870544 2.98446345329285 3.15590214729309 2.73101830482483 4.50717258453369 1.8176634311676 0.403520792722702 0.045120220631361 -0.0389558672904968 -0.0780110582709312 1.11389076709747 0.175234779715538 -0.61058896780014 -0.619269132614136 -1.45632886886597 -1.4470489025116 -1.43571388721466 -1.42509436607361 -1.4196103811264 -1.42768216133118 -1.43801963329315 -1.44363701343536 -1.44699788093567 -1.4586695432663 -1.46275186538696 -1.45295560359955 -1.44483125209808 -1.43649542331696 -1.39687597751617 -1.40156900882721 -1.38736379146576 -1.37972855567932 -1.36002039909363 -1.33424580097198 -1.05769729614258 -1.25230693817139 -1.27216637134552 -1.34327757358551 -1.30298316478729 -0.937857389450073 0.634698212146759 0.620921850204468 0.383167892694473 1.10689508914948 0.144424051046371 -0.993829429149628 -0.838820278644562 -0.789340913295746 -0.765027165412903 -0.769840776920319 -0.812637984752655 -0.887351393699646 -0.991980612277985 -1.05462884902954 -1.08614957332611 -1.10625159740448 -1.14530515670776 -1.16620993614197 -1.2027667760849 -1.27819740772247 -1.38645374774933 -1.43507289886475 -1.43810784816742 -1.43360197544098 -1.43686771392822 -1.44120275974274 -1.44210577011108 -1.45965087413788 -1.5346565246582 -1.61895334720612 -1.59191036224365 -1.52246570587158 -1.5089727640152 -1.48734831809998 -1.59609711170197 -1.59653723239899 -1.11724054813385 -0.877849519252777 -0.637234389781952 -0.325816065073013 -0.0590567924082279 0.252922087907791 0.38702455163002 0.287503480911255 0.190867722034454 0.177646309137344 0.126032248139381 0.0461446456611156 -0.0178070571273565 0.0135548254474998 0.0151353692635894 0.0080412719398737 0.0219400729984045 0.025696212425828 0.0377800241112709 0.0403920412063599 0.0792201608419418 0.213232532143593 0.0953506603837013 0.141332551836967
6.59992361068726 6.82826089859009 6.98908472061157 7.15523958206177 7.33874845504761 7.07938385009766 6.33072280883789 6.24401378631592 6.27726125717163 6.24322128295898 6.16803169250488 6.2232928276062 6.36128854751587 6.44890117645264 6.298508644104 6.15265369415283 6.14752531051636 6.0367603302002 5.90379810333252 5.9552698135376 5.97541666030884 6.0781831741333 6.17377090454102 6.33663606643677 6.34400701522827 6.44482898712158 6.56317377090454 6.57143831253052 6.41775751113892 6.12851333618164 5.91060256958008 5.62055206298828 5.72747611999512 6.05912685394287 6.39992523193359 6.36657381057739 5.9304051399231 5.20509099960327 4.71394300460815 4.33454275131226 4.64576721191406 4.64764976501465 4.57116842269897 4.46628904342651 4.35509061813354 4.21306705474854 4.21645784378052 4.04783296585083 3.78566265106201 3.38294506072998 3.20082902908325 2.84864807128906 2.6697883605957 2.54315638542175 2.60268640518188 2.59634637832642 2.52427244186401 2.38431596755981 2.23510479927063 2.04196810722351 2.03014516830444 1.97317814826965 2.07953667640686 2.26874351501465 2.32005500793457 2.1067066192627 1.78352749347687 1.59473514556885 1.5608925819397 1.68567478656769 1.75775241851807 1.42475235462189 1.83390235900879 2.66155743598938 3.10496020317078 3.11094689369202 4.6622576713562 3.45631670951843 3.78039646148682 0.980705738067627 0.141562208533287 0.18504624068737 -0.267371505498886 -0.890410006046295 -1.44796502590179 -0.903729856014252 -1.00557374954224 -1.48353111743927 -1.47101008892059 -1.46804285049438 -1.47324967384338 -1.47363185882568 -1.25046372413635 -1.49421119689941 -1.49706733226776 -1.49448871612549 -1.49764263629913 -1.49754786491394 -1.49458765983582 -1.47999703884125 -1.43829202651978 -1.45039749145508 -1.43994843959808 -1.43144524097443 -1.40207862854004 -1.40029966831207 -1.23236656188965 -1.40563881397247 -1.3833441734314 -1.36030495166779 -1.06670546531677 -0.893556594848633 0.746612012386322 1.28578150272369 1.60564386844635 2.20459222793579 2.43263912200928 1.65513634681702 -0.799394428730011 -0.865475594997406 -0.831657350063324 -0.817108988761902 -0.836410820484161 -0.915359139442444 -1.02985155582428 -1.11609017848969 -1.15991830825806 -1.18353521823883 -1.21494174003601 -1.25946283340454 -1.32685899734497 -1.39614403247833 -1.50668585300446 -1.63665676116943 -1.766566157341 -1.79423594474792 -1.80323076248169 -1.7729629278183 -1.78626477718353 -1.91035902500153 -2.10325598716736 -2.28869223594666 -2.40747809410095 -2.3257110118866 -2.19108605384827 -2.22325420379639 -2.26895022392273 -1.86324548721313 -1.51127815246582 -1.22165966033936 -0.858462810516357 -0.561395645141602 -0.297434002161026 -0.0217561833560467 0.180117562413216 0.175565451383591 0.109772071242332 0.0675006434321404 0.00607941625639796 -0.148821458220482 -0.361246883869171 -0.319681704044342 -0.208583697676659 -0.0624157264828682 -0.00126834609545767 0.00274939811788499 0.0145166013389826 0.0209130067378283 0.0348458327353001 0.125805914402008 0.0736869499087334 0.138833850622177
6.35497856140137 6.59501504898071 6.7473931312561 6.94338893890381 6.72910356521606 6.58010101318359 5.96496772766113 6.05509805679321 6.05705118179321 5.90999269485474 6.01209545135498 6.02158451080322 6.147132396698 6.17846202850342 6.06445741653442 5.96086883544922 5.94157314300537 5.83995580673218 5.70809602737427 5.71480989456177 5.71653270721436 5.72945117950439 5.83798313140869 5.88889646530151 5.97839975357056 6.15834379196167 6.1965708732605 6.08503198623657 5.92568731307983 5.76184940338135 5.46238327026367 5.32912063598633 5.46946954727173 5.747878074646 6.0551495552063 6.02345037460327 5.64865255355835 4.97200918197632 4.50584936141968 4.20275115966797 4.50475406646729 4.49159717559814 4.42479038238525 4.31603050231934 4.20003986358643 4.09581661224365 4.09910726547241 3.93224620819092 3.55945301055908 3.30206966400146 3.13791227340698 2.79819130897522 2.60941052436829 2.50776934623718 2.54479146003723 2.50642776489258 2.44494915008545 2.33385133743286 2.06518864631653 1.87323176860809 1.83144772052765 1.85341382026672 2.04749131202698 2.09032964706421 2.07110333442688 1.8806004524231 1.64004158973694 1.39238309860229 1.21228885650635 1.16175472736359 1.12435495853424 1.27671301364899 1.67646634578705 2.16650605201721 3.20240378379822 3.38881516456604 4.37370538711548 4.40707778930664 2.71968722343445 1.54098153114319 0.713294446468353 -0.0220057982951403 -0.720925211906433 -1.04167199134827 -0.734136879444122 -1.04445242881775 -1.00987553596497 -0.769511163234711 -1.50436282157898 -1.50157523155212 -1.50650179386139 -1.46512496471405 -1.51846098899841 -1.53680980205536 -1.42042922973633 -1.34860396385193 -1.53017139434814 -1.53228008747101 -1.52809166908264 -1.52244889736176 -1.47595882415771 -1.47238755226135 -1.46616220474243 -1.46274888515472 -1.45008897781372 -1.43856918811798 -1.36706972122192 -1.43804025650024 -1.41244280338287 -1.30429983139038 -0.975829362869263 -0.852103292942047 0.415997207164764 1.70895528793335 1.97058510780334 2.67743849754333 4.5097222328186 3.40279626846313 -0.327982097864151 -1.04624843597412 -0.977374017238617 -0.933565080165863 -0.948489129543304 -1.0312614440918 -1.10530591011047 -1.17292261123657 -1.22643685340881 -1.26556980609894 -1.30073094367981 -1.35531365871429 -1.43487596511841 -1.5122162103653 -1.62117767333984 -1.79724860191345 -1.99229681491852 -2.0561854839325 -2.07694005966187 -2.08085751533508 -2.16918063163757 -2.39333748817444 -2.96902418136597 -3.45834875106812 -3.48670959472656 -3.26690006256104 -2.96188497543335 -3.05238604545593 -3.17290115356445 -2.76784372329712 -2.13613653182983 -1.6180739402771 -1.16888570785522 -0.771094143390656 -0.473322123289108 -0.23815330862999 -0.0746755003929138 0.00312879541888833 -0.0104908375069499 -0.115932419896126 -0.23777374625206 -0.410292059183121 -0.587810158729553 -0.668198227882385 -0.455728083848953 -0.150929555296898 -0.0282901152968407 -0.0198969561606646 -0.00751816295087337 -0.00944123137742281 0.0166074335575104 0.0304543673992157 0.0763570219278336 0.138033136725426
6.0255126953125 6.28281164169312 6.44353866577148 6.61776447296143 6.39724063873291 5.92265224456787 5.76203298568726 5.78354787826538 5.75025796890259 5.70353841781616 5.85900735855103 5.86933326721191 5.93666458129883 5.96186447143555 5.83932971954346 5.75390672683716 5.73789310455322 5.64054870605469 5.49497652053833 5.44073963165283 5.40780973434448 5.41044569015503 5.50216102600098 5.569908618927 5.67742824554443 5.90987205505371 5.921706199646 5.82964420318604 5.70868349075317 5.55166959762573 5.23894548416138 5.34034395217896 5.4156231880188 5.52406120300293 5.78464078903198 5.7623610496521 5.40289926528931 4.76375150680542 4.29268741607666 4.23210573196411 4.35850238800049 4.34916687011719 4.28033399581909 4.17600631713867 4.06775331497192 3.98578453063965 4.0027551651001 3.83407163619995 3.45540809631348 3.14424920082092 2.8629310131073 2.76081562042236 2.58233952522278 2.47683620452881 2.49202990531921 2.45253086090088 2.39535307884216 2.27555513381958 2.0181348323822 1.83962869644165 1.65111124515533 1.73825061321259 1.90087831020355 1.89047753810883 1.84273624420166 1.69835937023163 1.41817915439606 1.16339099407196 0.938589513301849 0.78759753704071 0.953792452812195 1.19642758369446 1.51843214035034 1.99910032749176 2.93334579467773 3.85637879371643 4.99841976165771 5.58152055740356 3.62552714347839 2.19156575202942 0.794245481491089 0.913460373878479 -0.107930518686771 -1.01420450210571 -0.631876170635223 -0.576134383678436 -0.989404797554016 -0.839254081249237 -0.391145199537277 -1.37476253509521 -1.45253825187683 -1.5436886548996 -1.26656150817871 -1.13306260108948 -1.5577939748764 -1.35920906066895 -1.42064774036407 -1.56582355499268 -1.56746006011963 -1.56112396717072 -1.54509794712067 -1.2925169467926 -1.48037350177765 -1.48642063140869 -1.47986567020416 -1.47697520256042 -1.47577738761902 -1.47877609729767 -1.45519304275513 -1.29838788509369 -0.899216175079346 -0.813038468360901 0.0258755311369896 1.40625870227814 2.17805147171021 3.23486804962158 3.06851029396057 2.3481125831604 0.00437132082879543 -0.0605564340949059 0.000792301958426833 -0.421114563941956 -0.895678997039795 -1.183424949646 -1.21276712417603 -1.24388468265533 -1.30340361595154 -1.35874259471893 -1.4036386013031 -1.45857584476471 -1.5245668888092 -1.34262406826019 -1.27015244960785 -1.85352110862732 -2.06951141357422 -2.16201305389404 -2.24214482307434 -2.30045700073242 -2.50208616256714 -2.88896107673645 -3.77076029777527 -3.91790461540222 -3.83109092712402 -3.64475011825562 -3.48106026649475 -3.43599057197571 -3.44045472145081 -3.32693815231323 -2.78821349143982 -2.06823492050171 -1.34747970104218 -0.950899064540863 -0.657127320766449 -0.422322869300842 -0.305157124996185 -0.207441836595535 -0.208802789449692 -0.414878219366074 -0.570204615592957 -0.668142557144165 -0.816612839698792 -0.779816448688507 -0.604669392108917 -0.274791300296783 -0.078902579843998 -0.048148151487112 -0.025827506557107 -0.0247242096811533 -0.0051342835649848 0.0274373050779104 0.0942489579319954 0.158059239387512
5.69862461090088 5.93419122695923 6.12391948699951 6.26840448379517 6.02889919281006 5.44150400161743 5.36927604675293 5.55311059951782 5.62878656387329 5.52110242843628 5.63706636428833 5.67461824417114 5.70393800735474 5.66693592071533 5.56714916229248 5.56672954559326 5.51355886459351 5.42919874191284 5.2977557182312 5.20935201644897 5.1508617401123 5.08456420898438 5.16948843002319 5.24191284179688 5.41618156433105 5.66129159927368 5.65618562698364 5.56626176834106 5.48325729370117 5.37258625030518 5.08466482162476 5.12356042861938 5.22971630096436 5.45980644226074 5.65869903564453 5.59262275695801 5.21318912506104 4.48201990127563 3.98687171936035 4.20284223556519 4.19037628173828 4.11800670623779 4.02502012252808 4.00964498519897 3.95433306694031 3.86912751197815 3.9283082485199 3.70111417770386 3.36321806907654 2.99327564239502 2.74093103408813 2.67522978782654 2.4939751625061 2.45037984848022 2.47626519203186 2.41909003257751 2.3520827293396 2.23045420646667 1.98764002323151 1.79665887355804 1.48008108139038 1.48686397075653 1.53954899311066 1.66301119327545 1.61046552658081 1.45213782787323 1.15855419635773 0.891635596752167 0.676243126392365 0.720272123813629 0.907387793064117 1.14909946918488 1.41540622711182 1.8643034696579 2.46048641204834 3.72932195663452 4.67516994476318 5.1508641242981 4.61607217788696 2.88732933998108 1.1887092590332 0.116953164339066 -0.546227812767029 -0.977796912193298 -0.667374908924103 -0.615690529346466 -0.580669164657593 -0.983402848243713 -0.628120005130768 -0.854680120944977 -0.952027082443237 -0.858080804347992 -1.12246632575989 -0.763528943061829 -1.34161376953125 -1.44031226634979 -1.43491160869598 -1.5334792137146 -1.62357640266418 -1.63174116611481 -1.61392295360565 -1.54108440876007 -1.54029250144958 -1.52709114551544 -1.51845729351044 -1.52111494541168 -1.51078104972839 -1.11853361129761 -0.951057493686676 -0.841145634651184 -0.774414300918579 -0.726078569889069 -0.160880789160728 0.725781440734863 1.67639088630676 2.54466962814331 2.16385126113892 0.88751208782196 0.904911160469055 1.10935723781586 0.659330010414124 0.0519913844764233 -0.649987578392029 -1.08666205406189 -1.15625536441803 -1.26023399829865 -1.37380051612854 -1.17454600334167 -0.996710896492004 -1.11644434928894 -1.14608943462372 -1.1618515253067 -0.775368094444275 -0.378496259450912 1.80423986911774 0.035271093249321 -1.55517983436584 -2.45286774635315 -2.69874286651611 -3.24851250648499 -1.56470775604248 -4.08267116546631 -4.0832314491272 -3.97944736480713 -3.79458069801331 -3.73111343383789 -3.6742525100708 -3.52676343917847 -3.1182804107666 -2.32833766937256 -1.5073778629303 -1.07813680171967 -0.820669114589691 -0.592344462871552 -0.484762251377106 -0.380640149116516 -0.454182356595993 -0.64131885766983 -0.839289724826813 -0.961968958377838 -1.005206823349 -0.855629146099091 -0.671635329723358 -0.339191764593124 -0.10385974496603 -0.0869081914424896 -0.0544854328036308 -0.0395598560571671 -0.0233028847724199 0.0295657310634851 0.103151582181454 0.185754850506783
5.42211866378784 5.62429475784302 5.73371839523315 5.71366262435913 5.44166040420532 5.21695470809937 5.33850288391113 5.33711719512939 5.34951734542847 5.26531410217285 5.38672351837158 5.39269113540649 5.39567947387695 5.30338096618652 5.27611112594604 5.30875825881958 5.27782392501831 5.17892980575562 5.05795097351074 4.99257659912109 4.89001798629761 4.84391164779663 4.88998889923096 4.98089265823364 5.11314630508423 5.39351177215576 5.39107084274292 5.30837059020996 5.2435245513916 5.1646671295166 4.91506910324097 4.90501165390015 5.18432998657227 5.41762542724609 5.42478895187378 5.10284900665283 4.51524639129639 4.03801965713501 3.85077595710754 4.09215641021729 4.06707143783569 4.00109672546387 3.90897727012634 3.80914759635925 3.81325554847717 3.81703686714172 3.75083756446838 3.57572674751282 3.18309807777405 2.90245747566223 2.62405729293823 2.46124792098999 2.34366703033447 2.3939790725708 2.43797016143799 2.4067223072052 2.34458637237549 2.19206309318542 1.96109199523926 1.75210988521576 1.40700936317444 1.28659760951996 1.2917412519455 1.34047496318817 1.24341332912445 1.1136839389801 0.913001716136932 0.77066844701767 0.616588294506073 0.676177382469177 0.874792277812958 1.11498534679413 1.38064467906952 1.71854257583618 2.14465093612671 3.62231779098511 4.430579662323 5.49022006988525 5.03767347335815 3.84120297431946 1.96205496788025 0.363267958164215 -0.766630053520203 -1.13894772529602 -1.04383826255798 -1.02519297599792 -0.703501462936401 -0.478839755058289 -0.841603219509125 -0.805676996707916 -1.00230312347412 -1.08426332473755 -0.970732629299164 -0.785634219646454 -1.52873861789703 -1.66941976547241 -1.66819989681244 -1.67941856384277 -1.70456743240356 -1.71291041374207 -1.67627334594727 -1.63637495040894 -1.58177030086517 -1.56318044662476 -1.56532645225525 -1.55703616142273 -1.54836916923523 -1.33228194713593 -1.13795793056488 -0.976991176605225 -0.855007886886597 -0.597009122371674 -0.115647904574871 0.46084588766098 1.22454917430878 2.04889035224915 1.7134200334549 1.086785197258 1.42138493061066 1.29609417915344 0.585361003875732 -0.0382080711424351 -0.664889097213745 -0.963730752468109 -0.988740861415863 -0.951044201850891 -0.670229554176331 -0.794996678829193 -0.925309479236603 -0.687767028808594 -0.147422477602959 -0.00469993241131306 1.31406593322754 2.24221706390381 2.50849056243896 2.73774933815002 0.030380679294467 -1.40042889118195 -2.78696084022522 -3.35696530342102 4.32405185699463 2.81379532814026 -3.44922542572021 -4.13688564300537 -4.03571271896362 -3.90941715240479 -3.28461408615112 -0.0742304548621178 -3.24707436561584 -2.6730055809021 -1.7638658285141 -1.20730018615723 -0.965277910232544 -0.785404145717621 -0.676338016986847 -0.56161093711853 -0.710236191749573 -0.874546468257904 -1.0072900056839 -1.11413729190826 -1.14641070365906 -0.97061026096344 -0.771240949630737 -0.424041837453842 -0.191976800560951 -0.108843795955181 -0.084861621260643 -0.0587682910263538 -0.0242614969611168 0.0189837999641895 0.103489406406879 0.197129189968109
5.10421943664551 5.24929618835449 5.26430988311768 5.20426559448242 4.9179744720459 4.911301612854 4.95521259307861 4.91850900650024 4.77964782714844 4.7491512298584 5.03276872634888 5.05663347244263 5.06479978561401 4.99003028869629 5.00067377090454 5.06201362609863 5.04864597320557 4.96517038345337 4.88059091567993 4.77483177185059 4.68061542510986 4.65943765640259 4.70900440216064 4.77490186691284 4.90400505065918 5.06930923461914 5.11272382736206 5.01982450485229 4.83879899978638 4.76585960388184 4.62292242050171 4.62685012817383 4.96476030349731 5.23906183242798 5.07837915420532 4.73797655105591 4.27357912063599 3.96320343017578 3.8005166053772 4.00590896606445 3.97124052047729 3.89408254623413 3.79635095596313 3.73253273963928 3.73896312713623 3.73303937911987 3.50877952575684 3.25659680366516 2.97851657867432 2.82937812805176 2.55598115921021 2.40906000137329 2.316086769104 2.37496185302734 2.36651945114136 2.31560873985291 2.20281434059143 2.06910824775696 1.88792729377747 1.71611630916595 1.38646280765533 1.13194108009338 1.05258226394653 0.987472474575043 0.932250916957855 0.859415531158447 0.7570680975914 0.67011696100235 0.610993921756744 0.723134696483612 0.813519358634949 1.06507563591003 1.34579372406006 1.70244896411896 2.11076736450195 3.37563228607178 4.21543073654175 5.67334890365601 5.65507030487061 4.58047437667847 3.00430274009705 1.72949314117432 -0.860143959522247 -1.41900134086609 -1.253826379776 -1.22340095043182 -1.21010506153107 -1.15471076965332 -0.780555188655853 -0.833548545837402 -0.983057677745819 -1.06443381309509 -1.01544630527496 -1.37713897228241 -1.71166229248047 -1.74521422386169 -1.74195575714111 -1.73284792900085 -1.75677371025085 -1.80437612533569 -1.75583732128143 -1.6947318315506 -1.66412365436554 -1.55169904232025 -1.37990951538086 -1.42429280281067 -1.57347869873047 -1.56074643135071 -1.43553137779236 -1.20905005931854 -0.959080696105957 -0.511142492294312 -0.0158201884478331 0.570834815502167 1.22891914844513 1.54262518882751 1.39569699764252 1.07465088367462 1.32087898254395 0.974348664283752 0.598220884799957 -0.182344943284988 -0.602273285388947 -0.77939772605896 -0.741256356239319 -0.606424152851105 -0.557861745357513 -0.501903653144836 -0.388105690479279 0.0541770458221436 -0.263739049434662 0.23343588411808 1.96787118911743 3.66769433021545 3.274817943573 2.00756978988647 0.827476143836975 0.859893500804901 1.83805370330811 8.41129016876221 4.76777648925781 5.91039133071899 3.24580836296082 2.20435261726379 3.50981736183167 5.37453842163086 6.34235382080078 5.55936431884766 2.44473385810852 -2.86544823646545 -2.19861197471619 -1.46345794200897 -1.13249266147614 -0.979107975959778 -0.823383271694183 -0.785933017730713 -0.965677917003632 -1.06238293647766 -1.19426190853119 -1.33777630329132 -1.36193430423737 -1.30838584899902 -1.15497183799744 -0.707200706005096 -0.35688903927803 -0.145586177706718 -0.0984825193881989 -0.0696503445506096 -0.0202010329812765 0.0612257942557335 0.0927288606762886 0.179447054862976
4.84785890579224 4.97985982894897 4.87770986557007 4.68407583236694 4.47587919235229 4.50330114364624 4.47597646713257 4.44679355621338 4.12725734710693 4.25648355484009 4.45293378829956 4.65155267715454 4.72063732147217 4.68807601928711 4.74382305145264 4.82082748413086 4.82826566696167 4.76148128509521 4.70016670227051 4.60715055465698 4.54344129562378 4.52700853347778 4.61675643920898 4.59116888046265 4.68116188049316 4.7480092048645 4.67669534683228 4.58339357376099 4.45709657669067 4.23272466659546 4.11637878417969 4.25740528106689 4.61383438110352 4.99584484100342 4.84892654418945 4.47979974746704 4.01356077194214 3.63943266868591 3.67826437950134 3.98344588279724 3.94362878799438 3.82881999015808 3.7197949886322 3.66786503791809 3.66515016555786 3.61866140365601 3.40135765075684 3.09418344497681 2.83877229690552 2.64361453056335 2.49699544906616 2.34869623184204 2.29281949996948 2.33210110664368 2.30604863166809 2.25700664520264 2.13916158676147 1.92852544784546 1.73695755004883 1.53190588951111 2.49736499786377 1.41588318347931 1.07030272483826 0.961873471736908 0.82018780708313 0.823305785655975 0.74451220035553 0.525650799274445 0.577419996261597 0.699572503566742 0.844652652740479 0.990145802497864 1.29057097434998 1.58840477466583 2.14763140678406 3.04627966880798 3.84385776519775 5.10377311706543 6.06168651580811 5.37587690353394 3.57445359230042 1.54403781890869 0.088696762919426 -0.752329409122467 -1.70541441440582 -1.71744775772095 -1.60970664024353 -1.44621920585632 -1.32362759113312 -1.1495178937912 -1.13949966430664 -1.23380053043365 -1.14809381961823 -1.66270589828491 -1.77934587001801 -1.7861955165863 -1.78839707374573 -1.78749287128448 -1.81987512111664 -1.87192642688751 -1.79711174964905 -1.73831236362457 -1.70903182029724 -1.36620235443115 -1.03457927703857 -0.963840007781982 -1.01572024822235 -1.22938191890717 -1.45753359794617 -1.28036653995514 -1.16497898101807 -0.618790566921234 -0.108455128967762 0.526275634765625 0.984700500965118 1.1510421037674 1.11016428470612 0.7832310795784 0.952171683311462 0.656871795654297 0.324965745210648 -0.0437249168753624 -0.215573415160179 -0.385531038045883 -0.509276986122131 -0.427228033542633 -0.412144154310226 -0.349626570940018 -0.213763862848282 0.0620926506817341 -0.0926853567361832 0.243941441178322 1.84097516536713 3.11481046676636 3.47188878059387 3.1987521648407 3.61220216751099 3.92503094673157 8.07812023162842 10.3881072998047 9.2173376083374 6.72889471054077 7.23770141601562 7.80447626113892 7.34436416625977 10.2229375839233 11.4471426010132 11.639331817627 11.116602897644 7.4510293006897 -2.34403824806213 -1.73115074634552 -1.35971653461456 -1.17925119400024 -0.963598728179932 -1.00306618213654 -1.17932522296906 -1.28950643539429 -1.45307981967926 -1.60082495212555 -1.79565560817719 -2.00396752357483 -1.81374788284302 -1.41264605522156 -0.934436559677124 -0.470752418041229 -0.150501787662506 0.0876995623111725 -0.0217803064733744 0.0617448873817921 0.120409063994884 0.17882864177227
4.61835289001465 4.73645782470703 4.57652711868286 4.27256202697754 4.31016111373901 4.15588283538818 4.1047215461731 4.06250905990601 3.82498216629028 3.74711132049561 3.9255542755127 4.2108039855957 4.38095569610596 4.39404535293579 4.47280073165894 4.56808996200562 4.60217475891113 4.58208274841309 4.51268625259399 4.44467449188232 4.43085289001465 4.49182319641113 4.56175804138184 4.4958062171936 4.54616165161133 4.56078004837036 4.46049022674561 4.34297561645508 4.1981987953186 3.9410936832428 3.77359342575073 3.70516180992126 4.12857866287231 4.65056085586548 4.61254501342773 4.27826929092407 3.69052696228027 3.30075716972351 3.65585064888 3.78433775901794 3.83304667472839 3.80212378501892 3.68186688423157 3.59009981155396 3.54205751419067 3.50127840042114 3.31477189064026 3.03538799285889 2.71976566314697 2.55111956596375 2.45298552513123 2.29715061187744 2.24126863479614 2.26033401489258 2.21526598930359 2.09564781188965 1.99077200889587 1.82399916648865 1.67709350585938 1.38251388072968 1.52671182155609 1.7097989320755 1.67391717433929 0.792784094810486 0.739354372024536 0.699222087860107 0.653277933597565 0.498847812414169 0.561686217784882 0.65269523859024 0.819043636322021 0.999523818492889 1.21328175067902 1.49632024765015 2.39582443237305 3.06009244918823 3.93512988090515 4.94585275650024 5.75004005432129 5.7136025428772 4.64009714126587 2.16564559936523 1.30911946296692 -1.46356570720673 -1.83019506931305 -1.89740085601807 -1.83757245540619 -1.76875495910645 -1.57740914821625 -1.35219621658325 -1.30192458629608 -1.26541948318481 -1.28710031509399 -1.70994102954865 -1.40117979049683 -1.83309423923492 -1.83223414421082 -1.84117984771729 -1.88057112693787 -1.52402937412262 -1.84337222576141 -1.79094851016998 -1.74732387065887 -1.38925457000732 -1.17178773880005 -1.03312492370605 -0.990893363952637 -1.16978049278259 -1.44554245471954 -1.33372056484222 -1.1037083864212 -0.724589586257935 -0.265112936496735 0.288851797580719 0.977602660655975 0.8220334649086 0.740229845046997 0.433521568775177 0.652715146541595 0.463760495185852 0.255989104509354 0.107195489108562 0.010395547375083 -0.102448053658009 -0.271051913499832 -0.373993545770645 -0.325315624475479 -0.221738085150719 -0.12778352200985 -0.245431736111641 -0.324170917272568 0.106093943119049 0.969153344631195 2.07625651359558 2.7547492980957 3.24997782707214 4.37488222122192 6.19970512390137 10.7787818908691 10.9425802230835 11.2041463851929 9.93076229095459 10.7202053070068 10.1835327148438 10.4722862243652 9.74065589904785 9.03490447998047 8.21470069885254 8.69762802124023 6.84023523330688 3.29839277267456 -1.92211091518402 -1.59353649616241 -1.36422574520111 -1.1063483953476 -1.20608508586884 -1.40859079360962 -1.52894449234009 -1.70560276508331 -1.91090452671051 -2.24785184860229 -2.46355128288269 -2.23921227455139 -1.91086220741272 -1.61012530326843 -1.23389148712158 -0.557797133922577 -0.0842644348740578 -0.0189409460872412 0.0710389316082001 0.15241713821888 0.44359827041626
4.46350431442261 4.5364990234375 4.37773609161377 4.04645442962646 4.11537456512451 4.02298069000244 3.81568956375122 3.67795443534851 3.51803064346313 3.49504351615906 3.47288250923157 3.76469302177429 3.9375114440918 4.15584373474121 4.31732130050659 4.39510440826416 4.3920750617981 4.40019178390503 4.36201095581055 4.32687282562256 4.36764907836914 4.46045684814453 4.54085159301758 4.46789741516113 4.46151065826416 4.43595457077026 4.3242335319519 4.17319631576538 3.94412279129028 3.63637018203735 3.52052545547485 3.48274230957031 3.98726272583008 4.41614961624146 4.13152456283569 3.61971139907837 3.32206916809082 3.32355642318726 3.57642364501953 3.60426425933838 3.5707631111145 3.50840830802917 3.5356388092041 3.52361464500427 3.46799921989441 3.34709763526917 3.22879958152771 2.88705897331238 2.67644882202148 2.4399733543396 2.37745666503906 2.22001504898071 2.13762736320496 2.08471274375916 1.96831250190735 1.87376606464386 1.71337807178497 1.54559814929962 1.38028192520142 1.15933585166931 1.02127611637115 1.26107156276703 1.11765968799591 0.723234832286835 0.668315172195435 0.589720249176025 0.527747452259064 0.48864272236824 0.53975647687912 0.633773326873779 0.790443778038025 0.985504925251007 1.18904900550842 1.41786503791809 2.36547899246216 2.73661303520203 3.54332113265991 4.33969879150391 5.40724849700928 5.53732442855835 5.13260936737061 3.55650520324707 -0.0268172603100538 -1.84922504425049 -2.08422207832336 -2.19113206863403 -2.12531971931458 -1.89284062385559 -1.74265503883362 -1.7452939748764 -1.51262307167053 -1.31713736057281 -1.36352217197418 -1.26063120365143 -1.46133613586426 -1.16691303253174 -1.87323582172394 -1.90042757987976 -1.95214807987213 -1.96367824077606 -1.92060947418213 -1.84821736812592 -1.81287360191345 -1.74317133426666 -1.32314133644104 -1.0840128660202 -0.990224182605743 -1.24002528190613 -1.45742809772491 -1.37630581855774 -1.04765009880066 -0.677868664264679 -0.248648717999458 0.3296018242836 0.781503081321716 0.671903371810913 0.200986802577972 0.245084196329117 0.419496804475784 0.281511783599854 0.22649410367012 0.414273679256439 0.327440917491913 0.0746157094836235 -0.175240412354469 -0.266909301280975 -0.257678121328354 -0.266326159238815 -0.251418441534042 -0.397643327713013 -0.596234679222107 -0.252876192331314 0.264529973268509 1.56370854377747 2.14763164520264 3.19178438186646 3.84334897994995 6.25759220123291 9.0476016998291 11.5792865753174 11.6559457778931 10.9288549423218 11.3222942352295 10.9415168762207 9.813063621521 7.97651624679565 5.78162622451782 6.29782056808472 5.90971565246582 5.59650754928589 5.512864112854 -0.320592075586319 -1.6972553730011 0.440565824508667 -1.26379120349884 -1.48901832103729 -1.59457457065582 -1.71589493751526 -1.90319561958313 -2.22151231765747 -2.61250472068787 -2.78998231887817 -2.55075621604919 -2.16136646270752 -1.72294592857361 -1.37921369075775 -0.88575667142868 -0.174361616373062 -0.0321558974683285 0.0673179775476456 0.293203800916672 0.2186049669981
4.33204078674316 4.27979850769043 4.18823862075806 3.88006496429443 3.94365286827087 3.88484644889832 3.7500593662262 3.33031463623047 3.23223996162415 3.26035499572754 3.02127480506897 3.17662906646729 3.54446625709534 3.9297046661377 4.14080953598022 4.23198366165161 4.22388887405396 4.25676727294922 4.27306175231934 4.29123258590698 4.35314226150513 4.42724752426147 4.51472806930542 4.52970218658447 4.39068126678467 4.37016582489014 4.24229955673218 3.96790599822998 3.66660046577454 3.30375504493713 3.2818865776062 3.27297639846802 3.79071259498596 4.22534418106079 4.02614116668701 3.51118493080139 3.19590401649475 3.23800134658813 3.46274161338806 3.46826958656311 3.42428874969482 3.35654139518738 3.27367806434631 3.34427785873413 3.37716889381409 3.24010944366455 2.97889757156372 2.73239612579346 2.60511231422424 2.35862565040588 2.20382690429688 2.07581686973572 1.90875029563904 1.80168175697327 1.68249881267548 1.57847917079926 1.42542326450348 1.24843609333038 1.08088684082031 0.936630666255951 0.866158068180084 0.879208743572235 0.721965849399567 0.704591512680054 0.576245367527008 0.55235344171524 0.51832115650177 0.496394962072372 0.527581632137299 0.618091523647308 0.78921365737915 0.962951481342316 1.20664215087891 1.48489010334015 2.20391750335693 2.48677062988281 3.34164881706238 4.10628509521484 5.29899072647095 5.97330474853516 5.9351954460144 4.61203384399414 4.46100854873657 -2.04676389694214 -2.33461213111877 -2.45552587509155 -2.31120443344116 -2.11818027496338 -1.87632191181183 -1.77058625221252 -1.70339357852936 -1.65062916278839 -1.67710566520691 -1.32906055450439 -1.81089675426483 -1.8323358297348 -1.92023873329163 -1.95842266082764 -2.02497935295105 -2.06154370307922 -2.08114123344421 -2.02092552185059 -1.92921328544617 -1.86268973350525 -1.69870471954346 -1.40419697761536 -1.17847859859467 -1.13165616989136 -0.964632093906403 -1.10577964782715 -1.04197442531586 -0.659389436244965 -0.172814458608627 0.444880157709122 0.615122377872467 0.532730638980865 0.147082701325417 0.258776754140854 0.271752089262009 0.171916529536247 0.182601258158684 0.358529329299927 0.324456036090851 0.173192843794823 -0.0643562152981758 -0.233535245060921 -0.244144469499588 -0.358175128698349 -0.419007420539856 -0.513270914554596 -0.427693754434586 0.198599711060524 0.807475209236145 1.304159283638 1.76263999938965 2.37841439247131 3.18513536453247 4.68161487579346 8.58243083953857 11.4367580413818 10.3750505447388 9.72912216186523 9.03139781951904 8.51938819885254 6.55078649520874 6.05136299133301 4.87681436538696 3.54362154006958 3.35453844070435 4.29043292999268 4.14837312698364 1.31813049316406 -1.74556064605713 -1.54516172409058 -1.44140255451202 -1.65746533870697 -1.73642766475677 -1.82984721660614 -2.0286169052124 -2.40697169303894 -2.71368741989136 -2.86241483688354 -2.70459914207458 -2.29105401039124 -1.80313444137573 6.63924312591553 6.33192300796509 -0.309716463088989 -0.0765818655490875 0.0528826266527176 0.165081545710564 0.217985928058624
4.15594577789307 4.06159734725952 3.94840121269226 3.74023985862732 3.82665228843689 3.77386569976807 3.7411584854126 5.20012760162354 3.20676326751709 3.07836532592773 2.96984910964966 2.81647801399231 3.10064578056335 3.61050915718079 3.94876384735107 4.09076356887817 4.11831521987915 4.1628246307373 4.18990516662598 4.25876379013062 4.35090017318726 4.42537355422974 4.44981145858765 4.51123428344727 6.0084023475647 4.21046018600464 4.07255554199219 3.86336350440979 3.47505450248718 3.13157534599304 2.99797439575195 3.05525684356689 3.62224221229553 4.0340428352356 3.89476180076599 3.42845964431763 3.09338712692261 3.14220356941223 3.36415863037109 3.36999773979187 3.30859398841858 3.23649740219116 3.13520979881287 3.21279907226562 3.22109246253967 3.09667277336121 2.88409113883972 2.72801494598389 2.550705909729 2.29461789131165 2.13859915733337 2.03480291366577 1.71005177497864 1.56378388404846 1.49567019939423 1.33065986633301 1.13942396640778 0.991390585899353 0.86051481962204 0.76343834400177 0.764420926570892 0.72879296541214 0.670040190219879 0.597491025924683 0.546223044395447 0.507426142692566 0.489449024200439 0.498761624097824 0.560500144958496 0.638509631156921 0.753108143806458 0.948657810688019 1.20630049705505 1.47807943820953 2.05697584152222 2.63147354125977 3.01716589927673 3.9574089050293 5.34590673446655 6.55283880233765 6.74573135375977 5.04181861877441 6.36888074874878 5.80004262924194 -2.434903383255 -2.59260010719299 -2.48105382919312 -2.35991525650024 -2.09894323348999 -1.87682020664215 -1.75375211238861 -0.892633497714996 -1.17600703239441 0.292384207248688 0.295826524496078 -0.999169051647186 -1.98214936256409 -2.04714918136597 -2.13579726219177 -2.21929359436035 -2.26458215713501 -2.27433919906616 -2.23308682441711 -2.15198493003845 -2.03426194190979 -1.91499423980713 -1.81990039348602 -1.59769153594971 -1.35735535621643 -1.33779084682465 -1.07539904117584 -0.725967824459076 -0.247647076845169 0.309662878513336 0.443908154964447 0.362742930650711 0.0118676256388426 0.157253935933113 0.15164153277874 0.0433870628476143 0.10191672295332 0.190605744719505 0.206558540463448 0.0310160964727402 -0.263159811496735 -0.216787666082382 -0.00415275478735566 0.273546993732452 -0.292883604764938 -0.575686395168304 -0.437349289655685 0.144677385687828 1.26717591285706 1.51699364185333 1.38605010509491 1.2472460269928 1.90865623950958 3.59723949432373 7.80346488952637 9.98887920379639 9.16229057312012 8.75586032867432 8.06486797332764 7.09653997421265 4.62385272979736 5.21863126754761 9.55192565917969 12.8006429672241 12.9615354537964 8.80711650848389 2.76807355880737 0.873185753822327 -1.12182450294495 -1.60886895656586 -1.56877338886261 -1.73960423469543 -1.85432636737823 -1.93151330947876 -2.11170649528503 -1.57158744335175 6.25004053115845 11.2977848052979 5.07371187210083 -2.42486310005188 -1.8957587480545 4.20296955108643 2.7822265625 -0.393074363470078 -0.114412203431129 0.0465015023946762 0.142913654446602 0.198820576071739
4.0491042137146 3.90130090713501 3.66945362091064 3.64547967910767 3.66390538215637 3.630366563797 3.65307927131653 7.20039224624634 5.1072416305542 4.22387933731079 6.18351173400879 3.32072114944458 2.8790168762207 3.33289170265198 3.73964071273804 3.9454391002655 4.00951147079468 4.03929805755615 4.10387945175171 4.20643281936646 4.29196310043335 4.36290168762207 4.3964638710022 4.97899055480957 5.80503177642822 5.16556453704834 4.49569797515869 4.28145408630371 5.7632360458374 6.85600423812866 3.4109091758728 3.05390095710754 3.53967070579529 3.89842224121094 3.74837350845337 3.33977603912354 2.94817209243774 3.21860265731812 3.2787652015686 3.27442955970764 3.21782493591309 3.144859790802 3.03362441062927 3.11929392814636 3.1051652431488 2.96899342536926 2.72418141365051 2.51514148712158 2.31291508674622 2.13715839385986 1.92591035366058 1.79350864887238 1.55574524402618 1.3742219209671 1.23154354095459 1.08498549461365 0.892865419387817 0.797283530235291 0.754133999347687 0.74805748462677 0.737030208110809 0.713658571243286 0.652245938777924 0.577895641326904 0.527021408081055 0.493492186069489 0.443664222955704 0.472850024700165 0.549787104129791 0.65200537443161 0.753790974617004 0.912585616111755 1.14095091819763 1.52176070213318 2.01635217666626 2.6737961769104 2.97113823890686 3.69623136520386 4.69307613372803 6.44620227813721 6.39851140975952 8.20950794219971 7.79235124588013 13.4001789093018 10.2242336273193 1.212641954422 -2.57182383537292 -2.50009870529175 -2.26564598083496 -2.00133275985718 -1.84134936332703 -1.67293584346771 -1.3918262720108 -0.0482894256711006 0.259067296981812 -0.383768916130066 -0.995345294475555 -2.11315679550171 -2.25048875808716 -2.36963725090027 -2.45620441436768 -2.55773234367371 -2.59400296211243 -2.35996699333191 -2.22379016876221 -2.1047191619873 -2.00202679634094 -1.88132333755493 -1.78953313827515 -1.46377241611481 -1.13521873950958 -0.812487721443176 -0.386096924543381 0.125706806778908 0.213934332132339 0.0957955941557884 -0.120976351201534 0.0108295697718859 0.000699224357958883 -0.0410320498049259 -0.0892009437084198 -0.0325929597020149 -0.0277805738151073 -0.274676114320755 -0.319345891475677 -0.327423632144928 -0.388036578893661 -0.422982722520828 -0.548460066318512 -0.748956263065338 -0.693985283374786 -0.233347311615944 0.376384764909744 0.571306884288788 0.757979691028595 1.21320223808289 2.10460901260376 4.96029758453369 7.96035528182983 8.92250919342041 9.50850772857666 8.87036418914795 7.69474458694458 7.01801919937134 12.6705226898193 10.7199153900146 8.87153816223145 10.1957206726074 8.65655136108398 5.67190313339233 2.02433562278748 -0.272488355636597 -1.85140669345856 -1.76730918884277 -1.70720231533051 -1.81451010704041 -1.91654968261719 -1.58150136470795 1.48287773132324 4.7844877243042 7.13835859298706 9.99452877044678 10.7735538482666 7.33600616455078 0.511922717094421 -1.31021916866302 -0.858554780483246 -0.502751648426056 -0.173477962613106 0.0131243895739317 0.0868770703673363 0.179512768983841
3.87047719955444 3.73319149017334 3.57266092300415 3.64856266975403 3.52574872970581 3.51868891716003 4.5693359375 5.16691493988037 4.81538820266724 5.54223203659058 7.46969699859619 10.987979888916 2.83708930015564 3.02719497680664 3.47721576690674 3.7038722038269 3.85294270515442 3.90962314605713 4.00111770629883 4.11202812194824 4.21505784988403 4.30157279968262 4.35458040237427 4.93181467056274 4.6658411026001 4.61631107330322 4.21235132217407 5.16028642654419 5.88625860214233 6.76505947113037 5.11927556991577 3.60754823684692 3.44927883148193 3.85600733757019 3.65264081954956 3.14375782012939 3.00064373016357 3.18883991241455 3.17908883094788 3.12828397750854 3.05381321907043 3.01116800308228 3.0283784866333 2.99755358695984 3.01866960525513 2.88496994972229 2.62686228752136 2.34309697151184 2.06709456443787 1.82869839668274 1.6525661945343 1.48134577274323 1.30185198783875 1.27170896530151 0.981604039669037 0.844972968101501 0.770985662937164 0.729038774967194 0.725706875324249 0.739542841911316 0.713735222816467 0.666601896286011 0.621152222156525 0.558314085006714 0.516381978988647 0.484461218118668 0.423092186450958 0.463229566812515 0.545251190662384 0.758407235145569 0.800304889678955 0.895549893379211 1.09640550613403 1.72457146644592 1.88849270343781 2.49934029579163 2.9361367225647 3.35014176368713 4.40361213684082 6.02443933486938 6.82612466812134 7.91845560073853 12.2278461456299 12.5788116455078 16.1543006896973 14.2862138748169 4.1347975730896 0.368087500333786 -2.3856372833252 -2.14748787879944 -1.90801310539246 -1.75794517993927 -0.848880469799042 0.161706626415253 -0.143632754683495 -0.646325647830963 -1.35926520824432 -2.22402739524841 -2.38690233230591 -2.52809929847717 -2.75140070915222 -2.91099119186401 -2.91865253448486 -2.79322695732117 -2.51426458358765 -2.30583000183105 -2.18204689025879 -2.0600860118866 -1.94231832027435 -1.55877220630646 -1.1614156961441 -0.827242434024811 -0.527523517608643 -0.0666254237294197 -0.0934133753180504 -0.436633169651031 -0.377061694860458 -0.306587487459183 -0.284456014633179 -0.33559975028038 -0.390790700912476 -0.327005535364151 -0.249965667724609 -0.03237509354949 0.957284867763519 1.34899985790253 1.39913201332092 1.08348035812378 1.48992943763733 1.74450576305389 2.44701099395752 3.43873143196106 3.4576096534729 0.422335237264633 0.238209247589111 0.913683354854584 2.32535028457642 5.38971328735352 7.20186710357666 8.52833652496338 9.3845386505127 8.77611446380615 8.47374248504639 6.91927242279053 10.9048910140991 8.16119480133057 5.0327000617981 3.96324467658997 2.49579000473022 -0.643825590610504 -2.29145503044128 -2.10661196708679 -1.92632114887238 -1.86548805236816 -1.85229051113129 -1.89018213748932 -1.54331767559052 -0.0111536998301744 4.30148792266846 7.48068761825562 8.47201156616211 7.83285999298096 9.53203773498535 11.3067693710327 7.42831707000732 1.03548049926758 -0.902310967445374 -0.605282485485077 -0.296186774969101 -0.074176512658596 0.0358147732913494 0.164409875869751
3.58089876174927 3.57624578475952 3.42837071418762 3.5077702999115 3.4323616027832 3.43563270568848 3.39185428619385 5.4962592124939 5.8172402381897 7.71464681625366 8.29363346099854 11.3672180175781 13.8282117843628 2.98759245872498 3.213454246521 3.51277089118958 3.71550107002258 3.77720928192139 3.89189791679382 4.00370121002197 4.13531923294067 4.2370662689209 4.30952835083008 4.43767642974854 4.35909795761108 4.20977210998535 4.2617826461792 5.49875020980835 6.99594593048096 6.07712268829346 6.6063551902771 4.98920822143555 3.38030314445496 3.39174270629883 3.16084718704224 2.91313457489014 2.94807267189026 3.12156057357788 3.10808849334717 3.05783987045288 2.98488903045654 2.89307045936584 2.96488213539124 2.94461274147034 2.87294483184814 2.7962589263916 2.48147249221802 2.08944058418274 1.72057437896729 1.5710232257843 1.3301008939743 1.16825544834137 1.59441018104553 1.43278419971466 1.33865106105804 0.764273881912231 0.714921534061432 0.886692643165588 0.769251644611359 0.718657553195953 0.692476511001587 0.635060012340546 0.577810347080231 0.546443283557892 0.506414234638214 0.478752046823502 0.446988970041275 0.568703830242157 0.540715992450714 0.651881873607635 0.800281286239624 0.950487673282623 1.14129841327667 1.73766362667084 1.81062519550323 2.38456249237061 2.88001894950867 3.23429179191589 4.08994579315186 5.76605892181396 6.96063804626465 6.83688640594482 11.4651956558228 15.6744594573975 14.6186637878418 13.0247373580933 9.62699127197266 3.99058866500854 -1.06088030338287 -2.25000071525574 -2.06011271476746 -1.81677782535553 -0.936680436134338 -0.224128678441048 -0.224532946944237 -0.125900104641914 -0.697024345397949 -1.32364642620087 -1.8779844045639 -2.59708189964294 -2.95922613143921 -3.16320729255676 -3.18904662132263 -3.05669450759888 -2.87486982345581 -2.53386545181274 -2.31525897979736 -2.21709942817688 -2.05621910095215 -1.58428692817688 -1.22815048694611 -0.935741066932678 -0.436306297779083 -0.141359627246857 -0.147730723023415 -0.181805372238159 -0.343114525079727 -0.298848092556 -0.139622449874878 0.13873453438282 0.941538751125336 0.758898913860321 0.285472214221954 0.484672337770462 0.644838273525238 0.573532342910767 0.530383169651031 0.306426674127579 0.729069709777832 0.892933964729309 0.677311480045319 0.497136503458023 0.0857204794883728 -0.346343040466309 -0.503535747528076 0.325242191553116 2.09621810913086 4.48873281478882 6.33291482925415 7.56543254852295 8.2398509979248 8.01415634155273 7.51126956939697 7.52498340606689 5.51203870773315 3.98655414581299 2.3579785823822 -0.489141255617142 -1.21728467941284 -2.15383434295654 -2.50321292877197 -2.26428151130676 -2.02000737190247 -1.93947947025299 -1.9300948381424 -1.34220290184021 -0.770409882068634 1.13865923881531 4.94555711746216 6.59226083755493 8.27816200256348 9.0884838104248 8.61732292175293 9.7036828994751 5.90132904052734 0.0463018417358398 -1.00521087646484 -0.735403597354889 -0.433275640010834 -0.179745092988014 -0.00257130060344934 0.145468562841415
