NCOLS 175
NROWS 31
XLLCORNER 353968
YLLCORNER 6699920
CELLSIZE 16 
NODATA_value -3.4e+38 
2.25571036338806 2.75106906890869 2.73887205123901 2.76635909080505 2.68240213394165 2.72179794311523 2.65053105354309 2.59440445899963 5.02985620498657 6.12459087371826 7.3331151008606 7.79363012313843 9.39367866516113 8.39120769500732 8.37953281402588 5.17176580429077 6.5163459777832 7.09871768951416 6.35756397247314 8.06643009185791 7.07997035980225 10.6626329421997 9.98153686523438 11.1046829223633 12.3409252166748 11.3830251693726 14.4586734771729 5.1511402130127 5.91456651687622 3.34279537200928 3.46905112266541 3.6196403503418 4.61597347259521 4.38347911834717 4.4896879196167 4.03983926773071 3.99182200431824 4.21414804458618 4.42037963867188 4.68073654174805 4.62973833084106 4.8156156539917 4.81928443908691 4.92289113998413 4.92814350128174 4.80507612228394 3.73807334899902 3.90752863883972 4.93385648727417 6.41687870025635 10.5253763198853 10.79465675354 9.95198917388916 11.4635877609253 13.2767314910889 22.5589065551758 3.86452555656433 3.83360934257507 2.98779916763306 5.83634376525879 6.8774209022522 5.88847064971924 4.30220556259155 4.3715934753418 14.0905847549438 0.968086719512939 4.63804149627686 2.15415787696838 8.14873600006104 3.04296183586121 5.34306192398071 16.5624198913574 3.84682106971741 3.59372210502625 11.8084859848022 2.72130680084229 3.14441299438477 4.06350946426392 4.81690454483032 3.79270100593567 3.89994096755981 4.27901697158813 8.63310241699219 11.5878276824951 27.218599319458 16.756778717041 20.4644832611084 9.71035289764404 10.4854946136475 12.6064233779907 12.9634981155396 10.083477973938 -0.070871114730835 0.235601395368576 1.1011608839035 1.36995160579681 4.04619169235229 4.90455102920532 15.2584772109985 5.200843334198 3.18272304534912 5.14260482788086 8.7901086807251 14.6213836669922 13.747428894043 27.1192207336426 21.3561153411865 10.1428785324097 1.90183174610138 2.19022393226624 1.92831969261169 2.24453234672546 2.61124777793884 3.00858616828918 3.43361401557922 3.27321314811707 3.6263210773468 3.53333735466003 3.55709409713745 4.14827585220337 4.01654958724976 4.40737676620483 4.52957534790039 4.46801948547363 4.3315110206604 4.85869073867798 4.87918376922607 4.78616762161255 5.66496086120605 5.48715686798096 5.89572334289551 6.05637264251709 5.0813627243042 4.66243314743042 8.64815616607666 6.79537391662598 6.59904336929321 5.01597785949707 3.75078582763672 6.31578016281128 5.14700269699097 4.65125322341919 6.24341011047363 5.10607194900513 6.00061655044556 6.87296390533447 5.84319257736206 7.02194833755493 7.52554607391357 7.60902214050293 6.62026309967041 5.91487884521484 5.81379890441895 5.67664194107056 4.0310230255127 5.84312772750854 6.35521173477173 5.99980640411377 16.1435871124268 28.9092102050781 23.2044410705566 8.77009105682373 7.38690662384033 -0.938271045684814 5.93753337860107 5.93521118164062 6.61758232116699 8.54457759857178 8.41355895996094 1.08997559547424 25.8805236816406 1.50039684772491 3.98767685890198 4.12121820449829 4.91088342666626
2.34338474273682 2.80411577224731 2.87378621101379 2.85423541069031 2.8753719329834 2.82096886634827 2.85064387321472 2.75602841377258 2.6735737323761 5.35967302322388 6.54305696487427 7.91255855560303 8.44402503967285 10.2847280502319 9.28984832763672 9.30241775512695 5.6390380859375 7.15538215637207 7.75852060317993 6.98052024841309 9.04034996032715 9.56616020202637 13.1912403106689 12.336859703064 14.0345096588135 15.1698045730591 14.8318033218384 27.0326042175293 5.77421617507935 6.70558166503906 3.46578598022461 3.65806174278259 4.40252685546875 4.74163246154785 4.48829507827759 4.22700309753418 4.15812063217163 4.12445259094238 4.36354684829712 4.56079149246216 4.83339262008667 4.76940202713013 4.95303773880005 4.91917753219604 5.01322889328003 5.01097297668457 4.89962911605835 3.7647385597229 3.99404096603394 5.18028974533081 6.87916803359985 11.7057256698608 15.9239835739136 11.3488121032715 13.1899633407593 22.1227340698242 5.11968994140625 4.3753809928894 8.4464807510376 3.79057478904724 4.08765983581543 7.40001344680786 8.65195846557617 6.72961807250977 0.678063333034515 0.698899805545807 2.02865314483643 5.53200483322144 3.17613196372986 13.2782363891602 4.70541381835938 14.1296405792236 2.97669959068298 4.11347436904907 3.85414838790894 3.53917455673218 3.23428559303284 3.95024418830872 4.26948833465576 9.14040470123291 5.39264345169067 4.04963541030884 6.18647289276123 9.05679798126221 18.0891780853271 13.9332580566406 17.0376071929932 11.1479816436768 10.6853485107422 4.70542573928833 0.0875232666730881 -0.634546279907227 3.33950996398926 0.613283216953278 1.6085250377655 2.08960151672363 3.32522892951965 14.3121576309204 6.45869827270508 4.07324171066284 6.60892629623413 8.2906494140625 10.163987159729 13.480694770813 25.6988162994385 19.2187080383301 13.1147022247314 1.9899867773056 1.8852059841156 2.20891928672791 3.3207004070282 2.83983445167542 3.25651788711548 3.88488721847534 3.36059331893921 3.76760387420654 3.617595911026 3.95470666885376 3.88602471351624 3.95160961151123 4.56376457214355 4.43823432922363 4.91329050064087 4.82637929916382 4.7795786857605 4.68045091629028 5.41801738739014 5.38096332550049 5.28312110900879 6.11053991317749 5.93429517745972 6.34843015670776 6.37106275558472 6.09288024902344 6.03145170211792 5.8224196434021 7.32345247268677 6.7704553604126 6.08545446395874 5.24402141571045 6.97608757019043 5.86812019348145 5.33487606048584 6.89102363586426 5.66883850097656 6.64960718154907 7.58687543869019 6.53207349777222 7.74819660186768 8.18403244018555 8.17800140380859 6.97556447982788 6.44382333755493 6.4903678894043 6.13621044158936 4.32579708099365 7.18063449859619 8.36177730560303 8.79730606079102 29.4631690979004 26.7652263641357 5.63258504867554 9.20298099517822 4.85838890075684 3.61301493644714 3.22191333770752 3.3887243270874 4.58260011672974 2.80178642272949 2.06027603149414 4.58989238739014 0.827272474765778 1.63425278663635 3.81865262985229 4.60222625732422
3.60175538063049 2.45045804977417 2.92613840103149 2.96684598922729 2.93620228767395 2.99161553382874 2.90683603286743 2.88130450248718 2.79539012908936 2.76850581169128 5.82786893844604 7.00913429260254 8.5659065246582 9.22076892852783 11.5514497756958 10.4775066375732 10.5089683532715 6.22991180419922 7.95357036590576 8.54774856567383 7.68788003921509 10.2934045791626 11.81662940979 18.1731052398682 16.2409992218018 20.3545684814453 19.735372543335 21.8154106140137 3.31310153007507 6.61167240142822 7.7626838684082 3.63090682029724 3.84204387664795 4.7665581703186 4.47433233261108 4.6036229133606 4.34060430526733 4.24634408950806 4.2205548286438 4.49450159072876 4.70883178710938 4.99966192245483 4.95722579956055 4.67320585250854 5.03299570083618 5.1371603012085 4.90240335464478 4.63041162490845 3.57077884674072 4.23673725128174 5.63093852996826 7.59319877624512 13.7716226577759 29.6260070800781 13.346586227417 17.0697574615479 8.13932704925537 7.15366744995117 7.276611328125 15.0621185302734 5.17861127853394 8.8085823059082 10.7086420059204 15.3197898864746 18.7897815704346 1.0481733083725 5.33001804351807 2.52547144889832 9.72694778442383 6.92029476165771 29.2180309295654 13.6296157836914 3.43690538406372 3.71193170547485 4.15256261825562 4.16509914398193 3.92300319671631 4.54544448852539 4.11984729766846 9.93796920776367 4.04536151885986 3.90583086013794 18.4545345306396 8.27303028106689 11.1400260925293 20.1327743530273 12.9675769805908 19.4673500061035 14.0861682891846 9.6480016708374 -0.657316863536835 8.47819423675537 0.0567168109118938 0.590821981430054 1.97528576850891 5.60201740264893 7.88881635665894 5.74992656707764 2.30903720855713 8.41277027130127 4.48394680023193 8.1697826385498 13.6566400527954 16.4637279510498 29.8886184692383 23.3721714019775 17.4648475646973 7.60364103317261 1.90827178955078 2.27552723884583 2.38224959373474 5.37168598175049 2.89167475700378 3.71529006958008 4.22421646118164 3.68971037864685 4.13509845733643 4.02133083343506 4.35778856277466 4.28134107589722 4.38235759735107 4.99920606613159 4.87821817398071 5.4387583732605 5.35426664352417 5.25733470916748 5.22822093963623 5.98458099365234 5.82453775405884 5.6285605430603 6.52060747146606 6.34536695480347 6.66334962844849 6.66143560409546 6.44353294372559 6.49881744384766 6.52703332901001 7.90632295608521 6.78647518157959 6.69297647476196 6.76501226425171 7.64447593688965 6.50567531585693 5.96709203720093 7.58700370788574 6.31935119628906 7.42256689071655 8.33281898498535 8.0710277557373 8.50829792022705 8.48879718780518 8.281907081604 8.04386234283447 7.38397026062012 7.14292049407959 6.95331239700317 4.85263395309448 9.49327278137207 12.3687286376953 16.4133262634277 0.494617193937302 -0.248849973082542 -0.648025214672089 -1.3938627243042 -1.03681039810181 0.680575132369995 0.978653073310852 0.881610214710236 5.35322427749634 4.14326620101929 5.17597770690918 1.10470271110535 1.17186093330383 4.24434900283813 4.07281875610352
3.83294582366943 3.00258755683899 2.88254475593567 3.05069947242737 3.07898736000061 3.04488563537598 3.02476406097412 2.95103311538696 2.95492196083069 2.9474835395813 2.91173768043518 6.34275913238525 7.62082290649414 9.34052276611328 10.2013235092163 13.2895450592041 12.0461368560791 12.1019906997681 6.97833728790283 8.97089862823486 9.52653789520264 9.54249095916748 11.9890213012695 16.2851982116699 33.0551834106445 23.7141571044922 36.3417320251465 33.9681434631348 21.555154800415 3.60528540611267 7.79258346557617 8.95638465881348 3.790940284729 3.93611121177673 4.85706853866577 4.56968879699707 4.70912218093872 4.44027662277222 4.35377836227417 4.33331489562988 4.64296627044678 5.06194925308228 4.99554300308228 5.15026664733887 4.80716609954834 5.18593549728394 5.1636848449707 5.06957721710205 4.26616048812866 3.72958302497864 4.63023471832275 6.31542348861694 13.2800769805908 26.4340038299561 9.43292331695557 16.859338760376 17.6019039154053 12.5722780227661 11.0415372848511 8.51258277893066 6.18640565872192 3.64207029342651 11.4694261550903 4.625412940979 0.834609568119049 2.32650899887085 3.91665267944336 8.80037117004395 4.34094429016113 22.6233787536621 17.9325389862061 3.09112429618835 3.91405439376831 3.93772578239441 4.6507420539856 4.73082971572876 4.88475131988525 5.01874399185181 6.15903568267822 4.52700901031494 15.8269033432007 4.41379356384277 4.43554830551147 4.25243759155273 9.08544445037842 11.5855741500854 19.9828567504883 17.3687057495117 5.1881046295166 1.09380376338959 0.599770247936249 -0.363818377256393 0.214056387543678 1.51295816898346 15.8209161758423 2.41882395744324 8.9708833694458 3.1057436466217 3.61645984649658 4.68482780456543 5.68907499313354 9.05582141876221 23.3988971710205 22.0364971160889 27.427131652832 13.7022647857666 8.24305725097656 2.10470104217529 1.76171684265137 2.23422312736511 2.69984126091003 2.84901881217957 15.5130767822266 3.90263390541077 3.93246603012085 4.44808292388916 3.89607739448547 4.39671230316162 4.3670015335083 4.74622344970703 4.67623710632324 4.79983758926392 5.44339561462402 5.42694282531738 5.99059391021729 5.87831830978394 5.80422258377075 5.77771520614624 6.47706508636475 6.19879770278931 5.94204378128052 6.91170835494995 6.71143960952759 7.02679491043091 7.09809398651123 6.93761730194092 7.03570747375488 7.46545886993408 8.49362373352051 8.2295093536377 7.76434373855591 7.29621076583862 8.36538982391357 7.25878143310547 6.80026245117188 8.43145561218262 7.7746696472168 8.68210792541504 7.65438652038574 8.71452808380127 9.16593456268311 9.13909339904785 9.03052520751953 8.46288776397705 8.39828491210938 7.8895320892334 4.78522968292236 5.70028209686279 14.2107763290405 23.4049091339111 0.93453460931778 1.02049124240875 0.623495578765869 0.458068281412125 0.424810349941254 -0.442252099514008 0.823857188224792 1.08155143260956 0.989677309989929 8.70065593719482 7.44611978530884 0.735836327075958 1.17911660671234 1.90981185436249 4.58502864837646
4.69485282897949 4.35309648513794 3.14163970947266 2.89296269416809 3.1475727558136 3.1510922908783 3.10722613334656 3.12195134162903 3.03950786590576 3.03745627403259 3.11225509643555 3.01845932006836 6.86452150344849 8.41955471038818 10.2990026473999 14.569769859314 14.7899446487427 13.2455148696899 2.845374584198 7.98177480697632 10.3201236724854 10.7908763885498 13.233941078186 12.7918100357056 30.0866222381592 15.6178598403931 23.1568756103516 12.9916543960571 21.95627784729 2.96845555305481 8.21070003509521 9.49237632751465 3.63152432441711 3.87258863449097 3.99926686286926 4.96567964553833 4.68256282806396 4.84602499008179 4.56798124313354 4.49057292938232 4.46115875244141 4.95181274414062 5.29165124893188 5.1768102645874 5.38781881332397 5.27394866943359 5.38998126983643 5.43529081344604 5.41037607192993 4.25068092346191 3.56318283081055 5.29584217071533 7.4618558883667 8.51828384399414 13.0671997070312 18.0460739135742 20.6607971191406 26.8951187133789 24.5656795501709 7.67740249633789 9.64641284942627 10.46129322052 8.43166065216064 15.6721229553223 5.69629907608032 3.2265841960907 14.0305738449097 6.43592929840088 20.6547870635986 12.9838447570801 3.03195071220398 3.88010382652283 4.25744485855103 4.55422496795654 4.30960607528687 5.23074626922607 5.7240309715271 6.09761953353882 6.58847761154175 8.29416656494141 5.68358421325684 4.42701244354248 4.51283836364746 8.50241374969482 4.55611133575439 12.0543804168701 20.6993846893311 10.0120534896851 3.83962941169739 9.18169498443604 1.18501853942871 0.833143770694733 0.483468472957611 0.33559975028038 4.09249114990234 1.97296702861786 4.33647155761719 14.8246402740479 8.79356670379639 9.60814094543457 18.5958042144775 14.8558883666992 18.4271373748779 11.8159284591675 33.527774810791 16.9290924072266 13.7830209732056 1.88254332542419 2.15167212486267 2.57712936401367 2.86972260475159 2.99765825271606 2.95414853096008 3.59302377700806 4.08060884475708 4.14503908157349 4.69253921508789 4.12955808639526 4.69506549835205 4.72933721542358 5.11217832565308 5.0456428527832 5.24289560317993 5.90071105957031 6.12134265899658 6.52176809310913 6.40702676773071 6.33988094329834 6.25899696350098 6.89157104492188 6.53605031967163 6.29897451400757 7.39865255355835 7.1971263885498 7.60238265991211 7.67919635772705 7.50535249710083 7.60699272155762 8.06351280212402 9.13923263549805 8.85954761505127 8.39034461975098 7.90702152252197 9.20827865600586 7.73012733459473 8.71986865997314 7.64562463760376 8.46997261047363 9.38866519927979 8.11369895935059 9.45998954772949 9.928786277771 9.89978504180908 11.3024244308472 10.5873193740845 10.6522264480591 10.4466924667358 6.00603437423706 7.01443529129028 27.693510055542 0.705106675624847 2.37540555000305 1.35600233078003 1.56592404842377 1.7356184720993 1.70248997211456 1.47477114200592 1.16433703899384 1.44265341758728 1.34074556827545 20.4405651092529 0.667999148368835 1.33778417110443 1.79407441616058 3.47204065322876
5.0296459197998 4.73990392684937 4.59484481811523 3.20503091812134 3.02188563346863 3.2194447517395 3.25073552131653 3.21248030662537 3.22100925445557 3.12265181541443 3.10841679573059 3.23696494102478 3.101158618927 7.52775144577026 9.46695137023926 12.5495347976685 17.5720539093018 15.9419050216675 16.0429840087891 8.7189884185791 11.3707513809204 11.5939102172852 12.5516490936279 16.3043670654297 17.546573638916 14.0258932113647 1.84481501579285 5.61086320877075 1.49506139755249 0.754022240638733 2.66160941123962 9.94877910614014 11.5182704925537 3.79447722434998 3.94918012619019 4.09196043014526 5.10455846786499 4.83556795120239 5.00158643722534 4.70978498458862 4.63327312469482 4.87510776519775 5.1736888885498 5.56702136993408 5.47747325897217 5.78202676773071 5.60471868515015 5.77857255935669 5.95464277267456 5.98633050918579 4.78108644485474 4.05571508407593 6.39946603775024 11.7416467666626 17.5053539276123 24.4364051818848 23.4533939361572 28.9602146148682 32.1814041137695 29.2345294952393 10.9180221557617 11.8629388809204 13.365065574646 12.8674411773682 22.9052104949951 17.5535202026367 28.3708000183105 29.6671257019043 16.9107913970947 2.92487668991089 3.5619912147522 3.9783308506012 4.96608781814575 5.19769334793091 5.22819375991821 5.48580455780029 5.64630889892578 5.89574718475342 8.18169116973877 9.85553932189941 6.93751239776611 5.18526315689087 4.7020115852356 4.95764303207397 12.9188051223755 5.2748327255249 14.9551429748535 7.11862993240356 2.90855932235718 6.49716234207153 1.82462191581726 1.23697817325592 0.978723406791687 0.93547922372818 1.2221907377243 2.27387285232544 2.6330258846283 4.89359283447266 21.489128112793 15.0827512741089 3.88128995895386 2.32878375053406 19.0655002593994 29.607551574707 19.9758548736572 15.976016998291 11.6370372772217 2.85208296775818 2.63103318214417 2.45826196670532 2.85751795768738 3.06462407112122 8.24659729003906 4.43433570861816 4.43054533004761 4.35021638870239 4.44068670272827 5.0486307144165 4.5195198059082 5.11033821105957 4.7682523727417 5.45367622375488 5.43407011032104 6.1446008682251 6.07638120651245 6.52722644805908 6.99901533126831 6.85445070266724 6.77602291107178 6.66948890686035 7.32369422912598 6.98219156265259 6.6903510093689 7.85957670211792 7.80041456222534 8.29321575164795 8.31246280670166 8.1067008972168 8.23087596893311 8.68507862091064 9.8422966003418 9.55447387695312 9.07183742523193 9.7901496887207 8.6971607208252 7.98757028579712 9.65394592285156 7.99566793441772 9.23030376434326 10.1906871795654 8.85258769989014 10.3002138137817 10.8208475112915 10.8102321624756 15.2327098846436 15.7301607131958 14.8037919998169 14.6267805099487 8.18342685699463 8.72309398651123 -0.1241370216012 3.7997829914093 2.65715980529785 3.11084771156311 1.98714172840118 2.95989227294922 2.53150033950806 1.89421260356903 1.4598935842514 1.72706031799316 1.60579597949982 0.574546635150909 0.862425148487091 2.07707071304321 3.67108535766602
6.20638751983643 5.63703727722168 5.0519061088562 4.9216365814209 3.31674265861511 3.1104564666748 3.31745576858521 3.34903287887573 3.31242918968201 3.31220412254333 3.19183254241943 3.16440653800964 3.36127233505249 3.25252723693848 8.42541980743408 11.9854974746704 15.1642904281616 22.3812789916992 20.3536319732666 20.530818939209 10.5476236343384 13.8863515853882 14.153115272522 12.5956830978394 21.708703994751 18.9102935791016 3.44739580154419 6.30680322647095 3.47335457801819 2.41422963142395 4.42490482330322 3.55833101272583 12.7111511230469 14.6946983337402 3.87928938865662 4.0645112991333 4.23040628433228 5.28412771224976 4.9998836517334 5.16063976287842 4.83134126663208 4.77849960327148 5.10356569290161 5.46701431274414 5.96197414398193 5.91384744644165 6.29740858078003 6.06342506408691 6.39874935150146 6.71282625198364 6.75169086456299 5.47423362731934 5.54498434066772 10.0434856414795 14.6191701889038 20.7152118682861 18.9236278533936 33.0342254638672 26.0774974822998 55.4440689086914 3.04405808448792 13.0397777557373 16.2658100128174 19.8823089599609 26.4162940979004 42.6859092712402 34.5699348449707 2.06221413612366 2.39549827575684 4.77593088150024 4.14904832839966 4.75302028656006 4.84512901306152 5.49158048629761 5.47212219238281 5.45961618423462 5.63264274597168 5.77886390686035 6.08128833770752 12.2960863113403 20.5286655426025 5.647385597229 8.60518550872803 4.76923751831055 8.82114791870117 4.60694122314453 5.29598379135132 22.2966213226318 12.762598991394 2.7277684211731 2.10322093963623 2.37141966819763 1.707435131073 1.3153680562973 1.51816630363464 1.89607977867126 3.36014986038208 7.56809902191162 13.254204750061 2.18290853500366 2.60880780220032 2.64358425140381 3.07665538787842 2.04930233955383 8.40528774261475 11.0737171173096 2.39938044548035 2.00942730903625 1.79415345191956 2.70047092437744 2.58994364738464 3.10657596588135 4.21176481246948 3.20824933052063 4.66073226928711 4.75320720672607 4.70053386688232 4.8174262046814 5.48145771026611 5.23258972167969 5.27768659591675 5.41293430328369 5.81728315353394 5.7732629776001 6.47992372512817 6.40366363525391 6.85952091217041 7.40408658981323 7.26430130004883 7.2005615234375 7.12064790725708 7.84008264541626 7.42857837677002 7.18979644775391 8.40802574157715 8.74872970581055 8.45645809173584 8.96120071411133 8.71367740631104 9.18144226074219 10.3839120864868 10.13023853302 9.72313690185547 9.60017967224121 10.792854309082 9.53587245941162 8.89728927612305 10.4931049346924 8.71027278900146 10.0827713012695 11.0975103378296 9.71929454803467 11.3395471572876 14.5312347412109 16.2774524688721 24.7573890686035 30.4535865783691 23.9064083099365 27.3781661987305 10.6569957733154 11.2015562057495 4.42638683319092 4.71968650817871 3.64650344848633 3.87717199325562 2.9160578250885 3.19225263595581 2.81774258613586 2.16927671432495 1.67208540439606 1.98733019828796 1.96303021907806 2.34354162216187 1.12253522872925 3.7134792804718
6.25024271011353 6.72719049453735 5.88373041152954 5.38750219345093 5.37047052383423 3.43147826194763 3.1931266784668 3.41189551353455 3.44659280776978 3.40330195426941 3.40172433853149 3.25388407707214 3.21819090843201 3.54968857765198 3.39906668663025 11.8583402633667 14.5912246704102 19.2454967498779 30.8588447570801 28.359073638916 28.6212844848633 13.275447845459 17.4990081787109 17.9292831420898 16.1068592071533 37.8158302307129 14.9615812301636 7.46276950836182 7.10105419158936 11.9821519851685 15.2490301132202 2.07998204231262 4.15973091125488 17.967945098877 20.6483459472656 3.99949049949646 4.21044158935547 4.37395000457764 5.45943069458008 5.16622924804688 5.32658004760742 5.02508020401001 5.00139808654785 5.39506530761719 5.82872676849365 6.45945692062378 6.45197248458862 7.0236964225769 6.72184085845947 7.18112564086914 7.59618759155273 7.57989931106567 6.1962308883667 8.45419788360596 12.5161819458008 23.0239410400391 30.2828159332275 34.6905555725098 49.9669952392578 29.4277572631836 -1.57622516155243 22.2223148345947 17.3945789337158 30.722146987915 37.8807067871094 1.42525935173035 1.18069350719452 2.28864526748657 3.44894671440125 4.03495454788208 9.51672267913818 4.70324516296387 8.14703750610352 5.38859081268311 8.47765731811523 5.66278791427612 5.54444980621338 5.74793910980225 6.00896263122559 6.28611612319946 20.7042808532715 5.37129068374634 6.33950185775757 5.1948070526123 4.94603252410889 5.11511564254761 7.08269739151001 9.15281200408936 3.63890814781189 3.56758856773376 3.5394115447998 3.36828541755676 3.43672180175781 2.24252104759216 2.10334491729736 2.58166766166687 2.5039234161377 4.56470394134521 4.23373508453369 2.73621463775635 2.88191628456116 2.91910767555237 2.88286304473877 2.47835946083069 3.54229521751404 13.0810308456421 1.67675983905792 1.57934927940369 2.21641969680786 2.67046427726746 3.1125762462616 3.06418800354004 3.36724925041199 14.3252077102661 3.83020687103271 5.04822301864624 5.15393018722534 5.12111043930054 5.64199066162109 5.08536767959595 5.6980094909668 5.7326283454895 5.99555730819702 5.86965847015381 6.07647180557251 6.79793882369995 6.72990465164185 7.2002534866333 7.83272838592529 7.68845176696777 7.65240383148193 7.6031289100647 8.35438823699951 7.87068128585815 8.27513217926025 8.99014282226562 9.44567394256592 9.38608455657959 9.25220775604248 9.39254474639893 9.91826057434082 11.2598733901978 11.0284585952759 10.6127138137817 9.95987510681152 11.7327356338501 10.4102964401245 9.79611301422119 11.4449224472046 9.55185604095459 11.0696468353271 12.2148332595825 11.0732488632202 15.0847883224487 28.3158016204834 26.933406829834 20.7122745513916 11.766092300415 20.735912322998 16.4718322753906 14.291314125061 14.980167388916 5.41435766220093 5.64918899536133 4.28034257888794 4.40921926498413 3.10522985458374 3.53503394126892 3.14410090446472 2.40965223312378 1.93960177898407 2.38262367248535 2.24599981307983 2.87005710601807 3.5519392490387
6.20247840881348 6.88562774658203 7.17306041717529 6.43453741073608 5.94049167633057 5.88830900192261 3.535968542099 3.27380704879761 3.50047659873962 3.54505348205566 3.49424409866333 3.4771556854248 3.30823636054993 3.27292418479919 3.73429775238037 10.5016841888428 14.2217025756836 18.1530132293701 26.6443042755127 49.0524787902832 45.5207061767578 45.8023948669434 18.3779296875 24.5457897186279 25.2568798065186 22.9191932678223 19.1435222625732 3.64214825630188 9.53492164611816 15.3127679824829 9.16029453277588 1.32768714427948 3.03068828582764 10.2244138717651 32.1798248291016 36.4927749633789 4.12432050704956 4.31135082244873 4.5009560585022 5.6643648147583 5.37079334259033 5.56605339050293 5.2549614906311 5.14861869812012 5.78638792037964 6.37401628494263 7.17773008346558 7.25964832305908 8.04305076599121 7.50600910186768 8.05814170837402 8.56052017211914 8.47776222229004 7.00545072555542 10.4231958389282 16.158748626709 16.9286041259766 43.4301490783691 52.9102516174316 10.515588760376 -1.38329458236694 -0.987776339054108 38.1235313415527 33.2297973632812 0.937224149703979 1.11356425285339 2.81018424034119 3.27028036117554 3.78942275047302 4.19219636917114 5.04004001617432 4.36444520950317 5.46566152572632 10.5750150680542 7.18496704101562 11.7939214706421 6.89935541152954 5.99882316589355 5.99277210235596 6.13660287857056 6.37673902511597 5.57748508453369 5.4523344039917 5.78151369094849 5.27520608901978 12.8410654067993 5.12030744552612 20.6165161132812 7.16781520843506 4.46479654312134 4.65326118469238 4.4256591796875 3.91182565689087 3.86156702041626 3.19234943389893 5.76302862167358 8.066819190979 2.57316756248474 2.95079064369202 2.95762848854065 3.36295008659363 3.66486740112305 5.58893394470215 10.0123157501221 10.2923364639282 2.48391175270081 2.09309768676758 1.9163453578949 2.24587488174438 3.30470848083496 3.03951692581177 3.12011432647705 3.30959248542786 10.8796033859253 3.27433919906616 3.90570163726807 5.50128889083862 5.60021877288818 5.42683267593384 6.13185501098633 5.57174921035767 6.17128801345825 6.12601852416992 6.30569458007812 6.14770174026489 6.38678550720215 7.14028310775757 7.07364416122437 7.57316303253174 8.30895233154297 8.1552152633667 8.14673709869385 8.12112045288086 8.91021156311035 8.35812568664551 9.33361053466797 9.59158134460449 10.2301168441772 10.1296939849854 10.0080556869507 10.1753883361816 10.7914371490479 12.2358856201172 11.9576921463013 11.5793724060059 10.7424392700195 12.8134469985962 11.491358757019 10.9054985046387 12.5896949768066 10.6186571121216 18.5828056335449 13.3811712265015 13.5866613388062 12.7013721466064 11.3184385299683 10.8959217071533 9.03906154632568 8.07172203063965 6.47400045394897 2.03252148628235 26.4070091247559 21.8641815185547 6.78658962249756 4.10752582550049 5.10893535614014 5.16182374954224 3.43012619018555 3.86381149291992 3.42223620414734 2.74313354492188 2.66858220100403 2.74472212791443 2.4740424156189 3.46512269973755
5.94361162185669 6.79678630828857 7.52352476119995 7.83889865875244 7.0887393951416 6.57712411880493 6.48596906661987 3.63265776634216 3.35371494293213 3.59315466880798 3.6274425983429 3.5353844165802 3.36424660682678 3.37748146057129 3.33477020263672 3.95035409927368 12.4988164901733 18.0446872711182 25.2096633911133 42.7420959472656 10.491720199585 1.60321640968323 0.371636658906937 31.8870315551758 41.3980178833008 42.4520492553711 38.704288482666 0.693809449672699 17.1432666778564 9.63888359069824 7.41287326812744 1.13999700546265 1.34262037277222 4.22851467132568 11.8927278518677 2.08848023414612 2.21812152862549 4.19272565841675 4.51129293441772 4.72861003875732 5.94513940811157 5.66590690612793 5.87001323699951 5.57025575637817 5.63437080383301 6.38221025466919 7.1454496383667 8.23006820678711 8.29997825622559 9.2134370803833 8.3303050994873 8.99810218811035 9.65999698638916 9.57767200469971 7.92161226272583 13.38498878479 22.6760444641113 42.9534873962402 37.1694374084473 0.288715422153473 -1.20229744911194 -0.230842366814613 -0.103882037103176 -0.026757949963212 0.970942318439484 2.31049752235413 2.98444080352783 5.32951593399048 4.04036092758179 12.9365921020508 4.73922348022461 5.10303258895874 11.4607486724854 6.83186435699463 20.8282699584961 10.8565320968628 9.10655403137207 5.75847959518433 6.20825386047363 6.1641263961792 6.29753875732422 6.55758619308472 5.86867475509644 5.76766872406006 7.16717720031738 5.50107192993164 5.26946353912354 6.77048873901367 5.70544815063477 13.1153125762939 5.35797643661499 5.11113500595093 4.8399486541748 4.53801393508911 4.09954404830933 3.78372478485107 2.63671898841858 2.7082986831665 2.97327446937561 4.32184600830078 3.68676471710205 3.73526930809021 3.78972578048706 6.06459283828735 4.59159708023071 2.67640376091003 2.75736427307129 2.73732042312622 2.79185962677002 3.30524277687073 3.92020606994629 3.55034470558167 3.68248534202576 3.68352103233337 3.71270108222961 11.725772857666 19.1918506622314 5.88409662246704 5.79638814926147 5.93821954727173 6.64419317245483 6.04279327392578 6.57246017456055 6.46800136566162 6.60769319534302 6.44431161880493 6.72221183776855 7.49889326095581 7.45622682571411 7.97923469543457 8.83380603790283 8.66788005828857 8.69200897216797 9.23970317840576 8.04783630371094 8.92526531219482 10.0457534790039 10.4141674041748 11.0871801376343 10.9680433273315 10.882435798645 11.0770769119263 11.7415428161621 13.3011178970337 13.0068950653076 12.724552154541 11.9030065536499 14.0900259017944 12.7695178985596 12.2701215744019 13.9710731506348 12.0338325500488 11.5607299804688 13.406759262085 15.435510635376 12.3064565658569 13.0137844085693 12.0361557006836 12.2390604019165 12.6400604248047 5.28493118286133 7.18561172485352 14.7800464630127 38.8310508728027 8.99926280975342 5.88509321212769 4.74915361404419 6.22873115539551 4.22434616088867 3.77618813514709 3.01880836486816 2.56157636642456 3.13869690895081 3.36538147926331 3.04803228378296
5.22658109664917 6.68881893157959 7.50073385238647 8.26369285583496 8.63616943359375 7.85457897186279 7.31749200820923 7.18172073364258 3.22995471954346 3.42010974884033 3.68285751342773 3.63644003868103 3.61725115776062 3.4464008808136 3.44368243217468 3.36419558525085 4.26493406295776 15.7193260192871 24.5685920715332 41.2585105895996 11.3569068908691 -0.825655102729797 0.202038288116455 2.31018781661987 1.81884217262268 1.05800068378448 12.4772729873657 11.7872314453125 5.22203063964844 4.89335441589355 1.4950612783432 1.29261922836304 2.62519645690918 2.16267085075378 12.9162435531616 14.4663553237915 4.93188524246216 4.77561807632446 4.38052034378052 4.88780307769775 5.0061092376709 6.30598163604736 6.03778171539307 6.26355361938477 5.8726863861084 6.27774286270142 7.10976362228394 8.12993144989014 9.46189117431641 9.44808101654053 10.6253957748413 9.29438209533691 10.184606552124 11.021071434021 10.7903928756714 9.03409099578857 22.6110782623291 36.8030166625977 7.95886087417603 -0.971321225166321 -0.607071161270142 -0.0945995897054672 0.645738840103149 2.70931005477905 2.194580078125 2.38492798805237 3.18742871284485 3.54863524436951 13.2897033691406 5.18880653381348 4.78473615646362 5.10878372192383 7.74665212631226 21.7991275787354 9.97378730773926 4.91030311584473 7.13980484008789 5.50177001953125 5.94486045837402 6.36168479919434 6.3768482208252 6.53417491912842 6.46080303192139 6.03617286682129 5.83971929550171 5.84811973571777 5.95428657531738 5.42224311828613 5.88420724868774 5.11485385894775 4.59792327880859 5.5687084197998 5.43428802490234 5.07062005996704 5.14301204681396 4.73748064041138 3.86150884628296 3.23526859283447 3.62345767021179 3.86130118370056 5.25250291824341 16.5088043212891 10.9009876251221 4.07670640945435 3.77523827552795 3.62092065811157 3.38225269317627 6.64948415756226 11.4715261459351 3.60500621795654 12.0605688095093 8.34555721282959 3.73774266242981 3.98964524269104 3.79738140106201 4.49964904785156 3.82240056991577 4.06226491928101 6.30842351913452 6.30089616775513 6.43019247055054 7.13843774795532 6.45195007324219 6.93193864822388 6.82127332687378 6.9372124671936 6.76267004013062 7.07651996612549 7.90291690826416 7.87189102172852 8.42026996612549 9.42065715789795 9.24440765380859 9.04919147491455 9.93416404724121 9.247727394104 9.41066074371338 10.825665473938 11.3851099014282 12.1164150238037 12.0884847640991 11.8874444961548 12.7824869155884 12.8124876022339 14.5126819610596 14.2184972763062 14.0640468597412 13.3696575164795 15.6325197219849 15.5406103134155 17.484977722168 17.1430225372314 17.4957714080811 13.7550859451294 15.5166254043579 26.1329288482666 13.4323024749756 13.8260440826416 13.0462713241577 15.4039611816406 11.4166059494019 16.6224250793457 22.7231121063232 0.160307630896568 -1.17341959476471 13.2134428024292 7.30501747131348 7.24953365325928 6.52319669723511 4.63445043563843 4.21011686325073 3.4747109413147 2.97668671607971 3.67906546592712 3.96579098701477
5.18905448913574 5.78174304962158 7.67089033126831 8.28639984130859 9.16402435302734 9.55523490905762 8.75379276275635 8.23787784576416 8.02107429504395 3.27744913101196 3.72992563247681 3.802006483078 3.74970555305481 3.72573208808899 3.54282927513123 3.50751614570618 3.31785225868225 4.51885080337524 21.760498046875 40.9997482299805 15.4039821624756 -0.930027008056641 -0.0606338866055012 1.16083431243896 2.35572290420532 17.2278289794922 1.71930313110352 0.603183686733246 0.812596559524536 13.7447357177734 13.8204555511475 1.63573944568634 6.18424844741821 17.6438903808594 5.64396715164185 15.8565406799316 18.7378082275391 5.37373971939087 5.10485124588013 4.56620931625366 5.23435068130493 6.20743656158447 6.72929239273071 6.43582439422607 6.15868043899536 6.39691972732544 7.08428907394409 8.12016582489014 9.38226795196533 10.9468908309937 10.8647079467773 12.4477043151855 10.6716327667236 11.5025091171265 12.6787643432617 12.3163967132568 9.10691547393799 14.1605463027954 4.90751886367798 0.533312976360321 0.464392811059952 1.90239024162292 3.30444002151489 3.84296369552612 10.2748022079468 17.847297668457 3.21418237686157 3.89559650421143 8.8283863067627 4.42689847946167 5.40282201766968 5.46910238265991 6.99941730499268 14.1559743881226 4.76795291900635 5.2427921295166 5.28066635131836 5.32521390914917 5.9821891784668 6.42249536514282 6.57906150817871 6.54689502716064 6.74218320846558 6.80653381347656 6.20964860916138 6.11904573440552 7.24598550796509 5.95960235595703 6.27590894699097 6.52230072021484 6.0779275894165 5.76247549057007 6.18867015838623 5.56847286224365 5.69627380371094 5.83137989044189 5.29382753372192 4.82844543457031 4.02046060562134 18.8554382324219 15.6397647857666 24.1030292510986 4.42941761016846 4.2211275100708 4.2969388961792 6.55289030075073 11.8096284866333 3.55309295654297 4.32083892822266 3.31298136711121 3.3607451915741 3.44353747367859 4.00179290771484 3.86339163780212 7.17573165893555 4.68023872375488 4.85713243484497 4.85363101959229 4.58849573135376 6.80955648422241 6.78342866897583 6.91637849807739 7.59241533279419 6.8231463432312 7.31006240844727 7.21971654891968 7.29405212402344 7.10454225540161 7.47605800628662 8.33822441101074 8.33535194396973 9.76723575592041 9.59281635284424 9.67428112030029 9.75051593780518 10.6969051361084 9.92430782318115 10.2842597961426 11.7260990142822 12.526593208313 13.3324594497681 13.4501609802246 14.6010751724243 16.7335720062256 14.0524978637695 15.8969297409058 16.2238464355469 15.5304136276245 14.9588069915771 17.2659950256348 22.1611709594727 31.3861351013184 23.1697597503662 12.7159309387207 16.5095710754395 16.5774745941162 10.9800310134888 16.3987369537354 17.2191715240479 20.1056289672852 19.2804756164551 16.940315246582 13.4728174209595 0.738324642181396 1.47327995300293 3.68170166015625 24.9324722290039 9.69681549072266 9.10389423370361 7.29830408096313 5.10515546798706 4.70568990707397 3.92634344100952 3.43458724021912 4.26620054244995
6.97294855117798 5.76133108139038 6.4797534942627 8.95102024078369 9.14199161529541 10.2865543365479 10.6775093078613 9.85793399810791 9.40763759613037 9.12706089019775 3.3639931678772 3.89022707939148 3.93663668632507 3.88498067855835 3.84875464439392 3.62608027458191 3.55558967590332 5.0966362953186 4.59987831115723 36.8231239318848 7.13370132446289 -0.643563270568848 -0.463960409164429 0.530109643936157 14.8806924819946 2.35556387901306 30.4749641418457 2.3427562713623 7.15290260314941 11.071629524231 0.768450975418091 1.08105969429016 2.89439272880554 1.82373023033142 1.38657879829407 14.9606552124023 20.5839939117432 26.7791442871094 5.77976131439209 4.59893178939819 4.86048698425293 5.96712875366211 6.88634538650513 6.62240076065063 6.90625143051147 6.69822216033936 7.08984518051147 8.22748279571533 9.30844116210938 10.7177762985229 12.6742830276489 13.3876619338989 11.463809967041 11.8842248916626 13.639533996582 13.1945695877075 11.3646335601807 9.04300403594971 2.54177689552307 8.43435192108154 1.23796832561493 1.18820881843567 3.76218485832214 3.97318148612976 6.26717615127563 26.1169300079346 3.83206701278687 5.52259683609009 12.2010364532471 4.41484403610229 5.25292015075684 5.55530452728271 5.58711957931519 11.6851282119751 5.16994428634644 4.92876958847046 5.56547594070435 5.85376358032227 6.15456008911133 6.61816930770874 6.60209846496582 6.83186674118042 6.83519697189331 6.9741792678833 6.86588430404663 6.65004682540894 6.39715623855591 7.19547605514526 7.35522174835205 6.73795413970947 6.62139892578125 6.74716663360596 6.0061731338501 7.08487558364868 6.79801464080811 6.24473094940186 6.07436370849609 7.66540479660034 18.6912364959717 13.5701732635498 6.79696035385132 4.69288730621338 4.84431409835815 8.40316963195801 4.39835453033447 4.54233169555664 4.41002988815308 3.67757487297058 3.69551873207092 3.57645916938782 6.06995868682861 3.42184257507324 3.4648756980896 4.07113170623779 4.49728059768677 4.31124782562256 5.1450572013855 4.7107105255127 5.37677669525146 5.10744333267212 7.29774284362793 7.28302097320557 7.36586904525757 8.02279758453369 7.21910905838013 7.73041963577271 7.65414190292358 7.6804723739624 7.47862577438354 7.90766096115112 8.82984447479248 8.85446548461914 10.4574108123779 10.2664470672607 10.410813331604 10.5609340667725 11.5745458602905 10.6623258590698 11.2754421234131 12.7645635604858 13.877685546875 14.7578992843628 15.0344552993774 21.0563869476318 27.0862197875977 17.1613674163818 22.1657085418701 23.338550567627 17.4240036010742 17.0647926330566 19.4018058776855 39.4334411621094 14.1039667129517 15.129243850708 12.6933717727661 14.7645683288574 19.6973190307617 18.459659576416 18.8945503234863 27.5509967803955 41.7654838562012 32.0728378295898 24.4039859771729 12.4271450042725 8.56893634796143 14.2806730270386 3.70026683807373 4.8515510559082 14.1762084960938 11.9841651916504 6.65129947662354 5.60420989990234 5.2136025428772 4.43052911758423 3.9226815700531
6.07686281204224 7.95858907699585 6.53501653671265 7.36855983734131 10.5263147354126 10.2840442657471 11.6559133529663 12.0606145858765 11.3224802017212 10.1020784378052 4.06335830688477 3.71127843856812 4.04365301132202 4.06783294677734 3.98110151290894 3.94043302536011 3.72104167938232 3.62417507171631 5.75418329238892 4.99968099594116 1.58521831035614 -0.670359373092651 -0.460840582847595 0.75920581817627 7.94749736785889 26.495813369751 2.44437408447266 1.84236347675323 5.57703495025635 9.50758457183838 1.05658185482025 1.32270157337189 2.09203386306763 5.44210815429688 4.9716100692749 7.05382013320923 18.9845638275146 28.6551361083984 44.5256385803223 6.51243782043457 5.03838872909546 5.40242290496826 6.63171529769897 7.36485862731934 7.18649578094482 7.51395797729492 7.3498067855835 8.10464572906494 9.49631881713867 10.7218265533447 13.5444803237915 13.3810148239136 16.0952072143555 13.654501914978 14.0012044906616 15.9082345962524 15.2106094360352 12.589225769043 7.93068695068359 4.2110071182251 1.99062550067902 2.74057459831238 3.84608888626099 5.26359033584595 6.22382879257202 20.1020317077637 3.00424647331238 5.77697277069092 15.316725730896 4.66794204711914 5.33859634399414 5.3672080039978 5.71648263931274 5.75398063659668 5.14200067520142 5.31637859344482 5.55693531036377 6.09483623504639 6.15218067169189 6.49472188949585 6.89506530761719 6.8693733215332 7.04331970214844 7.07940053939819 7.1686053276062 7.60846185684204 7.43218946456909 7.58171606063843 9.89645099639893 7.5323600769043 7.51056623458862 9.16961479187012 7.44498014450073 7.20677471160889 7.7199330329895 7.59042739868164 8.30414867401123 8.17981338500977 16.2670345306396 13.8815078735352 4.40968561172485 19.019359588623 19.5065021514893 10.2453870773315 16.2521686553955 4.61308145523071 4.55107498168945 4.3547420501709 3.98274230957031 3.74836277961731 3.80785799026489 6.96996593475342 4.24881839752197 5.12113046646118 4.8547682762146 4.88172960281372 5.46243095397949 4.89259958267212 4.73918151855469 5.66667938232422 7.76329135894775 7.81148338317871 7.72166109085083 7.80499029159546 8.47567176818848 7.65452575683594 8.19451713562012 8.12899494171143 8.1067476272583 7.89576864242554 8.39056873321533 9.33996486663818 9.662522315979 11.2471694946289 11.0397033691406 11.256365776062 11.4874868392944 12.5817222595215 11.5112428665161 12.4644584655762 13.9131784439087 15.4403429031372 16.671070098877 17.6788101196289 36.8847885131836 20.667387008667 30.5303173065186 38.3518333435059 40.1963958740234 19.7862110137939 19.8631324768066 22.0939636230469 13.7593154907227 12.0680322647095 17.4321689605713 18.0037479400635 20.7394027709961 29.2087821960449 26.4644107818604 27.7224235534668 23.0876770019531 22.3100490570068 19.7050304412842 16.9017505645752 0.492662459611893 2.95429039001465 7.36258888244629 8.08955097198486 1.26747906208038 26.3581275939941 17.4245910644531 5.31055402755737 6.12752342224121 5.77435779571533 4.94531679153442
7.39152097702026 6.82236814498901 9.19866943359375 7.73227119445801 11.4658432006836 9.65767955780029 11.5858020782471 13.4489870071411 13.9165668487549 12.6499423980713 12.4544239044189 4.25377893447876 3.83793663978577 4.10273027420044 4.14514541625977 4.10427141189575 4.06279516220093 3.81085324287415 3.68300437927246 6.67914056777954 5.90634870529175 3.07302117347717 0.682407021522522 1.09494686126709 0.897290229797363 15.7013816833496 1.36064863204956 3.33253383636475 9.22937965393066 5.60864162445068 7.46839666366577 2.29178595542908 1.3440443277359 2.06870174407959 2.05437207221985 19.1201686859131 10.2346172332764 24.1355247497559 45.0163955688477 1.11376345157623 7.18748140335083 5.50928783416748 5.69219493865967 7.55952596664429 7.99136638641357 7.85884475708008 8.19331455230713 8.04700565338135 9.37617492675781 12.9538059234619 13.0260496139526 16.2060012817383 16.0343189239502 20.1227989196777 16.4222030639648 15.964129447937 19.2228050231934 17.7336387634277 15.7484683990479 9.97131633758545 4.75717735290527 1.44430446624756 5.49767827987671 6.36248826980591 6.88800573348999 9.8945779800415 4.7537693977356 6.48795938491821 13.9209003448486 4.52592420578003 6.36970615386963 5.43698596954346 5.53354930877686 5.89889335632324 5.84667491912842 5.15167045593262 5.57413768768311 6.02498531341553 6.32062101364136 6.42644214630127 6.76858901977539 7.17444849014282 7.137526512146 7.29704618453979 7.36368942260742 7.82100963592529 7.71659088134766 7.74802923202515 8.24121856689453 7.14336204528809 7.68389797210693 7.85475540161133 7.96373224258423 8.08562183380127 8.32046031951904 8.89315319061279 8.73760223388672 8.7829532623291 8.50409984588623 7.20545530319214 5.69926738739014 4.49881553649902 4.42919301986694 4.98652839660645 4.53678274154663 4.26972150802612 4.73655939102173 4.76882886886597 4.3841495513916 4.6142258644104 4.36301040649414 4.23688650131226 4.32501316070557 4.50117254257202 5.39911317825317 5.14306592941284 5.40425825119019 5.78696250915527 5.87850618362427 5.57165050506592 5.83498287200928 8.26849937438965 8.28802967071533 8.16979503631592 8.2783145904541 8.98591423034668 8.12577247619629 8.69364643096924 8.65639877319336 8.56135272979736 8.31793975830078 9.07945251464844 9.91460514068604 10.3893880844116 12.1545734405518 11.9234008789062 12.2368860244751 12.5915279388428 13.7508172988892 12.4192876815796 13.7599477767944 16.506462097168 17.3096027374268 19.0984764099121 30.9787979125977 12.3191223144531 11.6347351074219 15.0356884002686 16.106912612915 15.2410230636597 22.8010482788086 27.4118328094482 23.3670883178711 21.9275131225586 22.0034637451172 23.9674377441406 17.6088199615479 21.3051013946533 19.5981101989746 23.7772960662842 20.1220722198486 21.3612155914307 20.4943962097168 7.30834007263184 -1.79584014415741 3.78489542007446 4.52633142471313 23.1950531005859 0.321462571620941 2.69683861732483 1.37705063819885 31.5100517272949 5.78859710693359 6.72769689559937 6.33141899108887
7.77701377868652 8.77021789550781 7.79255342483521 10.9676733016968 8.65321350097656 14.1600017547607 12.0266313552856 14.8139419555664 15.3906202316284 15.341965675354 16.5121746063232 16.1763591766357 4.36085367202759 3.88372087478638 4.21389770507812 4.28976249694824 4.24195146560669 4.18716382980347 3.90424561500549 3.73636031150818 8.87555599212646 6.31953716278076 2.49334001541138 0.724289178848267 1.20890152454376 0.969810366630554 1.16264116764069 3.29812455177307 3.53136944770813 18.7879257202148 2.83588862419128 1.59497678279877 1.45173943042755 3.2447030544281 3.37868189811707 23.7754383087158 25.2047519683838 4.62347412109375 38.4367904663086 0.635074257850647 2.02306532859802 8.04178714752197 6.14595603942871 6.13864803314209 8.97000694274902 8.64485454559326 8.41447353363037 8.78847503662109 9.67411327362061 11.3072748184204 22.5840854644775 15.6665830612183 20.2797908782959 19.238073348999 26.4566078186035 22.20676612854 20.0724277496338 25.3278503417969 24.3085784912109 28.4546375274658 18.9190273284912 5.14222955703735 8.18270969390869 7.97056150436401 10.0422792434692 11.8450145721436 10.9282884597778 10.0061626434326 9.49960231781006 4.54645824432373 4.73958253860474 7.31713771820068 5.93041276931763 6.91051912307739 6.09996891021729 6.13732528686523 5.88092136383057 6.21252155303955 6.26988410949707 6.58957147598267 6.67874622344971 7.04191207885742 7.46189594268799 7.41928625106812 7.57441854476929 7.66307020187378 8.1113395690918 8.00688076019287 7.9683723449707 8.50936031341553 7.78898048400879 7.44509983062744 15.2595415115356 19.207426071167 11.1728839874268 9.03129005432129 9.48605155944824 9.41096305847168 9.49636936187744 8.84572982788086 8.19719409942627 6.96848011016846 4.70805549621582 4.77771949768066 5.04271936416626 5.01472330093384 5.17908143997192 5.41576051712036 5.41993188858032 5.38911724090576 5.48513555526733 5.5632586479187 4.73929738998413 5.4032506942749 5.13153123855591 6.31525421142578 6.13218784332275 5.76077079772949 6.49165630340576 6.26618146896362 6.80383968353271 7.33975028991699 8.75008678436279 8.79333400726318 8.66124629974365 8.78349304199219 9.5246410369873 8.65257740020752 9.25042343139648 8.50568199157715 9.04119300842285 9.19143104553223 10.2400588989258 10.3645715713501 11.0815277099609 13.1994123458862 12.9350004196167 13.3320121765137 13.7706604003906 14.9845724105835 13.5136051177979 15.2668504714966 19.5205268859863 20.3812580108643 22.1136894226074 15.1485776901245 13.2626953125 14.2654695510864 23.9830627441406 19.1581592559814 20.556734085083 22.2519779205322 22.914722442627 27.8535041809082 26.8254127502441 20.7481498718262 19.088586807251 20.4319076538086 21.9539089202881 19.1022262573242 26.3642444610596 20.8923473358154 15.3136205673218 -0.883963763713837 -0.99875807762146 0.612836062908173 0.536063730716705 10.2540111541748 -0.82439124584198 2.35351014137268 7.47258853912354 1.92371296882629 2.19978976249695 6.32808256149292 7.39973926544189
10.2093124389648 9.84502983093262 10.1843481063843 12.1269664764404 11.199070930481 10.8226747512817 17.9609394073486 14.7909317016602 18.1698226928711 18.9111576080322 19.7542495727539 23.1008129119873 22.5793876647949 4.50576877593994 3.9811053276062 4.36308193206787 4.44029092788696 4.39703989028931 4.33383417129517 4.00489044189453 3.8132848739624 14.0690231323242 10.0864343643188 1.53446686267853 0.798561155796051 1.34757709503174 1.12974584102631 1.93197906017303 3.58354425430298 3.74976515769958 1.94348406791687 20.1418228149414 3.21032428741455 2.92278099060059 3.56693363189697 6.53633785247803 38.693603515625 38.9744071960449 4.88678121566772 0.699320733547211 6.61696910858154 7.35350608825684 9.30384922027588 7.18650531768799 9.54205322265625 7.40722894668579 8.89722728729248 8.89943599700928 9.40573406219482 11.4631595611572 13.5748052597046 10.1744041442871 18.8619365692139 26.3840560913086 25.9643898010254 43.1042900085449 36.8303146362305 33.8204078674316 43.0732421875 42.0180206298828 3.49119114875793 3.4010865688324 9.80823516845703 15.4193134307861 23.0483703613281 17.7594871520996 12.4595365524292 12.1867322921753 13.1288719177246 10.8560924530029 9.80807685852051 8.00570106506348 7.25010299682617 8.66771697998047 10.4128150939941 8.94950294494629 6.34872150421143 6.17043399810791 6.46063375473022 6.52726459503174 6.86799049377441 7.19353914260864 7.6335916519165 7.57845020294189 7.57523250579834 7.86665725708008 8.00819969177246 8.64630889892578 8.40561103820801 8.30691814422607 8.87895107269287 8.74899291992188 8.00379371643066 8.04499912261963 8.40195751190186 8.64119625091553 9.46073627471924 10.182544708252 9.51885604858398 10.0445289611816 9.55099773406982 8.49812412261963 7.33405065536499 5.6919412612915 5.17740440368652 6.36695957183838 6.03043270111084 6.56655406951904 6.60069513320923 6.28068971633911 6.34655857086182 6.12612152099609 6.02965593338013 6.15887880325317 6.03310441970825 6.39200305938721 9.87969875335693 10.7109642028809 19.4470634460449 21.8791923522949 14.6006832122803 12.7689714431763 11.4750032424927 9.26445484161377 9.32804298400879 9.1761417388916 9.35823345184326 10.1211643218994 9.55858135223389 9.56793785095215 9.22221755981445 9.55599212646484 9.75737857818604 10.8664588928223 11.0372638702393 11.8755626678467 14.3180475234985 13.9689064025879 14.4797296524048 15.0575637817383 16.3760089874268 14.9380073547363 18.1344089508057 24.1021690368652 24.042781829834 30.0416202545166 32.4683380126953 27.8657684326172 24.7662220001221 17.976713180542 18.6818695068359 22.6049518585205 25.1497440338135 26.1835823059082 23.1909122467041 21.9681224822998 22.5184383392334 25.9231109619141 23.1493301391602 24.6932754516602 15.2996301651001 20.4964141845703 23.5734615325928 18.0856266021729 -0.605736613273621 -0.132185637950897 1.55364787578583 4.32019662857056 3.13850927352905 14.2429542541504 -0.172952875494957 2.58599281311035 2.8990650177002 3.73441529273987 7.00700712203979
5.60874938964844 11.1294708251953 12.5017251968384 11.3128995895386 15.3325252532959 13.9469327926636 13.3437061309814 25.4313831329346 19.1388511657715 23.3184757232666 24.0358905792236 27.8307838439941 39.9895095825195 39.1488800048828 4.6766242980957 4.11837005615234 4.53077030181885 4.62684154510498 4.58427238464355 4.49292373657227 4.12193012237549 3.90708327293396 2.81362462043762 2.87222743034363 1.70055902004242 1.18431174755096 1.99187433719635 1.2324001789093 2.05068850517273 3.92550826072693 3.99068975448608 2.13785672187805 3.25432300567627 4.70911550521851 5.29612445831299 5.82254457473755 11.5786476135254 2.75781345367432 1.58750820159912 5.52512788772583 7.33159112930298 7.81048727035522 9.89752674102783 10.1465578079224 6.66537618637085 11.1772975921631 7.71953678131104 9.794264793396 10.4371299743652 9.5871467590332 14.5030927658081 16.5306854248047 22.0723209381104 25.8405513763428 43.8798904418945 43.1300354003906 2.45825505256653 9.68025684356689 19.4533233642578 2.18703246116638 2.00295448303223 3.29700803756714 17.9734420776367 17.7661476135254 34.5716133117676 7.20456552505493 18.208890914917 13.2377672195435 16.0553512573242 34.6344223022461 20.1647109985352 4.54884767532349 11.8268365859985 11.8271646499634 16.7260322570801 20.3335494995117 15.5530862808228 6.34983777999878 6.39991760253906 6.7392840385437 7.01332855224609 7.10568952560425 7.50064373016357 7.95827722549438 7.9019341468811 7.90068483352661 8.19101810455322 8.53894424438477 9.12081813812256 8.82182502746582 8.70060539245605 9.26766490936279 9.21532726287842 9.66208076477051 9.98364162445068 10.2722988128662 9.03738403320312 9.23206615447998 12.0926246643066 13.757513999939 13.5053834915161 10.6032619476318 8.79234886169434 10.9234619140625 13.863881111145 14.4139499664307 13.349534034729 7.24069166183472 6.80308723449707 6.90582036972046 6.8172402381897 6.72680521011353 6.34050178527832 6.45537662506104 6.38708209991455 6.38032579421997 9.43091297149658 18.1354351043701 16.3834667205811 7.57230567932129 6.61394882202148 6.66391658782959 7.09881162643433 7.7662296295166 9.83445262908936 9.92782592773438 9.73223972320557 10.4471588134766 9.53628635406494 10.1812229156494 10.203049659729 9.81258583068848 9.48064136505127 10.3245372772217 11.4800891876221 11.7184963226318 12.8638381958008 15.5138454437256 15.080099105835 15.7473773956299 16.5877113342285 18.0630970001221 23.7879428863525 21.1452674865723 32.1069564819336 27.9264335632324 38.1828536987305 15.7526874542236 14.2027168273926 17.0259494781494 22.8858489990234 23.2869930267334 29.677698135376 27.7664909362793 26.7301597595215 23.6876258850098 23.9028377532959 23.2632713317871 10.8590784072876 22.9451751708984 24.2076930999756 5.39965915679932 -0.89025342464447 -0.825665235519409 -2.37967777252197 -0.252997249364853 0.764614880084991 2.45382714271545 11.648175239563 13.6774816513062 1.89469492435455 2.39118528366089 1.96699798107147 1.81356072425842 1.05628395080566
12.0310945510864 14.7128782272339 13.5605039596558 17.1506023406982 14.4818468093872 19.5853443145752 19.9927997589111 19.1993103027344 43.0929336547852 26.640157699585 32.4840774536133 33.4755935668945 46.0413360595703 2.41538333892822 2.00474739074707 4.89467477798462 4.28014373779297 4.72592878341675 4.82381963729858 4.78037452697754 4.67174482345581 4.28747034072876 4.0938286781311 3.96952128410339 3.70343446731567 1.8184506893158 2.59144473075867 2.33123159408569 1.30979013442993 4.1003851890564 3.73347306251526 4.05317306518555 4.96846294403076 4.69838428497314 5.07035303115845 5.71087169647217 7.00176763534546 13.1578407287598 4.80731153488159 9.47265338897705 6.74441623687744 9.35615062713623 9.11171340942383 12.3463907241821 9.44294834136963 7.24002265930176 13.7931308746338 8.77306842803955 10.8848114013672 13.5340518951416 12.3950805664062 19.461935043335 22.6787300109863 37.7567138671875 42.8285865783691 2.75131821632385 2.91454744338989 9.18053150177002 10.716272354126 1.77708327770233 2.55743384361267 2.13251781463623 38.1763725280762 38.0207099914551 37.5385665893555 5.01966905593872 15.5757141113281 10.731183052063 4.85043525695801 3.91428208351135 6.09914016723633 21.9047870635986 10.5648050308228 11.896372795105 8.36270999908447 5.5824089050293 5.57929420471191 6.10306072235107 6.84619045257568 6.89314270019531 6.94394111633301 7.32030344009399 7.39584350585938 8.00840091705322 8.40072345733643 8.2486047744751 8.34873199462891 8.69729042053223 9.42722034454346 9.54273509979248 9.22303104400635 9.10601806640625 9.74977588653564 9.54845142364502 10.1827688217163 10.5054807662964 10.9629173278809 10.4256000518799 10.2066097259521 10.180438041687 11.1203050613403 11.2070112228394 11.1782274246216 19.4438591003418 20.5749549865723 25.8622131347656 29.5565662384033 28.9924583435059 11.8281545639038 7.14974594116211 7.43865966796875 7.12078046798706 6.9313530921936 9.48196697235107 6.8251953125 6.64801216125488 6.61875581741333 6.46753120422363 7.02296161651611 6.7207236289978 6.7197265625 6.64903926849365 7.11577796936035 7.63240766525269 8.15331077575684 10.3304452896118 10.2291345596313 10.2544775009155 11.0986108779907 10.1290149688721 10.7793865203857 10.8032512664795 10.3012361526489 9.95380115509033 10.9235897064209 12.1622266769409 13.3150043487549 13.9438447952271 16.8659381866455 16.3431015014648 20.4863681793213 18.5784530639648 25.0680179595947 16.6414470672607 22.2682991027832 43.8708305358887 24.4486713409424 18.9749984741211 22.6080360412598 20.9792957305908 20.4000110626221 23.3313369750977 26.5169296264648 25.155424118042 24.5515060424805 27.040470123291 23.067741394043 3.95286226272583 22.3783226013184 9.29624843597412 0.142393246293068 -2.13357090950012 9.48015785217285 9.5813102722168 2.15499830245972 -0.293150722980499 7.47395038604736 10.2636260986328 19.6496448516846 2.63757467269897 5.67995166778564 -0.412364363670349 2.99987268447876 4.14705324172974 2.69823169708252
14.1843605041504 15.0354423522949 19.3968677520752 17.1291065216064 23.5457248687744 20.7672557830811 27.5883388519287 35.2211875915527 34.2586326599121 3.24566888809204 44.8298988342285 51.3048973083496 52.4272232055664 3.40929555892944 10.051381111145 5.0448145866394 5.1460428237915 4.44213628768921 4.9295859336853 5.04944276809692 4.92651033401489 4.58905792236328 4.40105581283569 4.43519115447998 4.1920018196106 3.96485614776611 2.61227178573608 2.78804993629456 2.58639168739319 2.31622862815857 4.45045042037964 4.06010341644287 4.44446325302124 5.33498048782349 5.28785610198975 5.37324285507202 7.4086389541626 9.64959812164307 18.3061122894287 18.6693744659424 9.24792194366455 10.940375328064 11.2933177947998 11.4974765777588 16.0537738800049 11.9164667129517 8.2247371673584 20.1219520568848 11.0293951034546 13.2340240478516 19.3088779449463 19.9401321411133 34.757869720459 39.1296691894531 9.61705780029297 3.1658308506012 2.81267476081848 2.50806784629822 2.45128655433655 2.01123666763306 11.8998374938965 2.07935857772827 2.37957406044006 3.90192270278931 3.69030165672302 5.41626739501953 11.008584022522 4.23523092269897 3.7708785533905 5.86492395401001 13.5298194885254 3.92913770675659 4.23020172119141 5.89798021316528 8.21055221557617 10.7271976470947 5.69367980957031 5.98023128509521 7.08974504470825 7.15145254135132 7.18914031982422 7.23856735229492 7.72763729095459 7.92046880722046 8.38132381439209 8.87102222442627 8.72824192047119 8.77586078643799 9.17277336120605 10.1390047073364 10.0467967987061 9.68992137908936 9.5922966003418 10.3779020309448 10.3006076812744 10.9924716949463 11.3276414871216 11.8070068359375 11.018367767334 11.4658031463623 11.6891431808472 13.1643037796021 13.1725873947144 12.4422836303711 32.1576347351074 32.8942680358887 5.4412899017334 5.33853816986084 6.48415184020996 6.8121395111084 7.82054138183594 9.32977867126465 8.27027130126953 7.38168954849243 14.6647176742554 7.16451406478882 8.68144035339355 6.79553699493408 7.83494091033936 7.82097673416138 9.02670860290527 8.85072326660156 8.36493873596191 7.48602390289307 13.8335103988647 12.2935409545898 10.8132829666138 10.5824794769287 10.8234014511108 11.6824197769165 10.6792545318604 11.3714284896851 11.4739179611206 10.8470001220703 10.4561443328857 11.5978631973267 12.9368019104004 15.4984292984009 15.2854375839233 18.5479717254639 18.3432769775391 33.5673332214355 25.3031196594238 15.539740562439 20.7797164916992 29.3239288330078 15.599084854126 31.9196586608887 21.2468452453613 15.689172744751 15.3026351928711 17.0112400054932 24.0521335601807 21.7175979614258 23.378604888916 10.8374376296997 30.3619155883789 2.8510115146637 4.39517831802368 -2.3698832988739 1.57324409484863 1.02732956409454 -0.401237517595291 -0.339471817016602 -0.731917023658752 4.29894638061523 3.82474946975708 4.68065738677979 1.37732112407684 0.962349832057953 9.83153438568115 -1.17965531349182 2.22822284698486 7.65487194061279 4.56404113769531
16.5722846984863 18.4784603118896 19.048547744751 26.5166912078857 24.1908168792725 40.8433570861816 36.6224136352539 46.0262756347656 6.03661060333252 12.1411504745483 5.05685520172119 14.9942932128906 3.31797289848328 0.914600849151611 1.68183588981628 2.02978897094727 5.34147453308105 4.37552404403687 4.62187576293945 5.24904012680054 5.27917528152466 5.22814512252808 4.88305950164795 4.73363876342773 4.66623687744141 4.29317951202393 4.19510793685913 3.28534817695618 2.89726662635803 2.94590902328491 2.70083856582642 4.83070421218872 4.41474056243896 4.70362234115601 5.76320505142212 5.67570972442627 5.81378078460693 9.08590793609619 11.7974443435669 25.9096775054932 26.7768421173096 11.0950717926025 13.8088188171387 14.9297103881836 14.8118286132812 23.0078239440918 17.374755859375 12.0162506103516 36.3929977416992 16.7427787780762 19.4727306365967 34.0411338806152 14.8311414718628 7.54857158660889 4.76514053344727 3.23480463027954 7.12387418746948 8.50073909759521 9.86737251281738 2.62494230270386 1.67898309230804 2.09923195838928 2.4742603302002 6.0379204750061 5.70358896255493 3.66483116149902 8.44293689727783 6.02848815917969 3.92849922180176 4.51529788970947 6.48149251937866 4.00535297393799 4.17069005966187 9.10377025604248 4.61376905441284 17.4517879486084 5.25122499465942 5.90469360351562 7.28077745437622 7.30647039413452 7.21043348312378 7.67966938018799 7.73089456558228 8.20824527740479 8.34588146209717 8.83681678771973 9.3447904586792 9.15021133422852 9.25224590301514 9.70830917358398 10.9493837356567 10.5859441757202 10.2266530990601 10.1740694046021 10.9402341842651 11.2545747756958 12.0589962005615 12.1104602813721 12.6382761001587 13.0502300262451 13.3690967559814 13.4621658325195 21.3150482177734 13.3214254379272 20.6883220672607 9.36741733551025 7.6688494682312 5.59117555618286 5.49462699890137 6.75530862808228 7.42485809326172 8.74912357330322 11.7246294021606 9.70425605773926 7.74339008331299 6.42907238006592 7.32380151748657 9.07964324951172 9.00078392028809 12.0034513473511 10.5469360351562 26.6555557250977 11.4726285934448 7.29215812683105 11.1930990219116 7.74843740463257 11.2454557418823 11.378719329834 11.0746402740479 11.3422937393188 12.2924451828003 11.2579908370972 12.0388240814209 12.2650108337402 11.531623840332 11.1647710800171 12.3749446868896 13.8264236450195 18.9211654663086 17.6640625 20.84157371521 21.433931350708 15.8486557006836 20.6302795410156 24.6242904663086 33.5404014587402 29.7481117248535 19.5386180877686 14.6441650390625 10.5706548690796 18.4613418579102 16.4470462799072 21.7168884277344 32.1050682067871 28.2644672393799 10.1781568527222 11.1945695877075 -2.82781195640564 -1.49822223186493 11.2137641906738 -0.435852080583572 2.31259441375732 2.19556283950806 1.35991728305817 7.51945924758911 31.8457355499268 5.21843433380127 4.26957273483276 6.33213472366333 6.5079517364502 3.65460824966431 1.57784640789032 -0.898808479309082 5.16095542907715 11.6233320236206
16.2559261322021 21.7465171813965 25.6627235412598 26.6263885498047 44.5965538024902 41.803581237793 7.13412189483643 8.06593799591064 2.49480247497559 8.98850154876709 6.32381916046143 5.26821613311768 1.0992203950882 0.932194173336029 1.318284034729 3.03389978408813 5.53284311294556 5.65358304977417 4.60343503952026 5.3710618019104 5.56867790222168 5.63000869750977 5.58645915985107 5.26508617401123 5.14473152160645 5.03800916671753 4.00905084609985 4.44660806655884 3.40192079544067 3.06354475021362 3.06001687049866 2.79309225082397 5.25616979598999 4.83659267425537 5.20111179351807 6.25397539138794 6.09974050521851 6.3291220664978 11.8168821334839 15.982852935791 44.546802520752 46.1463508605957 13.3875131607056 17.9531803131104 21.5665035247803 21.8179588317871 40.395076751709 31.9421119689941 23.3014183044434 4.7488842010498 31.3053150177002 12.0367631912231 9.14224529266357 9.44402408599854 11.2925653457642 9.00066757202148 6.04223346710205 22.2365036010742 3.8593008518219 3.24872422218323 3.93496108055115 3.55127573013306 3.20963382720947 4.08422565460205 7.75478363037109 9.77181243896484 12.7625207901001 9.99090480804443 9.34436798095703 11.8608236312866 13.8136186599731 13.44553565979 10.6363162994385 8.0316686630249 4.41817235946655 4.62841606140137 5.0713005065918 5.76332187652588 7.0809121131897 7.54220581054688 7.61513328552246 7.44026660919189 7.95270919799805 8.14916133880615 8.62149620056152 8.80066204071045 9.28878307342529 9.69465255737305 9.73677635192871 9.8912410736084 10.246618270874 11.8652992248535 11.4673900604248 10.8823661804199 10.756628036499 11.6514291763306 12.1728038787842 13.3722457885742 13.3182458877563 13.7957372665405 14.8160676956177 16.958381652832 18.1276664733887 13.4913635253906 16.4963111877441 11.9885311126709 11.7358779907227 5.32376098632812 5.77504968643188 5.65631294250488 8.37046527862549 10.6199884414673 9.01842975616455 14.1666078567505 13.2097301483154 10.572039604187 14.4531669616699 15.0452814102173 14.2824850082397 9.86851596832275 31.0222358703613 23.8016719818115 7.41769790649414 14.882098197937 8.00482940673828 8.10815906524658 8.48158359527588 11.8157434463501 11.9354028701782 11.600396156311 11.9951009750366 13.0379953384399 11.9796752929688 12.8869771957397 13.2305479049683 12.3716163635254 12.0443620681763 14.0609769821167 15.1226692199707 25.2513828277588 28.4480438232422 31.9955043792725 25.55810546875 20.3664684295654 34.2891616821289 36.2912864685059 27.2252006530762 15.3598966598511 3.98309540748596 5.0607647895813 13.175350189209 7.83040428161621 3.51110577583313 6.54438591003418 -2.0860230922699 -1.91908252239227 4.34244060516357 19.6500587463379 -2.39978766441345 -0.598222672939301 -1.3540256023407 -0.107423335313797 2.51297450065613 5.22940349578857 3.50613355636597 20.0839691162109 0.728284001350403 5.58158302307129 7.2192063331604 28.6698150634766 24.9831695556641 10.7931594848633 13.3119096755981 7.96245765686035 10.4450511932373
17.2060241699219 20.7568454742432 36.9327850341797 43.4666900634766 44.8884239196777 4.66872310638428 6.15335559844971 2.55532717704773 11.1758995056152 4.6285548210144 10.4242029190063 3.95382499694824 9.50123977661133 1.12897181510925 1.53911733627319 1.85080409049988 6.49923706054688 5.8749623298645 5.99632883071899 4.86531400680542 5.69875717163086 5.94655418395996 6.05885028839111 6.04700946807861 5.72302484512329 5.60481071472168 5.50060987472534 4.27866315841675 4.74549913406372 3.53436970710754 3.18081974983215 3.16726231575012 2.88439297676086 5.74295091629028 5.32674026489258 5.77401447296143 6.79391670227051 6.58020877838135 7.77389717102051 16.9988040924072 30.1105422973633 2.20243358612061 1.81895005702972 19.6779747009277 26.1193618774414 38.8740501403809 38.9950294494629 5.10370540618896 4.83101987838745 9.11795234680176 11.4121713638306 11.727499961853 12.5147037506104 11.7854232788086 9.68063068389893 8.27729988098145 25.7874813079834 3.99924278259277 3.3844313621521 3.90959072113037 4.53176689147949 4.3782057762146 6.4162712097168 7.09929847717285 5.87361288070679 5.90855264663696 21.3078880310059 16.7507209777832 7.29107999801636 17.2449436187744 5.55195331573486 5.50103616714478 4.02678060531616 4.07564401626587 4.20086431503296 5.14792203903198 4.92637205123901 6.03175258636475 6.67175483703613 7.27604198455811 7.87146711349487 7.95621633529663 7.9552321434021 8.41702461242676 8.5933084487915 9.06650829315186 9.25186157226562 9.73053169250488 10.30348777771 10.2560806274414 10.3928451538086 10.8035688400269 12.9100952148438 12.5550985336304 11.892427444458 12.0091514587402 12.4198188781738 13.0889711380005 14.7086601257324 14.9169425964355 20.0507946014404 14.3030319213867 14.237699508667 23.6145515441895 14.3920116424561 13.7600526809692 12.6658544540405 10.6168632507324 7.79263782501221 5.98857688903809 6.22078609466553 19.5885715484619 13.5276231765747 9.17493915557861 21.8070697784424 15.8870134353638 7.17894744873047 7.11330413818359 6.9651083946228 19.2775173187256 14.0345449447632 6.86357688903809 12.7703018188477 9.20780754089355 10.6205320358276 19.4719924926758 8.23449897766113 9.10403919219971 12.3744926452637 12.6167726516724 12.3156480789185 12.8182926177979 13.978705406189 12.9541301727295 13.9163875579834 14.3779783248901 13.60618019104 13.2024269104004 18.7204933166504 17.6220817565918 40.3519477844238 20.511999130249 18.2521800994873 27.1393280029297 28.5112323760986 25.8737850189209 19.5154991149902 6.65807437896729 15.2572402954102 8.46554279327393 17.7909336090088 2.43547940254211 2.28439879417419 0.451038360595703 14.6896190643311 3.2732093334198 10.2812643051147 -2.92296981811523 -2.93518567085266 -2.15074992179871 7.76721239089966 -0.167610809206963 3.45713686943054 3.85287737846375 7.57834959030151 4.29066801071167 -1.32635831832886 5.75835704803467 13.5122356414795 13.2020034790039 1.7358660697937 -1.4479728937149 6.6853346824646 -1.53305876255035 3.86347079277039
14.9301862716675 29.607889175415 29.997730255127 20.5561084747314 7.06278276443481 8.06302165985107 2.45111203193665 5.12989282608032 8.54183483123779 4.10919427871704 8.17390537261963 3.537024974823 4.9435863494873 18.3579235076904 1.4895247220993 8.09477138519287 2.89350390434265 6.95249557495117 6.27372026443481 6.39467191696167 5.2870945930481 6.09212970733643 6.4135217666626 6.59454536437988 6.57009840011597 6.23849153518677 6.12825155258179 6.02900838851929 4.56011343002319 5.06540966033936 3.65897917747498 3.29393482208252 3.27881717681885 2.97970271110535 6.30077219009399 5.89207172393799 6.46212577819824 7.45055675506592 7.14022874832153 10.0096158981323 30.8724174499512 13.9974308013916 2.70259690284729 19.3818836212158 35.5298614501953 44.5811042785645 3.09164023399353 3.18183970451355 3.74503493309021 8.50007247924805 10.9771509170532 34.0233383178711 22.8734912872314 17.0517921447754 14.3598384857178 9.76425933837891 3.39253950119019 4.18268346786499 4.29863834381104 3.79752588272095 4.3755898475647 4.79545927047729 7.71990728378296 9.93744945526123 9.63374519348145 12.9035367965698 8.39436340332031 4.17895841598511 3.17895913124084 3.43345499038696 3.40879607200623 3.58436965942383 9.25883388519287 4.15661382675171 4.66694593429565 5.12082004547119 4.7887225151062 5.53549575805664 6.38639450073242 7.30003881454468 7.6145224571228 8.24521636962891 8.43461322784424 8.26305866241455 8.77959060668945 8.92675304412842 9.50198459625244 9.76723670959473 10.3437623977661 10.8795232772827 10.8610677719116 11.0363664627075 11.3495903015137 14.1340007781982 13.9159698486328 13.2944831848145 13.3521842956543 14.5968379974365 17.021951675415 18.1225070953369 21.4718379974365 14.7436275482178 20.6178684234619 14.6824340820312 13.9456014633179 15.5768194198608 13.9945812225342 15.9484453201294 14.7873411178589 13.0744504928589 6.56784915924072 8.65138816833496 20.2767524719238 18.2301216125488 19.7658653259277 28.2327537536621 16.1332149505615 7.18568468093872 7.32471704483032 15.5386743545532 6.77576589584351 10.1340789794922 11.3556146621704 20.7179508209229 13.0571489334106 16.7405242919922 7.33616495132446 13.2909021377563 10.2397193908691 13.1647567749023 13.5293531417847 13.2090396881104 13.9214954376221 15.1757183074951 14.1459684371948 15.1884212493896 15.9074602127075 14.7842540740967 15.7785148620605 30.6674938201904 25.3134307861328 13.1938829421997 26.1484470367432 36.0284576416016 37.5651359558105 28.8379135131836 33.290096282959 12.7929258346558 6.76085901260376 2.76624035835266 2.6346755027771 8.4722204208374 13.3755302429199 4.41979074478149 3.14599394798279 -1.92888462543488 0.508531928062439 -1.39547574520111 -1.98087024688721 -2.24915862083435 0.869779348373413 -0.353754073381424 4.69239521026611 8.67089080810547 8.43282508850098 10.264310836792 17.5583629608154 18.2238597869873 16.6947555541992 29.4653339385986 28.8144378662109 19.2829189300537 13.7741575241089 -1.93649125099182 1.24945223331451
23.2647895812988 19.5969429016113 17.8653030395508 28.4331226348877 1.38017928600311 3.35865306854248 1.23499345779419 3.26405882835388 2.07999777793884 8.07436561584473 6.22289133071899 5.93425559997559 5.61184072494507 9.56478786468506 1.83608603477478 6.52000284194946 2.04026699066162 6.12613105773926 7.48908615112305 6.75014448165894 6.93059539794922 5.6612434387207 6.57650947570801 6.96434259414673 7.22290325164795 7.22359657287598 6.86782836914062 6.74395132064819 6.66499662399292 4.87429285049438 5.39695882797241 3.79806518554688 3.41088390350342 3.39070105552673 3.06409764289856 6.99541568756104 6.60475492477417 7.35471105575562 8.23838710784912 8.16877174377441 14.1353530883789 7.23537302017212 5.86369132995605 4.43061637878418 2.76872706413269 8.02115345001221 1.70124351978302 3.29854583740234 3.26801490783691 15.8473129272461 11.2032041549683 27.522331237793 13.4356927871704 12.8858604431152 10.1185111999512 20.5763092041016 13.8258695602417 3.57557892799377 14.3495473861694 4.39030122756958 16.0593681335449 9.0697660446167 9.12637615203857 12.488715171814 7.29737758636475 11.2149457931519 7.83407306671143 7.83077621459961 6.11933851242065 3.68633508682251 3.46859431266785 6.60783910751343 3.72343063354492 3.90861511230469 4.54304027557373 5.08114624023438 5.41978883743286 5.85708093643188 6.48293590545654 7.25628280639648 7.62955474853516 8.1070442199707 8.77654647827148 8.84331130981445 8.66268062591553 9.20654106140137 9.39639091491699 10.0625867843628 10.3554401397705 10.9323358535767 11.5544319152832 11.4477682113647 11.9340333938599 12.5673828125 15.7078914642334 15.4835739135742 15.1824340820312 16.3990650177002 19.4305973052979 29.9340686798096 16.3024559020996 19.1541633605957 15.257640838623 14.8205299377441 15.8419504165649 16.2339839935303 16.0291805267334 15.8237762451172 17.304069519043 14.7981252670288 8.73393249511719 13.6921119689941 12.2808208465576 7.77921962738037 8.54938316345215 11.1190643310547 7.55257081985474 7.26227045059204 7.8240270614624 7.60929155349731 6.13237237930298 9.22581768035889 14.904613494873 11.1464805603027 7.16725444793701 7.78577470779419 7.44497013092041 7.75543069839478 8.42929553985596 8.69180011749268 14.1883430480957 14.7643308639526 14.4136123657227 15.2912302017212 16.676794052124 15.738109588623 16.8741035461426 17.92551612854 18.6613960266113 25.4063053131104 13.7342329025269 19.2018489837646 25.7163696289062 36.8502197265625 21.8771991729736 17.52512550354 4.11210870742798 -0.811078548431396 18.2921581268311 12.4448862075806 8.16572093963623 5.50224208831787 14.4201784133911 17.9853420257568 23.6312236785889 15.0198163986206 13.5083332061768 -0.868691146373749 -1.04662644863129 8.00222206115723 0.66798597574234 2.25957155227661 -1.36170291900635 8.55851268768311 11.5653038024902 10.2222948074341 16.5680313110352 9.28249073028564 0.164209395647049 12.5419940948486 0.742384791374207 6.95452499389648 11.1655206680298 0.434384077787399 -1.65646052360535
15.2400026321411 36.1224479675293 28.8232555389404 13.2864685058594 1.35969269275665 1.38032579421997 1.8485244512558 1.70780777931213 3.55242609977722 7.98262643814087 3.1462070941925 5.74989366531372 4.66854858398438 2.83798241615295 2.36043977737427 13.5287179946899 2.39292287826538 2.69859504699707 6.56813287734985 8.17272281646729 7.39546871185303 7.59871959686279 6.19137144088745 7.16070222854614 7.67037105560303 8.0410099029541 8.05199813842773 7.64235973358154 7.51884889602661 7.42228984832764 5.60872888565063 4.6337103843689 3.90657067298889 3.50164151191711 3.48294878005981 3.14913153648376 7.82663679122925 7.49808406829834 8.5262508392334 9.16152381896973 10.311164855957 25.0154762268066 5.01394557952881 7.73804950714111 5.83626461029053 19.9123973846436 13.8866205215454 2.11720633506775 8.5201244354248 16.1180152893066 28.6840419769287 12.7714595794678 6.25464105606079 13.6244010925293 25.6475067138672 18.8976268768311 11.8730583190918 2.82291674613953 4.01218843460083 3.43665075302124 4.91108369827271 4.47539043426514 7.26952409744263 6.86689472198486 12.1931867599487 13.7929611206055 12.9639453887939 5.90003108978271 13.1138410568237 3.10860395431519 4.51331949234009 3.56659722328186 3.64264559745789 4.63444519042969 3.90832948684692 7.76463270187378 5.45631837844849 6.03243064880371 6.03435516357422 7.52692937850952 7.68735027313232 8.07448101043701 8.49742794036865 9.22808361053467 9.27702903747559 9.13347244262695 9.74611568450928 9.99450302124023 10.5478038787842 10.9243698120117 11.6044902801514 12.2792301177979 12.2260637283325 13.4491939544678 14.1108150482178 17.6996536254883 17.5092182159424 20.1211681365967 20.905611038208 21.6562004089355 13.6164703369141 15.4591360092163 24.869457244873 16.1318969726562 21.007984161377 23.4669609069824 17.4184246063232 16.0726871490479 20.2743358612061 17.2494945526123 14.8335304260254 10.5434408187866 7.00205039978027 9.2483549118042 15.8000164031982 8.84579944610596 9.29645156860352 8.6661376953125 8.50232028961182 7.88361358642578 7.62126922607422 8.21528148651123 9.83841991424561 8.14102840423584 8.19052124023438 7.7745189666748 8.58047962188721 19.7455520629883 8.0675220489502 9.89649391174316 9.77068901062012 15.4733905792236 16.24977684021 15.8678302764893 17.8770179748535 18.6064128875732 17.8081684112549 19.424144744873 22.6877098083496 30.0791759490967 14.9332208633423 15.758207321167 37.8358764648438 45.8679466247559 39.202075958252 21.73464012146 2.3772873878479 10.547947883606 4.40658760070801 -0.703744649887085 9.28541851043701 -2.2799060344696 -1.71153259277344 -3.87083458900452 -2.40455651283264 -1.52792835235596 -1.55686950683594 -1.18336617946625 -0.0162230655550957 1.78491866588593 -1.50620698928833 4.35094594955444 7.04533290863037 12.8896350860596 21.7742862701416 12.8684988021851 12.2718963623047 -3.40985012054443 -2.41437530517578 1.6377968788147 6.21047925949097 4.03257322311401 14.8822946548462 6.27505588531494 -1.69388103485107
14.9520835876465 24.0680847167969 5.96802282333374 18.313777923584 2.10298776626587 7.91420078277588 1.93626928329468 2.48682880401611 2.39452219009399 4.58628368377686 2.39978218078613 3.53011298179626 2.54275369644165 2.41961884498596 2.57552528381348 5.34836196899414 2.54232859611511 7.2786979675293 7.37636375427246 7.12311697006226 8.95791530609131 8.09723281860352 8.35392951965332 6.81908941268921 7.83345699310303 8.44111824035645 8.9708833694458 8.99617576599121 8.52215766906738 8.37516498565674 8.27356147766113 5.95725011825562 4.39767217636108 4.01462888717651 3.59795951843262 3.57525205612183 3.25093460083008 8.89387607574463 9.33597278594971 5.20440912246704 10.2070560455322 13.990611076355 7.94037818908691 4.02787208557129 14.6037797927856 10.2196025848389 3.3576762676239 4.24214029312134 13.4431104660034 22.2941017150879 22.9729404449463 46.5348167419434 5.88307428359985 8.44099140167236 3.05769348144531 10.5749425888062 4.34581756591797 2.15598249435425 6.34637355804443 3.96771192550659 5.55080556869507 5.202965259552 10.9636068344116 11.3294229507446 9.90746784210205 12.9740085601807 16.7986297607422 15.6795349121094 6.50552129745483 2.63903880119324 4.4796895980835 3.98507761955261 3.89794063568115 3.93334865570068 3.78975939750671 5.90466928482056 4.92558908462524 5.75561761856079 6.50579404830933 7.11534690856934 8.06223392486572 8.10906887054443 8.44194030761719 9.20679187774658 9.81039047241211 9.88168907165527 9.58547401428223 10.2626152038574 10.5167322158813 11.1247644424438 12.0331029891968 12.6981134414673 12.8464097976685 13.0441598892212 15.1516675949097 16.1944255828857 19.5730094909668 19.9218692779541 16.0684356689453 14.3180446624756 14.0469055175781 14.8750095367432 16.3685684204102 13.9860982894897 16.9986991882324 16.7258224487305 15.698055267334 17.84446144104 19.9429969787598 22.6335735321045 20.5520858764648 15.6279973983765 13.7134704589844 8.77751350402832 8.7808084487915 8.21774291992188 9.12573528289795 10.6872940063477 9.11277866363525 8.65993881225586 8.96315670013428 8.89236450195312 12.9977884292603 6.80163621902466 6.84681987762451 9.12851333618164 8.8739767074585 17.1796054840088 7.97200775146484 8.93265056610107 10.1876335144043 15.8079214096069 25.7560119628906 18.0593852996826 18.1520538330078 21.2240467071533 21.0874919891357 23.6547775268555 23.7909774780273 19.89182472229 13.8085432052612 18.5420036315918 29.3484573364258 14.3060665130615 11.7842435836792 -1.75899660587311 0.188317939639091 1.08242499828339 3.20214676856995 8.50807094573975 1.66771721839905 -1.19748520851135 -1.99232280254364 -1.54953682422638 1.68780303001404 -0.29298859834671 1.51268196105957 10.3226041793823 14.067138671875 2.38250088691711 4.36069917678833 5.57759094238281 12.5128164291382 16.4695091247559 0.108011968433857 9.56724166870117 30.2785034179688 24.45583152771 -1.03368520736694 2.89545106887817 15.6410350799561 19.56715965271 2.13165664672852 -2.98988080024719 -2.6412878036499
14.2168922424316 27.321231842041 19.5758380889893 12.0267505645752 2.63521552085876 2.48897790908813 2.40619468688965 8.43150520324707 5.40928840637207 7.84078121185303 8.63235187530518 9.95065212249756 4.45440816879272 2.59278774261475 2.88321614265442 4.23439407348633 2.60560917854309 2.78045654296875 3.285804271698 7.87729835510254 7.77911806106567 9.9839916229248 9.02465724945068 9.29881954193115 7.55744218826294 8.57926940917969 9.4038143157959 10.1617946624756 10.1637649536133 9.65069961547852 9.50372409820557 9.39369773864746 6.3683876991272 4.51504468917847 4.13512229919434 3.69344973564148 3.67365789413452 3.32314443588257 10.2665004730225 11.1577587127686 5.40290880203247 11.4347171783447 24.3597087860107 8.42763710021973 9.44316959381104 17.686279296875 6.39926052093506 6.44175481796265 24.9483089447021 19.3427772521973 40.2354469299316 40.6450538635254 2.11735510826111 7.12420225143433 13.746337890625 3.35179328918457 2.1002037525177 2.38204455375671 2.41743016242981 2.8724513053894 5.22495603561401 6.24856996536255 5.417151927948 10.2741928100586 23.8875904083252 11.465931892395 3.79053115844727 4.55829811096191 2.72997832298279 2.63060665130615 3.87869954109192 5.26341247558594 3.311039686203 4.02231597900391 4.65096092224121 4.927894115448 14.4627132415771 5.76030492782593 6.07911539077759 7.44432353973389 7.56893348693848 8.43715858459473 8.44407272338867 9.13869380950928 9.50323009490967 10.3636131286621 10.2431945800781 10.1582717895508 10.9140424728394 11.5035409927368 11.9598808288574 12.9087038040161 13.913257598877 13.8111934661865 14.1881227493286 17.0439701080322 20.0367908477783 29.8584156036377 16.1239051818848 16.4116077423096 20.4828186035156 13.2452268600464 17.0484466552734 15.6574821472168 19.1554412841797 18.4092617034912 18.3193206787109 17.8099403381348 21.5333442687988 29.1597366333008 31.4822177886963 37.0345649719238 35.4175910949707 24.9754581451416 10.0520086288452 10.0047330856323 10.1496143341064 9.78610706329346 12.2948713302612 13.293830871582 11.6314029693604 18.3162460327148 8.61569499969482 7.33937692642212 7.0381383895874 7.33174276351929 9.44497203826904 11.2928514480591 8.78885173797607 10.0024061203003 10.8497591018677 14.0693092346191 22.2932815551758 15.5419282913208 20.3137378692627 30.3117141723633 26.2611141204834 19.2984657287598 19.7029819488525 24.0582714080811 32.748218536377 33.8537902832031 15.583348274231 20.2915019989014 22.7220306396484 26.6803436279297 9.12984180450439 -1.48240447044373 -2.23100972175598 -0.90767228603363 -0.758763074874878 -0.646447479724884 1.83144330978394 1.6124222278595 3.16288256645203 8.07553672790527 10.4346036911011 9.39562892913818 22.2332553863525 7.10576581954956 8.56350135803223 11.0161247253418 15.6970024108887 14.2930908203125 5.10138654708862 11.4501333236694 -1.23378682136536 -3.31050848960876 -3.552654504776 -1.6186900138855 5.54065179824829 9.14401817321777 -3.6474142074585 -3.17135858535767 5.99024105072021
15.3059825897217 18.6440143585205 15.7140064239502 9.43379974365234 4.00907564163208 3.04011631011963 3.04529857635498 4.4182333946228 2.94566226005554 2.88452625274658 3.09084439277649 17.8991184234619 3.04299068450928 2.93936443328857 2.98928427696228 4.09573936462402 3.00248956680298 3.10461950302124 7.60124349594116 8.66457748413086 8.74045181274414 8.65200042724609 11.3183708190918 10.2173719406128 10.5281629562378 8.51227378845215 9.56490421295166 10.6596965789795 11.7483043670654 11.7583684921265 11.1587619781494 10.9976272583008 10.8795366287231 6.82226753234863 4.63396596908569 4.2558331489563 3.78550004959106 3.77306771278381 11.1829442977905 11.2555646896362 13.7310285568237 12.412896156311 11.4203805923462 8.07723712921143 18.9851760864258 24.2898292541504 1.29354548454285 8.55319023132324 44.7495346069336 43.2176246643066 35.1971817016602 2.6531765460968 2.79939436912537 9.35160160064697 5.06495571136475 2.59632515907288 2.52445960044861 3.83003067970276 4.02871561050415 4.10595369338989 3.62287139892578 6.61180353164673 7.41605758666992 11.1336107254028 15.0479583740234 7.31843376159668 3.74125576019287 9.36395454406738 4.93542051315308 4.69949245452881 2.79890990257263 2.88553190231323 3.18005728721619 3.76036190986633 4.22185087203979 4.95411968231201 5.22224950790405 5.26362466812134 6.06041526794434 7.10312795639038 7.80149269104004 8.01374435424805 9.05009651184082 9.1657829284668 9.41638946533203 9.83556079864502 10.7656345367432 10.8503818511963 11.294002532959 11.6545448303223 12.329197883606 12.8722200393677 13.883825302124 14.6781129837036 15.6071090698242 16.8740901947021 17.9941291809082 23.2291851043701 18.7844676971436 21.0814552307129 25.4832592010498 16.8442878723145 16.0450820922852 18.0320682525635 18.9932384490967 20.2399787902832 22.3061466217041 22.3263874053955 23.6776676177979 31.098840713501 38.6876792907715 36.5389442443848 26.0867557525635 9.29496574401855 6.70867013931274 15.1503219604492 10.8607997894287 13.0963764190674 13.134391784668 13.2914361953735 14.204927444458 12.6078996658325 9.45700263977051 9.45859622955322 13.9648628234863 11.8507928848267 11.7930021286011 10.8783912658691 9.40682506561279 11.6219329833984 12.855170249939 14.6903133392334 15.8385515213013 16.2592658996582 18.2865467071533 20.4556922912598 17.8705101013184 26.8327236175537 19.5809574127197 35.3899765014648 41.5598220825195 12.7561798095703 15.4342555999756 14.6177129745483 31.313024520874 22.9576377868652 11.1533260345459 -1.31613838672638 -0.969263017177582 -1.87428331375122 -0.772838830947876 15.7398567199707 2.49855828285217 2.49390029907227 0.778678357601166 8.14252376556396 12.0019264221191 22.9562892913818 12.7686386108398 -0.575806498527527 -0.6044100522995 21.0298919677734 24.9035987854004 -1.5617778301239 -0.914461493492126 16.7228088378906 1.22540259361267 -2.93859481811523 13.1166439056396 16.8536224365234 -1.19766557216644 9.73287773132324 -3.42776823043823 -3.07563018798828 -2.83674955368042
11.3889408111572 22.217098236084 26.4100933074951 9.58926391601562 11.624849319458 8.22517681121826 3.19775414466858 4.25223636627197 2.93775105476379 4.11457443237305 8.39468288421631 6.71428823471069 2.73121809959412 3.15670657157898 3.2185161113739 9.23635768890381 3.0558123588562 3.19217562675476 3.41932725906372 3.61582088470459 9.75960636138916 9.88159370422363 9.76633548736572 13.0462055206299 11.7510204315186 12.1304063796997 9.78683948516846 10.9346723556519 12.8063974380493 12.8093109130859 12.1576528549194 11.9593849182129 11.807599067688 10.9411172866821 7.33259010314941 4.75331497192383 4.37063407897949 3.88179636001587 3.86713314056396 13.4021310806274 14.219464302063 19.5303058624268 15.0573616027832 13.2447843551636 15.9578819274902 24.1718311309814 39.299129486084 2.08057570457458 1.1616028547287 1.87182509899139 2.2064151763916 8.87954235076904 5.26700019836426 6.35165214538574 4.07515382766724 27.0410385131836 17.240421295166 11.4489784240723 3.09011507034302 5.7123908996582 4.67675971984863 6.73959112167358 10.4902391433716 8.4177303314209 17.642614364624 4.67965269088745 3.25196981430054 3.52678251266479 1.73766076564789 7.9745078086853 2.42165422439575 6.37808895111084 3.0814220905304 3.48344445228577 3.8369345664978 4.99412059783936 5.34702205657959 5.8387188911438 6.13618230819702 6.35834217071533 7.38561582565308 8.348801612854 8.63622379302979 9.51631259918213 9.46033763885498 9.72466373443604 10.4138717651367 11.455394744873 11.5495309829712 12.101300239563 12.5591812133789 13.5448303222656 14.2289342880249 15.0268754959106 15.9005880355835 20.1199436187744 18.7481994628906 23.9352264404297 22.034107208252 22.6487789154053 22.0098648071289 16.9041080474854 12.386547088623 17.5618858337402 31.0551280975342 21.5313949584961 24.1147441864014 24.113676071167 25.1507034301758 26.3926868438721 23.7210330963135 16.3328857421875 7.90442276000977 6.13473558425903 4.77837371826172 6.95214748382568 7.37096643447876 11.9483280181885 14.4042444229126 22.2313556671143 18.4822883605957 15.8385915756226 12.6458444595337 12.6152992248535 10.9564256668091 7.88388061523438 7.66564989089966 9.61811256408691 16.0108375549316 21.5189266204834 14.1370401382446 26.3088779449463 17.5221939086914 17.0436172485352 19.0269889831543 24.4826927185059 21.7145366668701 25.4078025817871 48.8633155822754 21.7406234741211 19.3306884765625 18.2951412200928 19.5844917297363 10.5791759490967 25.6400585174561 17.4455223083496 -1.66487145423889 -2.41406464576721 10.6031904220581 -0.295803934335709 -0.709379374980927 -0.237215042114258 -0.0210028849542141 2.56335854530334 6.95947408676147 7.16645288467407 22.7673759460449 18.3292808532715 0.276287376880646 -0.122903794050217 0.649363994598389 13.2088479995728 0.73761260509491 1.42847585678101 -0.0541000515222549 -1.96126639842987 -2.45363569259644 -2.76555776596069 -2.52098846435547 -3.04554653167725 -3.47201108932495 -1.38725531101227 -3.18255972862244 -2.90289330482483 -2.70105719566345
10.5633726119995 14.000111579895 38.4072341918945 31.4385681152344 11.4334964752197 3.77558779716492 4.75004005432129 3.45840048789978 8.18502426147461 6.08918952941895 3.01080703735352 3.15474271774292 2.93883419036865 2.9974091053009 3.09773731231689 3.2651846408844 3.09440612792969 4.8245415687561 3.32912707328796 5.3077540397644 12.4077281951904 11.2584218978882 11.3662328720093 14.2462844848633 12.8225908279419 13.2376461029053 10.6666707992554 10.5439176559448 13.3855810165405 15.5372591018677 15.5758228302002 14.786771774292 14.5252885818481 14.3155221939087 10.852801322937 7.92404890060425 4.87515687942505 4.27764558792114 3.98144626617432 3.88579797744751 17.1843719482422 20.278434753418 34.356128692627 18.4148941040039 15.4958820343018 20.3471603393555 38.8758163452148 4.53506374359131 1.34584331512451 1.75424981117249 2.37856650352478 2.49276614189148 2.77220678329468 2.65484428405762 2.8963086605072 2.3241593837738 2.56150674819946 2.78688812255859 3.98359155654907 5.89690828323364 7.70679903030396 8.15245151519775 11.2243700027466 14.0447702407837 12.7045135498047 3.90943813323975 7.75856733322144 2.64429879188538 5.87437438964844 1.82390153408051 2.37334537506104 2.55615520477295 2.55937004089355 3.65391206741333 3.66741299629211 4.45575571060181 6.26425266265869 12.4551248550415 6.05770254135132 6.86775493621826 7.56979513168335 7.93972778320312 9.01418113708496 9.10697555541992 10.0345945358276 9.9931697845459 10.2630805969238 11.8545331954956 11.9516248703003 11.9906892776489 13.0323095321655 13.9071445465088 14.9837217330933 15.521276473999 16.4102535247803 19.8152256011963 25.1007995605469 18.7848815917969 17.737377166748 25.0913944244385 26.6232566833496 12.4212789535522 11.0605220794678 15.613112449646 20.0463790893555 23.913106918335 27.0696544647217 25.6709003448486 21.7324466705322 17.3706893920898 17.9997177124023 19.6054058074951 14.3661766052246 6.04126691818237 7.40436315536499 11.0783166885376 7.1911768913269 9.48651123046875 16.5508899688721 16.4842872619629 13.6546611785889 16.9053573608398 17.3602237701416 15.3830804824829 16.4269523620605 15.199107170105 11.7801971435547 8.41592693328857 9.24693393707275 12.221643447876 11.5691518783569 18.0024814605713 14.138069152832 18.9389419555664 19.8000144958496 20.3202953338623 35.8189010620117 34.2476234436035 28.5260524749756 16.6129608154297 23.3500385284424 20.8832664489746 0.677955031394958 11.3150453567505 11.9847726821899 -0.0672694370150566 -1.57773947715759 -1.16179966926575 1.91795206069946 -1.87448883056641 0.106875255703926 0.524157524108887 6.70603942871094 3.64604806900024 3.09313631057739 3.10896635055542 0.948736548423767 0.519724249839783 -1.48786580562592 0.587242364883423 0.465516477823257 6.42908763885498 0.0338591933250427 -0.396472960710526 -1.94417107105255 -1.22423696517944 2.52022385597229 -1.27750885486603 -2.30633950233459 -1.86393570899963 1.62903463840485 0.452666193246841 4.8193416595459 -2.46826076507568 -2.74435138702393
