NCOLS 174
NROWS 32
XLLCORNER 354032
YLLCORNER 6701200
CELLSIZE 16 
NODATA_value -3.4e+38 
10.8121223449707 21.4756031036377 6.40658044815063 13.3297080993652 5.07953786849976 11.3447914123535 10.3555097579956 3.75260806083679 6.80361270904541 18.1327171325684 7.2946195602417 2.63445568084717 8.39731884002686 3.71180462837219 8.16458129882812 11.9792041778564 13.3430328369141 25.1411266326904 6.40171813964844 7.47121715545654 10.3036088943481 11.8010387420654 11.149341583252 4.91637229919434 9.45165348052979 4.22509002685547 4.21160697937012 2.8953652381897 8.85998916625977 14.2116861343384 13.7128324508667 3.95561814308167 3.92488837242126 4.93141746520996 4.69246435165405 5.23136425018311 3.14719581604004 4.42340803146362 7.97763061523438 9.60379695892334 20.1875267028809 6.62686109542847 6.14130210876465 2.58757829666138 1.42218351364136 1.32524240016937 46.6662559509277 6.16200494766235 19.6660003662109 16.9324169158936 9.32498741149902 5.47854995727539 3.50642681121826 10.1925897598267 8.73451042175293 1.72315990924835 3.39736604690552 30.8506317138672 10.1001796722412 20.5824165344238 29.6384372711182 47.4079933166504 24.3204307556152 27.5110473632812 20.1539249420166 25.2414703369141 28.9136276245117 18.4158401489258 21.8527545928955 28.2325248718262 23.0847721099854 22.1286735534668 19.6444854736328 19.6808795928955 20.5812835693359 21.6778831481934 21.7525825500488 18.7248458862305 18.517333984375 16.563024520874 13.8143472671509 15.1727809906006 9.7512674331665 11.971884727478 8.9865837097168 7.94409275054932 6.2844820022583 7.09435081481934 5.51095247268677 4.85352373123169 4.13236570358276 3.60417318344116 2.8374400138855 2.87173962593079 2.12946915626526 1.95102787017822 1.33138012886047 2.44133377075195 3.34770035743713 6.16103458404541 6.30395317077637 6.46366834640503 6.58783054351807 7.11523151397705 6.92820644378662 6.83310174942017 36.8297958374023 6.38774919509888 6.35826826095581 5.57600784301758 4.31455183029175 3.42853665351868 22.0097389221191 22.5750999450684 17.5292854309082 22.0680294036865 11.2434110641479 12.4072732925415 10.7665109634399 6.00006294250488 4.16371202468872 2.8660626411438 1.90358364582062 2.56552147865295 2.78973436355591 4.77774000167847 4.53778886795044 4.20501518249512 3.55996370315552 3.65674614906311 2.90661191940308 2.62424445152283 2.52231907844543 2.29500794410706 2.11278462409973 4.72116041183472 1.70179283618927 1.35307598114014 0.754670858383179 1.64688968658447 1.12176990509033 -0.752483904361725 -1.26698684692383 -0.963120758533478 4.55726718902588 5.75440263748169 26.1247234344482 6.19580888748169 4.36953163146973 10.6476955413818 9.85050201416016 8.27505874633789 6.36401081085205 4.22513818740845 3.90187215805054 3.54074621200562 5.20123863220215 5.67515134811401 7.99031925201416 7.44423198699951 5.12303018569946 5.27219915390015 5.10611248016357 3.56470942497253 4.20204305648804 2.27645254135132 2.03994703292847 2.07614850997925 0.558503448963165 0.400718033313751 0.421766042709351 0.401912271976471 0.395741790533066 0.419899135828018
34.0970268249512 6.45096015930176 15.0925521850586 10.4167833328247 4.8890552520752 5.20950365066528 5.78165674209595 5.46055603027344 14.5380325317383 4.37629556655884 5.10170125961304 18.3495960235596 8.02133846282959 16.3919239044189 10.8515949249268 20.8893814086914 12.3719549179077 12.5600900650024 43.3493499755859 11.7421894073486 7.92878913879395 6.74021244049072 6.43099117279053 4.73131942749023 3.48043179512024 2.93687772750854 3.3244571685791 2.5921905040741 17.377477645874 2.24485898017883 0.862301111221313 3.84562635421753 24.0333805084229 16.3428592681885 24.4909896850586 18.6678428649902 9.51875400543213 8.90229797363281 13.3731708526611 24.9091396331787 8.90872478485107 7.21651983261108 3.64914989471436 1.83116102218628 1.05982351303101 4.52637386322021 1.78132176399231 48.8130416870117 8.41672134399414 12.7294387817383 10.1748361587524 13.7668104171753 7.45517110824585 0.955202877521515 1.2243674993515 0.992130994796753 16.9289512634277 17.5292892456055 33.5172233581543 17.429666519165 19.0789451599121 18.0028190612793 29.761682510376 21.7170295715332 20.1603355407715 21.9460868835449 33.677188873291 16.4424533843994 18.3006191253662 27.1209621429443 20.7139568328857 19.1542072296143 17.3933067321777 17.4668674468994 17.6774520874023 19.3717365264893 19.4392948150635 17.520133972168 16.9259204864502 15.0987186431885 13.2959299087524 11.5984373092651 9.16917514801025 9.03151416778564 8.56991481781006 7.54852342605591 6.51349449157715 6.29381513595581 5.56072473526001 4.67438220977783 4.24983644485474 2.83820009231567 3.42265892028809 2.70205044746399 2.72437572479248 2.03291964530945 1.86106371879578 1.15358698368073 3.21389245986938 4.689866065979 5.82558298110962 6.23120546340942 6.35125398635864 6.16282558441162 6.756995677948 6.56664323806763 9.90400791168213 15.9613361358643 6.16380262374878 5.66990232467651 4.4606146812439 3.32324075698853 7.26467561721802 10.218638420105 14.7171678543091 10.4836568832397 10.6237077713013 8.49216842651367 10.0006685256958 6.37824726104736 9.23934841156006 2.29132485389709 2.29728245735168 14.147144317627 18.5890846252441 3.98942232131958 3.97099828720093 3.76951694488525 3.24593162536621 2.81240677833557 2.51137757301331 2.23198103904724 2.15175771713257 2.07256102561951 1.91136109828949 3.96880674362183 1.62081599235535 1.31271207332611 0.851131498813629 0.889869034290314 -0.54251366853714 -1.11277222633362 3.72501516342163 -1.23611128330231 21.2126369476318 15.721851348877 21.9032402038574 7.13154983520508 19.5859909057617 10.1715173721313 9.33512020111084 7.73601627349854 6.15748453140259 5.03578615188599 4.34289026260376 3.53698468208313 4.58924627304077 5.05918407440186 7.34011030197144 6.86993885040283 6.11425447463989 4.95224475860596 4.72949838638306 3.3401780128479 3.96533465385437 3.53805160522461 1.82981932163239 2.00847315788269 0.585943818092346 0.428533732891083 0.350494801998138 0.324601203203201 0.296024024486542 0.309817761182785
8.92014694213867 20.5464496612549 29.9775562286377 16.4224948883057 6.50016355514526 9.22486591339111 5.2167649269104 3.6893413066864 8.61013412475586 17.6787376403809 3.59166407585144 8.01425075531006 14.5083446502686 8.88135147094727 10.1375026702881 8.03408241271973 17.6420497894287 10.4818105697632 15.4087915420532 13.6247968673706 7.62989711761475 5.59321451187134 4.88321447372437 4.22262763977051 18.4771747589111 13.4601907730103 24.1278991699219 11.4798345565796 2.24851751327515 12.8480052947998 29.5900936126709 23.2384757995605 26.7726821899414 29.7017230987549 13.5843162536621 9.64328289031982 18.373872756958 21.0289440155029 18.1102294921875 22.7620105743408 13.7165250778198 4.0252799987793 3.46100449562073 3.58233785629272 0.832003772258759 1.08239948749542 4.20367097854614 1.68391406536102 43.6054077148438 6.99076652526855 7.86501407623291 9.38299942016602 3.2410888671875 11.5824375152588 1.13990831375122 15.2323427200317 1.54803872108459 22.1227245330811 12.7682218551636 17.9026832580566 10.7357988357544 32.5686111450195 24.1917362213135 18.4904899597168 19.7325839996338 17.377010345459 18.5719432830811 34.0639953613281 34.5705337524414 22.2407894134521 18.9518756866455 18.4379329681396 15.8454399108887 15.8133630752563 15.8245210647583 16.5777549743652 16.9271812438965 16.9278106689453 15.5142641067505 13.9219160079956 13.3895244598389 11.7740745544434 10.0725059509277 8.6203145980835 8.16664409637451 7.21275615692139 6.83161544799805 5.68856287002563 5.94009351730347 3.57776761054993 4.31599235534668 3.14220881462097 3.31335425376892 2.60946249961853 2.62296676635742 1.97068667411804 1.80297434329987 1.09156787395477 2.22202825546265 3.03823590278625 5.61227130889893 5.74294710159302 5.91400718688965 6.01870203018188 6.51968812942505 6.33316802978516 6.26264047622681 16.0120468139648 5.97859001159668 4.91240406036377 4.74138164520264 3.92961072921753 3.1753032207489 7.25110530853271 8.49993896484375 11.8831243515015 9.42026424407959 7.72550201416016 8.87191295623779 7.21873044967651 3.59818124771118 13.4200429916382 2.36108779907227 1.78460037708282 9.77913379669189 8.65847587585449 3.49711322784424 3.3869321346283 3.20104312896729 2.76526260375977 2.21965765953064 1.95210158824921 1.89917206764221 1.83110904693604 1.74978971481323 1.64350342750549 3.15355134010315 1.1851441860199 0.750516176223755 0.566209137439728 2.66143989562988 22.720983505249 25.9683437347412 40.2070808410645 20.7213897705078 17.1168212890625 24.8221015930176 42.3386726379395 12.8820924758911 19.4023513793945 9.8685302734375 8.16425132751465 5.9460334777832 5.67772150039673 4.03158283233643 3.79030799865723 3.523601770401 4.92078065872192 6.77127599716187 4.901695728302 6.12157011032104 4.34970283508301 4.53135824203491 2.52078080177307 3.21472096443176 3.70627045631409 2.04018402099609 1.88881433010101 1.90054941177368 0.511520802974701 0.329413682222366 0.271006494760513 0.227379560470581 0.202439963817596
3.45907831192017 13.1761169433594 4.30467319488525 9.86295509338379 26.3980770111084 15.9496374130249 16.4432621002197 19.5954933166504 3.39855146408081 4.2261791229248 4.14192390441895 5.72817659378052 5.74136304855347 5.53424215316772 5.74586486816406 5.59087705612183 3.76867938041687 7.47163438796997 4.75572824478149 4.5254430770874 5.37627983093262 4.30764198303223 4.62175273895264 4.11655521392822 3.84352374076843 27.6486034393311 4.21024799346924 15.0266704559326 16.7426872253418 2.07789587974548 6.32619333267212 5.51152467727661 13.5743551254272 7.57812929153442 12.1107378005981 4.80695772171021 5.6085205078125 11.6493091583252 18.1128749847412 11.2128028869629 7.95685482025146 5.99333810806274 4.6743426322937 1.11095929145813 0.708652377128601 0.89562052488327 1.26673293113708 1.12603557109833 2.85744762420654 47.5212936401367 13.0693788528442 13.2971563339233 8.37392234802246 3.19862294197083 30.4401626586914 24.9362106323242 40.3841857910156 23.7023983001709 36.284122467041 37.4085807800293 35.2109298706055 25.1995429992676 16.2204246520996 21.2004566192627 18.223331451416 16.718692779541 16.9663028717041 15.9000062942505 19.154354095459 19.5063285827637 17.4843845367432 16.8694534301758 14.2725677490234 14.2023296356201 14.1301155090332 14.9065866470337 15.1889181137085 15.262243270874 14.1371021270752 13.9699106216431 12.7132596969604 11.2315855026245 10.0392360687256 7.96569681167603 8.08111190795898 7.65126466751099 6.76879787445068 5.89295339584351 4.44154071807861 15.7225160598755 4.16352462768555 3.18609166145325 7.22747898101807 3.15977001190186 2.49180102348328 2.49572825431824 1.75008642673492 1.02831125259399 0.942527890205383 2.93021512031555 4.30969190597534 5.33622646331787 5.72135782241821 5.81670999526978 5.66062211990356 6.21637010574341 6.05065822601318 5.96824359893799 9.89943027496338 9.68789100646973 4.94960260391235 3.88903641700745 2.18106484413147 2.3691611289978 3.10794734954834 10.5070314407349 7.90095996856689 8.03917217254639 6.5248761177063 3.4376266002655 3.58413004875183 2.57538151741028 2.23406004905701 7.50174427032471 6.93445587158203 6.13014221191406 3.09412360191345 3.07629561424255 2.91117143630981 2.51829767227173 2.02174687385559 1.81503903865814 1.66631889343262 1.62351870536804 1.58477592468262 1.48292994499207 2.78285670280457 1.26919877529144 0.95660537481308 0.559615910053253 21.4371147155762 27.6461086273193 9.96544551849365 27.387731552124 25.4430294036865 20.7636280059814 14.9341878890991 17.8340625762939 27.803108215332 16.5833683013916 8.8898811340332 7.63624000549316 6.4459114074707 5.36661052703857 4.47663307189941 3.64139223098755 3.3273663520813 4.26542997360229 4.67754459381104 6.02257633209229 5.67183208465576 5.13501119613647 1.9424934387207 26.103931427002 7.81296300888062 3.45370602607727 3.0739541053772 1.84367215633392 1.84201884269714 0.538977086544037 0.360942780971527 -1.2098503112793 0.170150995254517 0.119122758507729
-1.51952993869781 3.35456275939941 11.0032739639282 7.29981708526611 3.85501861572266 5.51185321807861 4.99875020980835 3.58766150474548 11.2356634140015 2.92332673072815 3.46393179893494 2.95309066772461 13.8046913146973 5.62974643707275 2.04507040977478 5.47338724136353 3.86798763275146 5.79950904846191 5.11968755722046 4.44817066192627 4.89248275756836 4.52050256729126 26.1507339477539 24.4084892272949 3.54096746444702 7.98898506164551 6.48171091079712 3.05467772483826 6.25935220718384 20.4880809783936 3.62471413612366 17.1943206787109 7.22909259796143 6.31387090682983 6.76603555679321 4.54538297653198 5.58982133865356 33.0866432189941 18.2931346893311 12.820237159729 6.21744871139526 2.84602046012878 1.35952138900757 0.89864593744278 0.742142975330353 1.4122953414917 0.914412558078766 0.923937082290649 0.869919419288635 7.28587818145752 46.2615585327148 13.3018083572388 22.5009613037109 11.8845691680908 36.6719551086426 44.3761138916016 31.2588386535645 29.3901290893555 29.0127792358398 31.5382022857666 24.9150810241699 20.8655395507812 27.9222793579102 18.2144393920898 16.4911804199219 15.3952903747559 14.3863487243652 15.0394248962402 15.4684047698975 15.8037519454956 16.1096534729004 15.3700609207153 14.4867010116577 13.0695781707764 12.8057174682617 12.9675388336182 13.569540977478 13.699161529541 12.9319515228271 12.8154268264771 11.8281545639038 11.5532665252686 10.1576204299927 8.66080188751221 7.73188257217407 7.33175086975098 6.48295783996582 6.07595348358154 3.85313701629639 5.33342123031616 7.21370267868042 17.102180480957 2.52547264099121 3.06183695793152 2.41354870796204 2.41008520126343 1.83085465431213 1.67541790008545 0.906358122825623 2.04174661636353 2.78276300430298 5.15801668167114 5.27500104904175 5.45036220550537 5.55221939086914 6.03464698791504 5.86938810348511 5.78568124771118 9.6727991104126 4.9329137802124 4.41345548629761 4.20672559738159 2.44558715820312 1.83003604412079 2.96067953109741 5.98162364959717 8.97514820098877 7.31024694442749 6.30447340011597 18.6962375640869 6.04679441452026 2.73202228546143 6.66665840148926 8.95736789703369 3.00958561897278 4.92541313171387 4.36244201660156 2.81369805335999 2.66191625595093 2.40352988243103 1.9168289899826 1.64706373214722 1.52060353755951 1.465611577034 1.46792149543762 1.3364086151123 1.31586182117462 2.34209537506104 0.865967988967896 0.559793293476105 23.9115390777588 15.8817501068115 32.8966369628906 22.6471366882324 22.37548828125 16.2279529571533 16.8847942352295 13.9544048309326 22.8168525695801 17.8005847930908 11.3134632110596 7.58647203445435 6.9728536605835 5.20488214492798 4.96216249465942 3.53006744384766 3.19398975372314 3.18832087516785 4.52357959747314 5.61107778549194 4.41061496734619 5.13993549346924 22.2265205383301 4.07718992233276 12.0382013320923 2.74014115333557 3.2423083782196 1.90506732463837 1.78110468387604 0.616427361965179 -1.03910970687866 -1.28003585338593 -1.37598490715027 -1.62099254131317
24.0585670471191 6.28750944137573 1.90747654438019 3.45647215843201 7.68356657028198 4.43634605407715 4.24304676055908 4.70526266098022 2.72607612609863 3.23981237411499 1.48195862770081 1.09551084041595 1.56155490875244 2.99943256378174 2.83472490310669 1.98203992843628 2.61060762405396 2.85868787765503 3.55422043800354 2.35586953163147 4.39081048965454 18.9837474822998 6.25604581832886 5.9555835723877 3.19004607200623 2.55239033699036 3.24535417556763 2.73787713050842 2.37709450721741 2.70828890800476 1.8522515296936 3.35280799865723 6.79317092895508 2.99108409881592 3.36496376991272 12.2226295471191 9.05074596405029 10.6281824111938 17.2321968078613 6.71859216690063 2.95158338546753 3.04486465454102 6.4938645362854 10.425106048584 8.26991367340088 0.804729044437408 7.11091470718384 18.8349075317383 13.7885141372681 4.51942873001099 12.9645233154297 21.2718677520752 22.6614170074463 44.0407333374023 25.4730186462402 31.1948471069336 25.4696025848389 30.8381519317627 16.9900894165039 15.5554084777832 20.987133026123 26.7221698760986 17.3625183105469 15.7843523025513 15.8862190246582 14.4161815643311 13.3583488464355 13.913670539856 14.3406715393066 14.6558198928833 14.7583436965942 14.5654516220093 13.8763437271118 11.901517868042 11.9742650985718 11.564603805542 12.128155708313 12.1235437393188 12.2289743423462 11.7780208587646 11.6779747009277 10.92604637146 9.66582012176514 8.80099678039551 7.16568517684937 7.3031907081604 6.86344623565674 5.97359752655029 31.3445949554443 13.0199899673462 5.11435556411743 3.81771850585938 2.28174352645874 3.24808382987976 2.33887100219727 2.22014117240906 2.29818081855774 1.63020300865173 0.888895452022552 0.798939049243927 2.69195532798767 3.98599076271057 4.91431093215942 5.28464078903198 5.38122844696045 5.84003305435181 5.69867610931396 5.627037525177 5.73934936523438 15.6243829727173 21.2384910583496 4.69602489471436 28.8767986297607 11.3630933761597 1.8108549118042 4.41454744338989 8.16338539123535 6.691086769104 5.83450651168823 11.3381700515747 13.2722501754761 6.47414779663086 12.014778137207 8.77175903320312 3.76583623886108 4.08845233917236 3.62229228019714 2.59182143211365 2.50991034507751 2.37911462783813 2.05034065246582 1.64364039897919 1.40966629981995 1.32682728767395 1.29066836833954 1.28465807437897 1.21742403507233 2.08425974845886 0.967574417591095 0.772498369216919 0.537587344646454 14.7933902740479 13.061149597168 23.7490139007568 19.0064277648926 19.3456516265869 14.506199836731 12.3936967849731 11.7449226379395 16.5558795928955 11.255898475647 6.90435695648193 6.5605616569519 5.47556018829346 4.72130441665649 3.98146152496338 3.28542900085449 3.01909112930298 4.01682567596436 4.75710487365723 5.0802001953125 4.86620235443115 2.40221524238586 1.61774468421936 8.95456123352051 4.04828119277954 3.10003781318665 2.21446895599365 1.70504140853882 1.67947447299957 -1.08664739131927 -1.35040318965912 9.25423717498779 11.8438320159912
7.28585004806519 3.79905223846436 0.509873807430267 8.47166919708252 5.13814306259155 3.46354222297668 3.45340275764465 3.25345659255981 2.8759069442749 1.31338047981262 1.2020024061203 4.72933197021484 1.00116956233978 1.80339860916138 4.35296010971069 0.695640325546265 1.75915563106537 1.46072018146515 2.28197908401489 1.45340371131897 2.27245593070984 2.62081265449524 1.30333232879639 1.14441668987274 1.75120234489441 2.08402848243713 2.95117330551147 2.38511037826538 10.0954647064209 2.25081038475037 6.90758562088013 1.45659840106964 6.42162179946899 8.16162014007568 6.08047246932983 4.06725168228149 7.73366022109985 8.27416229248047 7.04936027526855 5.32937335968018 3.2286434173584 2.26505517959595 11.6877517700195 1.73728597164154 0.558188617229462 0.42414465546608 9.10398197174072 13.7986516952515 11.5096244812012 14.9524602890015 17.2257537841797 36.814323425293 11.6203269958496 30.3958301544189 30.2616806030273 25.4580402374268 23.5852241516113 17.5461196899414 20.2420425415039 37.8830795288086 20.2987880706787 16.2674331665039 17.1289863586426 15.0466260910034 14.5184516906738 13.2279100418091 12.5548944473267 12.8481578826904 12.2062473297119 13.1293249130249 13.538049697876 13.6250066757202 12.9674129486084 12.3898944854736 11.1978330612183 10.7413549423218 10.9173250198364 11.0479736328125 11.2664098739624 10.9581422805786 10.8219013214111 10.2312450408936 10.1074647903442 8.87180137634277 7.58059358596802 7.00936651229858 6.16419887542725 5.86378479003906 5.6044454574585 15.4127492904663 4.92007684707642 3.0825879573822 15.535457611084 9.72145557403564 2.69724059104919 2.23343372344971 2.22447085380554 1.71134376525879 1.56771552562714 0.778457581996918 1.88806283473969 3.86634922027588 4.76279783248901 5.12923049926758 5.21963787078857 5.10220623016357 5.61088418960571 5.45667028427124 5.38732576370239 6.24769830703735 7.03047513961792 9.00491619110107 3.94871497154236 25.160493850708 5.88041114807129 0.582887470722198 7.45065641403198 5.90324354171753 5.46118068695068 4.89045763015747 7.91642427444458 13.3809661865234 9.03837299346924 6.27197122573853 4.54473257064819 2.84965705871582 3.28746342658997 2.92075204849243 2.43842816352844 2.20724940299988 1.91033983230591 1.62718844413757 1.34544682502747 1.23868203163147 1.20317208766937 1.19733011722565 1.12734878063202 1.82276964187622 0.919802486896515 0.732886731624603 0.491956532001495 7.96075487136841 12.7258052825928 17.2868843078613 15.9516878128052 16.2685699462891 12.7128257751465 11.7785673141479 9.43922519683838 13.8591728210449 10.3850727081299 7.6008038520813 5.42709922790527 6.03805160522461 4.58770656585693 4.37521648406982 3.15841364860535 2.90951299667358 2.92141199111938 4.1799168586731 4.79203224182129 4.11428499221802 2.2388973236084 27.9999141693115 1.61394071578979 6.35204601287842 2.9785258769989 2.69019198417664 1.44967007637024 -0.107124119997025 -1.15661823749542 -1.53768110275269 2.27279257774353 5.03813982009888
0.598853945732117 9.64869213104248 23.2692775726318 1.06788504123688 14.1294641494751 15.2182664871216 8.48472213745117 15.0949001312256 2.66368961334229 2.061527967453 0.668524563312531 0.70281583070755 0.949220061302185 1.69547712802887 1.75644683837891 3.92458629608154 1.29801321029663 1.48307347297668 1.81439316272736 1.18134415149689 0.874051034450531 1.12497460842133 1.11772060394287 2.53049039840698 1.00553739070892 1.32823312282562 1.40882980823517 2.24695825576782 2.117760181427 2.15314245223999 5.30139493942261 32.1714134216309 14.2769775390625 16.3757400512695 4.12658452987671 20.9078617095947 9.77500057220459 12.4549465179443 5.15714025497437 4.821861743927 8.87584781646729 7.22996854782104 4.31133985519409 24.0390129089355 8.70049285888672 12.8684520721436 7.99669075012207 31.8246154785156 31.1254138946533 24.9083576202393 25.7900104522705 27.2151927947998 48.633716583252 20.7998085021973 29.6940670013428 21.761531829834 22.3796768188477 19.5889549255371 28.0922756195068 18.03759765625 19.2939567565918 14.8642711639404 14.352388381958 13.6932010650635 13.3259925842285 12.1913185119629 11.9217824935913 11.4404630661011 11.7372856140137 12.2995347976685 12.4905090332031 12.553897857666 12.5562810897827 11.9215183258057 10.3735113143921 10.3702535629272 9.81147956848145 10.2414884567261 10.1117572784424 10.5012979507446 10.071665763855 9.97579956054688 9.51511192321777 8.41031742095947 7.13015556335449 5.51232290267944 7.43360614776611 6.31220197677612 5.54730367660522 11.009313583374 6.59396886825562 19.0953731536865 3.26250433921814 8.78226661682129 2.40495371818542 2.14379262924194 2.13398170471191 1.65299665927887 1.51734852790833 0.736434459686279 1.83008301258087 2.48521995544434 4.62082529067993 4.72713756561279 4.91297769546509 5.00615262985229 5.45671701431274 5.30615711212158 5.16109561920166 5.23105478286743 4.86340284347534 6.30634355545044 4.13558101654053 9.94792938232422 5.59312057495117 30.2385501861572 1.94169676303864 5.9577784538269 4.99188327789307 4.59811305999756 4.2162914276123 8.2921314239502 6.42888212203979 4.09381675720215 4.47955894470215 2.5193920135498 2.91813254356384 2.71949911117554 2.33587265014648 2.10712575912476 2.05407428741455 1.72811913490295 1.37173187732697 1.17525970935822 1.1005654335022 1.08931994438171 1.02089822292328 0.926874995231628 1.64925754070282 0.852693915367126 0.670169472694397 0.407243579626083 8.81272029876709 10.1121854782104 12.415265083313 12.9222297668457 13.2044172286987 10.4159984588623 9.37703609466553 8.36879730224609 11.2301597595215 8.51642894744873 5.64211463928223 5.73818159103394 4.75106620788574 4.17547845840454 3.16909742355347 2.97147250175476 2.75732278823853 4.0597186088562 4.44532012939453 4.42740106582642 4.05733633041382 1.48288106918335 4.54066848754883 1.17353892326355 0.544060826301575 2.81673955917358 1.74580883979797 -0.709289908409119 -0.395479500293732 11.0574178695679 -1.52401161193848 -0.269305884838104
-1.93074309825897 1.05945992469788 1.05323803424835 33.7167625427246 2.99156069755554 9.95765018463135 3.89639282226562 9.4604320526123 21.9736423492432 15.6105842590332 16.054069519043 1.29207456111908 1.06625616550446 1.8933584690094 0.993812382221222 0.987340331077576 2.98372077941895 1.26822853088379 12.0064401626587 1.27412986755371 9.57985782623291 0.774763166904449 5.70752573013306 1.05233132839203 0.502698123455048 0.613522469997406 0.659773647785187 1.07369613647461 1.37766003608704 1.81537663936615 2.14970183372498 1.91037631034851 7.25476884841919 5.49405860900879 27.2359752655029 13.2538213729858 17.8865585327148 10.3530120849609 19.9252853393555 16.5889701843262 3.14969825744629 28.8284606933594 9.35222339630127 36.8249244689941 7.26782369613647 2.28512811660767 5.18702745437622 15.9225635528564 20.2777442932129 34.3399391174316 36.8127403259277 24.8070392608643 22.1570568084717 28.2484436035156 18.1325950622559 20.9509944915771 20.3515682220459 27.9803981781006 21.698917388916 18.0829296112061 14.8175239562988 14.0275955200195 12.6041927337646 12.6543560028076 11.9838962554932 12.1278657913208 11.1148309707642 10.8644943237305 11.0058536529541 10.8235635757446 11.3846778869629 11.8166046142578 11.8594522476196 11.2322864532471 10.8331708908081 9.83397388458252 9.36261081695557 9.55583667755127 9.63428688049316 9.90714073181152 9.54962635040283 9.29995059967041 8.97392559051514 7.90796375274658 7.38241815567017 18.7273998260498 6.38771677017212 5.74433660507202 5.41390085220337 5.1689920425415 7.83551073074341 4.05045652389526 10.4556179046631 9.75754642486572 8.95617771148682 2.60457348823547 2.05316114425659 2.03068375587463 1.58610427379608 1.45848309993744 0.563218235969543 2.40512681007385 3.59669995307922 4.42840194702148 4.77776622772217 4.86860990524292 4.77519750595093 5.24219131469727 4.62799882888794 4.49688863754272 4.52912759780884 4.75316858291626 7.7153148651123 3.6617443561554 20.0588111877441 3.47269868850708 21.7864952087402 4.45302534103394 3.67134952545166 3.75091123580933 3.80592632293701 6.95516633987427 4.41108322143555 4.70355987548828 3.6672146320343 2.98456978797913 2.56809687614441 2.60509276390076 2.18203210830688 2.21026110649109 1.97591137886047 1.63211309909821 1.39369893074036 1.15096747875214 1.02718782424927 1.01058340072632 0.891794681549072 0.900513172149658 1.53077447414398 0.805479288101196 0.648319721221924 0.397487759590149 4.69389867782593 7.08831167221069 10.3607387542725 11.4439849853516 11.6804504394531 9.63297843933105 8.89481830596924 7.11549758911133 9.92153072357178 7.83934831619263 5.72473478317261 4.64759874343872 5.33724212646484 3.9938440322876 3.38796758651733 2.8647096157074 2.65854978561401 3.50576901435852 3.88274741172791 3.48706412315369 4.83833789825439 29.3928928375244 4.22519588470459 1.27547562122345 11.6942281723022 0.540989995002747 2.46806216239929 11.8512659072876 2.32622814178467 13.7166357040405 5.83199834823608 2.22872161865234
-2.42148327827454 -1.45304393768311 18.6868858337402 13.263204574585 21.6887493133545 7.00803279876709 5.83183908462524 4.95952939987183 5.62762832641602 9.56150817871094 3.25171256065369 25.9995555877686 16.4879894256592 1.49219560623169 1.64249455928802 10.0137548446655 10.1199369430542 1.13053870201111 1.03706324100494 1.25447702407837 1.0555704832077 7.91855621337891 3.49836921691895 0.771969497203827 0.521130323410034 4.73352146148682 18.7544441223145 3.93569159507751 1.37273681163788 4.97734832763672 1.97011375427246 1.98127222061157 3.19246125221252 3.96261501312256 19.8238201141357 23.2240390777588 13.8521776199341 4.71060228347778 5.5373969078064 3.87900233268738 8.11687660217285 5.20824289321899 9.02031230926514 14.2418231964111 47.702808380127 47.6835784912109 42.7853393554688 19.5641288757324 18.7350578308105 28.9511966705322 31.8719997406006 25.2682075500488 18.3865528106689 19.327672958374 14.3348484039307 21.0854740142822 19.0185012817383 18.9488430023193 16.9496173858643 16.1318511962891 13.6541261672974 12.6885347366333 11.6281185150146 10.7491226196289 11.4761800765991 11.2656545639038 10.2571926116943 10.2629404067993 10.0208206176758 10.3281440734863 10.785454750061 10.9057388305664 11.0137138366699 11.019380569458 10.4392509460449 9.25240039825439 9.25742530822754 8.70190620422363 9.19055271148682 9.4392261505127 9.20370292663574 8.83964443206787 8.7506160736084 8.52660083770752 7.43419122695923 6.33777904510498 8.66727542877197 7.94234991073608 5.67141675949097 4.63519144058228 6.45828342437744 4.43120193481445 6.20930957794189 4.5236029624939 6.43493700027466 3.96264290809631 1.98353612422943 1.96183466911316 1.53788995742798 1.4153459072113 0.538677752017975 1.68491113185883 2.29956960678101 4.30379199981689 4.40674114227295 4.59372091293335 4.67426824569702 4.46737337112427 4.53562450408936 4.34243822097778 4.53602361679077 4.85844039916992 4.55806159973145 4.07112741470337 5.47686767578125 20.6518421173096 9.41362571716309 1.72982239723206 5.55380249023438 9.10012149810791 13.1772003173828 5.95784616470337 5.57587194442749 3.91354084014893 2.54576277732849 2.95916867256165 1.85831761360168 2.41868352890015 2.44525861740112 2.11369824409485 1.80197584629059 1.85331797599792 1.4753725528717 1.17431998252869 1.0011214017868 0.870621800422668 0.824323654174805 0.844559490680695 0.832363188266754 1.39128649234772 0.747841358184814 0.584539949893951 0.322279930114746 6.25143766403198 7.17487955093384 8.7554407119751 9.78366184234619 9.97145652770996 8.09446907043457 6.45916366577148 8.50825881958008 8.46661281585693 5.20420455932617 4.76835155487061 5.08807039260864 4.17690801620483 3.75372076034546 2.8829140663147 2.70123839378357 2.66637206077576 3.84146070480347 17.2329387664795 31.474946975708 11.1376800537109 32.4172248840332 26.3438377380371 0.782685816287994 30.2499828338623 2.55302906036377 10.3925590515137 5.7971715927124 0.777030766010284 2.87236547470093 19.6219997406006
21.4731006622314 4.36719751358032 0.984071671962738 1.44060254096985 7.71977138519287 6.36479473114014 9.60686588287354 15.3171901702881 2.7353367805481 3.67234706878662 10.5118923187256 6.94023275375366 7.56556177139282 2.36155915260315 0.641621351242065 0.948951482772827 0.540457189083099 7.12083053588867 0.887577056884766 16.5053672790527 3.60657954216003 2.58162999153137 2.42721271514893 8.77270126342773 8.43191528320312 10.9408531188965 1.53805506229401 7.77032709121704 4.60928297042847 2.6918625831604 1.53514611721039 1.95963132381439 27.6580486297607 24.2248649597168 11.6601982116699 20.5995635986328 11.0975933074951 22.7093067169189 3.43226289749146 1.85936808586121 1.99031817913055 9.94498348236084 12.4512786865234 19.1146812438965 9.18038940429688 18.6008644104004 26.1478977203369 26.1174068450928 22.1851329803467 19.3663291931152 18.9820098876953 24.5602130889893 14.1961660385132 27.9523277282715 28.4126167297363 17.1701622009277 17.506404876709 15.0070524215698 16.4822654724121 14.8290414810181 14.0414257049561 11.4401016235352 11.5282564163208 10.0799322128296 10.8056612014771 10.3184080123901 10.3507356643677 9.61578178405762 9.60030841827393 9.65675354003906 9.75701522827148 10.0917835235596 10.4887819290161 10.4968357086182 9.93789100646973 9.67741012573242 8.85215663909912 8.38957405090332 8.80535984039307 8.67051029205322 9.04526805877686 8.49592208862305 8.41787815093994 8.16472339630127 7.17614078521729 6.65023756027222 5.65655326843262 5.86869716644287 5.57041597366333 12.2643537521362 4.38408756256104 5.13594675064087 3.8265106678009 4.30265522003174 5.31744480133057 3.62069344520569 2.41302084922791 1.90943336486816 1.8898811340332 1.48613321781158 1.35984110832214 0.499970287084579 2.22330498695374 3.36104369163513 4.13911533355713 4.47387266159058 4.54717826843262 3.95910024642944 4.48534154891968 4.31971502304077 4.31150817871094 7.97813749313354 4.43608474731445 4.11986207962036 3.05591893196106 2.30985069274902 14.5496253967285 5.57342100143433 3.38115167617798 2.92306089401245 8.295166015625 6.06133031845093 4.90995979309082 2.90781903266907 3.12951064109802 2.60226368904114 2.23876571655273 2.32548427581787 2.3523313999176 1.70886707305908 1.99535489082336 1.7772341966629 1.42122054100037 1.20157432556152 0.978739023208618 0.769603788852692 0.809086799621582 0.802100896835327 0.793791770935059 1.3079719543457 0.707736194133759 0.555645108222961 0.34943500161171 3.32316732406616 5.32276487350464 7.95172262191772 8.88567733764648 9.07662105560303 7.4060640335083 6.97287893295288 5.93750858306885 7.68819665908813 6.32477235794067 4.48747873306274 4.86720514297485 3.99517059326172 3.61907863616943 3.05226182937622 2.65797781944275 2.46886205673218 3.2651891708374 9.83348560333252 3.43833804130554 13.3562965393066 13.4454689025879 7.97188234329224 24.9831314086914 6.38693618774414 22.5820941925049 -0.282898545265198 8.36202144622803 8.38933277130127 8.75372409820557 5.7100944519043
1.10581386089325 8.16321182250977 -1.80730199813843 -0.45074924826622 4.37852954864502 24.2206611633301 37.4543991088867 18.5435104370117 26.3673248291016 7.38367223739624 5.98310136795044 5.50721025466919 18.38551902771 5.34299850463867 26.8397998809814 10.5758790969849 8.76762008666992 0.93492579460144 11.105544090271 3.14090180397034 11.4193258285522 0.9193514585495 2.79422068595886 6.00316286087036 8.11191272735596 8.52192783355713 20.4463977813721 15.4757661819458 8.48467922210693 10.8868637084961 20.2391719818115 12.9541721343994 17.9222812652588 20.1574516296387 23.7935161590576 14.4165620803833 11.9788370132446 6.8086199760437 10.0548372268677 9.69913005828857 18.3316020965576 5.42211866378784 8.74757289886475 11.3073444366455 26.0368118286133 28.9056797027588 24.9749431610107 41.6502799987793 23.5145168304443 15.3003568649292 16.5841236114502 16.1219673156738 29.8598651885986 15.7705936431885 17.5004215240479 14.6624851226807 15.7027721405029 14.9040937423706 15.2151718139648 13.8431949615479 12.9954280853271 11.560661315918 10.9145545959473 9.91007518768311 9.37084293365479 9.95612907409668 9.80306243896484 8.99864101409912 9.07272624969482 8.9162130355835 9.33463096618652 9.62202644348145 9.7131929397583 9.84926605224609 9.85415363311768 9.34216117858887 8.50107765197754 8.04239273071289 8.30351734161377 8.48067283630371 8.76146030426025 8.42550659179688 8.06144428253174 7.81056976318359 7.78779220581055 6.77624273300171 5.7524209022522 5.66330003738403 5.38004875183105 4.82445812225342 5.38096380233765 4.39937305450439 4.11068868637085 3.51258635520935 3.11898756027222 4.25930070877075 2.34681105613708 1.85250902175903 1.83256077766418 1.43816065788269 1.31712484359741 0.501669585704803 1.56746137142181 2.1420259475708 4.02682161331177 4.12275409698486 3.99983620643616 3.87461280822754 4.33626174926758 7.76299667358398 4.22458171844482 4.44409465789795 4.55814075469971 4.24624824523926 3.27823853492737 2.56001877784729 7.28307199478149 12.3173141479492 9.67685985565186 24.0984916687012 5.87053871154785 4.27179384231567 3.89676332473755 4.19389963150024 2.725670337677 2.26629114151001 2.20549511909485 1.19326090812683 2.20008134841919 2.21805047988892 1.9183783531189 1.56496393680573 1.6801598072052 1.26780796051025 0.968278110027313 0.783280372619629 0.75777792930603 0.749918937683105 0.754239141941071 0.753130733966827 1.19126892089844 0.546030819416046 0.332001030445099 0.153276458382607 4.83345127105713 7.28410291671753 8.14580535888672 8.31896591186523 7.15412521362305 6.609206199646 5.38256883621216 7.06220388412476 5.87033224105835 4.28190660476685 4.11839580535889 4.56446027755737 3.538254737854 3.41292858123779 2.67238736152649 2.50619888305664 2.43207049369812 3.55578875541687 3.35986757278442 7.62956285476685 5.52863645553589 7.67973279953003 3.14656949043274 0.638969242572784 16.5594062805176 37.2429618835449 17.3993663787842 8.1552095413208 -0.565708875656128 -1.79493951797485
5.62856531143188 9.87052536010742 7.39878845214844 -0.600664973258972 7.55360460281372 15.3993425369263 8.60741996765137 12.8549375534058 16.958122253418 9.38690948486328 6.69360399246216 12.1994695663452 5.59546232223511 8.07375240325928 4.84874105453491 5.25549125671387 6.23902559280396 7.21794080734253 5.42657327651978 8.03529262542725 2.77301168441772 7.02747106552124 6.59501886367798 22.473316192627 23.5756778717041 15.7424421310425 23.5004081726074 25.0149250030518 29.679386138916 29.7003021240234 31.6516304016113 33.8952445983887 26.516321182251 21.014856338501 17.4974327087402 17.1956081390381 7.86118316650391 31.1381130218506 24.8941020965576 20.2175331115723 24.6864471435547 24.0720462799072 14.8107290267944 20.3942337036133 12.1554288864136 21.6535053253174 18.2119579315186 24.3408546447754 22.3819313049316 13.4376125335693 12.8565082550049 27.8922996520996 13.8698091506958 16.3898620605469 13.8526220321655 14.6304054260254 13.9272613525391 13.8896980285645 14.0953340530396 12.6705484390259 12.5440769195557 10.9393901824951 9.96539783477783 10.0561800003052 8.90861892700195 9.47582340240479 9.16443061828613 9.1951150894165 8.58780765533447 8.61818504333496 8.93120384216309 8.76042461395264 9.05373382568359 9.46104621887207 9.45236682891846 8.9613676071167 8.10439300537109 8.14890193939209 7.62969398498535 8.1983118057251 8.07484340667725 8.42854022979736 7.80338621139526 7.6522045135498 7.51828622817993 6.63422393798828 6.11906957626343 5.01155185699463 5.42933797836304 5.1587872505188 4.54129219055176 4.07459211349487 3.98393106460571 3.57971382141113 3.04009604454041 3.7197163105011 2.70652794837952 2.28282785415649 1.79558563232422 1.75581681728363 1.27935600280762 0.474459558725357 0.466521829366684 2.07595753669739 3.1509735584259 3.34162306785583 3.54680490493774 16.730619430542 3.83366346359253 4.08054828643799 3.90193653106689 3.9197096824646 4.09540367126465 3.78540182113647 3.39575815200806 10.9510164260864 3.20435762405396 2.36499714851379 3.96352291107178 12.6704683303833 11.3194808959961 4.15170812606812 3.27814030647278 3.77817225456238 2.59441900253296 2.27290725708008 2.11165595054626 1.84094643592834 2.10908985137939 2.13179612159729 1.55391466617584 1.82175981998444 1.60751211643219 1.18836414813995 0.870515584945679 0.7688969373703 0.631860971450806 0.709480762481689 0.714084684848785 0.711546301841736 1.12674057483673 0.626170754432678 0.493864387273788 0.271201014518738 4.43063974380493 5.0888204574585 6.50358200073242 7.27242565155029 7.42459106445312 6.14446067810059 5.89473485946655 4.95330286026001 6.41696453094482 5.33344078063965 3.90082502365112 4.38045835494995 3.54000782966614 3.32066774368286 2.79546046257019 2.42652487754822 2.30280041694641 3.06655192375183 20.1008853912354 3.0003559589386 3.31125593185425 1.43171036243439 1.53478598594666 18.4115333557129 1.37733840942383 2.31694555282593 12.0128631591797 1.47643637657166 19.1768741607666 4.77714586257935
8.69406986236572 7.07667350769043 5.72468900680542 7.75740814208984 14.1247930526733 11.0238075256348 28.3533554077148 21.527099609375 16.8718643188477 33.4782409667969 18.4943084716797 6.23983383178711 10.4963140487671 31.8917369842529 38.2422790527344 5.17601919174194 0.527659296989441 18.9501399993896 16.3552761077881 7.81772136688232 4.80454540252686 19.1873054504395 24.26513671875 14.7948789596558 20.8588466644287 28.6128158569336 25.5664405822754 21.2626819610596 21.6295509338379 25.2186183929443 18.389440536499 23.1472930908203 27.5651779174805 14.4515190124512 18.0368270874023 6.28877878189087 35.1840896606445 11.2174692153931 20.8678874969482 44.6134262084961 27.5965728759766 22.8340435028076 19.2594356536865 22.8438472747803 22.5422515869141 22.0140838623047 16.2903804779053 19.3961486816406 20.8566036224365 30.8679237365723 22.1967830657959 25.4741687774658 42.7179565429688 16.4962177276611 12.9909248352051 13.3228397369385 12.8955278396606 12.683934211731 11.5756387710571 12.7458305358887 11.776439666748 10.9251070022583 10.0096998214722 9.52302360534668 8.78845596313477 8.32057476043701 8.85560321807861 8.83008766174316 8.17445373535156 8.24805736541748 8.08383083343506 8.50489044189453 8.66282272338867 9.08412647247314 9.07608795166016 8.60081100463867 8.49510765075684 7.86342620849609 7.4865345954895 7.74282360076904 7.88840436935425 8.10958099365234 7.70894193649292 7.32818460464478 7.15450716018677 7.15560388565063 6.1944785118103 5.23101949691772 5.24362468719482 4.98134851455688 4.47901010513306 4.28789806365967 3.72751379013062 3.83890199661255 2.81006026268005 2.92988872528076 3.21290302276611 2.21731638908386 1.74165689945221 1.70655834674835 1.33959674835205 1.22644400596619 0.454167902469635 1.44597315788269 1.9922993183136 3.18595719337463 4.71725416183472 3.3707001209259 3.7372612953186 19.2425346374512 3.86509728431702 3.78616690635681 6.72917222976685 9.25116062164307 8.08603954315186 2.86704778671265 6.87404727935791 16.7904376983643 17.6085929870605 9.06722259521484 7.9763503074646 3.64074802398682 3.47611379623413 3.43502736091614 2.57736849784851 2.43276906013489 2.00804233551025 1.99148571491241 1.19175457954407 2.0056619644165 2.0325026512146 1.76380085945129 1.31276965141296 1.50165057182312 0.942025184631348 0.554169237613678 0.562991678714752 0.577672719955444 0.676861166954041 0.67967826128006 0.675697445869446 1.05379509925842 0.4947389960289 0.300453215837479 2.3475182056427 3.94671869277954 6.04882192611694 6.76573324203491 6.90685272216797 6.04829883575439 5.57639741897583 4.69732284545898 6.03127908706665 5.05950498580933 3.62100744247437 3.5845959186554 4.07864189147949 3.25190281867981 3.14342641830444 2.36669301986694 2.25851702690125 2.29992580413818 3.3421368598938 2.88535261154175 2.49962949752808 14.4125938415527 41.4206275939941 2.52463626861572 3.74500298500061 6.73278522491455 13.1351633071899 7.94530582427979 9.56317138671875 27.9516735076904
9.77461338043213 1.85481262207031 8.78792190551758 13.2789640426636 23.3217754364014 18.3483276367188 13.4844045639038 5.66610097885132 11.0164985656738 9.85088443756104 9.42155456542969 26.8714561462402 10.5919933319092 28.8302593231201 11.3881607055664 20.1612949371338 12.7739276885986 8.38147258758545 5.56814384460449 3.06960082054138 7.31232738494873 3.92601466178894 13.3160400390625 12.6747264862061 15.5665102005005 21.0692310333252 21.4163131713867 19.4896335601807 20.7532768249512 27.2720890045166 18.9196319580078 21.1045722961426 21.2136058807373 24.466251373291 17.0736598968506 44.5296592712402 8.73431968688965 27.858154296875 26.9716453552246 24.2108154296875 33.8234024047852 33.7976989746094 35.8799324035645 25.9693126678467 16.3810253143311 16.0464267730713 10.5394258499146 14.5934457778931 19.8313446044922 19.2460231781006 36.9145355224609 27.881067276001 18.3940601348877 24.1207275390625 12.0760688781738 11.9389305114746 11.4467306137085 11.7317657470703 11.5051794052124 11.9335346221924 10.9280004501343 10.7370567321777 9.45872402191162 8.77425384521484 8.91304397583008 7.9760365486145 8.51832675933838 8.34425830841064 8.39521026611328 7.91746282577515 7.78411245346069 8.15932178497314 8.27287006378174 8.36960124969482 8.59742259979248 8.59550476074219 8.20152950286865 7.54472494125366 7.59345722198486 7.06193923950195 7.57788276672363 7.41536331176758 7.73964738845825 7.08543491363525 6.93238210678101 6.87697219848633 6.07965612411499 5.59806203842163 4.67055940628052 5.03557443618774 4.77421426773071 4.20400047302246 3.79598045349121 3.72935318946838 3.35251808166504 2.85172557830811 2.84841680526733 2.15102529525757 1.68563866615295 1.62182223796844 1.63284611701965 1.18484842777252 0.42621898651123 0.421461969614029 1.80505764484406 18.4980487823486 2.77926421165466 2.97295713424683 3.19846129417419 4.53520727157593 5.32920169830322 20.5976390838623 4.15035390853882 4.02847480773926 3.93702864646912 6.58733749389648 2.43479919433594 3.96205687522888 7.66294193267822 8.00464725494385 6.43258905410767 5.67338752746582 3.31819725036621 3.26167798042297 3.10183882713318 2.38442993164062 1.99112725257874 1.91181993484497 1.67686665058136 1.93805515766144 1.96539533138275 1.69430315494537 1.29044592380524 1.42489540576935 1.02691078186035 0.242897242307663 0.124890260398388 0.163374722003937 0.48037388920784 0.548118472099304 0.642170131206512 1.00117814540863 0.575069904327393 0.444409012794495 0.23366117477417 3.66942262649536 4.2178430557251 5.49030828475952 6.14311599731445 6.27648591995239 5.2466082572937 5.10329723358154 4.3556056022644 5.52510833740234 4.57023525238037 3.38603281974792 3.93947863578796 3.2457001209259 3.04974174499512 2.60486102104187 2.28193521499634 2.17106771469116 3.04033160209656 29.4837322235107 29.6316471099854 2.14849925041199 4.09515285491943 2.27974486351013 4.68335390090942 0.450926005840302 0.453406393527985 2.19377613067627 11.3338165283203 6.61830472946167
12.8874044418335 6.85491895675659 5.41977882385254 27.1521015167236 23.5022678375244 27.9467620849609 9.65532779693604 28.5185508728027 13.7342071533203 12.3124170303345 29.832389831543 19.5085582733154 45.8737335205078 23.1503162384033 36.5494842529297 31.7696647644043 38.6047668457031 11.7541093826294 4.2831244468689 7.02928447723389 5.27716064453125 1.93335378170013 7.24300813674927 15.0053329467773 13.2334060668945 24.1382064819336 31.7252235412598 26.7081985473633 18.6683406829834 16.4174880981445 18.8481864929199 18.1077041625977 17.5462398529053 15.4400482177734 10.551718711853 14.3633270263672 37.1227798461914 19.7607383728027 15.1663103103638 17.4921951293945 24.7426738739014 23.1552124023438 20.9767322540283 15.8159275054932 17.2608413696289 12.9457340240479 11.8269147872925 21.2251720428467 22.2970066070557 26.5602645874023 24.1039505004883 21.8639011383057 16.0589447021484 18.3848705291748 11.7295160293579 11.0702886581421 10.9189510345459 10.9070777893066 10.7518672943115 10.0726232528687 10.9089517593384 10.1400051116943 9.34941291809082 8.85800933837891 8.53915500640869 7.94505739212036 7.56864452362061 8.07345771789551 8.08749294281006 7.5460844039917 7.55370283126831 7.39734125137329 7.78407859802246 7.8336353302002 8.25577163696289 8.29073429107666 7.91453456878662 7.87163209915161 7.26437473297119 6.83308744430542 7.06056356430054 7.21114158630371 7.41323900222778 7.01272773742676 6.6245436668396 6.52486658096313 6.55619239807129 5.68188858032227 4.78014326095581 4.86283588409424 4.60453653335571 4.14334535598755 3.97086310386658 3.47718238830566 3.57674384117126 2.76672673225403 2.58562541007996 2.0721161365509 2.07160997390747 1.61311101913452 1.57301795482635 1.24475288391113 1.13416993618011 0.388724803924561 1.76830434799194 2.82051515579224 28.3203144073486 32.4620513916016 28.7257137298584 5.53243017196655 12.1527986526489 3.41619873046875 5.43220376968384 10.2103233337402 3.72305655479431 3.47024416923523 6.18953895568848 3.13556385040283 5.56383180618286 5.79434013366699 5.37624883651733 4.70873928070068 3.26818013191223 3.14039731025696 3.06138467788696 2.06816029548645 2.19460320472717 1.85510456562042 1.82976138591766 1.87688755989075 1.89897751808167 1.36894834041595 1.60934126377106 1.37815022468567 1.01446402072906 11.6923112869263 11.6839532852173 0.137217566370964 0.401863873004913 0.451891094446182 0.184122920036316 0.447140008211136 0.463223218917847 0.369892090559006 0.204999297857285 1.79767405986786 2.52471446990967 5.14810609817505 5.75723695755005 5.8996262550354 5.2216272354126 4.81715536117554 4.14043140411377 5.22607660293579 4.40172672271729 3.226646900177 3.07287502288818 3.76029634475708 2.9989902973175 2.87041187286377 2.21865153312683 2.11914420127869 2.16337275505066 3.13850450515747 2.574063539505 12.2195243835449 12.543327331543 17.5485763549805 20.0189590454102 30.7835788726807 25.5094528198242 34.6293411254883 7.4069938659668 9.29403400421143
6.64388179779053 21.9508304595947 25.1475162506104 17.7897605895996 27.3666286468506 18.3211078643799 8.95456504821777 9.48379039764404 14.8065900802612 24.3651123046875 13.5633945465088 28.3349552154541 25.8480186462402 18.1625709533691 14.6387367248535 11.467456817627 13.9435329437256 11.5130805969238 28.2277145385742 5.27982139587402 11.0539417266846 21.3149070739746 40.6995811462402 17.1429080963135 26.9584980010986 26.1218852996826 21.115421295166 16.6624393463135 16.9139270782471 16.9904098510742 12.9727973937988 15.7615718841553 13.8519763946533 16.2490081787109 22.7746849060059 11.5785465240479 14.0453128814697 14.8495082855225 15.2114448547363 10.5137825012207 12.2596273422241 19.4827423095703 19.1741561889648 27.8779621124268 31.7577171325684 13.4478511810303 17.9784088134766 19.7353363037109 20.7354354858398 23.6846446990967 23.3807888031006 18.4876842498779 16.5153522491455 14.2927532196045 13.5329456329346 10.5100183486938 10.3702259063721 9.72377395629883 9.98739242553711 9.85006618499756 10.3287773132324 9.56265258789062 9.44768619537354 8.48163414001465 7.96564531326294 8.06707382202148 7.28782510757446 7.75776386260986 7.78093242645264 7.25548124313354 7.27959632873535 7.16009521484375 7.4908504486084 7.50507354736328 7.60744571685791 7.88263320922852 7.90314340591431 7.5113263130188 6.8792896270752 6.86801052093506 6.34600448608398 6.88170671463013 6.75486660003662 7.05811786651611 6.42551231384277 6.28889036178589 6.30665016174316 5.46205282211304 4.58926773071289 4.28885650634766 4.66426992416382 4.42079591751099 3.89071440696716 3.52384471893311 3.48041653633118 2.53339529037476 2.67098808288574 2.26288199424744 1.99781084060669 1.55055665969849 1.51116633415222 1.19673705101013 1.08398020267487 0.364831775426865 1.24989569187164 1.73901510238647 5.5822377204895 13.0634746551514 15.1824760437012 12.9018888473511 4.11110353469849 6.12415885925293 3.26943373680115 3.86589241027832 3.83077001571655 10.2055730819702 10.4807739257812 7.49793577194214 2.98596835136414 4.14176273345947 4.11519384384155 4.30600452423096 3.78270363807678 3.03913569450378 2.95489501953125 2.54018902778625 2.13031935691833 1.79543650150299 1.7643848657608 0.912187337875366 1.77938532829285 1.83255112171173 1.56623327732086 1.87913060188293 1.34106254577637 0.901058971881866 5.14675331115723 10.8987112045288 4.58606815338135 3.29798436164856 4.41632413864136 4.45701932907104 0.619089186191559 0.378246784210205 0.272161483764648 0.0937443673610687 1.74082469940186 2.53901052474976 3.67644047737122 4.88763856887817 5.40404224395752 4.54630327224731 4.46188688278198 3.63796091079712 4.8103346824646 3.98133301734924 3.09557104110718 3.61643838882446 2.97486662864685 2.87174201011658 2.26999044418335 2.14096617698669 2.04305052757263 3.09288740158081 33.9370574951172 3.33406853675842 7.000657081604 15.4928169250488 13.1563186645508 11.6994962692261 19.8422985076904 19.1220531463623 25.7521343231201 19.0794734954834
19.5537338256836 16.2064399719238 20.9300556182861 30.5167846679688 20.5165176391602 18.7383823394775 8.04031753540039 9.21639633178711 18.3991527557373 10.4575223922729 32.5113868713379 22.9909648895264 16.25803565979 18.2484550476074 11.6275253295898 9.87848567962646 7.94401693344116 17.0829315185547 6.60048294067383 10.2442998886108 9.33082675933838 16.634744644165 21.1410388946533 18.4623584747314 20.2572479248047 23.928596496582 14.8296194076538 16.0453338623047 12.3724336624146 11.0356006622314 12.3845767974854 11.9728183746338 11.256495475769 12.2604112625122 12.0535726547241 9.35458564758301 16.1293106079102 12.4445552825928 18.3853569030762 39.5054817199707 40.5352973937988 36.6104125976562 32.915340423584 32.7452011108398 29.4157562255859 23.8241233825684 15.2024774551392 22.9157295227051 25.5152912139893 19.7250175476074 18.9671649932861 16.1748867034912 14.3902826309204 13.5271692276001 12.9861555099487 10.0764856338501 9.73845386505127 9.63455867767334 9.48998165130615 9.3111629486084 8.89806747436523 9.60337924957275 9.03838157653809 8.35396289825439 8.01789283752441 7.75747537612915 7.00044059753418 7.43556213378906 7.35360431671143 7.38981628417969 6.92234659194946 6.93789577484131 6.78732967376709 7.16164016723633 7.14320993423462 7.5254921913147 7.5402717590332 7.15655851364136 7.11112689971924 6.57670593261719 6.1534366607666 6.3900728225708 6.55076217651367 6.77643537521362 6.39177942276001 6.01248025894165 6.06373691558838 5.37377262115479 4.94536924362183 4.11325931549072 4.50710153579712 4.27941942214966 3.85365915298462 3.69312286376953 3.37086367607117 3.04434394836426 2.56775760650635 2.42001891136169 1.92555463314056 1.91427898406982 1.48739063739777 1.4384571313858 1.13462519645691 1.03153312206268 0.282643407583237 1.66511070728302 2.62002849578857 8.58789920806885 9.71756362915039 7.82538366317749 3.52832794189453 18.656925201416 27.4682884216309 3.34695911407471 3.53602981567383 4.51127481460571 4.6448917388916 5.29673337936401 2.23205757141113 3.20903730392456 3.73374772071838 3.8174729347229 3.36160254478455 2.97917079925537 2.88920307159424 2.79205203056335 1.93767702579498 2.06940126419067 1.70312225818634 1.49781036376953 1.76477110385895 1.74673080444336 1.26900351047516 1.49436700344086 1.32720923423767 0.951964795589447 3.83241963386536 3.58389234542847 4.89480495452881 1.81287825107574 5.77146863937378 -0.276216179132462 0.275899678468704 0.263141751289368 0.186860725283623 -0.320053845643997 4.43829488754272 1.90398383140564 3.53794503211975 4.1990270614624 5.10933828353882 4.56820487976074 4.2378625869751 3.67684149742126 4.58656167984009 3.83071613311768 2.95688199996948 2.80805134773254 3.4876651763916 2.79403185844421 2.36485767364502 2.0884428024292 2.00429606437683 2.68823766708374 2.99152255058289 8.68129730224609 3.79016542434692 7.0490894317627 9.84265613555908 8.78900337219238 14.1741046905518 13.7134323120117 11.273136138916 8.04529857635498
38.9173736572266 21.6772804260254 19.3087043762207 25.2588214874268 19.4966163635254 19.0437030792236 29.589958190918 6.81879758834839 11.8015060424805 10.4288692474365 18.7791233062744 18.7357978820801 15.4831571578979 15.4691314697266 18.6439228057861 4.69009780883789 7.15431976318359 21.854621887207 19.7302665710449 22.6185073852539 11.8619155883789 11.2886066436768 17.6492328643799 18.9869365692139 12.949104309082 13.3451175689697 21.3718795776367 12.8827638626099 11.0308237075806 7.45066499710083 9.30177593231201 9.79324626922607 16.7303199768066 25.1764602661133 11.068696975708 9.67609882354736 10.1163597106934 11.1236305236816 7.70586729049683 14.2932939529419 27.8063068389893 31.4805202484131 25.4346485137939 18.1405601501465 24.2672443389893 15.4948406219482 20.5964374542236 27.1590194702148 22.1101875305176 19.7993049621582 17.5781745910645 14.6771583557129 13.0460987091064 12.6290502548218 12.2887630462646 11.0647869110107 9.31944179534912 9.22082042694092 8.65411853790283 8.80717849731445 8.65719413757324 9.17673683166504 8.64381885528564 8.55756855010986 7.69164037704468 7.44750261306763 6.98239994049072 6.62689971923828 7.0638747215271 7.09633302688599 6.65073442459106 6.6873722076416 6.59195375442505 6.90898370742798 6.81620025634766 6.86780977249146 7.12919044494629 7.12985038757324 6.80664300918579 6.26807689666748 6.25751543045044 5.74089097976685 6.26775360107422 6.4932861328125 6.11580610275269 5.8199200630188 5.71364116668701 5.77570581436157 4.98605585098267 4.17643022537231 3.9570894241333 4.3367486000061 4.11427640914917 3.61013031005859 3.14823079109192 3.25156116485596 2.36876583099365 2.49541687965393 2.10082936286926 1.84861159324646 1.42436897754669 1.37424731254578 1.09059929847717 0.979443728923798 0.236374050378799 1.13571441173553 1.57602095603943 3.0986156463623 5.07754230499268 5.80607223510742 4.6542272567749 3.74880838394165 8.11779117584229 21.1373195648193 3.43160605430603 4.32767295837402 3.64684844017029 3.34651803970337 3.7735059261322 2.53869819641113 3.46402502059937 3.06990146636963 3.33858132362366 2.90894341468811 2.78565835952759 2.70046067237854 2.26239609718323 1.98544192314148 1.66204285621643 1.66353714466095 0.809362947940826 1.65729224681854 1.68594062328339 1.45731127262115 1.03561532497406 1.24383401870728 0.848243892192841 2.85909223556519 3.7361261844635 2.38450050354004 0.817654967308044 15.4435443878174 -0.139368146657944 0.501201808452606 0.512138545513153 -0.276407390832901 -0.551085531711578 6.73436450958252 0.837881922721863 13.4632959365845 4.61045789718628 4.70603609085083 4.02320146560669 3.52560329437256 4.39085054397583 4.03742074966431 3.00743937492371 2.77738118171692 3.39377689361572 2.75030016899109 2.69434928894043 2.13950037956238 2.02423691749573 2.01395726203918 2.93687200546265 18.6576080322266 13.808632850647 3.05243396759033 7.04526805877686 10.3769931793213 3.59566688537598 3.02173042297363 4.72488260269165 8.02071666717529
11.6947259902954 25.9361114501953 29.44118309021 22.9003791809082 20.2353324890137 13.9018859863281 11.6922235488892 12.6737623214722 12.3316307067871 27.0153255462646 17.9991874694824 15.5894660949707 15.7945613861084 13.6513071060181 11.1214284896851 39.9128494262695 18.1806221008301 8.44406795501709 30.9898204803467 17.5842475891113 11.8854036331177 12.1779298782349 16.0578479766846 18.0221786499023 17.784481048584 20.9606418609619 12.7363557815552 10.1821413040161 8.14791488647461 8.13256168365479 8.26580142974854 8.58238983154297 8.68499279022217 12.045262336731 10.1610307693481 35.2934226989746 32.1041831970215 9.47712993621826 29.9213924407959 13.638482093811 22.9772434234619 25.7743625640869 16.7622051239014 16.5657119750977 16.5951805114746 32.1004905700684 28.6489410400391 23.6752166748047 16.2278137207031 14.4421997070312 14.3453798294067 15.8827781677246 12.5560569763184 11.6619148254395 11.4614381790161 11.3199739456177 8.81593322753906 8.68786716461182 8.59675979614258 8.39118957519531 8.27309513092041 8.03722667694092 8.63545036315918 8.2024450302124 7.48555421829224 6.96791648864746 7.04892158508301 6.36890125274658 6.75108623504639 6.70255994796753 6.73898029327393 6.33887195587158 6.37488174438477 6.23155164718628 6.56063747406006 6.45582246780396 6.82933235168457 6.83114337921143 6.47417402267456 6.4670934677124 5.9996223449707 5.59575319290161 6.0014271736145 5.91548919677734 6.18666219711304 5.61856698989868 5.47832584381104 5.53592872619629 4.92844343185425 4.52741622924805 3.81126618385315 4.17265319824219 3.96171092987061 3.4721417427063 3.17128729820251 3.13854598999023 2.84213209152222 2.40257477760315 2.24829411506653 1.78138709068298 1.76527011394501 1.35564923286438 1.3008269071579 0.444841712713242 0.183775901794434 0.190408334136009 1.50481951236725 2.39722681045532 4.04959583282471 4.57970380783081 3.3520929813385 3.21261191368103 4.18283224105835 7.77243232727051 17.5440921783447 8.56288051605225 3.57736492156982 2.90694332122803 3.07207345962524 1.90002298355103 2.32689428329468 3.14704036712646 3.21889781951904 2.83094573020935 2.74459266662598 2.674729347229 2.59131622314453 1.94094598293304 1.59348440170288 1.59629034996033 1.40596222877502 1.63478076457977 1.65287590026855 1.21079683303833 1.39851129055023 1.2157975435257 0.859274089336395 2.15194845199585 2.07500195503235 2.37318396568298 1.07825899124146 2.9824538230896 0.797384917736053 2.58096575737 0.0611892007291317 12.2048854827881 13.7390050888062 -0.500888586044312 32.4356575012207 7.41947412490845 6.41820001602173 4.5558500289917 3.82774353027344 3.79199647903442 3.37342834472656 4.15671253204346 3.48637723922729 2.69931817054749 3.27343797683716 2.76001358032227 2.62977194786072 2.22617077827454 1.97433662414551 1.90061104297638 2.55317974090576 2.84216833114624 6.35959148406982 2.74244427680969 5.43971586227417 1.41930270195007 5.41044616699219 20.7273025512695 3.98269605636597 7.80411577224731
6.83224773406982 12.1531438827515 18.5098133087158 17.1058311462402 21.0564880371094 11.6157350540161 11.5976676940918 8.38751792907715 17.4241523742676 11.5881633758545 18.4496231079102 12.5104026794434 12.8636674880981 10.8013944625854 9.46492481231689 7.71746635437012 22.4259414672852 10.5511503219604 6.71031522750854 10.2743501663208 9.00324630737305 9.76288986206055 14.6530418395996 16.6803588867188 15.9624309539795 12.7366428375244 9.38606357574463 7.51409769058228 7.39490032196045 6.68923091888428 7.36360120773315 6.37780570983887 6.39760541915894 9.09695720672607 10.2086009979248 20.9408836364746 22.8124771118164 11.3020448684692 19.9765243530273 24.6451721191406 13.9991998672485 14.896858215332 12.5932922363281 36.3648948669434 29.5278148651123 18.554817199707 11.5638484954834 10.2320718765259 10.4871854782104 12.2707109451294 11.9722261428833 14.5777006149292 12.6112947463989 11.3716335296631 10.9383106231689 10.787899017334 9.64100551605225 8.32146644592285 8.24022769927979 7.45812606811523 7.90565299987793 7.76788806915283 8.26144504547119 7.86789178848267 7.18144607543945 6.97290372848511 6.78615760803223 6.3879714012146 6.03779077529907 6.44753456115723 6.47930479049683 6.09590435028076 6.14178943634033 6.05621862411499 6.33340883255005 6.20487928390503 6.22684097290039 6.48111152648926 6.4980001449585 6.20120573043823 5.76066493988037 5.35410118103027 5.55161905288696 5.71179533004761 5.92410373687744 5.55140161514282 5.22499990463257 5.17741537094116 5.28305768966675 4.54776811599731 3.75600934028625 4.01286125183105 3.80457186698914 3.43817186355591 3.29218673706055 2.91745519638062 3.01390767097473 2.19189071655273 2.29930663108826 1.93369579315186 1.68842792510986 1.28687655925751 1.22915971279144 0.575752556324005 0.382707566022873 0.141633912920952 1.00978755950928 1.41386759281158 2.86463642120361 2.88718867301941 3.50104284286499 3.10806941986084 3.45815515518188 3.50964975357056 5.62638521194458 8.00373363494873 3.42476105690002 2.86545205116272 2.26110100746155 2.39980673789978 2.17907857894897 2.93192005157471 2.7047860622406 3.07419061660767 2.7094714641571 2.59707641601562 2.50763154029846 1.99599528312683 1.87880456447601 1.55127322673798 1.55398046970367 0.773125827312469 1.58299350738525 1.60268807411194 1.38348853588104 0.982369899749756 1.18644511699677 0.785930275917053 1.78674697875977 2.01001191139221 1.39381098747253 4.19413280487061 18.3828716278076 3.30362010002136 5.0813422203064 0.173071786761284 3.88763785362244 34.6546974182129 5.21543550491333 16.8853073120117 4.31504011154175 4.31666088104248 3.94183373451233 3.68896174430847 3.23659825325012 4.01891231536865 3.47863245010376 2.8124897480011 2.56323623657227 3.15534210205078 2.55627965927124 2.53806400299072 2.01997017860413 1.90575563907623 1.91289019584656 2.79351949691772 10.5577459335327 1.72092306613922 1.34515714645386 1.23055148124695 0.609082460403442 2.54326105117798 10.8075199127197 2.25120520591736
34.4429702758789 17.3613567352295 15.7107496261597 36.132381439209 14.7344722747803 26.5257301330566 11.1251106262207 15.3057327270508 16.5386257171631 9.21844100952148 10.7764120101929 10.0459327697754 10.2607507705688 20.3415050506592 20.134407043457 34.9449844360352 15.3531799316406 9.68647956848145 5.16082191467285 10.7328176498413 26.7297401428223 25.1873645782471 16.1225261688232 20.0381641387939 15.3255443572998 13.9383764266968 9.06312847137451 13.9189443588257 7.24443197250366 11.2562532424927 11.2725505828857 6.43812799453735 33.2737121582031 10.0398836135864 29.0510864257812 21.3640041351318 16.1942710876465 12.1588668823242 12.0575771331787 12.8901634216309 13.3109140396118 21.0313453674316 42.361629486084 19.6935081481934 14.4656391143799 12.2939147949219 43.1520652770996 9.52896690368652 10.2405786514282 10.0271072387695 43.5495986938477 14.5285606384277 13.6527709960938 10.9509534835815 10.3518962860107 10.155068397522 10.0292959213257 7.96589612960815 7.90265941619873 7.75976324081421 7.56940937042236 7.40935373306274 7.91345643997192 7.533371925354 7.45231628417969 6.71906757354736 6.36852025985718 6.43815755844116 5.84262752532959 6.17773294448853 6.14561653137207 6.14920663833618 5.79036140441895 5.84206581115723 6.11884737014771 5.92404651641846 5.88126182556152 6.23526906967163 6.24034404754639 5.96999502182007 5.51049518585205 5.49802541732788 4.96823930740356 5.48002243041992 5.40539264678955 5.65517330169678 5.08708095550537 4.96780157089233 5.05713748931885 4.48093557357788 4.08062124252319 3.48218894004822 3.83493065834045 3.63775277137756 3.18555378913879 2.91106605529785 2.89427471160889 2.62126207351685 2.21154141426086 1.82268476486206 0.974218249320984 0.700532913208008 0.0949843153357506 1.14297807216644 0.332260340452194 0.0616986602544785 0.0632419288158417 1.36524868011475 2.22857260704041 2.74661016464233 3.15712475776672 3.04838585853577 2.52766180038452 2.44866013526917 3.97412633895874 4.70891523361206 3.93970322608948 2.52437496185303 1.88515400886536 2.17567682266235 1.68653547763824 2.0493528842926 2.7118284702301 2.98880910873413 2.63237929344177 2.54436254501343 2.20395612716675 2.39850497245789 1.83432340621948 1.51702499389648 1.5281457901001 1.34793710708618 1.55721187591553 1.56758046150208 1.15651285648346 1.35102653503418 1.16593086719513 0.772491157054901 1.64489877223969 1.55051624774933 -0.19243124127388 0.235660314559937 2.27332663536072 9.5020809173584 -0.0850568860769272 -0.139351978898048 5.32750082015991 7.41974306106567 18.7795562744141 12.3028688430786 3.76239109039307 4.02306747436523 4.10136651992798 3.48747944831848 3.49215269088745 3.1151008605957 3.82806062698364 3.17806625366211 2.50738263130188 3.06839561462402 2.5933837890625 2.47700667381287 2.097407579422 1.86841154098511 1.80346834659576 2.43227601051331 2.71435213088989 41.7600288391113 1.10514259338379 0.988258242607117 0.595988094806671 0.0635675489902496 0.72146475315094 -0.00774109922349453
20.0270767211914 18.7510890960693 28.9224948883057 16.7835998535156 14.341721534729 11.4429702758789 10.5520906448364 29.2135925292969 20.0068988800049 13.0027551651001 10.1699924468994 11.996527671814 8.20378017425537 10.840428352356 9.68183040618896 11.58043384552 22.2809066772461 14.5152645111084 36.3262748718262 18.6181182861328 18.1442737579346 20.0256614685059 24.2782459259033 18.7767505645752 13.4395999908447 12.7911167144775 7.87496280670166 6.8034873008728 6.6567645072937 19.6631031036377 6.63493680953979 21.6308631896973 22.1530818939209 25.0891609191895 21.016918182373 18.9498138427734 8.21818065643311 11.7810907363892 22.5500011444092 26.9578304290771 12.3032455444336 13.5068464279175 17.332633972168 12.3732538223267 12.5750102996826 11.7206192016602 10.3766174316406 45.13916015625 35.4845161437988 8.34180450439453 10.0842599868774 15.6047496795654 12.9693460464478 10.992374420166 10.0665903091431 9.7668571472168 9.61176681518555 8.529953956604 7.49393224716187 7.49535894393921 7.195237159729 7.15566825866699 7.01347923278809 7.49275064468384 7.1624231338501 6.5119252204895 6.370276927948 6.20228481292725 5.87467050552368 5.55930662155151 5.9190878868103 5.90288734436035 5.55800676345825 5.62416648864746 5.50717163085938 5.83250665664673 5.66914987564087 6.00496101379395 5.99872732162476 5.68072271347046 5.69983100891113 5.2743444442749 4.86894989013672 5.07076263427734 5.23541021347046 5.43616914749146 5.02646684646606 4.74297571182251 4.70914506912231 4.80358600616455 4.10218191146851 3.38987255096436 3.67007732391357 3.46765875816345 3.13577747344971 3.00063800811768 2.6764817237854 2.77482867240906 1.9874655008316 1.59623491764069 0.864596903324127 0.640818238258362 0.0205858908593655 1.07279086112976 0.242306217551231 0.294088184833527 -0.0108959004282951 0.897907018661499 1.29463183879852 2.69581532478333 2.74817252159119 2.64465808868408 2.0174765586853 2.00056195259094 2.46739983558655 3.46458888053894 3.59245038032532 1.83063757419586 1.73075580596924 1.77774274349213 1.85151124000549 1.94892883300781 2.56846404075623 2.31013941764832 2.84601330757141 2.47073268890381 2.42748999595642 2.32826709747314 1.7292195558548 1.76183581352234 1.46019959449768 1.47536957263947 0.832018911838531 1.50395977497101 1.51532661914825 1.31972932815552 0.894349634647369 1.1294846534729 0.666382670402527 1.32769370079041 0.256226003170013 -0.194078043103218 0.0450817607343197 6.71912670135498 17.4719142913818 10.964241027832 -0.137336507439613 4.32334041595459 13.5999488830566 3.17681694030762 9.044677734375 3.88259792327881 3.96506595611572 3.60708689689636 3.37938261032104 3.02461814880371 3.6993145942688 3.20613718032837 2.45040988922119 2.38439249992371 2.95863056182861 2.40682458877563 2.39773988723755 1.83064770698547 1.76319110393524 1.82355761528015 2.66683721542358 5.13172340393066 28.739315032959 25.7545738220215 0.495376706123352 0.0422655716538429 -0.404401421546936 9.69046020507812
23.3456764221191 26.0272159576416 17.7190837860107 18.6997184753418 15.4058685302734 20.1083202362061 14.5593280792236 13.5956287384033 21.2950267791748 14.441014289856 8.03151321411133 13.1718511581421 15.3668727874756 7.46315050125122 8.09295749664307 11.1779375076294 8.41782093048096 14.2307987213135 9.99230861663818 28.6297702789307 21.9764728546143 26.4702987670898 22.2808799743652 16.5105381011963 22.5555896759033 13.333927154541 7.82398843765259 6.48317766189575 15.8263187408447 6.496422290802 6.59090995788574 19.9708404541016 18.1604042053223 14.200083732605 21.7081832885742 12.4684772491455 26.6227264404297 32.066478729248 20.8336219787598 20.1663608551025 33.9927978515625 13.0071325302124 9.23865509033203 9.8960657119751 12.402473449707 18.522045135498 45.5477905273438 7.92591953277588 8.02974224090576 44.4294166564941 7.71367454528809 10.5083436965942 12.4693727493286 11.8062353134155 9.70195388793945 9.40993118286133 9.24729919433594 8.29666614532471 7.21994018554688 7.15479183197021 7.13401460647583 6.88270854949951 6.70783233642578 7.19325256347656 6.88731098175049 6.80181503295898 6.15180969238281 5.84550285339355 5.89307117462158 5.36431550979614 5.65519237518311 5.61416721343994 5.58808851242065 5.38993978500366 5.34761428833008 5.62199544906616 5.45218467712402 5.47425365447998 5.72404527664185 5.71844482421875 5.47599029541016 5.05199384689331 5.02952432632446 4.52682781219482 5.03746366500854 4.96287202835083 5.17746877670288 4.65008640289307 4.52870941162109 4.60848569869995 4.09814929962158 3.7285487651825 3.19295239448547 3.50351095199585 3.30690336227417 2.86161875724792 2.62673735618591 2.62785220146179 1.80180823802948 0.919338345527649 0.804315209388733 0.457347691059113 0.56954687833786 -0.0376618355512619 0.184071704745293 0.243724599480629 -0.0680995583534241 -0.0677810832858086 1.25180649757385 1.54548561573029 1.92828750610352 2.37436032295227 1.8379111289978 1.5554701089859 1.59399211406708 2.81780433654785 2.64794206619263 2.5241231918335 1.54481911659241 1.62400341033936 1.71059477329254 1.87763035297394 1.45874750614166 2.43064951896667 2.76447987556458 2.44323086738586 2.36015319824219 2.25552105903625 1.74712455272675 1.71393036842346 1.41948115825653 1.43520939350128 1.27292501926422 1.46904313564301 1.47525858879089 1.2854391336441 0.899959743022919 1.09929251670837 0.713986456394196 0.823174655437469 0.301017314195633 -0.173819586634636 0.0301063731312752 0.0878771543502808 -0.706032693386078 -0.306023299694061 -0.251192927360535 3.34398412704468 4.20415449142456 9.83150959014893 7.4738883972168 3.28130531311035 3.69640827178955 3.74799180030823 3.21866178512573 3.22884130477905 2.88910007476807 3.51119017601013 2.92936253547668 2.35676050186157 2.88237977027893 2.44482088088989 2.33852648735046 1.97403609752655 1.78290677070618 1.7169988155365 2.31391477584839 3.05505681037903 25.315149307251 13.3804588317871 39.5201377868652 25.2674865722656 -0.436264961957932 -0.0626484528183937
12.4126176834106 17.5619297027588 16.917760848999 14.9020214080811 28.3291645050049 38.632682800293 21.8322944641113 18.6716651916504 19.4820137023926 14.5196800231934 13.8173360824585 10.5365343093872 15.3824186325073 15.40305519104 22.6184692382812 7.96986389160156 7.46842432022095 13.7442817687988 12.7942743301392 21.2427558898926 20.837381362915 18.5786781311035 16.817476272583 15.8493547439575 17.6054306030273 18.7127285003662 34.7256240844727 24.2856903076172 9.05410385131836 17.8456344604492 28.6121883392334 18.6075630187988 20.27073097229 16.1059169769287 18.5961627960205 24.0560111999512 9.6370153427124 31.7156963348389 23.4364223480225 17.7269592285156 18.2040729522705 8.208251953125 8.48891258239746 8.12476444244385 38.6437339782715 34.5824279785156 10.4535608291626 14.8993673324585 7.59130811691284 7.6394567489624 42.4872665405273 8.05946826934814 11.8952646255493 11.2630634307861 9.65693759918213 9.00164318084717 8.82669067382812 8.70269012451172 6.84431600570679 6.85566902160645 6.91765022277832 6.53288888931274 6.52841186523438 6.43027782440186 6.84970617294312 6.55039119720459 5.92003440856934 5.83786630630493 5.67893648147583 5.38378572463989 5.10292625427246 5.41072988510132 5.37452363967896 5.04849720001221 5.14674663543701 5.02778816223145 5.35495471954346 5.19479322433472 5.52110433578491 5.49965858459473 5.18199062347412 5.21625661849976 4.83441829681396 4.4381856918335 4.64115238189697 4.79277420043945 4.98526048660278 4.6089186668396 4.34191179275513 4.2997031211853 4.39744901657104 3.72992253303528 3.05066251754761 3.35334372520447 3.15522265434265 2.83557820320129 2.70154905319214 1.85174322128296 1.83428478240967 0.871549129486084 0.667251586914062 0.338294804096222 0.506796419620514 -0.100498586893082 -0.0533164367079735 0.153130561113358 0.205172553658485 -0.115304544568062 -0.114793993532658 0.357769191265106 1.67793428897858 2.0953676700592 1.59791326522827 1.32276701927185 1.19243919849396 1.96114647388458 2.65418648719788 2.45926833152771 1.38638865947723 1.39641284942627 1.55525147914886 1.44951140880585 1.76179242134094 2.32680201530457 2.68028473854065 2.37654399871826 2.2981173992157 2.26964378356934 2.16127562522888 1.56180286407471 1.65156042575836 1.36863136291504 1.38544535636902 1.43260514736176 1.44725811481476 1.0709422826767 1.25056171417236 1.08062171936035 0.737980306148529 4.21611356735229 6.9832558631897 15.1453866958618 2.53278160095215 4.73027086257935 34.4649772644043 -0.659980654716492 -0.469157367944717 0.0401649288833141 2.68727493286133 8.2052526473999 2.35123300552368 5.99439334869385 3.5290310382843 3.60365080833435 3.2956862449646 3.12265849113464 2.80588269233704 3.40121507644653 2.96248245239258 2.30506086349487 2.24287033081055 2.7837860584259 2.28346538543701 2.16330409049988 1.74054801464081 1.67090678215027 1.72758817672729 1.59727156162262 3.95789313316345 10.2650032043457 4.77990341186523 6.61880397796631 19.6497402191162 -0.647140920162201
17.072696685791 15.8055639266968 15.7010946273804 14.3434858322144 15.1083908081055 19.5120620727539 19.5399017333984 19.6043891906738 14.7200412750244 25.6806964874268 31.0599689483643 38.525218963623 39.3098678588867 9.2157678604126 7.44458627700806 7.86268949508667 16.3509788513184 22.7991027832031 16.2236480712891 13.5047903060913 17.3095054626465 17.4826602935791 16.6797008514404 16.2043933868408 13.9369134902954 14.0252962112427 13.5203523635864 28.973165512085 28.5810050964355 37.2911148071289 24.047399520874 24.4840526580811 35.2348937988281 21.323938369751 16.4004554748535 12.2401866912842 32.6408882141113 17.1866550445557 19.3660926818848 16.1631851196289 8.01219844818115 19.5906143188477 44.0389785766602 46.3552360534668 9.43176174163818 9.43478107452393 9.37783050537109 9.24293899536133 7.57867383956909 7.57318544387817 6.13729429244995 46.1079368591309 9.41007423400879 10.8934373855591 10.3564510345459 8.72225666046143 8.58638954162598 8.42097091674805 7.42236757278442 6.62488794326782 6.56623125076294 6.61052227020264 6.29860162734985 6.12079191207886 6.57492637634277 6.30266952514648 6.20224475860596 5.61962604522705 5.35187864303589 5.37554216384888 4.89586162567139 5.20499467849731 5.17351484298706 4.87857389450073 4.92419052124023 4.89108896255493 5.16294193267822 5.00389671325684 5.01377773284912 5.26308536529541 5.24267292022705 5.01446533203125 4.6415843963623 4.62074995040894 4.12898588180542 4.6097092628479 4.56086301803589 4.76859951019287 4.2801947593689 4.14908885955811 4.20826196670532 3.56103610992432 2.89908313751221 2.90686655044556 3.19808840751648 3.01112079620361 2.59917020797729 1.68119370937347 1.77092301845551 1.28033792972565 0.439400255680084 0.456148982048035 0.301654905080795 -0.209744200110435 -0.0976563096046448 0.103792943060398 0.150581240653992 -0.18430532515049 -0.18218469619751 -0.181956887245178 0.38825312256813 1.35947418212891 1.73216474056244 1.34949827194214 0.757923245429993 1.69954311847687 2.28549957275391 2.12338352203369 1.90645694732666 1.27678620815277 1.26589798927307 1.38657557964325 1.69299376010895 2.22097134590149 1.77540445327759 2.56653809547424 2.28503704071045 2.21215033531189 2.10139751434326 1.63852822780609 1.61255383491516 1.33803701400757 1.35449647903442 0.661462128162384 1.35805666446686 1.38996076583862 1.22199785709381 0.839622139930725 1.03628575801849 0.672428667545319 12.4092960357666 6.32233953475952 9.08944225311279 -0.230235457420349 -0.245201751589775 34.7884750366211 28.4746322631836 3.52337312698364 0.403022408485413 2.6414258480072 6.58291482925415 5.26240205764771 2.98174262046814 3.36315202713013 3.41107845306396 2.95764565467834 2.9796359539032 2.60039687156677 3.2434778213501 2.70535039901733 2.22024273872375 2.7191789150238 2.2096540927887 2.21556615829468 1.77836287021637 1.68947184085846 1.63203108310699 1.61586320400238 3.6463737487793 23.98828125 3.34415650367737 2.60216641426086 -0.461176842451096 -0.644868671894073
19.1815986633301 12.0401935577393 22.8397903442383 24.5885334014893 17.5708484649658 23.7472457885742 37.9329452514648 34.4718170166016 28.5697269439697 16.4590339660645 28.5877952575684 27.4552574157715 22.8490676879883 49.4589500427246 31.8076477050781 34.001220703125 18.2218379974365 16.7768402099609 28.4071273803711 12.4003572463989 16.8573017120361 13.8692312240601 15.0019407272339 15.4135446548462 15.0511913299561 14.9588098526001 12.3831872940063 22.7351722717285 24.3206787109375 26.1293621063232 41.417667388916 41.4784660339355 30.7441349029541 28.1018543243408 18.0429801940918 12.1292190551758 28.4916687011719 36.7135467529297 12.7855844497681 10.5426988601685 51.0760269165039 38.1116371154785 11.2506999969482 7.00285577774048 7.53638696670532 22.885404586792 24.0737113952637 19.1707458496094 17.8762969970703 9.24810028076172 13.3842573165894 6.25985622406006 6.87004804611206 10.5079135894775 9.99125957489014 8.44083309173584 8.2489709854126 8.15459823608398 7.97460031509399 6.37858772277832 6.39212656021118 6.41961145401001 5.98068714141846 6.00450277328491 5.89118671417236 6.20837116241455 5.93960094451904 5.32678461074829 5.29721117019653 5.15751457214355 4.73805665969849 4.91248273849487 4.92535781860352 4.91184282302856 4.6100754737854 4.7180323600769 4.60941171646118 4.93095827102661 4.78629446029663 5.08661460876465 5.066978931427 4.75836086273193 4.79566764831543 4.45695114135742 4.05557489395142 4.2382640838623 4.40728950500488 4.5974907875061 4.23455667495728 3.98106646537781 4.03519535064697 3.56637811660767 3.23361825942993 2.75484752655029 3.06814956665039 2.87771487236023 2.47116088867188 1.5609564781189 1.67244899272919 1.19128894805908 0.2506343126297 0.307571470737457 0.132812932133675 0.260692477226257 -0.268845796585083 -0.268604040145874 -0.266246616840363 -0.256793051958084 -0.259404748678207 -0.261046200990677 -0.267161339521408 1.11384415626526 1.54156792163849 1.12787854671478 0.392233371734619 1.00221288204193 1.95446360111237 1.72965550422668 1.82128143310547 1.11383926868439 1.12970578670502 1.2759405374527 1.31935083866119 1.62707805633545 2.08775758743286 2.49328947067261 2.22493004798889 2.1469566822052 2.12651920318604 2.01983141899109 1.47080194950104 1.55597150325775 1.3225599527359 1.15813267230988 1.31871140003204 1.34938395023346 1.00939345359802 1.17310440540314 1.01730012893677 0.6969034075737 1.34119439125061 6.10695123672485 6.36232948303223 16.8548336029053 17.8272743225098 7.76818704605103 9.99665069580078 8.39175796508789 9.46146774291992 0.689642429351807 5.80911064147949 1.82516098022461 4.44409799575806 3.22082662582397 3.28247165679932 3.01943397521973 2.86536335945129 2.58873677253723 3.13028192520142 2.61235594749451 2.17164969444275 2.11692667007446 2.62561511993408 2.16446495056152 1.84364223480225 1.6575038433075 1.58977961540222 1.58663833141327 1.00404894351959 3.22873544692993 6.79253196716309 19.601863861084 -0.673745810985565 4.52093267440796
21.8952903747559 28.9072322845459 24.0933380126953 15.2683696746826 25.0879688262939 18.9856281280518 18.4366340637207 22.5705890655518 20.011646270752 26.2790927886963 21.4645957946777 22.5469837188721 19.9423828125 22.1334190368652 21.9278373718262 24.7832527160645 23.4615669250488 13.2274713516235 10.1094245910645 29.1530780792236 25.651948928833 35.9518966674805 41.2002983093262 34.3136863708496 21.0199871063232 42.0760612487793 26.9857387542725 27.5405502319336 17.6379203796387 19.5537052154541 29.4200572967529 22.5744457244873 35.032886505127 37.2174911499023 40.8483695983887 51.4707489013672 8.81007099151611 8.8640251159668 11.1789274215698 35.6214065551758 8.19333934783936 7.48993396759033 6.56841421127319 13.2598171234131 6.78898477554321 7.30093431472778 12.1042985916138 9.26336193084717 9.09608173370361 7.04422950744629 6.33227491378784 5.81360769271851 12.5007963180542 7.07250165939331 9.70878410339355 8.43518352508545 8.03773307800293 7.95570087432861 7.83451366424561 6.81265354156494 6.23729610443115 6.25226306915283 5.83834791183472 5.80981302261353 5.57371997833252 5.94051551818848 5.68008136749268 5.57802963256836 5.04952335357666 4.93420743942261 4.67689037322998 4.42104864120483 4.72313356399536 4.71422338485718 4.45142936706543 4.51273632049561 4.4938268661499 4.75590372085571 4.61701679229736 4.60977363586426 4.86721134185791 4.84803056716919 4.62836790084839 4.28285646438599 4.25189542770386 3.75857067108154 4.25632429122925 4.44594955444336 4.07267951965332 3.81871128082275 3.74183630943298 3.84828805923462 3.23294901847839 2.59727573394775 2.59539699554443 2.30241799354553 2.09820628166199 0.721693336963654 0.708190441131592 0.446813732385635 0.49952033162117 -0.189956098794937 0.226788610219955 0.241590037941933 -0.377982616424561 -0.33683043718338 -0.34900563955307 -0.337862551212311 -0.340004652738571 -0.342879831790924 -0.348218768835068 0.0406564362347126 0.907972276210785 1.27679479122162 0.981463372707367 0.276916533708572 1.35568404197693 1.7811131477356 1.46085739135742 0.716927945613861 1.01468813419342 1.09473061561584 1.26061856746674 1.56289923191071 2.0041286945343 1.64094185829163 2.39653372764587 2.14259934425354 2.07440304756165 1.96620345115662 1.54166316986084 1.51773297786713 1.25418627262115 1.26448678970337 0.895351231098175 1.2927747964859 1.31342649459839 1.15086996555328 0.782219409942627 0.984398245811462 0.626090526580811 3.9850742816925 4.30778837203979 4.85427713394165 9.84557723999023 13.7149705886841 16.0913276672363 11.5468997955322 6.02422618865967 11.6599283218384 2.39594197273254 4.96170854568481 4.04007768630981 2.74068069458008 3.0943546295166 3.12930607795715 2.76186800003052 2.50279211997986 3.0189323425293 2.65861034393311 2.24021911621094 2.0942804813385 2.56826305389404 2.09272170066833 2.09834718704224 1.69026577472687 1.59417629241943 0.578479826450348 0.654278099536896 3.10450506210327 6.47979021072388 7.74446725845337 28.7799434661865 10.7059412002563
27.7830905914307 32.7222900390625 17.823694229126 33.4296226501465 19.6960983276367 16.2355403900146 16.1750583648682 17.9871425628662 17.7517566680908 16.5117893218994 16.1414413452148 16.9336395263672 17.8445854187012 16.2170925140381 18.1344738006592 20.9962406158447 23.548791885376 31.9413146972656 23.6623458862305 14.5522966384888 28.4697895050049 36.8079452514648 33.1972541809082 27.7282409667969 35.0300483703613 25.86501121521 37.690185546875 32.2976722717285 48.0160102844238 48.6888809204102 29.056604385376 38.7881622314453 27.3618946075439 12.7931995391846 13.3474283218384 13.7482538223267 19.7348098754883 49.8459968566895 8.50128936767578 7.7851881980896 7.59294128417969 6.8384256362915 7.34369230270386 6.47903776168823 6.12966346740723 6.14074945449829 7.96606349945068 8.9377613067627 7.64928150177002 6.17891311645508 6.17901515960693 8.65599918365479 5.55540561676025 6.34346389770508 6.62548208236694 9.15186309814453 7.8393759727478 7.66967248916626 7.57473945617676 7.42485380172729 5.98347663879395 5.9870171546936 6.01121950149536 5.52295446395874 5.51386690139771 5.36422395706177 5.58597040176392 5.32400703430176 4.82013988494873 4.60820579528809 4.63550996780396 4.34719228744507 4.44537687301636 4.47271251678467 4.46755504608154 4.21526336669922 4.33467292785645 4.23759412765503 4.56480360031128 4.43293809890747 4.71255493164062 4.69742727279663 4.40217351913452 4.42943859100342 4.09633207321167 3.72742295265198 4.10893583297729 4.08383274078369 4.26243543624878 3.78047966957092 3.62935447692871 3.69905185699463 3.25292563438416 2.93201017379761 2.34458208084106 2.38288307189941 0.655249536037445 0.602849721908569 0.126874536275864 0.62809419631958 0.37478631734848 -0.269775629043579 0.122253634035587 0.0124049289152026 0.1400256305933 -0.425199061632156 -0.413334995508194 -0.411170274019241 -0.429022014141083 -0.422874242067337 -0.435992360115051 -0.431214034557343 0.693577945232391 1.06046557426453 0.789999842643738 0.15574024617672 0.672114431858063 1.40353512763977 1.14292120933533 1.36853384971619 0.838355481624603 0.935274064540863 1.02826726436615 1.20432066917419 1.4863543510437 1.87726247310638 2.33326935768127 2.09116339683533 2.01189613342285 2.00298595428467 1.88971614837646 1.48060381412506 1.21909511089325 1.2390524148941 1.09713363647461 1.2746524810791 1.28718066215515 0.953717768192291 1.11887943744659 0.965204834938049 0.653229236602783 0.817224562168121 3.61029577255249 3.79263377189636 6.98088598251343 7.363929271698 7.19097900390625 8.70586967468262 6.80150938034058 4.86174774169922 5.59707403182983 4.52300262451172 3.73540449142456 2.65676093101501 3.00718998908997 3.03670859336853 2.64452362060547 2.64631700515747 2.39615225791931 2.88544869422913 2.4165370464325 2.04464149475098 2.50851321220398 2.15171575546265 2.05468726158142 1.74902713298798 1.56227719783783 0.549654364585876 0.629575610160828 0.720228374004364 0.862498223781586 0.16149865090847 18.2597789764404 13.8077230453491
23.4813899993896 20.5380687713623 16.8626556396484 18.1353778839111 19.3406066894531 14.7086019515991 14.0921306610107 14.2202844619751 16.0891284942627 14.9666776657104 13.5219631195068 14.7619457244873 15.6171951293945 14.7307558059692 10.052321434021 34.4196243286133 30.6895027160645 35.6763954162598 41.7284927368164 37.5214462280273 24.4608154296875 22.7566070556641 26.364818572998 22.5363712310791 21.9568748474121 20.9715576171875 20.610315322876 10.5762729644775 9.18792629241943 14.0075578689575 16.3206920623779 15.5896301269531 15.9112949371338 21.5281524658203 24.2340316772461 46.8299369812012 10.3905048370361 8.17385387420654 8.45088768005371 7.5337929725647 6.80396175384521 7.20276832580566 5.99956703186035 5.78810214996338 5.92289304733276 5.94448328018188 6.53589153289795 7.52328205108643 7.0287184715271 5.93261098861694 5.76557350158691 5.94353151321411 5.49418973922729 6.23523712158203 7.15587186813354 6.12769889831543 7.81072378158569 7.4682445526123 7.3616943359375 7.26050853729248 6.33357667922974 5.86933851242065 5.89132308959961 5.43105506896973 5.36995935440063 5.21658182144165 5.39917945861816 5.10818815231323 4.50870752334595 4.52819633483887 4.42800664901733 4.22786092758179 4.01606893539429 4.30061149597168 4.30256032943726 4.07840871810913 4.14727258682251 4.15401792526245 4.42086315155029 4.29316902160645 4.26672267913818 4.52224731445312 4.50300693511963 4.30072832107544 3.96958422660828 3.59482789039612 3.78557801246643 3.95186948776245 4.12881565093994 3.76062750816345 3.50602769851685 3.43753933906555 3.53453016281128 2.95275259017944 2.34486126899719 2.2795467376709 1.73149192333221 0.143792629241943 0.559162139892578 0.521023750305176 0.258279234170914 0.017286654561758 -0.448238134384155 0.00913501251488924 0.0290259178727865 -0.586141884326935 -0.600691735744476 -0.536024153232574 -0.533096551895142 -0.593627631664276 -0.543168067932129 -0.519357323646545 -0.238102570176125 0.522487938404083 0.902437269687653 0.714122354984283 0.119551256299019 0.934283316135406 1.24532175064087 1.24592912197113 0.508450984954834 0.801290452480316 0.872443795204163 1.14178133010864 1.42076230049133 1.79364418983459 1.52665638923645 2.23689818382263 2.01479649543762 1.94997894763947 1.82913744449615 1.34612357616425 1.4220575094223 1.17490470409393 1.19696474075317 0.575312614440918 1.23958742618561 1.25242853164673 1.09639704227448 0.737428665161133 0.93620353937149 0.589094340801239 2.34954738616943 2.91697978973389 3.07188773155212 4.98600673675537 5.23719835281372 7.26012849807739 5.70611381530762 3.36552858352661 4.02326345443726 4.16161727905273 1.65465295314789 3.31829714775085 2.88706374168396 2.94830632209778 2.71768569946289 2.56693887710571 2.32662868499756 2.7954626083374 2.463623046875 2.10305070877075 1.9515585899353 2.4255633354187 1.98445641994476 1.9944748878479 1.46387612819672 0.503706991672516 0.574790120124817 0.69384503364563 17.832103729248 49.1123161315918 16.9146537780762 28.9648284912109
17.7674179077148 17.7563781738281 26.2758731842041 16.9489326477051 14.7734060287476 11.5521059036255 13.1577930450439 12.8288898468018 13.759129524231 14.2935771942139 13.3633737564087 13.5771560668945 12.2857189178467 12.9806385040283 32.8394432067871 20.4769191741943 20.9805755615234 21.6802997589111 25.2257499694824 24.7109107971191 21.1349086761475 18.7463035583496 17.8302268981934 20.6674385070801 17.4061832427979 16.9613876342773 16.126184463501 14.6977806091309 30.1454772949219 12.7514047622681 13.5581150054932 11.9311904907227 13.0978746414185 49.6821327209473 11.7756023406982 11.8161630630493 9.51772785186768 7.84918928146362 8.12310791015625 9.32774925231934 9.22460746765137 6.63941669464111 6.13176298141479 5.48024225234985 5.78125858306885 5.89502429962158 5.86335182189941 6.80392217636108 7.00538921356201 6.62240600585938 5.67059516906738 5.53112173080444 5.56530809402466 5.10868215560913 6.03834629058838 9.43149852752686 8.38908863067627 7.27337694168091 7.11515140533447 7.01012468338013 6.92238759994507 5.64648723602295 5.65529680252075 5.66554832458496 5.23753023147583 4.96512889862061 5.24821281433105 4.97011804580688 4.81646680831909 4.32663917541504 4.15785074234009 4.18442153930664 3.91015958786011 4.05373048782349 4.1050820350647 4.09662342071533 3.87544894218445 4.01932573318481 4.28199625015259 4.16282415390015 4.07209920883179 4.38496017456055 4.37181377410889 4.18034267425537 3.86171841621399 3.79131269454956 3.46297407150269 3.82964491844177 3.80594801902771 3.97049188613892 3.50405836105347 3.3606059551239 3.42133474349976 3.00693607330322 2.68834757804871 2.01984143257141 1.64509952068329 0.0934806391596794 0.483245700597763 -0.143901467323303 0.468799233436584 0.208545908331871 -0.560836493968964 -0.0981233865022659 -0.209743902087212 -0.70626825094223 -0.70071667432785 -0.724725425243378 -0.663469254970551 -0.670181334018707 -0.659862756729126 -0.642045795917511 -0.632035970687866 0.222376257181168 0.608232021331787 0.397234499454498 -0.0914015024900436 0.272404700517654 1.0192037820816 0.796159744262695 1.23528873920441 0.720237195491791 0.765625476837158 0.850705504417419 1.06558060646057 1.31940948963165 1.68780851364136 2.16447639465332 1.94225060939789 1.86383235454559 1.51839852333069 1.71488034725189 1.35207426548004 1.12000203132629 1.16229128837585 1.04066932201385 1.21496593952179 1.22792458534241 0.794799864292145 0.719274580478668 0.918747544288635 0.576094448566437 0.701765894889832 2.54380297660828 2.6735475063324 4.15258741378784 4.35476064682007 5.11305952072144 5.89113855361938 4.69524002075195 2.96839165687561 2.8729989528656 3.71254634857178 3.09576821327209 2.47702622413635 2.80632853507996 2.82526803016663 2.46811747550964 2.46976518630981 2.24246525764465 2.68937420845032 2.2439296245575 1.91987979412079 2.37270069122314 2.04237747192383 1.95422267913818 1.63908696174622 0.457147985696793 0.514417350292206 0.586218059062958 20.0365943908691 16.63112449646 0.907534539699554 1.49268472194672
13.7833518981934 15.6613321304321 14.6630840301514 14.8339443206787 13.5413312911987 18.076587677002 11.7390661239624 12.2443504333496 12.6715307235718 13.1520681381226 12.2654056549072 12.0760812759399 12.2539224624634 11.7593107223511 12.1630306243896 19.3281173706055 16.2489204406738 17.466028213501 17.9589729309082 18.847583770752 18.4884605407715 16.5139350891113 16.2330436706543 17.8221397399902 15.1204452514648 15.1426973342896 9.98349761962891 36.0935440063477 19.9385948181152 9.04211330413818 8.97947883605957 50.0254364013672 22.1095428466797 11.2187242507935 12.4137172698975 11.093071937561 9.95193099975586 8.60246086120605 7.44648694992065 7.39964056015015 7.06892395019531 14.9795598983765 14.8527040481567 6.20136070251465 6.70339441299438 5.6371955871582 5.54180002212524 7.23443174362183 6.69289827346802 6.44353199005127 5.71893692016602 5.18968915939331 5.40532207489014 4.78831911087036 5.17916488647461 5.63408422470093 6.48206806182861 7.25534534454346 6.95495653152466 6.8418869972229 6.74456882476807 5.90407228469849 5.51716423034668 5.55121088027954 5.10464239120483 4.96560907363892 4.81486511230469 4.94967174530029 4.65942478179932 2.5205397605896 3.00518035888672 4.00954961776733 3.86179637908936 3.70376658439636 3.94133138656616 3.94492363929749 3.76014971733093 3.89268660545349 3.80860233306885 4.13047456741333 4.00770616531372 4.25138521194458 4.24135971069336 3.98334002494812 4.03640699386597 3.72825360298157 3.37467527389526 3.52914381027222 3.69938635826111 3.86032867431641 3.49877834320068 3.26625800132751 3.19653677940369 3.29138803482056 2.71558880805969 2.13383507728577 1.37090909481049 0.0556426756083965 -0.0481031388044357 0.425301194190979 0.364050030708313 0.124032706022263 -0.509739816188812 -0.620008707046509 -0.375965595245361 -0.832985579967499 -0.838414192199707 -0.818306148052216 -0.830319464206696 -1.9433525800705 -0.776925921440125 -0.762829184532166 -0.755920112133026 -0.630935549736023 0.0373288579285145 0.356883972883224 0.175506249070168 -0.141237854957581 -0.103700421750546 0.785358548164368 1.03367686271667 0.393984138965607 0.628667831420898 0.596480011940002 0.911955177783966 1.18341267108917 1.54860472679138 1.38359558582306 2.0277247428894 1.72800207138062 1.69072735309601 1.56619930267334 1.14616549015045 1.25978064537048 1.06879436969757 1.12468338012695 0.601983428001404 0.683850109577179 0.706786334514618 0.703490614891052 0.672971427440643 -0.578535497188568 -0.831064879894257 -1.09374952316284 -0.98080176115036 2.27197265625 3.30607390403748 3.50402522087097 5.24953746795654 4.12060737609863 2.55751490592957 2.41382384300232 3.45519518852234 1.54723274707794 2.81023168563843 2.6956045627594 2.74329590797424 2.54132747650146 2.4113564491272 2.19068551063538 2.61687612533569 2.29394006729126 1.86761403083801 1.83790946006775 2.29636192321777 1.8822375535965 1.79562306404114 0.423994690179825 0.475656986236572 0.540088534355164 0.648237764835358 12.1400518417358 48.2983932495117 36.8185691833496
