NCOLS 172
NROWS 32
XLLCORNER 353824
YLLCORNER 6700448
CELLSIZE 16 
NODATA_value -3.4e+38 
3.93621444702148 4.03573751449585 4.02413368225098 4.03265857696533 4.07287979125977 3.99714517593384 4.00178289413452 4.03520011901855 4.04806327819824 3.97203063964844 3.79567122459412 3.66213297843933 3.65301203727722 3.62850737571716 3.54615831375122 3.8190324306488 4.03671836853027 4.11436986923218 4.04544496536255 3.87300395965576 3.72797417640686 3.51610898971558 3.42573261260986 3.17798900604248 2.91417241096497 2.99257254600525 3.15082263946533 3.76507759094238 3.11501359939575 3.16565370559692 3.32208800315857 3.10302209854126 2.77939772605896 2.75781798362732 2.71624159812927 2.67706322669983 2.63554692268372 2.74415397644043 2.75426554679871 2.22409129142761 1.90604436397552 1.6100310087204 1.37389445304871 1.25350761413574 1.12239742279053 1.4671356678009 2.47721743583679 0.846288919448853 0.839709639549255 1.00530922412872 0.756792008876801 0.738943517208099 0.733652055263519 0.706336379051208 0.700787723064423 0.692400217056274 0.650717854499817 0.648401856422424 0.644255101680756 0.721397936344147 0.905217945575714 0.916088163852692 1.06748497486115 1.17375159263611 1.25827372074127 1.45277631282806 1.92805016040802 1.11416065692902 1.3147828578949 0.808372378349304 0.925408840179443 1.01176083087921 1.1762877702713 1.44973063468933 1.67539548873901 2.08411526679993 2.30026340484619 2.5855884552002 3.39466857910156 3.75280380249023 4.34473848342896 5.47557401657104 6.6548023223877 8.42345523834229 8.9651346206665 8.46752548217773 5.68298006057739 3.16650605201721 -0.467453688383102 -1.83760583400726 -1.89429521560669 -1.82215893268585 -1.66445469856262 -1.30667340755463 -1.10841286182404 -0.998037934303284 -0.851804614067078 0.279877334833145 0.656121015548706 -0.785825490951538 -1.41022121906281 -1.549724817276 -0.776177585124969 -0.280891537666321 -1.83986020088196 -1.7774041891098 -1.7276383638382 -1.6791205406189 -1.38922476768494 -1.16323113441467 -1.00297236442566 -1.21999847888947 -0.899476647377014 -0.764627158641815 -0.476978152990341 0.111864306032658 0.32134485244751 0.484177023172379 0.634420931339264 0.379902452230453 0.443794250488281 0.693048119544983 0.612796425819397 0.603984713554382 0.641894638538361 0.887246251106262 1.05120527744293 1.03482842445374 0.823248028755188 0.530138075351715 0.381490230560303 0.160209491848946 0.200160160660744 0.0851435586810112 0.291822671890259 1.39355206489563 2.80482769012451 3.02421355247498 3.2782039642334 4.23188161849976 5.66048097610474 8.64543151855469 12.8518152236938 16.5028038024902 16.4833717346191 15.9759979248047 13.580587387085 8.3877124786377 5.9783296585083 5.10028457641602 4.93777751922607 3.77586603164673 2.41290378570557 0.568580329418182 -2.67465472221375 -2.34912657737732 -1.95418393611908 -1.62102866172791 -1.38647818565369 -1.05886960029602 -0.822282314300537 -1.23121404647827 -1.26957297325134 -1.33498740196228 -1.38221502304077 -1.32118690013885 -0.926827132701874 -0.231527537107468 0.398747056722641 0.853538453578949 1.3193895816803 2.04002523422241
3.92563939094543 3.83072853088379 3.89880108833313 3.89357328414917 3.83558249473572 3.87704348564148 3.87703895568848 3.8667311668396 3.81175589561462 3.77481245994568 3.5914101600647 3.42556929588318 3.38375234603882 3.38781237602234 3.4057834148407 3.37187623977661 3.58690118789673 3.65471124649048 3.59589028358459 3.52440643310547 3.36563754081726 3.27232718467712 3.08676600456238 2.85820198059082 2.69880533218384 3.00671434402466 3.16553592681885 5.78767442703247 4.30794954299927 3.08078479766846 2.89213275909424 2.65519523620605 2.57574725151062 2.45166254043579 2.40706849098206 2.48741579055786 2.44883942604065 2.39005947113037 2.23271465301514 1.97464203834534 1.66521847248077 1.40224146842957 1.12255907058716 0.954021275043488 0.840891063213348 0.790847778320312 0.787818551063538 0.814713060855865 1.21190297603607 1.97557687759399 1.1819816827774 0.727377593517303 0.712715625762939 0.69711697101593 0.669588208198547 0.635131061077118 0.637944340705872 0.633692860603333 0.631890714168549 0.69316291809082 0.806084454059601 0.738498210906982 0.772742927074432 0.966872930526733 0.918728232383728 1.08196783065796 1.30477738380432 1.03734874725342 1.39339506626129 0.867461919784546 0.925442099571228 1.05663406848907 1.24539124965668 1.44230031967163 1.89714956283569 2.06095743179321 2.15686798095703 2.71278214454651 3.12116813659668 3.64873147010803 4.19070291519165 5.11209535598755 6.2195782661438 7.86973524093628 8.85750961303711 10.3168954849243 6.94010877609253 2.49091744422913 -0.71164470911026 -2.1006031036377 -2.19860076904297 -2.12856435775757 -1.91301929950714 -1.60813164710999 -1.41459977626801 -1.22243523597717 -0.720781028270721 0.359129786491394 0.360317826271057 -0.428326070308685 -0.776100337505341 -1.0341911315918 -0.703493475914001 -1.63144755363464 -1.89451265335083 -1.84980499744415 -1.78730463981628 -1.74331414699554 -1.68833065032959 -1.26251494884491 -1.06881785392761 -1.081423163414 -0.83538281917572 -0.696769177913666 -0.300551354885101 -0.0562780685722828 0.119196750223637 0.316258639097214 0.0916045680642128 0.314319521188736 0.407520920038223 0.495434194803238 0.425373375415802 0.367450684309006 0.45699554681778 0.797472417354584 1.0713187456131 1.10784685611725 0.959720849990845 0.594955682754517 0.275975048542023 0.236633315682411 0.0982547700405121 0.381103873252869 0.806269645690918 1.5966272354126 2.26002144813538 2.56522703170776 3.02702403068542 4.01635408401489 5.6225323677063 8.64188385009766 11.7896499633789 13.3095035552979 14.3779344558716 14.2542190551758 12.2038564682007 9.96487045288086 7.60607242584229 4.61054801940918 3.03781771659851 1.05994355678558 0.207366615533829 -0.282751619815826 -2.53722071647644 -2.22110176086426 -1.96271240711212 -1.70348238945007 -1.36959075927734 -1.15915644168854 -1.31923353672028 -1.37796711921692 -0.292405188083649 0.540627241134644 1.15761172771454 -1.6628965139389 -1.26953482627869 -0.601654946804047 0.0497787594795227 0.586327850818634 1.04197430610657 1.59979653358459
3.74617910385132 3.75232934951782 3.75053405761719 3.76362133026123 3.71285057067871 3.6917450428009 3.7213921546936 3.72960376739502 3.64424276351929 3.55648803710938 5.03956460952759 4.15953540802002 3.20323491096497 3.18084096908569 3.21361708641052 2.92785143852234 2.9599757194519 3.21259999275208 3.35738825798035 3.24202179908752 3.11773037910461 3.00045561790466 2.92524123191833 2.76102638244629 2.93944263458252 3.09510135650635 3.27074193954468 5.11310052871704 5.72532892227173 2.81275534629822 2.61256313323975 2.6195912361145 2.53466153144836 2.34356331825256 2.21291279792786 2.21063327789307 2.30961632728577 2.18877410888672 1.95547914505005 1.8390679359436 1.42004370689392 1.20919466018677 0.957109034061432 0.803626358509064 0.733171939849854 0.705156683921814 0.690890073776245 0.691314041614532 0.705219388008118 1.2788782119751 2.47436356544495 0.896381795406342 0.694604992866516 0.676702916622162 0.804734826087952 0.621882081031799 0.616247951984406 0.629219770431519 0.639528512954712 0.696885287761688 0.672638773918152 0.899539649486542 0.812371134757996 0.724736630916595 0.861697852611542 0.948718667030334 0.75400048494339 0.862149953842163 0.91055816411972 0.869632959365845 0.947463393211365 1.07808363437653 1.30176603794098 1.4776839017868 1.87746202945709 1.95597147941589 2.12459993362427 2.75824689865112 3.02917575836182 3.52454113960266 4.08366298675537 4.67203092575073 6.0492377281189 8.08543300628662 9.155348777771 10.5668048858643 11.9314794540405 9.95863056182861 0.74629682302475 -2.34009885787964 -2.46331548690796 -2.35626363754272 -2.17532229423523 -1.93279695510864 -1.49144673347473 -1.42899954319 -1.47755908966064 -0.622903347015381 -0.79926872253418 -1.53777003288269 -1.28801131248474 -0.655647814273834 -0.163174897432327 -1.95669841766357 -1.98791396617889 -2.01399445533752 -1.95400893688202 -1.86680424213409 -1.80683350563049 -1.56596529483795 -1.23767399787903 -0.952484905719757 -0.774874806404114 -0.394353300333023 -0.23076543211937 -0.211675733327866 -0.0505808182060719 0.0664215683937073 0.0575289092957973 0.305224776268005 0.320525765419006 0.318921267986298 0.23185358941555 0.281404793262482 0.377209603786469 0.62867283821106 0.824435889720917 0.988854646682739 0.974022269248962 0.684505999088287 0.217884823679924 0.2985580265522 0.0939170122146606 0.737240374088287 1.45157730579376 1.91370296478271 2.20083951950073 2.15271949768066 2.97212052345276 4.25079202651978 6.05165433883667 9.25716400146484 10.7814874649048 12.3346195220947 13.8198671340942 11.6822528839111 8.96792316436768 8.21953105926514 5.61984395980835 3.57110834121704 3.00493240356445 1.58458530902863 -0.841548383235931 -2.57317161560059 -2.46614241600037 -2.1484739780426 -1.89825069904327 -1.73866868019104 -1.49179935455322 1.67635500431061 -1.46964979171753 -0.661490917205811 2.44400215148926 6.60804128646851 7.1646614074707 1.74849414825439 -1.4992538690567 -0.99528557062149 -0.328823268413544 0.375057220458984 1.09197270870209 1.85975027084351
3.68019413948059 3.63142657279968 3.63927173614502 3.55690026283264 3.54011416435242 3.57481145858765 3.58694100379944 3.53917026519775 3.45974540710449 3.42595481872559 3.6691882610321 11.7241725921631 6.24217891693115 3.15645670890808 4.55194759368896 2.89273524284363 2.65524578094482 2.70495915412903 2.97591352462769 3.02406191825867 3.02773022651672 2.88938355445862 2.72632145881653 2.65092992782593 2.99337959289551 3.12042498588562 3.68644285202026 4.16090726852417 5.82543802261353 3.88174366950989 2.64008665084839 3.05054950714111 5.28463077545166 5.44567108154297 2.09918522834778 2.04624032974243 1.97967219352722 1.76311373710632 1.7235404253006 1.65432131290436 1.21539747714996 0.98720908164978 0.81964784860611 0.709246933460236 0.680650591850281 0.648803889751434 0.637283444404602 0.618337512016296 0.637238323688507 0.666990756988525 0.677783191204071 1.29805195331573 1.70504724979401 0.666874289512634 0.631284892559052 0.628041088581085 0.616934776306152 0.612335085868835 0.613174617290497 0.767215311527252 0.68523782491684 0.658452391624451 0.775414168834686 0.676620841026306 0.748569190502167 0.755976438522339 0.750152349472046 0.781423091888428 0.850697815418243 0.902943193912506 0.963396370410919 1.12893867492676 1.29161274433136 1.65839886665344 1.78785014152527 1.93211531639099 2.26474952697754 2.57110929489136 2.95504665374756 3.38327097892761 4.00946855545044 4.63115882873535 5.57752418518066 7.57782983779907 9.8297643661499 10.4046354293823 10.7133054733276 21.0017433166504 12.8979778289795 0.274709701538086 -2.62663626670837 -2.5339982509613 -2.41289949417114 -2.15501976013184 -1.89165580272675 -1.18188512325287 -0.658834934234619 0.552545785903931 1.48975360393524 0.386300384998322 -0.407153904438019 -0.80620276927948 -0.715449929237366 -2.06506609916687 -2.14709329605103 -2.19050598144531 -2.21152019500732 -2.16760969161987 -2.07784581184387 -1.98229098320007 -1.61401057243347 -1.14975869655609 -0.833855509757996 -0.373066753149033 -0.42769119143486 -0.313478916883469 -0.169149935245514 -0.297600865364075 -0.0566203854978085 0.172771602869034 0.130067571997643 0.11482747644186 0.110096082091331 0.203369677066803 0.403585761785507 0.498854070901871 0.735596060752869 0.897840023040771 0.743370532989502 0.315248906612396 0.221381455659866 0.90063089132309 0.911572158336639 0.919193744659424 1.69200670719147 1.94149720668793 1.88345968723297 2.3062891960144 3.12048149108887 4.68798780441284 8.52581787109375 9.17920589447021 10.1194610595703 11.7451257705688 15.1488103866577 11.5638360977173 8.12364673614502 6.50421857833862 4.35154914855957 1.4911527633667 1.04331600666046 2.99173331260681 1.07010555267334 1.0970493555069 -1.46772170066833 -2.09849715232849 -1.8915764093399 -1.76146018505096 -1.56423008441925 2.97534728050232 -0.124402523040771 -0.658680438995361 3.5244836807251 9.95073127746582 9.3202657699585 8.44092178344727 3.55649781227112 -1.04009306430817 -0.611326396465302 0.301145762205124 1.32875311374664 1.90535247325897
3.59316396713257 3.53995633125305 3.42468523979187 3.40884494781494 3.44383430480957 3.48515272140503 3.43553256988525 3.42832565307617 3.31346321105957 3.25271201133728 3.28686285018921 7.99524641036987 11.8774690628052 5.91849708557129 6.87851715087891 8.19320011138916 2.44859147071838 2.34783625602722 2.52822422981262 2.74944591522217 2.71836090087891 2.61280465126038 2.44276642799377 2.81698060035706 3.01412963867188 3.11700391769409 3.35046029090881 4.43198537826538 5.47360897064209 4.95945501327515 4.26886510848999 4.4997763633728 6.48112678527832 8.56824493408203 4.10709810256958 1.87047684192657 1.55222940444946 1.54405117034912 1.50701475143433 1.27852892875671 1.5918755531311 0.85200172662735 0.706721067428589 0.652361750602722 0.633054196834564 0.612816095352173 0.595454573631287 0.561236023902893 0.58170473575592 0.577555656433105 0.572655081748962 0.595353901386261 0.610771238803864 0.860863089561462 1.12005364894867 0.593355596065521 0.61199826002121 0.598312735557556 0.605255544185638 0.608242392539978 0.820051491260529 0.689166903495789 0.577732443809509 0.653339445590973 0.698411464691162 0.683863520622253 0.790885984897614 0.813976943492889 0.827623307704926 0.922704458236694 1.07435274124146 1.18687236309052 1.31727576255798 1.6459481716156 1.70818698406219 2.04598546028137 2.31051063537598 2.54756164550781 2.86043477058411 3.26912522315979 3.95172691345215 4.4621696472168 5.26595878601074 6.75373077392578 9.65859603881836 9.93762969970703 10.6754856109619 19.9794330596924 24.9080142974854 13.1503849029541 -2.4318630695343 -2.61981892585754 -2.54836320877075 -2.31999802589417 -2.07684755325317 -1.67945563793182 -0.98351263999939 -0.487666010856628 1.00576305389404 1.24989497661591 1.36034047603607 1.44096720218658 0.72054922580719 -1.01501381397247 -2.29368615150452 -2.38633060455322 -2.48107552528381 -2.52845788002014 -2.29842805862427 -2.16948628425598 -1.80088257789612 -1.53390419483185 -1.01498162746429 -0.693927347660065 -0.578871965408325 -0.454845279455185 -0.456714898347855 -0.444209784269333 -0.161445677280426 -0.0155686484649777 -0.00990333408117294 -0.0245420634746552 0.0133765982463956 0.0858718678355217 0.314324021339417 0.436506450176239 0.551357805728912 0.828279554843903 0.569206535816193 0.0466449707746506 0.0167243666946888 0.0441289283335209 0.539500832557678 1.05429005622864 1.29402124881744 1.60902869701385 1.65781831741333 2.15918350219727 3.14587545394897 5.73035335540771 8.06976699829102 9.01115703582764 9.77753162384033 10.9398193359375 14.2426586151123 14.4344778060913 8.45430469512939 5.43624448776245 9.50482559204102 2.57860994338989 3.7119574546814 5.5635085105896 3.95488858222961 1.38227152824402 -1.59172141551971 -2.06798028945923 -1.9241931438446 -1.81584918498993 -1.72127318382263 1.41743230819702 1.33049988746643 0.56714928150177 3.45707082748413 10.353196144104 8.29879951477051 8.52303218841553 6.14072465896606 1.73876655101776 -0.338394820690155 0.409350991249084 1.20415818691254 1.86373710632324
3.46897912025452 3.41767883300781 3.33087658882141 3.32142806053162 3.34518980979919 3.35147523880005 3.31224632263184 3.27867889404297 3.23453545570374 3.12241888046265 4.04736423492432 5.0151309967041 8.56483459472656 6.12910175323486 6.82523059844971 11.0709047317505 6.28153991699219 2.08406352996826 2.05890011787415 2.26566958427429 2.32861924171448 2.243567943573 2.42525053024292 2.78241014480591 2.95720529556274 3.0692777633667 3.32922053337097 4.14260911941528 4.28696537017822 4.75001859664917 4.517014503479 4.92648267745972 6.14042282104492 7.72578620910645 6.41324758529663 1.54144358634949 1.36388599872589 1.30080330371857 1.32643508911133 1.14361166954041 1.9078654050827 0.743363201618195 0.637815356254578 0.614267587661743 0.598220348358154 0.578236222267151 0.539888203144073 0.523016571998596 0.511216640472412 0.516171395778656 0.5190309882164 0.508340299129486 0.505324840545654 0.506834983825684 0.527085781097412 0.638659179210663 1.35365998744965 0.599012434482574 1.04289138317108 0.644401073455811 0.672420501708984 1.04432046413422 0.589897572994232 0.606376230716705 0.700373947620392 0.700487971305847 0.731486082077026 0.808405101299286 0.840637922286987 0.936846733093262 1.12921106815338 1.21576929092407 1.49199962615967 1.59186017513275 1.7185891866684 2.1218433380127 2.32846736907959 2.54781103134155 2.80787587165833 3.22290658950806 3.79323577880859 4.58580732345581 5.10230922698975 6.80897808074951 9.74677753448486 9.43807888031006 13.5829296112061 14.6309108734131 23.6686611175537 22.9521064758301 10.9152727127075 0.242370873689651 -2.53575706481934 -2.43586945533752 -2.21303486824036 -1.83643901348114 -1.1999808549881 -0.241202831268311 0.211299031972885 0.656758487224579 1.29750168323517 2.17043042182922 0.86299729347229 -0.56178891658783 -2.25288534164429 -2.68157982826233 -2.82892060279846 -2.84517431259155 -2.7305121421814 -2.45648670196533 -2.16854333877563 -1.80616474151611 -1.40527355670929 -1.21229016780853 -0.854505777359009 -0.72354120016098 -0.76121574640274 -0.547850012779236 -0.375238567590714 -0.325143873691559 -0.350875318050385 -0.35311371088028 -0.282069027423859 -0.15019316971302 0.00676359515637159 0.0266315620392561 0.0953820496797562 0.79583066701889 1.14535892009735 1.3428281545639 1.72171401977539 1.91374146938324 2.38147234916687 2.85929226875305 2.88947892189026 4.19089651107788 5.26304292678833 4.53294229507446 3.49946212768555 6.47361850738525 7.21556997299194 8.47710132598877 9.02776622772217 9.74844646453857 10.0564603805542 10.9542331695557 10.3232069015503 6.46801376342773 8.79785823822021 4.82193803787231 2.35396242141724 0.316246926784515 -1.54510724544525 -2.5729341506958 -2.47854590415955 -2.2324366569519 -2.04910945892334 -1.90429949760437 -1.81524109840393 -0.90344101190567 0.877676129341125 2.166996717453 4.95009565353394 7.8544716835022 8.13796997070312 6.91648864746094 6.99221467971802 4.81821346282959 0.149815589189529 0.755441427230835 1.30311334133148 1.83332169055939
3.3578634262085 3.25045442581177 3.23696565628052 3.23162865638733 3.19387030601501 3.10920548439026 3.13961029052734 3.12627387046814 3.0700409412384 2.97347068786621 3.22910380363464 5.00929927825928 5.72570323944092 6.62733888626099 7.86981534957886 10.2152118682861 13.4827356338501 4.97581958770752 1.73770749568939 1.73744118213654 1.87790977954865 2.18268299102783 2.55993747711182 2.74985337257385 2.91299390792847 3.0743236541748 3.37999582290649 3.84027910232544 3.94662570953369 3.95338296890259 4.17405605316162 5.0945987701416 6.59053659439087 6.82987403869629 6.66635704040527 3.68225073814392 1.20557487010956 1.10442531108856 1.04837167263031 0.962529003620148 2.22961282730103 1.1785444021225 0.590287446975708 0.570541024208069 0.553756356239319 0.520029544830322 0.503872871398926 0.50401109457016 0.496922433376312 0.473103523254395 0.474381864070892 0.468822658061981 0.472300440073013 0.47046422958374 0.468562871217728 0.496915757656097 0.543944120407104 0.973111569881439 1.81139302253723 1.34138977527618 0.686364829540253 0.577440023422241 1.04497706890106 0.617033362388611 0.655210077762604 0.847652018070221 0.762967646121979 0.773312330245972 0.87077409029007 1.0027449131012 1.12878894805908 1.25694715976715 1.5020238161087 1.57906579971313 1.82910323143005 2.05341124534607 2.29621767997742 2.58387994766235 2.79971837997437 3.23238658905029 3.64847016334534 4.46089267730713 5.13510751724243 6.35154342651367 8.56137371063232 8.79294300079346 12.819953918457 16.3804111480713 17.5456867218018 21.2164115905762 16.1092700958252 6.82177591323853 -0.726537048816681 -2.45069909095764 -2.27474331855774 -1.97924137115479 -1.33143854141235 -0.457815885543823 0.0903189182281494 0.536039412021637 1.95144724845886 4.33524513244629 4.46739435195923 3.3920259475708 5.23571538925171 -1.60322606563568 -3.08312106132507 -3.10805439949036 -2.98192143440247 -2.80433702468872 -2.47904348373413 -1.87829732894897 -1.70351433753967 -1.44095349311829 -1.00418925285339 -1.09375870227814 -0.919069588184357 -0.664151012897491 -0.424845695495605 -0.394549787044525 -0.2985580265522 -0.356475412845612 -0.220388427376747 -0.0444419197738171 0.708583176136017 1.056187748909 1.03820812702179 1.02052760124207 0.941157639026642 0.997968316078186 0.998731732368469 1.05925345420837 1.29629623889923 1.79495847225189 1.84669923782349 2.16509318351746 2.24185657501221 2.58430504798889 4.11165571212769 6.00207471847534 7.01714134216309 7.63167524337769 8.36938667297363 8.47423458099365 8.09783840179443 7.68069696426392 7.99571561813354 7.50252676010132 4.93069458007812 2.26510858535767 1.43787956237793 -1.54389846324921 -3.11496877670288 -2.96412372589111 -2.71667528152466 -2.44082260131836 -2.22505402565002 -1.97537100315094 -1.87939500808716 -0.815164923667908 0.154182106256485 2.04701209068298 5.36180257797241 6.45193910598755 7.33058261871338 6.31831693649292 6.22576713562012 5.39787578582764 0.496230334043503 0.726399064064026 1.342325091362 1.98439848423004
3.20698165893555 3.15879416465759 3.11347985267639 3.09604692459106 3.05252599716187 2.93907022476196 2.80333590507507 2.92864346504211 2.93906188011169 2.9168119430542 3.12797117233276 4.57279586791992 5.28096294403076 6.60786247253418 8.61699962615967 8.27300548553467 12.1664590835571 13.2181634902954 4.56857204437256 1.5686548948288 1.85565435886383 2.33724975585938 2.56571125984192 2.73223567008972 2.84076428413391 3.02244329452515 3.16975712776184 3.22176218032837 3.45174884796143 3.67489504814148 4.31861066818237 4.97682332992554 5.97346830368042 5.85263109207153 6.26133632659912 4.35397863388062 1.08300924301147 0.91790509223938 0.779808580875397 0.854047775268555 2.17376780509949 1.63812637329102 0.621332406997681 0.504912555217743 0.494531720876694 0.495988875627518 0.495419591665268 0.478923797607422 0.461310923099518 0.45378303527832 0.454794526100159 0.461040049791336 0.461656093597412 0.454542309045792 0.463579475879669 0.506856620311737 0.523469507694244 0.535960614681244 0.57672506570816 1.38576865196228 1.99745798110962 0.777898073196411 0.833644866943359 1.13402330875397 0.6885005235672 0.70453804731369 0.885063767433167 0.795468389987946 0.891069173812866 1.06426048278809 1.17396318912506 1.39269483089447 1.51342117786407 1.56520116329193 1.88991987705231 2.08301448822021 2.27520990371704 2.58234190940857 2.80364847183228 3.16281366348267 3.8248016834259 4.44844579696655 5.18629837036133 5.86848735809326 7.80454683303833 10.9047269821167 11.3792495727539 14.4134187698364 16.6687641143799 17.45871925354 17.2123947143555 10.1921892166138 4.25141096115112 -2.37071990966797 -2.24486374855042 -2.02043485641479 -1.06436264514923 -0.474020630121231 -0.00367055158130825 0.417595118284225 2.6326744556427 5.33064699172974 6.36697053909302 6.22735452651978 10.8358116149902 5.37161016464233 -3.20898985862732 -3.269606590271 -3.1304919719696 -2.92926692962646 -2.62600922584534 -2.09887003898621 -1.96902430057526 -1.72533345222473 -1.32392978668213 -1.1868302822113 -1.01398921012878 -0.780504643917084 -0.663843393325806 -0.57264244556427 -0.477217704057693 -0.443962812423706 -0.329328775405884 -0.155955523252487 0.0481734089553356 0.304896533489227 0.55473655462265 0.845100820064545 0.929186105728149 1.09532332420349 0.987924933433533 1.18180680274963 1.46865856647491 1.6346184015274 1.7686014175415 1.81329107284546 1.83548843860626 2.43082880973816 4.82843208312988 5.03499460220337 6.21766138076782 6.85404968261719 7.10013961791992 6.86880016326904 6.36665439605713 5.88575029373169 5.25821495056152 6.13161134719849 2.8767352104187 0.443532675504684 -1.50316321849823 0.444243758916855 -3.27771639823914 -3.07974648475647 -2.8441014289856 -2.4869499206543 -2.24064612388611 -2.07913684844971 -2.02368569374084 -1.63154447078705 0.017734507098794 3.06619834899902 5.37180328369141 6.0862865447998 5.24564456939697 6.22828483581543 5.68469858169556 3.71606969833374 0.0618329644203186 0.746895790100098 1.36994016170502 1.81568264961243
2.98143863677979 2.91511797904968 3.08811283111572 2.85210299491882 2.84267830848694 2.71306800842285 2.67695164680481 2.72370195388794 2.77366232872009 2.84740734100342 3.58063507080078 4.57879877090454 5.78107404708862 7.12652015686035 8.50634956359863 9.23463535308838 9.44560241699219 11.970814704895 7.47160816192627 1.62971973419189 2.03931474685669 2.34392523765564 2.54631853103638 2.71998429298401 2.87392354011536 2.97254347801208 2.92430281639099 3.06490397453308 3.05952286720276 3.38184261322021 4.1801323890686 5.1345272064209 5.01220560073853 5.3628454208374 4.82273244857788 3.8067524433136 1.72355544567108 0.743885338306427 0.574191629886627 0.534488677978516 1.77284169197083 2.23578548431396 0.825778305530548 0.457868695259094 0.468310862779617 0.490246832370758 0.46965616941452 0.463460445404053 0.458364456892014 0.450296849012375 0.4575414955616 0.461831629276276 0.460344046354294 0.456167727708817 0.59772390127182 0.515265166759491 0.521569132804871 0.541488468647003 0.549218595027924 0.563304543495178 1.16668426990509 2.22569727897644 1.14933693408966 0.850867867469788 1.36006057262421 0.917115211486816 0.889844000339508 0.832763195037842 0.957524657249451 1.0667496919632 1.32749545574188 1.40049028396606 1.48639464378357 1.69566321372986 1.89596247673035 2.09043741226196 2.33087301254272 2.6157763004303 2.90453720092773 3.27231907844543 3.84496974945068 4.50158929824829 5.13805389404297 6.40846061706543 7.49449729919434 9.99757766723633 12.4103021621704 12.3416051864624 14.0881567001343 14.3176021575928 15.6822357177734 13.3153066635132 8.28565216064453 2.08655834197998 -2.11335706710815 -1.82834148406982 -1.16348445415497 -0.542209982872009 0.207655712962151 0.661899387836456 2.4403829574585 4.19509506225586 5.5865044593811 7.75888633728027 13.1060457229614 10.0503883361816 1.61934447288513 -3.32227182388306 -3.16808676719666 -2.9793758392334 -2.68207716941833 -2.25619745254517 -2.05710506439209 -1.86267328262329 -1.63411998748779 -1.34179151058197 -1.17346835136414 -0.981057107448578 -0.901563882827759 -0.811224043369293 -0.636891841888428 -0.473624438047409 -0.434519737958908 -0.259534657001495 -0.0518657974898815 0.181607201695442 0.463492751121521 0.629438698291779 0.711375057697296 1.08461499214172 1.38895428180695 1.3105605840683 1.43947839736938 1.42017447948456 1.43401896953583 1.67727506160736 2.31300616264343 4.44365787506104 4.74824047088623 5.21404790878296 5.13365936279297 5.76056671142578 5.73611259460449 5.6160135269165 4.81801509857178 3.88850927352905 4.67984342575073 2.71661281585693 0.941401958465576 -0.305652022361755 -1.78887033462524 -2.01310634613037 -3.36904954910278 -3.18288159370422 -2.8425030708313 -2.4428699016571 -2.30810451507568 -2.26008725166321 -2.30259346961975 -2.41445970535278 0.0959355160593987 2.95147848129272 4.24865865707397 5.14039659500122 4.32849979400635 3.77366399765015 3.37191796302795 0.443958252668381 -0.179322898387909 0.505812466144562 1.06375670433044 1.48928773403168
2.56296038627625 2.4868597984314 2.88617420196533 4.38729619979858 5.54063272476196 6.67954540252686 2.66610741615295 2.62047934532166 2.6440167427063 2.71268177032471 3.30947065353394 4.3283634185791 5.2900710105896 7.0160059928894 6.91568231582642 8.72251987457275 9.06564807891846 8.34247493743896 7.67239713668823 4.1632285118103 2.28007483482361 2.42188668251038 2.55503797531128 2.72172141075134 2.82073640823364 2.69514632225037 2.48241996765137 2.59636521339417 2.83382940292358 3.47676634788513 4.13142776489258 4.76161479949951 4.67414903640747 4.80487394332886 4.13041830062866 3.42513298988342 2.363365650177 0.954708993434906 0.447772204875946 0.430759698152542 1.30412817001343 2.45282435417175 1.0758763551712 0.489166378974915 0.446262925863266 0.456669747829437 0.4559406042099 0.447949796915054 0.451856940984726 0.44980451464653 0.456446349620819 0.455897867679596 0.458295434713364 0.730695068836212 0.665795505046844 0.495142489671707 0.482149481773376 0.506230354309082 0.529872119426727 0.544611930847168 0.582018494606018 0.850416839122772 2.11239147186279 2.39340019226074 2.07729768753052 1.96311175823212 1.37418413162231 1.08003807067871 1.03490042686462 1.13170886039734 1.35798585414886 1.43491327762604 1.48719227313995 1.77896761894226 1.96150314807892 2.13948106765747 2.41394114494324 2.75778985023499 3.18543338775635 3.55239772796631 3.94645738601685 4.50426006317139 5.68350648880005 6.55237579345703 8.8554220199585 9.87722682952881 11.4799613952637 12.5546188354492 11.3435335159302 12.5129156112671 12.0954179763794 11.8744630813599 9.39387989044189 6.13890886306763 -0.401056319475174 -1.65584933757782 -1.04390251636505 -0.649836003780365 0.0307741705328226 1.04421496391296 2.63037014007568 3.79955554008484 4.75725793838501 7.46955108642578 13.8668384552002 10.0697164535522 4.15456771850586 -3.04666924476624 -3.10615277290344 -2.96674942970276 -2.70786118507385 -2.40195631980896 -2.1951277256012 -2.19008302688599 -1.98465037345886 -1.66016006469727 -1.32777154445648 -1.22564315795898 -1.16257834434509 -1.04500114917755 -0.84173446893692 -0.596438050270081 -0.472572982311249 -0.258298456668854 -0.0542893670499325 0.170580804347992 0.480879694223404 0.588099658489227 0.692757666110992 0.818948149681091 1.48048686981201 1.30188477039337 1.34392237663269 1.41261434555054 2.91276574134827 3.90704989433289 3.74389886856079 4.41560554504395 5.03806924819946 4.87114572525024 4.86174869537354 4.85101079940796 4.76648283004761 4.15794610977173 3.03610181808472 2.07493090629578 2.41333889961243 1.18034052848816 1.07501697540283 0.96002984046936 4.55346441268921 -0.490257799625397 -3.31567525863647 -3.12628841400146 -2.77693462371826 -2.544273853302 -2.49477481842041 -2.61403751373291 -2.63665175437927 -2.71174311637878 0.32196170091629 2.35617828369141 3.54478812217712 2.91664934158325 3.37459969520569 2.40378475189209 -1.13822734355927 -0.873059332370758 -0.347650080919266 0.13500913977623 0.686632990837097 1.14579677581787
2.2894446849823 2.24187326431274 2.94612860679626 3.68990898132324 3.95848178863525 4.45844697952271 3.81487512588501 3.37563323974609 2.5901563167572 2.57723188400269 3.39706254005432 4.4628267288208 5.44004917144775 6.32040405273438 7.09087657928467 6.59063625335693 8.30008411407471 6.61694669723511 5.89036226272583 3.94803619384766 2.7048180103302 2.43631982803345 2.55779504776001 2.67817163467407 2.76214241981506 2.63592338562012 2.32102632522583 2.4089822769165 3.01235699653625 3.5937340259552 4.12104272842407 4.0702166557312 4.39802980422974 3.86692523956299 3.65065884590149 3.51833248138428 3.13144874572754 2.32780933380127 0.709829688072205 0.801271080970764 1.48806655406952 2.41238617897034 1.22850954532623 0.493444800376892 0.542790710926056 0.438231259584427 0.53252375125885 0.444600164890289 0.446051299571991 0.449570059776306 0.451508641242981 0.460806101560593 0.55627167224884 0.51167905330658 0.58188796043396 0.452095180749893 0.395092934370041 0.419247001409531 0.474848002195358 0.515700221061707 0.568054556846619 0.625835120677948 0.779376149177551 1.78941071033478 3.25281119346619 3.83783888816833 2.28123927116394 1.94548463821411 1.78460502624512 1.74757730960846 1.6127233505249 1.70079123973846 1.80931830406189 1.9185174703598 2.06239485740662 2.28711581230164 2.52392268180847 2.80813455581665 3.28454256057739 3.47859692573547 3.911776304245 4.4460506439209 5.37263250350952 7.87746810913086 9.07680606842041 10.9481763839722 12.8010568618774 11.60901927948 10.8846282958984 10.5122871398926 10.6127414703369 9.45160579681396 8.49536609649658 7.02846002578735 3.34920954704285 -1.25973701477051 -0.811619102954865 -0.339210569858551 0.129770934581757 1.41545522212982 2.54018378257751 4.13746404647827 4.94354486465454 8.11728191375732 12.7144937515259 10.5696239471436 3.74791932106018 -0.867133736610413 -1.75511038303375 -2.92253875732422 -2.75142192840576 -2.50438237190247 -2.27063322067261 -2.26922559738159 -2.02118229866028 -1.68776333332062 -1.53076362609863 -1.43545699119568 -1.44569504261017 -1.28476691246033 -1.0783668756485 -0.843026459217072 -0.53963041305542 -0.317042261362076 -0.0505326054990292 0.177367508411407 0.32613930106163 0.444414347410202 0.542484700679779 0.726799428462982 1.59966456890106 2.01957964897156 1.20213341712952 1.17849946022034 1.52778506278992 2.72019004821777 3.92405128479004 4.12716627120972 4.69890737533569 4.72585821151733 4.21102046966553 3.75495338439941 3.25144147872925 2.55119276046753 1.4678019285202 0.432053834199905 -0.368923455476761 -0.996318519115448 -0.896893620491028 3.428466796875 6.22519731521606 5.21088600158691 1.56895172595978 -3.02702283859253 -2.8543689250946 -2.73707580566406 -2.79816460609436 -2.91797423362732 -0.170757412910461 -1.96640992164612 -0.00909631792455912 1.0425124168396 1.01895248889923 1.08231401443481 1.14108967781067 0.968189060688019 -1.29965829849243 -1.1479355096817 -0.619987785816193 -0.0551215223968029 0.383318454027176 0.827718079090118
2.04178357124329 2.05327010154724 2.45997262001038 3.34319019317627 3.27705979347229 2.48845362663269 2.65847826004028 3.68920660018921 4.93454647064209 2.72063994407654 3.67051434516907 4.89344024658203 5.36652612686157 5.40052652359009 6.67754983901978 6.3658971786499 5.7612042427063 5.9684739112854 4.5428466796875 3.80905151367188 2.82486915588379 2.50158262252808 2.591956615448 2.6298668384552 2.50078082084656 2.29435563087463 2.11479043960571 2.19325566291809 2.7709436416626 3.52446627616882 3.54896688461304 3.8459644317627 3.92901706695557 3.63710165023804 3.26265716552734 3.26870679855347 3.27365112304688 2.67610144615173 1.55633974075317 1.11722147464752 1.69138979911804 2.47057437896729 1.55445444583893 0.933290421962738 0.88913905620575 0.793194174766541 0.911697685718536 0.643665075302124 0.618480265140533 0.63912045955658 0.622866094112396 0.671897649765015 0.599678575992584 0.49356272816658 1.35054171085358 0.555916547775269 0.315424621105194 0.301676839590073 0.361196607351303 0.449481666088104 0.533795297145844 0.606079638004303 0.680309534072876 1.05528950691223 1.75027763843536 2.39865207672119 3.30969166755676 3.37648987770081 2.87226843833923 3.19308376312256 2.71651530265808 2.25173211097717 2.57861614227295 2.6043803691864 2.42369771003723 2.37859177589417 2.61574006080627 2.85425424575806 3.16838574409485 3.56681418418884 3.8826630115509 4.78712320327759 5.5873761177063 7.3302755355835 9.70531272888184 10.2483968734741 11.1055126190186 9.9351806640625 9.50934600830078 8.87043762207031 8.60243988037109 7.58767557144165 6.32360935211182 6.20114612579346 5.47165870666504 0.316705107688904 -0.557456970214844 0.0703494623303413 0.553028702735901 1.77078771591187 3.01362800598145 5.00472211837769 6.08483648300171 7.95688343048096 12.4009027481079 9.51080131530762 3.41409659385681 -1.31364321708679 -2.17669010162354 -2.78749585151672 -2.64925169944763 -2.55313611030579 -2.41478037834167 -2.22856402397156 -2.04779362678528 -1.93923878669739 -1.80943882465363 -1.81055009365082 -1.73717260360718 -1.61839640140533 -1.40246224403381 -1.06070947647095 -0.727534115314484 -0.412979632616043 -0.076225757598877 0.139267757534981 0.277579963207245 0.411885380744934 0.527461349964142 0.915336072444916 1.11881077289581 2.30518507957458 1.40861868858337 1.15417063236237 1.30823576450348 2.49574518203735 3.81360149383545 4.37417793273926 4.26600074768066 4.87338924407959 3.50674295425415 2.67775583267212 1.92202651500702 0.823779046535492 0.0542246326804161 -0.798128128051758 -1.5965211391449 -2.23370933532715 -1.66518306732178 3.12149286270142 7.0755090713501 7.41133737564087 4.22519016265869 -2.32756781578064 -2.93197560310364 -2.91156458854675 0.620086491107941 -2.94262790679932 -0.931388020515442 -0.482383608818054 0.366253614425659 0.218580812215805 -0.114588744938374 -1.04528295993805 -0.708583116531372 -1.07455348968506 1.10139679908752 -1.2076872587204 -0.946444392204285 -0.429835617542267 0.17832687497139 0.559900224208832
1.72227346897125 1.7627899646759 1.94399499893188 2.09465599060059 2.27548813819885 2.41900014877319 3.04149508476257 4.18844079971313 5.08082294464111 3.30880188941956 4.00284194946289 4.81323862075806 4.83634662628174 5.86707210540771 4.94426727294922 6.17495059967041 5.40344858169556 4.64275789260864 3.85382294654846 3.92789816856384 3.48793768882751 2.51709246635437 2.59444522857666 2.62492895126343 2.46105790138245 2.14589929580688 1.94056379795074 2.33941292762756 2.89513778686523 3.34624361991882 3.41645646095276 3.54425811767578 3.34224414825439 3.25770330429077 3.01348280906677 2.8573842048645 2.72057485580444 2.4631884098053 1.74246418476105 1.42255163192749 2.04830884933472 3.02224040031433 3.08973097801208 2.93187999725342 1.67518723011017 1.25617933273315 1.25574576854706 1.04221475124359 1.02098631858826 0.882109761238098 0.815412998199463 0.612261950969696 0.480854243040085 0.654479146003723 2.40019822120667 1.42355263233185 0.238378256559372 0.181161567568779 0.212708815932274 0.314580470323563 0.438634634017944 0.57704484462738 0.669985055923462 0.775948584079742 1.36559307575226 1.61985445022583 1.91505396366119 2.23264598846436 2.55166792869568 2.43696713447571 1.50575911998749 1.73303997516632 1.90188705921173 2.06340551376343 2.18927669525146 2.35111594200134 2.51438355445862 2.8764328956604 3.10538649559021 3.56988263130188 3.80766773223877 4.50591564178467 6.51917362213135 7.55417203903198 8.92869472503662 10.2663650512695 9.46145057678223 8.66017246246338 5.75216913223267 6.00978326797485 5.69416666030884 5.16878271102905 4.90518856048584 3.95396423339844 4.17263555526733 2.42203783988953 -0.332499861717224 0.348939836025238 1.10542857646942 2.04458856582642 3.01025223731995 4.70374441146851 7.61803150177002 8.75269412994385 13.5120992660522 11.6806783676147 4.81112766265869 -1.78831827640533 -2.95242166519165 -2.87781667709351 -2.674635887146 -2.61181688308716 -2.39001393318176 -2.2487895488739 -2.13642978668213 -2.08111095428467 -2.03956246376038 -2.04035139083862 -2.01201462745667 -1.97058546543121 -2.28670239448547 -2.29772138595581 -2.01490306854248 -1.24182391166687 -0.246278554201126 0.0262521877884865 0.216087937355042 0.325338304042816 0.546917080879211 1.00391459465027 1.16206014156342 2.63938307762146 2.69578719139099 1.20708513259888 1.34813416004181 3.30061936378479 3.57203483581543 4.01058006286621 4.03048276901245 3.81075930595398 2.88248038291931 1.83484029769897 0.809098660945892 -0.382342219352722 -1.14227688312531 -1.7829430103302 -2.4167160987854 -2.79467630386353 -0.611368060112 3.87035155296326 4.8545126914978 4.19885587692261 3.15085411071777 1.35671067237854 -2.85061073303223 -2.99062728881836 1.82955360412598 0.960783064365387 1.30714643001556 2.42387962341309 7.30630254745483 2.95878744125366 -0.669216811656952 -1.10281443595886 -1.88635349273682 -1.58500552177429 -1.45805037021637 -1.43441867828369 -1.14010655879974 -0.705641984939575 -0.101328685879707 0.378560155630112
1.45598328113556 1.49271976947784 1.9094820022583 1.96738374233246 2.28338265419006 4.00054693222046 3.99198722839355 3.79184174537659 3.56566166877747 3.50194525718689 4.28189086914062 4.76324558258057 5.10349273681641 4.47438812255859 5.20758724212646 4.69585609436035 4.77192258834839 3.74419474601746 3.30451941490173 3.14940452575684 3.09227705001831 2.57201504707336 2.57352828979492 2.40684819221497 2.07615303993225 1.90005493164062 1.82197511196136 2.38913607597351 3.1691255569458 3.18435335159302 3.25549030303955 2.87656235694885 2.82879090309143 2.46177172660828 2.16261649131775 2.22760438919067 2.05135226249695 1.50971174240112 1.11131250858307 1.36284255981445 1.84544706344604 2.17679977416992 2.5203652381897 2.92642712593079 2.97759175300598 1.68371045589447 1.33511137962341 1.10884165763855 0.938183307647705 0.813861548900604 0.691492915153503 0.574080049991608 0.490095734596252 1.08370733261108 3.36483287811279 2.61731934547424 0.454028069972992 0.0727475881576538 0.0571467615664005 0.153508767485619 0.254271417856216 0.440304785966873 0.646104216575623 0.757908046245575 1.02955424785614 1.36890339851379 1.46497440338135 1.67061460018158 1.69760262966156 1.69957721233368 1.60339915752411 1.72783148288727 1.81897556781769 2.04579782485962 2.14662098884583 2.32129526138306 2.52480006217957 2.79039025306702 3.14809489250183 3.50580596923828 4.10727691650391 4.78562498092651 6.10356616973877 8.05664253234863 8.68290710449219 9.52803325653076 11.405237197876 9.20813846588135 2.72303509712219 2.26232099533081 2.7350754737854 2.14483094215393 2.05768537521362 2.21200561523438 1.08311331272125 0.327334612607956 -0.363540828227997 0.548113942146301 1.64009213447571 2.42115426063538 3.55449414253235 5.29616689682007 7.32160186767578 10.2722082138062 13.3830671310425 13.8933839797974 7.46576452255249 0.539110839366913 -3.00670433044434 -2.94699740409851 -2.7858943939209 -2.54438948631287 -2.34086108207703 -2.24670243263245 -2.19226574897766 -2.15710806846619 -2.18835234642029 -2.15656852722168 -2.21056962013245 -2.46232438087463 -2.65403628349304 -2.90384221076965 -3.10284757614136 -2.82779479026794 -0.739335358142853 -0.224280089139938 -0.0296677444130182 0.275457262992859 0.643819212913513 0.802932798862457 0.989857494831085 3.12571215629578 5.09378147125244 3.86937856674194 2.05136275291443 3.18896555900574 3.66822862625122 3.43498921394348 3.4678852558136 3.63625860214233 4.07213640213013 2.76153373718262 1.64468932151794 -1.01043629646301 -2.03580546379089 -3.04295873641968 -3.17480111122131 -2.94429659843445 0.353467464447021 3.39079332351685 4.52326822280884 2.88340163230896 1.6941967010498 2.58956742286682 -1.0107843875885 -2.32679724693298 0.405137002468109 2.51599335670471 3.8181746006012 4.15748596191406 6.64788341522217 7.10495519638062 -1.16823530197144 -1.89793014526367 -1.95755171775818 -1.59535551071167 0.0303882993757725 -1.44835519790649 -1.22613179683685 -0.758291006088257 -0.210521683096886 0.251317948102951
1.29612326622009 1.26143038272858 1.77901768684387 3.21295046806335 3.82754683494568 3.75517249107361 3.39520072937012 3.54398488998413 3.14030408859253 3.49934864044189 4.13594055175781 4.21597051620483 4.81726837158203 4.45965623855591 4.07090187072754 4.14920854568481 3.69516253471375 3.14218497276306 2.80675673484802 2.68095993995667 2.5363507270813 2.53725004196167 2.3751208782196 2.14666557312012 1.9395010471344 1.81539607048035 2.18374800682068 2.74896287918091 2.76195311546326 2.56674861907959 2.41277575492859 2.32923698425293 2.03133511543274 2.05958580970764 1.87589633464813 1.72481274604797 1.37873947620392 1.01204550266266 1.04793035984039 1.26015341281891 1.68009030818939 1.88094758987427 1.97972440719604 1.95195937156677 1.68747043609619 1.24242198467255 1.00941014289856 0.923702478408813 0.89524120092392 0.785471975803375 0.717819154262543 0.748915553092957 0.651254534721375 1.62163186073303 4.38138103485107 5.99536943435669 4.54447031021118 0.0445419996976852 -0.0151307284832001 0.00852471776306629 0.139372020959854 0.27731716632843 0.503222584724426 0.702291369438171 0.859355747699738 1.02704703807831 1.1310213804245 1.29295456409454 1.39800190925598 1.43455982208252 1.62061369419098 1.71948850154877 1.86078429222107 2.03170132637024 2.18085527420044 2.25365233421326 2.57540702819824 2.75217485427856 3.16340041160583 3.77400374412537 4.39481830596924 5.56445741653442 6.45167398452759 7.54210567474365 8.66317272186279 8.64180088043213 19.7203979492188 18.1900482177734 1.94051516056061 0.614233314990997 0.0996791794896126 0.0309283696115017 -0.576488792896271 -0.628198742866516 -1.02657675743103 -1.00768554210663 -0.791175842285156 -0.166795268654823 1.04127621650696 2.38810682296753 4.44502210617065 5.48596858978271 7.31060600280762 10.1876201629639 10.8988962173462 15.0951042175293 9.9261589050293 5.19046115875244 -2.24916243553162 -2.95924472808838 -2.8143322467804 -2.48456001281738 -2.30215954780579 -2.2637882232666 -2.23590850830078 -2.20607852935791 -2.28618764877319 -2.34388637542725 -2.52400660514832 -2.87870573997498 -3.12941956520081 -2.73923349380493 -3.39392924308777 -3.43180990219116 -2.36540102958679 -0.485226333141327 0.0456382371485233 0.412157982587814 0.614624738693237 0.772376716136932 0.808417201042175 2.54953289031982 2.87785911560059 1.27838146686554 2.68518328666687 2.81082224845886 3.08067584037781 3.21142172813416 2.90527629852295 3.02261590957642 3.05218696594238 5.04329299926758 4.91782474517822 2.05451202392578 -2.24224352836609 -2.78203129768372 -3.34919095039368 -1.94619631767273 0.543203175067902 1.8970719575882 2.14509582519531 2.03087306022644 4.45013189315796 7.32057571411133 6.15628719329834 0.912093639373779 -0.306207984685898 2.2172679901123 3.65895485877991 5.05559825897217 4.7599139213562 8.01369762420654 2.2799084186554 -2.13018155097961 -1.81731855869293 -1.65087378025055 -1.07766270637512 0.0848283171653748 -1.10369908809662 -0.677526354789734 -0.142595618963242 0.254824995994568
2.7490828037262 1.1730180978775 2.14701151847839 2.89715480804443 3.11513423919678 3.10404324531555 3.25475001335144 3.13670229911804 3.23958587646484 3.67462944984436 4.01509952545166 4.26279640197754 3.63078713417053 4.51212358474731 3.98970532417297 3.19001340866089 2.81320452690125 2.58528995513916 2.34202170372009 2.44727396965027 2.52284574508667 2.51928234100342 2.36643242835999 3.31121277809143 3.17962551116943 2.87274980545044 2.25429320335388 2.21079111099243 2.13426113128662 2.18355798721313 2.02414155006409 1.78660762310028 1.50030660629272 1.69794762134552 1.47668194770813 1.39573621749878 1.05911505222321 0.949844062328339 1.02266895771027 1.17111325263977 1.42417180538177 1.5082985162735 1.53590130805969 1.51480937004089 1.39379870891571 1.19929909706116 1.05907940864563 1.07813620567322 1.19856631755829 1.06077408790588 0.98435515165329 0.962325990200043 0.890134394168854 1.72618472576141 2.51886653900146 3.6759991645813 7.1981782913208 1.54071927070618 -0.0172605011612177 -0.0263374820351601 0.0483468435704708 0.219142243266106 0.367143422365189 0.591821789741516 0.860480666160583 1.00034368038177 1.23314487934113 1.26554024219513 1.34437561035156 1.48047912120819 1.61543273925781 1.70076465606689 1.81517398357391 1.91466653347015 2.10179376602173 2.31539845466614 2.5335853099823 2.8589243888855 3.13195371627808 3.61836290359497 5.11453199386597 5.9305534362793 6.86822080612183 7.45728158950806 8.10562038421631 8.35157775878906 25.8842296600342 19.6890563964844 7.1900110244751 -0.0914322584867477 -1.02393245697021 -1.84759032726288 -1.74463534355164 -1.61864352226257 -1.48100435733795 -1.3332759141922 -1.19115626811981 -0.599877715110779 0.482891947031021 1.94685316085815 4.24783182144165 5.92173767089844 7.01648998260498 9.07191467285156 10.6018123626709 13.1794900894165 10.831395149231 6.92905759811401 0.328974395990372 -2.91177368164062 -2.70218729972839 -2.41855430603027 -1.91517901420593 -1.3535441160202 -2.05304551124573 -1.56403911113739 -2.40098476409912 -2.51001620292664 -2.98009490966797 -3.34152364730835 -3.56989121437073 -1.73521518707275 -3.55820941925049 -3.68465614318848 -3.32291483879089 -1.29031002521515 -0.0380975604057312 0.382548987865448 0.546052277088165 0.625048100948334 0.663067042827606 1.47415447235107 3.4196310043335 2.55828881263733 2.50437784194946 2.73554682731628 2.63080835342407 2.6358859539032 2.31704235076904 2.95038676261902 2.36845469474792 3.18917417526245 4.79585790634155 5.25006437301636 1.19231331348419 -0.379602134227753 -2.29708790779114 -0.621565639972687 0.812000691890717 1.82804691791534 1.58020436763763 1.27231776714325 3.46230673789978 8.46883869171143 9.19536972045898 7.75943613052368 3.08172059059143 2.80006504058838 3.40323638916016 4.92662572860718 4.96520519256592 6.63888311386108 4.88487720489502 -1.74114060401917 -1.78677034378052 -1.52058613300323 1.22218585014343 2.86312770843506 -0.39334699511528 -0.445759296417236 -0.0778190121054649 0.323562830686569
5.88127136230469 1.58198797702789 1.62167525291443 2.15052008628845 2.6912100315094 2.93064785003662 3.26173663139343 3.2152795791626 3.40913581848145 3.55605912208557 3.59272766113281 3.98236751556396 3.83214712142944 3.49829840660095 3.47254323959351 2.82709693908691 2.34912467002869 2.35377025604248 2.36992263793945 2.51406025886536 4.64985847473145 4.94736480712891 3.51816821098328 1.83179020881653 1.6525981426239 1.64717531204224 1.98023808002472 1.85532379150391 1.8422839641571 1.74764454364777 1.7201646566391 1.31995093822479 1.23839128017426 1.32079684734344 1.09408903121948 0.957997858524323 0.792544901371002 0.883258998394012 0.96955007314682 1.08429908752441 1.26438188552856 1.25244247913361 1.23204743862152 1.23855185508728 1.19322311878204 1.1948413848877 1.2524973154068 1.24001610279083 1.14907276630402 0.997980535030365 0.683506369590759 0.730548501014709 1.57208895683289 2.30574011802673 3.40434646606445 3.92497086524963 7.61556386947632 1.31106603145599 0.329177230596542 -0.0301495995372534 0.0344915613532066 0.151474207639694 0.333403706550598 0.533258020877838 0.842505872249603 1.00748717784882 1.19243443012238 1.28744900226593 1.31109130382538 1.48777663707733 1.61013841629028 1.71418917179108 1.80715644359589 1.91594016551971 2.1145133972168 2.31818699836731 2.49085450172424 2.8445930480957 3.35132479667664 3.91737222671509 4.90804290771484 6.35391998291016 6.90448141098022 7.43551540374756 7.44174242019653 10.6351547241211 27.851879119873 23.686954498291 9.72041988372803 3.55303382873535 -0.855484008789062 -2.04528403282166 -2.06716465950012 -1.99741351604462 -1.87555754184723 -1.8265163898468 -2.29415988922119 -1.82218134403229 -0.0689888447523117 2.1800856590271 3.62242794036865 5.71299505233765 6.80316829681396 8.48971748352051 10.0596046447754 11.7046499252319 11.8520193099976 8.05546283721924 3.4980103969574 -2.30052781105042 -2.57521271705627 -2.34018850326538 -1.79862642288208 -1.19219696521759 -0.931581139564514 -1.61133360862732 -1.1167494058609 2.06716871261597 -3.49478602409363 -1.98958551883698 -3.76221704483032 -3.7588574886322 -2.39751768112183 -3.86703944206238 -3.78777694702148 -1.79144966602325 -0.100520797073841 0.171226009726524 0.316262573003769 0.411280065774918 0.558951914310455 0.8323575258255 3.58143782615662 3.24328875541687 2.58028030395508 2.31630492210388 2.38810515403748 2.14600586891174 1.88064062595367 3.14441466331482 3.61026334762573 2.31507921218872 3.30108833312988 5.37608909606934 2.12254190444946 -0.839636623859406 -1.61118161678314 -0.394952774047852 0.560964822769165 0.539339959621429 1.01977515220642 1.70045590400696 3.52644872665405 6.01058197021484 8.22861480712891 8.93947696685791 6.25897026062012 3.51917862892151 4.53437662124634 4.20669460296631 5.33624792098999 4.86668968200684 5.29912137985229 -0.94759202003479 -1.70365631580353 2.2549159526825 3.05407691001892 3.42146229743958 2.65268111228943 0.0206903181970119 0.183113366365433 0.567652642726898
4.83658075332642 1.72695446014404 1.68578433990479 1.98089158535004 2.41729950904846 2.72855973243713 2.92924761772156 3.13601231575012 3.54979085922241 3.37128734588623 3.6031231880188 3.17732930183411 3.81847500801086 3.35427927970886 2.66629648208618 2.43012475967407 2.41610407829285 3.46960139274597 4.03287506103516 3.78368806838989 2.21297883987427 1.80711185932159 1.603839635849 1.39950323104858 1.24480724334717 1.60018062591553 1.73846733570099 1.72016036510468 1.46325922012329 1.41668927669525 1.30346846580505 1.0951464176178 1.03148448467255 1.09396779537201 0.773332417011261 0.664429247379303 0.769162893295288 0.832486391067505 0.959445953369141 1.07728862762451 1.11656677722931 1.15529549121857 1.12772381305695 1.21794998645782 1.21013188362122 1.0299516916275 0.948349177837372 0.886314868927002 0.862678170204163 0.751221299171448 0.627484023571014 0.747347176074982 1.3309942483902 1.79080808162689 2.82145953178406 4.39138460159302 6.88393449783325 0.660505831241608 -0.083206407725811 -0.0751702785491943 0.037594448775053 0.147406190633774 0.280893176794052 0.535595893859863 0.822624742984772 1.09811282157898 1.15258932113647 1.24071526527405 1.35417342185974 1.47347939014435 1.57645130157471 1.71449029445648 1.79178881645203 1.90366995334625 2.15710425376892 2.3328800201416 2.53890490531921 2.76228499412537 3.1862199306488 4.49077367782593 5.2160587310791 5.98570775985718 6.82079839706421 6.86161279678345 7.21871614456177 12.9613180160522 25.1590957641602 29.897762298584 17.0092678070068 7.46716976165771 4.03002023696899 -0.39432692527771 -2.16813731193542 -2.23860502243042 -2.34144878387451 -2.13305330276489 -2.40539932250977 -2.08502459526062 -0.364160567522049 1.75979435443878 3.74884438514709 5.32070446014404 6.3605489730835 7.6908221244812 8.9753360748291 9.38184547424316 11.7042055130005 9.11353206634521 7.0530161857605 4.72001647949219 -0.548654317855835 -1.52299737930298 -1.82346475124359 -1.24719166755676 -0.0862772166728973 -0.693623065948486 0.540694832801819 8.79499435424805 -1.73959648609161 -3.54446983337402 -3.95002174377441 -3.97847151756287 -2.81050658226013 -3.96428442001343 -3.6833701133728 -1.71506083011627 -0.396174550056458 0.0330130197107792 0.168850466609001 0.165351182222366 0.0152374375611544 0.647902429103851 2.13736414909363 2.1687376499176 2.31548070907593 2.36548686027527 2.06586217880249 1.76488316059113 1.22292482852936 0.655705749988556 1.86438751220703 2.25045561790466 3.26948809623718 2.66144704818726 -0.391270011663437 -3.1098849773407 -2.00779795646667 -1.30367147922516 -0.484495520591736 -0.00462899543344975 0.448370784521103 2.014479637146 4.20845651626587 6.19091176986694 6.46095371246338 5.15139770507812 4.46131324768066 4.44103145599365 4.71731662750244 4.71224069595337 4.58021640777588 2.77775526046753 5.4557409286499 3.15065503120422 2.43757700920105 3.0186824798584 3.14084100723267 3.23309564590454 3.37191486358643 3.08253693580627 2.25961875915527 2.0220992565155
3.55059933662415 1.58221888542175 1.71751344203949 2.00964641571045 1.99616396427155 2.42476415634155 2.97738218307495 3.3511598110199 3.47231554985046 3.44754767417908 2.88003063201904 3.37362957000732 2.96457767486572 2.92407083511353 2.50180292129517 2.27364826202393 3.43489694595337 2.79407405853271 1.79647052288055 1.74160659313202 1.82920622825623 1.41302263736725 1.29682374000549 1.10369229316711 1.06532669067383 1.45318281650543 1.45887386798859 1.45517909526825 1.34602153301239 1.04393780231476 0.917779445648193 0.897770285606384 0.776746153831482 0.738553583621979 0.739889442920685 0.636022508144379 0.728569030761719 0.837337136268616 0.971101880073547 1.01597487926483 1.07003259658813 1.12268245220184 1.1369434595108 1.13639807701111 1.58658623695374 0.853557825088501 0.786105155944824 0.72666984796524 0.650972664356232 0.593737125396729 0.664377927780151 0.916215598583221 1.83998465538025 2.39570164680481 2.8578896522522 5.01594686508179 6.32781314849854 2.16145062446594 -0.116828456521034 -0.0608764588832855 0.0316545739769936 0.165431544184685 0.359868168830872 0.552989900112152 0.831298053264618 1.07526874542236 1.17081987857819 1.26799094676971 1.42010080814362 1.48207116127014 1.58640789985657 1.68323910236359 1.79362344741821 1.94010865688324 2.0909116268158 2.37956833839417 2.52752637863159 2.94470596313477 3.44672989845276 4.27827501296997 5.51483011245728 5.99804735183716 6.4454517364502 6.59462356567383 6.99775314331055 13.1975631713867 19.6856136322021 31.6044063568115 27.5917129516602 13.8291759490967 7.47615337371826 6.12286615371704 2.52013897895813 -1.67895114421844 -2.51567363739014 -1.98474228382111 -2.32463073730469 -1.46908831596375 -0.298972219228745 0.785094678401947 2.84594559669495 4.4504451751709 5.6744122505188 6.60474252700806 8.14385795593262 9.7028341293335 11.5970230102539 10.8167161941528 10.6990270614624 7.73789739608765 3.74853491783142 1.4110996723175 0.356038928031921 1.51139497756958 1.68294668197632 1.47390353679657 3.80448913574219 9.9023323059082 6.93547344207764 0.731443226337433 -2.94580101966858 -4.10634279251099 -4.08573389053345 -4.01775026321411 -3.1398983001709 -1.50179624557495 -0.730086922645569 -0.299526035785675 -0.0466424599289894 2.02989268302917 -0.108617395162582 0.812786638736725 1.86097812652588 2.26474285125732 2.0687620639801 2.06162762641907 1.75502169132233 1.25941479206085 0.683992505073547 0.0247625261545181 0.730345726013184 1.0611799955368 1.53614556789398 0.604534804821014 -1.63185083866119 -2.52659201622009 -2.37183308601379 -2.39707803726196 -1.41441655158997 -0.724738001823425 0.463101893663406 3.06923985481262 4.96307468414307 5.85976791381836 6.54117250442505 5.04088306427002 3.30686855316162 3.74607086181641 4.01339864730835 6.31250762939453 6.5825719833374 4.94461345672607 5.13721704483032 6.86438179016113 3.1107759475708 3.69163799285889 4.99917411804199 3.86370205879211 2.97283697128296 3.51507639884949 3.17771315574646 1.16437911987305
3.56331014633179 3.73265528678894 2.10973024368286 1.94344174861908 1.96913039684296 2.55531930923462 2.85940098762512 3.24550342559814 3.13497996330261 3.34629082679749 3.15202641487122 2.73293685913086 2.60379076004028 2.27511429786682 2.19862675666809 2.39565300941467 1.99307882785797 1.4234824180603 1.27021372318268 2.71232557296753 3.59750556945801 0.975084483623505 0.869488954544067 0.927363574504852 1.17656016349792 1.29951012134552 1.30666792392731 1.08100891113281 1.08611059188843 0.697405397891998 0.665209889411926 0.699557423591614 0.703517556190491 0.460935920476913 0.615255236625671 0.603117883205414 0.704470217227936 0.859109282493591 1.00204253196716 1.03633105754852 1.03979694843292 0.988081991672516 0.971367716789246 0.933727145195007 1.45445263385773 0.774733424186707 0.691959142684937 0.629719734191895 0.558183670043945 0.481731414794922 0.819423675537109 1.1694530248642 1.6828453540802 2.20411491394043 3.29266023635864 6.96271371841431 7.87983894348145 5.68837404251099 1.42425727844238 -0.0118424836546183 0.077226348221302 0.175881534814835 0.42146971821785 0.591356694698334 0.897576093673706 1.04893827438354 1.14134061336517 1.28432762622833 1.40556347370148 1.51546454429626 1.57726800441742 1.65554010868073 1.75949454307556 1.97027838230133 2.12615084648132 2.3751072883606 2.5104296207428 2.81071996688843 3.96850538253784 4.61480188369751 5.25751876831055 5.93200302124023 5.99361991882324 6.25141620635986 8.16573905944824 13.0306015014648 19.5110168457031 22.9233779907227 32.1521530151367 25.2000179290771 13.6155385971069 8.47103118896484 6.95273923873901 7.17801189422607 5.171875 3.84064698219299 0.628701627254486 -0.701635003089905 0.0619482062757015 0.715670168399811 1.70564699172974 3.36022853851318 4.37086200714111 6.03886270523071 7.81755256652832 9.71914863586426 10.1467609405518 9.72392559051514 7.85607957839966 6.95631742477417 5.01455688476562 3.48569226264954 3.16267323493958 4.31238651275635 0.72858452796936 -1.64702498912811 2.14094114303589 2.93867206573486 4.45579624176025 2.04810643196106 0.914334058761597 -0.564319372177124 -4.1807336807251 -3.82795381546021 -2.98544383049011 -1.59058308601379 -0.752313554286957 -0.395943224430084 0.855232954025269 3.88093614578247 0.13530121743679 1.55172502994537 1.7778627872467 2.02330303192139 2.01513338088989 1.57549726963043 1.32572090625763 1.59118056297302 1.93246912956238 0.867516875267029 0.452935069799423 0.88077574968338 0.529624104499817 -0.774815618991852 -0.443509668111801 -0.206245467066765 -2.02018737792969 -2.08629107475281 -1.6476891040802 -0.718814730644226 1.10651087760925 3.49257349967957 5.22936630249023 4.95968437194824 4.29901790618896 4.0582423210144 3.96584796905518 3.77496361732483 4.2762451171875 7.36299085617065 11.8152475357056 12.6637477874756 10.1303396224976 7.06161069869995 4.26459646224976 4.3442177772522 4.07777214050293 3.51261758804321 3.1858069896698 2.21266865730286 1.71565127372742 1.29798150062561
4.19712448120117 3.74834728240967 2.53297066688538 2.19231581687927 2.2240629196167 2.62004995346069 3.03904795646667 3.10159921646118 3.08979249000549 3.18560004234314 3.20931053161621 2.71818423271179 2.03469395637512 1.87211036682129 2.02281641960144 1.99239313602448 1.44153380393982 1.23787987232208 1.20457339286804 1.91105914115906 3.21269845962524 1.64510428905487 0.953463315963745 0.87155818939209 1.08190810680389 1.05958223342896 1.04612135887146 0.946653306484222 0.682367563247681 0.563933908939362 0.458855867385864 0.480016946792603 0.468610554933548 0.395099222660065 0.565750777721405 0.68513685464859 0.778350532054901 0.887346744537354 0.886395812034607 0.860419750213623 0.851922452449799 0.861536979675293 0.847737312316895 0.837621212005615 1.1532860994339 0.798283636569977 0.601450562477112 0.496922880411148 0.4530308842659 0.568890035152435 1.02446758747101 1.4908355474472 1.89017045497894 2.38373231887817 3.92982602119446 7.6341724395752 8.51168918609619 7.79766941070557 3.57029581069946 0.626402974128723 0.124317206442356 0.263771742582321 0.400449424982071 0.626269936561584 0.89898157119751 1.07619976997375 1.17492020130157 1.29874801635742 1.39825809001923 1.52916026115417 1.56271016597748 1.64861965179443 1.78662919998169 1.90569603443146 2.16567087173462 2.31534171104431 2.63365125656128 3.08002638816833 3.79263615608215 4.88830232620239 5.31976222991943 5.64486265182495 5.74481868743896 5.76104974746704 9.14881610870361 12.9703683853149 17.2586708068848 21.5964126586914 25.0827922821045 28.6627540588379 22.8198909759521 15.6649084091187 9.65083312988281 12.7098979949951 12.4430408477783 9.82989501953125 8.31697750091553 5.2345085144043 3.32364130020142 1.25474369525909 2.03105044364929 3.11269116401672 4.26771306991577 5.98145341873169 7.73393440246582 9.50625324249268 9.07552242279053 7.92183399200439 6.01909780502319 4.5827841758728 3.73120522499084 2.77327275276184 2.17142391204834 7.10967302322388 6.85137176513672 -1.59643125534058 0.6445152759552 1.12025368213654 3.01149988174438 2.27973484992981 3.29217958450317 8.91609954833984 1.34255790710449 -3.24751901626587 -2.34465932846069 -1.49797189235687 -0.8748978972435 -0.463324666023254 4.60417890548706 5.81466388702393 3.29389333724976 3.38856053352356 3.7641544342041 3.45504975318909 3.21784996986389 1.39324057102203 2.1722149848938 4.05035781860352 4.40511846542358 3.85220503807068 2.22975754737854 1.068354845047 0.269947230815887 0.870356023311615 0.618144333362579 0.894728124141693 1.47396111488342 -1.78064465522766 -1.95031201839447 -0.473287403583527 1.25121569633484 3.54244875907898 4.18001890182495 4.69159269332886 3.68885970115662 2.92963767051697 3.66963386535645 3.9729323387146 4.92570781707764 8.04129505157471 11.0318374633789 11.3339977264404 8.63962650299072 6.63116931915283 4.49438047409058 3.78009939193726 2.85486435890198 2.01082968711853 1.5417343378067 1.13090538978577 1.07653248310089 1.35968828201294
3.20277380943298 2.05121803283691 2.56978178024292 2.81152868270874 2.3819477558136 2.58531427383423 2.92763352394104 2.7689254283905 3.17574596405029 2.98768401145935 2.51770758628845 2.36389660835266 1.93481123447418 1.60995900630951 1.87875771522522 1.62996208667755 1.27414751052856 1.20611619949341 1.37087154388428 2.08612108230591 2.4275050163269 1.1286838054657 0.855512499809265 1.03234338760376 0.987579941749573 0.939777791500092 0.719261527061462 0.574316024780273 0.331927329301834 0.307866752147675 0.248824998736382 0.235186263918877 0.247645542025566 0.373789876699448 0.467259168624878 0.677553474903107 0.704815268516541 0.766487956047058 0.75976687669754 0.770095884799957 0.785066187381744 0.802487790584564 0.756452083587646 0.733910202980042 0.750957250595093 0.942155301570892 0.51693195104599 0.452498912811279 0.442799836397171 0.734737634658813 1.15004909038544 1.64531946182251 2.08446383476257 2.57709240913391 4.19605684280396 6.33208656311035 6.94908428192139 6.94340229034424 5.04745292663574 3.18356990814209 1.9336462020874 0.378467559814453 0.485428601503372 0.706619620323181 0.937302649021149 1.04767274856567 1.1782534122467 1.30667912960052 1.41562235355377 1.48784613609314 1.59349548816681 1.63093960285187 1.80204689502716 1.94091093540192 2.15313005447388 2.47694110870361 2.89600300788879 3.5484664440155 4.12578630447388 4.66802024841309 5.22769832611084 5.28066778182983 5.451096534729 7.76453542709351 9.50902652740479 12.6559362411499 14.8789348602295 19.8409252166748 21.8645057678223 24.5949077606201 24.4319553375244 22.3343849182129 14.2954425811768 14.3507261276245 15.8319635391235 14.3222827911377 12.4163818359375 11.1370534896851 9.99727916717529 6.29347896575928 2.67716264724731 3.29108190536499 4.52060031890869 5.91288805007935 7.48198699951172 8.56073951721191 7.81550788879395 5.90308618545532 4.72165298461914 4.0465521812439 3.89647364616394 3.32649087905884 3.0750527381897 7.46661901473999 14.8622522354126 9.88065910339355 3.49035024642944 4.05253028869629 5.45809555053711 4.72191572189331 5.11969089508057 9.42635250091553 8.004150390625 0.488912165164948 -1.95394396781921 -1.23896276950836 -0.797047913074493 -0.419755876064301 4.44273853302002 6.38502073287964 5.22941255569458 5.4044303894043 6.35844135284424 6.6153039932251 4.19065618515015 4.31768846511841 6.71623754501343 7.7530255317688 7.75941705703735 6.49893951416016 3.93700742721558 1.69769334793091 0.875965476036072 1.57769346237183 0.501850306987762 1.77400624752045 0.677126348018646 -1.83760833740234 -1.32356238365173 -0.00368660083040595 1.71953332424164 2.39320755004883 3.22614741325378 2.9347870349884 2.78954982757568 3.14377927780151 3.10472178459167 4.0353045463562 5.37659168243408 8.07546710968018 9.41568374633789 8.82135105133057 7.07232618331909 6.62080764770508 4.60554027557373 3.47050857543945 2.3784761428833 1.49964892864227 0.624867618083954 0.774002492427826 1.07547760009766 1.38772881031036
2.79704809188843 2.01284623146057 2.00530886650085 2.27848362922668 2.38570880889893 2.71641850471497 2.73773217201233 2.86052107810974 2.70704650878906 2.87696218490601 2.42986726760864 1.76565170288086 1.54529881477356 1.5180948972702 1.92137336730957 1.31973683834076 1.37433862686157 1.58241665363312 1.76204311847687 1.99769902229309 3.18467712402344 2.46505951881409 1.7600165605545 0.989633083343506 0.851323485374451 0.709896326065063 0.555553138256073 0.173937946557999 0.135094746947289 0.0726084336638451 0.119853869080544 0.0267246253788471 0.100272320210934 0.305682718753815 0.409360289573669 0.568178415298462 0.697773993015289 0.69838547706604 0.709348559379578 0.713363707065582 0.728969097137451 0.696307957172394 0.685381233692169 0.681437373161316 0.68683534860611 1.18765902519226 0.618299722671509 0.602044880390167 0.55644029378891 0.886355996131897 1.29270124435425 1.53893482685089 2.23448586463928 2.64409708976746 4.154456615448 5.68366670608521 6.44319581985474 5.95186710357666 4.62010145187378 3.46816825866699 2.83145689964294 1.74849426746368 0.634590923786163 0.718703806400299 0.874762654304504 0.977609872817993 1.12543523311615 1.23514103889465 1.35980224609375 1.44195580482483 1.55020010471344 1.64781618118286 1.74519169330597 1.98058080673218 2.10034370422363 2.39199471473694 3.3395836353302 3.87658643722534 4.35372924804688 4.73893690109253 4.99339580535889 5.02071714401245 4.96483659744263 7.94436264038086 9.30374717712402 11.0044355392456 14.4505786895752 16.4179725646973 20.1236095428467 21.2296237945557 21.6227931976318 19.672025680542 15.8814144134521 16.1394462585449 16.193000793457 16.3014965057373 16.3837852478027 14.4947929382324 13.1125335693359 10.5467090606689 4.75976848602295 3.96803617477417 4.92011976242065 5.98205137252808 7.20718669891357 7.98567056655884 7.67748498916626 6.96878576278687 3.59457111358643 3.29467058181763 3.76702046394348 4.08361101150513 4.56312036514282 7.23593044281006 14.5721101760864 12.3730192184448 8.38295841217041 6.90861034393311 7.35451173782349 6.69174575805664 7.62849903106689 10.0562858581543 9.85789203643799 2.4952986240387 -1.54297709465027 -0.977357506752014 -0.656309247016907 1.03608334064484 4.37250280380249 5.72051954269409 5.10346031188965 7.26600551605225 10.7386684417725 7.59104108810425 5.46720790863037 6.58524131774902 8.60364055633545 9.63984870910645 9.17490196228027 7.37152242660522 4.15135860443115 2.48740839958191 1.53748857975006 1.93057799339294 1.25217974185944 0.750949501991272 -1.23207795619965 -1.95251131057739 -0.625881433486938 0.63213187456131 2.04606032371521 2.14192175865173 2.07483291625977 2.25197339057922 2.30935645103455 2.96271586418152 3.2916784286499 3.95280027389526 5.48728036880493 7.36918497085571 8.61775875091553 7.58942222595215 6.56068992614746 5.98825788497925 5.21691608428955 4.07308769226074 2.14238095283508 0.954929947853088 0.485558569431305 0.748750686645508 0.949199438095093 1.33298146724701
2.00353002548218 1.92644786834717 2.01409935951233 2.22895359992981 2.50562977790833 2.54300975799561 2.48935532569885 2.81683564186096 2.64485383033752 2.25346350669861 2.07421541213989 1.66713857650757 1.24928200244904 1.21752369403839 1.63475799560547 2.32400941848755 1.30908691883087 1.60283041000366 1.8365159034729 1.88951969146729 2.65852546691895 2.49053192138672 1.98159718513489 1.18043684959412 0.676629722118378 0.458934634923935 0.330840528011322 -0.0269661508500576 -0.091303713619709 -0.104794666171074 -0.0311350207775831 0.0191095620393753 0.0626855194568634 0.248730838298798 0.353616416454315 0.458166837692261 0.630898356437683 0.641644775867462 0.644465565681458 0.667549669742584 0.649096727371216 0.640084028244019 0.638294577598572 0.640697538852692 0.655735969543457 1.17110991477966 0.922236680984497 0.538625538349152 0.695877492427826 1.01568973064423 1.41323792934418 1.7711329460144 2.38319945335388 2.82223439216614 4.34252882003784 5.04027366638184 5.81268310546875 6.71778059005737 4.84383249282837 2.98636269569397 2.49799990653992 1.8700236082077 0.668207585811615 0.77946013212204 0.818369746208191 0.856300830841064 0.92997145652771 1.10314083099365 1.25207662582397 1.43099653720856 1.55743443965912 1.66644620895386 1.78745138645172 1.97249937057495 2.24355483055115 2.62296652793884 3.20745396614075 4.08925867080688 4.44677972793579 4.65009927749634 4.64248847961426 4.71967029571533 6.07486772537231 7.83002519607544 9.11368179321289 10.8876085281372 12.8444023132324 15.3913831710815 17.0245380401611 19.438232421875 20.4380512237549 18.2951164245605 16.5637016296387 16.2420349121094 16.3034439086914 17.0491104125977 17.3116054534912 15.8011455535889 13.9863986968994 12.7298488616943 9.49673557281494 6.33097553253174 5.52485227584839 6.52547788619995 7.14493989944458 7.08709144592285 6.51250839233398 6.49846315383911 3.46621370315552 2.7424418926239 3.01302194595337 3.79464149475098 5.10890054702759 9.12736034393311 14.3537139892578 11.261754989624 8.33764934539795 7.85779428482056 8.95790863037109 9.31194019317627 8.55055046081543 7.96275091171265 8.02740478515625 3.73143625259399 -1.24436104297638 -0.855784296989441 -0.387947171926498 1.95973491668701 4.21817302703857 5.02214670181274 5.16822957992554 6.38671875 14.0974979400635 11.7131519317627 6.83823347091675 8.02601528167725 8.86752986907959 10.1388645172119 10.7936325073242 8.76655960083008 4.95947360992432 2.95553970336914 1.66350650787354 2.95373630523682 2.19910216331482 0.362210243940353 -1.0609450340271 -1.37262046337128 -0.193771600723267 1.29463529586792 1.73106789588928 2.15645384788513 1.91373288631439 1.99125444889069 2.62631344795227 2.70677590370178 3.47974371910095 3.86852073669434 5.74157476425171 6.8161940574646 7.09013843536377 6.34156227111816 5.86298418045044 4.96209859848022 4.90081024169922 5.01190567016602 4.04849338531494 1.35852682590485 0.269795119762421 0.55777895450592 0.815681576728821 1.15515875816345
1.84179532527924 1.8798246383667 2.1309494972229 2.18377232551575 2.42191958427429 2.28241562843323 2.40617609024048 2.33606767654419 2.50254106521606 2.14879631996155 1.5719633102417 1.36732447147369 1.23819363117218 1.06141459941864 1.08963871002197 3.34691858291626 1.42803180217743 1.45242309570312 1.78131759166718 2.11351466178894 2.13606810569763 2.40212678909302 1.61874604225159 1.4090530872345 0.744539141654968 0.27103528380394 0.030433775857091 -0.172777101397514 -0.234598696231842 -0.136707335710526 -0.0657020881772041 0.00426420522853732 0.0584589838981628 0.187821686267853 0.302134573459625 0.395446538925171 0.510599732398987 0.619181990623474 0.598868012428284 0.644283413887024 0.632176995277405 0.623851895332336 0.63941103219986 0.608228325843811 0.622259318828583 0.537628293037415 0.44000169634819 0.717796742916107 0.916241466999054 1.12666618824005 1.35195052623749 1.98336970806122 2.59565043449402 3.19509267807007 3.87607336044312 4.79698371887207 5.02157497406006 5.96466159820557 5.96629524230957 3.6100709438324 2.35558366775513 1.64794743061066 0.881596922874451 0.799211442470551 0.800734043121338 0.825269937515259 0.85031533241272 0.993456780910492 1.1313658952713 1.32934927940369 1.55714821815491 1.69299745559692 1.82842230796814 1.91286814212799 2.1697473526001 2.98892068862915 3.46783208847046 3.89899373054504 4.31759929656982 4.34483671188354 4.41088104248047 4.39324903488159 6.32983922958374 7.61772012710571 9.15799999237061 10.4188117980957 11.7316036224365 13.5045375823975 15.7827320098877 16.1420459747314 17.3676261901855 16.822452545166 16.1399250030518 16.9436550140381 16.2105484008789 16.1511783599854 16.4142074584961 15.8326396942139 14.3952865600586 13.9803123474121 12.3047819137573 9.12955760955811 6.52451753616333 6.79959487915039 6.74009799957275 6.11553859710693 7.42896318435669 6.54855823516846 2.76439452171326 2.37821412086487 2.53240370750427 3.40752458572388 4.67356967926025 8.51444435119629 12.2244310379028 10.6897840499878 8.99162101745605 9.07109642028809 10.3712005615234 11.1332607269287 9.94726848602295 8.71563148498535 5.80817174911499 2.55581998825073 -1.03530144691467 -0.748622596263885 0.490678638219833 3.39936327934265 4.40927124023438 4.94694566726685 6.49071979522705 8.3152437210083 12.6914949417114 11.9689683914185 8.38107585906982 7.92656517028809 9.35085296630859 11.5088472366333 12.3680057525635 11.4876432418823 8.45209312438965 6.89684391021729 4.76222705841064 5.88912296295166 5.20983219146729 3.80835819244385 1.62298762798309 -0.563473641872406 0.298437625169754 1.72225701808929 1.82548880577087 1.48286092281342 1.62678170204163 2.35535764694214 2.43569111824036 3.02902722358704 3.54528212547302 4.43495845794678 5.5597038269043 6.42354106903076 6.00011539459229 5.61534070968628 5.1218695640564 4.6799201965332 4.28644275665283 5.10106658935547 4.6369194984436 2.52680063247681 0.360114902257919 0.396630883216858 0.62624591588974 0.952089250087738
1.83034360408783 1.92065358161926 2.12269711494446 2.30753612518311 2.30204153060913 2.30474066734314 2.0941379070282 2.25913238525391 1.95517098903656 1.81692314147949 1.49025225639343 1.1621481180191 1.09741175174713 0.984095394611359 1.04023957252502 2.72121143341064 1.83683884143829 1.64842474460602 1.69495952129364 2.28884840011597 2.47631096839905 3.59945869445801 2.8733115196228 2.46705532073975 1.65151286125183 0.181575775146484 -0.190628618001938 -0.299939095973969 -0.245056316256523 -0.177558869123459 -0.114561185240746 -0.0429586246609688 0.0205544456839561 0.00815115869045258 0.155388027429581 0.331647098064423 0.413071811199188 0.551563560962677 0.55660754442215 0.584351062774658 0.616038501262665 0.604160606861115 0.565682768821716 0.516346991062164 0.479841411113739 0.42126727104187 0.514842867851257 0.785796225070953 1.12054622173309 1.31640303134918 1.61681461334229 2.11707615852356 2.90007615089417 3.36542129516602 3.87860822677612 4.26217460632324 4.4724326133728 4.74576711654663 5.46694421768188 4.69971513748169 3.53317022323608 2.48209738731384 1.58822965621948 1.59000301361084 2.31360411643982 1.85920596122742 0.867480754852295 0.933553814888 1.09508979320526 1.2845367193222 1.49073660373688 1.72039043903351 1.80920851230621 2.03840661048889 2.35119366645813 2.79008674621582 3.55717206001282 3.87968945503235 4.07709884643555 4.15939807891846 4.12274122238159 5.03878545761108 6.27951192855835 7.30205488204956 8.8190803527832 9.88669586181641 11.2256422042847 12.1787710189819 14.0217599868774 15.3130960464478 13.8896474838257 14.3800859451294 15.1120796203613 15.201452255249 15.7428140640259 15.1718854904175 14.2452783584595 13.4955644607544 12.3721323013306 11.9052562713623 11.5352754592896 9.33923244476318 7.019700050354 6.83125734329224 6.57160139083862 5.8842248916626 8.68355083465576 9.15584754943848 3.6419153213501 2.05404996871948 1.80622434616089 2.73132061958313 5.59190464019775 7.14983987808228 9.36524486541748 9.23635768890381 10.0021657943726 9.71890449523926 10.2249622344971 11.93235206604 11.0349264144897 8.89402008056641 5.91910362243652 0.957452297210693 -0.882723987102509 -0.486967116594315 1.40096437931061 3.56839299201965 4.30333852767944 4.93606853485107 6.20364189147949 9.96393585205078 11.4975500106812 9.86181735992432 7.42783355712891 7.90835857391357 9.62684059143066 15.6871862411499 18.2798252105713 16.7609329223633 15.1035680770874 11.7108554840088 9.29362773895264 8.46357250213623 9.81364822387695 7.63220405578613 5.33868837356567 2.67201733589172 2.19991946220398 1.6670902967453 1.73430168628693 1.24338638782501 1.63669407367706 2.39894318580627 2.69486474990845 3.15878415107727 3.78125810623169 4.68005800247192 5.38796949386597 5.42277240753174 4.70922756195068 4.81579732894897 4.25833511352539 4.14780521392822 4.30524158477783 4.42054271697998 4.9029335975647 3.85646486282349 1.73965036869049 0.0953084900975227 0.351023077964783 0.615788459777832
1.7838681936264 2.04296326637268 2.08340239524841 2.28014779090881 2.12564015388489 2.23359775543213 2.04300713539124 1.74721622467041 1.67072808742523 1.39149034023285 1.21305537223816 1.14746236801147 1.0130250453949 1.00218975543976 1.0972797870636 1.41214227676392 2.65411114692688 1.58822131156921 1.77523696422577 1.95334899425507 2.38663125038147 2.92294907569885 3.07473492622375 2.67823600769043 2.03169655799866 0.903875589370728 -0.185304254293442 -0.307764261960983 -0.265954256057739 -0.237196862697601 -0.200406193733215 -0.147968739271164 -0.0707923844456673 -0.049501571804285 0.165252596139908 0.272824108600616 0.342575788497925 0.442509979009628 0.490233093500137 0.539538025856018 0.532442629337311 0.511294782161713 0.473138719797134 0.443992584943771 0.41134238243103 0.431091129779816 0.640265643596649 0.887033998966217 1.19736433029175 1.48011183738708 1.74377751350403 2.29202079772949 3.08637857437134 3.43634128570557 3.71474480628967 3.70587158203125 3.98724722862244 4.03201723098755 3.99406027793884 4.19505214691162 3.61159253120422 2.29567265510559 1.56447339057922 2.21206903457642 2.86583471298218 2.58833360671997 0.884274423122406 0.933457016944885 1.04548525810242 1.28470730781555 1.5065633058548 1.6912966966629 1.79991960525513 1.98230230808258 2.68903040885925 3.0517475605011 3.41279077529907 3.73927283287048 3.75430202484131 3.85176730155945 4.56416273117065 5.26201438903809 6.09706115722656 7.33118677139282 8.03958511352539 9.46199035644531 10.3416051864624 11.5989389419556 12.8708362579346 14.2123165130615 13.222469329834 13.2833185195923 14.2375183105469 14.25998878479 14.4392137527466 13.7572536468506 12.4639978408813 11.1781930923462 10.7217493057251 9.78878021240234 8.42170715332031 7.57364082336426 6.65149402618408 6.36501455307007 5.61765336990356 5.92717981338501 8.57285404205322 11.012598991394 6.76918411254883 2.98978757858276 0.366752415895462 0.925562679767609 2.25623679161072 5.40454006195068 6.99902677536011 7.98287057876587 8.19270801544189 8.59595394134521 9.62691020965576 9.90164566040039 11.2044897079468 10.7811708450317 12.3024063110352 5.22353076934814 1.83393824100494 0.426522880792618 2.1490752696991 3.26473617553711 3.94302010536194 5.00950574874878 7.05509901046753 9.45768070220947 11.9690980911255 10.8771409988403 7.50212574005127 8.03414726257324 10.1911287307739 14.8968496322632 19.0790672302246 19.7775573730469 18.3133335113525 15.9173746109009 11.9280834197998 11.3181457519531 12.5427303314209 12.0840101242065 9.23798847198486 7.09669780731201 4.04897260665894 2.11619710922241 1.30471336841583 1.31414258480072 2.00490188598633 2.2412257194519 2.79982924461365 3.0593957901001 3.8677990436554 4.64563274383545 4.91661596298218 4.46395444869995 3.96541476249695 3.9683313369751 3.92218661308289 3.66211009025574 4.07097959518433 4.25310182571411 4.95863056182861 4.95483350753784 3.16851663589478 1.07019710540771 0.0574347712099552 0.353283643722534
1.84504210948944 2.04142189025879 2.22659492492676 2.22632169723511 2.1712474822998 1.86136519908905 1.9800763130188 1.72197878360748 1.27980983257294 1.15588974952698 1.06668424606323 0.992146849632263 0.913852691650391 1.04305934906006 1.09541463851929 1.3210324048996 3.32400703430176 1.60797476768494 1.63374865055084 1.77659916877747 2.50489044189453 2.5556697845459 2.76909875869751 2.93640804290771 2.17409586906433 1.17571544647217 0.171704024076462 -0.331958770751953 -0.315158694982529 -0.303576081991196 -0.25860720872879 -0.214048594236374 -0.138948991894722 -0.0758153945207596 0.0908359810709953 0.193327069282532 0.290029615163803 0.345407098531723 0.41604682803154 0.473853915929794 0.455580919981003 0.440428972244263 0.436090528964996 0.407873421907425 0.393610835075378 0.485141396522522 0.703967571258545 0.951085150241852 1.1004980802536 1.5888329744339 1.81260871887207 2.44629383087158 2.83094835281372 3.39895415306091 3.37287569046021 3.46959352493286 3.32148909568787 3.3170166015625 3.36035680770874 2.99855971336365 2.29595327377319 1.62345159053802 1.5185067653656 2.01701664924622 2.89494180679321 3.10229969024658 0.931524395942688 0.964512050151825 1.06918585300446 1.28176724910736 1.52404201030731 1.62282109260559 1.87595582008362 2.15529704093933 2.57184624671936 3.16023111343384 3.3149585723877 3.3230094909668 3.36642861366272 3.38944268226624 4.66104364395142 5.41121673583984 6.08284997940063 7.06958198547363 7.90761280059814 8.61725616455078 9.81426048278809 11.1154689788818 11.9850845336914 12.294135093689 12.6798419952393 13.0355710983276 12.8812656402588 12.8810386657715 12.9930658340454 12.5156946182251 11.51598072052 10.1599063873291 8.7617769241333 8.09771156311035 7.13091325759888 6.33396911621094 6.32770824432373 6.07131052017212 5.24986457824707 5.80746698379517 7.09563636779785 8.89883804321289 9.1282787322998 14.5121059417725 0.583238899707794 0.544503927230835 1.52921140193939 2.94751071929932 5.35992860794067 7.15839624404907 7.70827960968018 7.51163530349731 7.85746145248413 8.73031425476074 9.43757629394531 11.1770935058594 12.3199901580811 8.4560432434082 6.20754623413086 1.86479604244232 2.63441777229309 3.12402415275574 3.68713235855103 4.96915292739868 7.7346339225769 9.32405471801758 10.0017862319946 10.9842844009399 8.57763290405273 8.95940589904785 10.9491062164307 14.2695789337158 16.5273628234863 17.967622756958 19.1211471557617 17.8975143432617 13.6759719848633 11.108380317688 12.764573097229 13.1494741439819 11.8152379989624 7.07222414016724 3.94629120826721 3.79170489311218 3.92096042633057 1.98974227905273 2.20831108093262 2.48332405090332 2.89722609519958 3.21430778503418 3.91456294059753 4.44719982147217 4.49210548400879 3.7044677734375 3.43027496337891 3.35873174667358 3.30127501487732 3.54529333114624 3.53289651870728 3.96415138244629 4.22090673446655 4.93505477905273 4.27188682556152 2.47242641448975 0.549075841903687 0.216041207313538
1.87681126594543 1.95664072036743 2.16530752182007 2.12161540985107 2.42499804496765 1.88242471218109 1.60021185874939 1.47280919551849 1.27435398101807 1.02764022350311 0.941186964511871 0.912112355232239 0.927636384963989 1.019491314888 0.989419281482697 1.48223781585693 3.24808382987976 2.12703418731689 1.66570115089417 1.68032312393188 2.06557178497314 2.27709245681763 2.55942368507385 2.9092972278595 2.2367115020752 1.37265884876251 0.525125324726105 -0.24216802418232 -0.255613595247269 -0.305721074342728 -0.275614202022552 -0.232311367988586 -0.178374603390694 -0.123486541211605 -0.0423851311206818 -0.00784110743552446 0.211201757192612 0.277578264474869 0.288837611675262 0.359387964010239 0.428363621234894 0.377521336078644 0.368604362010956 0.344975173473358 0.339837819337845 0.509857356548309 0.710641741752625 1.0086168050766 1.28769421577454 1.66019916534424 1.8883398771286 2.52010011672974 2.93353867530823 3.09480118751526 3.1500461101532 3.18098783493042 2.93077778816223 2.60812568664551 2.2279896736145 2.01250457763672 1.74020886421204 1.18559002876282 1.34673964977264 1.83130705356598 2.37401866912842 3.1415638923645 1.71394526958466 1.00000905990601 1.10770630836487 1.29123747348785 1.50289380550385 1.72795867919922 2.03608679771423 2.46562385559082 2.83349633216858 3.0291428565979 3.24703097343445 3.15588688850403 3.0757749080658 3.23679518699646 4.56291723251343 5.521164894104 6.11714696884155 6.66851949691772 7.56265020370483 8.25576400756836 8.97201538085938 10.3122205734253 10.7406063079834 11.2582006454468 11.6486186981201 11.6720933914185 11.450813293457 11.2735328674316 10.9130525588989 10.0929012298584 8.91604423522949 8.6981954574585 7.86338758468628 6.52450942993164 6.08261823654175 6.0551929473877 5.78371047973633 5.07666778564453 4.80432224273682 5.35358476638794 7.41428852081299 7.25958967208862 7.43469047546387 20.535924911499 11.6121120452881 2.8232262134552 2.18414878845215 2.79798030853271 4.51932525634766 6.27422904968262 7.30415868759155 7.46905136108398 7.12046718597412 7.35745191574097 8.42236995697021 9.3286304473877 9.8309440612793 8.08406162261963 6.00720119476318 2.80953574180603 2.73254418373108 2.91912746429443 3.67963695526123 5.34145593643188 7.09575080871582 8.47183990478516 9.16527271270752 8.74386787414551 7.88281726837158 8.90426445007324 11.2088594436646 12.8645334243774 15.0320272445679 15.6834869384766 15.3299131393433 15.4410238265991 13.2080850601196 10.8553638458252 10.6219663619995 9.93626880645752 8.49371719360352 5.93182039260864 4.49385833740234 4.44522142410278 4.02001285552979 2.79938244819641 2.14999747276306 2.58937001228333 2.82715559005737 3.42976975440979 4.07607507705688 4.10712099075317 3.67593455314636 3.23930382728577 3.02899074554443 2.86170172691345 2.91311717033386 3.14688301086426 3.35828161239624 3.55063962936401 3.87410116195679 3.44393014907837 4.01147747039795 2.99021315574646 1.2714079618454 0.0135853607207537
1.83775305747986 2.04839968681335 2.08455944061279 2.13693737983704 3.24384737014771 1.96398401260376 1.60827243328094 1.102694272995 0.959421515464783 1.02292239665985 0.887206971645355 0.878796219825745 0.97307413816452 0.99947988986969 1.02306139469147 1.38841044902802 2.76545596122742 2.50857973098755 1.67866158485413 1.85105621814728 1.95595586299896 2.0144305229187 2.46028709411621 2.94123458862305 2.29176092147827 1.57937622070312 0.79271125793457 0.00329383695498109 -0.269870489835739 -0.308707922697067 -0.299023896455765 -0.26642894744873 -0.220200404524803 -0.155622974038124 -0.0876590609550476 -0.0613024570047855 0.0617895387113094 0.197451904416084 0.231443792581558 0.265502840280533 0.310913294553757 0.356529712677002 0.285513758659363 0.289583444595337 0.348038136959076 0.56704169511795 0.821286201477051 0.955500066280365 1.37770807743073 1.72588634490967 2.06792593002319 2.35232925415039 2.76215958595276 2.83708739280701 3.00239992141724 2.88717913627625 2.54071593284607 1.98264992237091 1.60547649860382 1.1732040643692 0.739108502864838 0.746307075023651 0.797904491424561 1.31730592250824 2.04423093795776 2.54517531394958 1.83594155311584 1.033043384552 1.09373760223389 1.26395344734192 1.39955675601959 1.66271710395813 2.33442997932434 2.72354459762573 2.95421719551086 3.13402223587036 3.12558388710022 3.04484415054321 2.91762185096741 3.43477463722229 4.54027986526489 5.56548118591309 6.05206966400146 6.58601188659668 7.09001493453979 7.85340976715088 8.86392593383789 9.45594692230225 10.0541324615479 10.4199905395508 10.5742502212524 10.5189094543457 10.6332693099976 10.4763479232788 9.92190742492676 8.25084018707275 6.36495399475098 5.83999300003052 5.10717725753784 5.13748216629028 5.41463756561279 5.36027050018311 4.7797269821167 4.54834365844727 4.35954809188843 5.41841554641724 8.35571956634521 10.3276100158691 8.44876861572266 18.1033744812012 24.164587020874 17.371675491333 14.8974580764771 4.25181818008423 4.70215749740601 5.69441843032837 6.81070852279663 7.29750633239746 7.16655158996582 6.86774969100952 7.02863025665283 7.99194097518921 7.05121326446533 5.39472723007202 2.9357008934021 2.4786856174469 2.68148708343506 2.62440705299377 3.76508927345276 5.63811445236206 6.96671628952026 7.70534372329712 8.45504760742188 10.179407119751 8.46684837341309 9.49997329711914 11.3479585647583 12.7522258758545 13.5587348937988 13.9527225494385 14.18577003479 12.7666654586792 11.4763803482056 10.7012920379639 10.1919384002686 9.28102016448975 6.62505722045898 5.01451253890991 4.48403453826904 3.54468464851379 2.38724184036255 2.51513981819153 2.41361403465271 2.71736168861389 2.99190330505371 3.82609176635742 3.96151518821716 3.59139227867126 3.26866436004639 2.91340231895447 2.61914873123169 2.45772528648376 2.61748576164246 2.92223453521729 3.09920883178711 3.17434525489807 3.31375908851624 2.9915931224823 2.38360714912415 2.13798880577087 1.14110362529755 -0.132573485374451
1.94390070438385 1.94384288787842 1.96196508407593 2.10518956184387 2.07511949539185 1.55295121669769 1.3423660993576 1.10754346847534 0.875071108341217 0.862808108329773 0.831757247447968 0.909567832946777 0.982586741447449 0.91707444190979 1.18126225471497 1.29789924621582 1.78683030605316 2.88882374763489 2.20316672325134 1.82366728782654 1.79128086566925 1.91991198062897 2.33225440979004 3.1414098739624 2.87164449691772 1.87476027011871 0.657917439937592 0.188134402036667 -0.295650631189346 -0.322439223527908 -0.306330054998398 -0.292563617229462 -0.257907927036285 -0.192913010716438 -0.131098628044128 -0.0907165035605431 0.00104082759935409 0.124683499336243 0.175704374909401 0.199735715985298 0.209592163562775 0.228106006979942 0.291091561317444 0.333986550569534 0.431945979595184 0.602297306060791 0.887052118778229 1.14289784431458 1.47495484352112 1.91857254505157 2.1598858833313 2.48597192764282 2.63926386833191 2.67237544059753 2.53754162788391 2.22151446342468 2.00884079933167 1.7765086889267 1.15093839168549 0.709539830684662 0.964578092098236 1.04727518558502 0.837005317211151 1.10579550266266 1.32958555221558 1.49262130260468 1.42514395713806 1.08935844898224 1.12326872348785 1.16687858104706 1.35121464729309 1.75411868095398 2.2171323299408 2.84656262397766 3.05138039588928 3.03086280822754 2.94573211669922 2.85415029525757 2.81991791725159 3.51575803756714 4.69537353515625 5.35494518280029 5.99944162368774 6.44371318817139 6.86920690536499 7.43367719650269 8.23052787780762 8.76629161834717 9.33769035339355 9.72246265411377 9.82236099243164 9.66015720367432 9.45720863342285 9.2493200302124 8.14760112762451 6.50084543228149 5.00080156326294 4.2726354598999 4.42227458953857 4.66835880279541 4.8435583114624 4.88041496276855 4.41719198226929 3.99903321266174 4.01246976852417 4.87334680557251 5.89637279510498 12.9277296066284 12.8676233291626 15.2292289733887 20.8736896514893 20.829195022583 19.161994934082 14.1629905700684 5.51138401031494 5.55007743835449 6.60119152069092 6.48640203475952 6.14778614044189 5.96159887313843 6.27657556533813 5.79458475112915 5.76873350143433 4.85028886795044 2.23251175880432 2.33949065208435 4.63579034805298 3.02420902252197 4.22000932693481 5.67022609710693 6.22491788864136 6.81177568435669 7.71981763839722 10.2748556137085 9.35269927978516 10.2497644424438 11.4679985046387 12.6183052062988 13.5287866592407 13.4243621826172 12.9170980453491 11.3354778289795 10.5047664642334 10.0338325500488 8.85466289520264 7.34440135955811 5.4951286315918 4.4543514251709 4.17222833633423 3.49352502822876 2.6899356842041 2.7295835018158 2.96433782577515 2.83145523071289 3.37303805351257 3.8967912197113 4.00562286376953 3.95832371711731 3.30912566184998 2.91487240791321 2.5201370716095 2.56145000457764 2.65310835838318 2.77159881591797 2.82391428947449 2.93095231056213 2.59489822387695 2.29718542098999 1.83556461334229 0.968970775604248 0.467311888933182 -0.255510181188583
1.92012751102448 1.8435925245285 1.94246780872345 1.78271901607513 1.87265622615814 1.52056753635406 1.06138598918915 0.954059600830078 0.958040297031403 0.780045986175537 0.827378451824188 0.906318843364716 0.952737033367157 1.07471358776093 1.14416491985321 1.32723152637482 1.62602972984314 3.00241637229919 2.39391136169434 2.49296140670776 2.12503743171692 1.95009875297546 2.18923878669739 2.56939125061035 3.0859169960022 2.46253347396851 0.840940237045288 0.334257870912552 -0.131521433591843 -0.334549754858017 -0.320925682783127 -0.30453297495842 -0.281292080879211 -0.240796789526939 -0.178107485175133 -0.105288945138454 -0.0468127988278866 -0.0297142900526524 0.0595323666930199 0.123418591916561 0.136521384119987 0.179300427436829 0.198946893215179 0.250655293464661 0.428743660449982 0.610939145088196 0.761180460453033 1.16994500160217 1.50320076942444 1.95647287368774 2.29349422454834 2.37981247901917 2.380131483078 2.34813237190247 2.14797949790955 1.92937624454498 1.57252526283264 1.52500510215759 0.629001379013062 0.574853658676147 0.702962934970856 1.08385217189789 0.884641349315643 0.913465321063995 0.92187237739563 1.04905772209167 1.12812066078186 1.8290228843689 1.9757022857666 1.12470316886902 1.27102696895599 1.95691430568695 2.42787885665894 2.71192622184753 2.95214080810547 2.83962059020996 2.67712640762329 2.61488056182861 2.90593314170837 3.75639081001282 4.81154775619507 5.26683568954468 5.75773286819458 6.25886106491089 6.74797916412354 7.39136934280396 7.86717319488525 8.35121917724609 8.76082134246826 8.94572734832764 8.84028434753418 8.97372341156006 8.88082504272461 8.67554187774658 6.87680768966675 4.54165077209473 3.55080127716064 3.40258264541626 3.71285128593445 4.03592777252197 4.20551776885986 3.87450456619263 3.82495808601379 3.61606025695801 3.92153859138489 3.84356594085693 5.50370168685913 8.37310981750488 13.4516878128052 16.9206409454346 16.6973838806152 15.8989324569702 15.5400009155273 13.0568218231201 6.84065008163452 6.07877063751221 6.16576862335205 5.96459436416626 4.85074186325073 4.85393667221069 5.59257507324219 5.19438314437866 4.50136280059814 4.05024290084839 4.78287029266357 2.63413572311401 6.28536701202393 5.7381911277771 4.95685482025146 5.5063796043396 5.87180042266846 6.42274761199951 7.59944915771484 8.45263767242432 9.62369632720947 10.7795448303223 11.7356700897217 12.2266397476196 12.7579231262207 13.2733268737793 12.3018531799316 11.0551843643188 10.2740039825439 9.03103542327881 8.01537418365479 6.18833780288696 4.89522171020508 4.11279630661011 3.25799560546875 2.60716032981873 2.82437539100647 3.11846303939819 3.26538825035095 3.04002714157104 3.69010806083679 3.82072401046753 4.21147632598877 5.15823888778687 4.98236179351807 4.73339986801147 4.02266931533813 2.7374951839447 2.76016330718994 2.60443902015686 2.59463214874268 2.53519368171692 2.27058577537537 1.64708065986633 1.05709767341614 0.530734837055206 -0.281471788883209 -0.330019384622574
