NCOLS 171
NROWS 31
XLLCORNER 354080
YLLCORNER 6699504
CELLSIZE 16 
NODATA_value -3.4e+38 
0.508987426757812 0.424364864826202 0.346263319253922 0.310884028673172 0.285650610923767 0.213220059871674 0.186131805181503 0.17376209795475 0.129379868507385 0.140890941023827 0.828607857227325 0.328259617090225 -0.0404028743505478 -0.0573839545249939 -0.0819662138819695 -0.106036491692066 -0.128411412239075 -0.111588805913925 -0.219160258769989 -0.026761531829834 0.251840382814407 0.503605246543884 0.955217063426971 1.02546226978302 1.44602370262146 1.45014703273773 0.996741712093353 0.72510427236557 0.509270906448364 0.376658737659454 0.347375184297562 0.296685665845871 0.176132574677467 0.0396528169512749 -0.196006819605827 -0.361703306436539 -0.157675445079803 0.732204139232635 0.936225473880768 0.695591449737549 -0.0494225807487965 -1.12097430229187 -0.290000081062317 -1.09377837181091 -1.05310499668121 -0.710756719112396 -0.70649129152298 -1.25558745861053 -1.5559960603714 -1.87413096427917 -1.82129812240601 -1.65500044822693 -1.38651585578918 -0.197639092803001 1.36950206756592 1.52500510215759 1.09952592849731 1.33555579185486 0.938014566898346 -0.00165017368271947 -0.314919918775558 0.426003873348236 0.769195973873138 1.16764688491821 1.06678533554077 0.895239949226379 0.927956461906433 4.71367454528809 6.77379417419434 1.40178465843201 0.447191268205643 0.533177614212036 0.662394881248474 0.736364305019379 0.7283695936203 0.589653074741364 0.429467082023621 0.3846335709095 0.453933656215668 0.487867891788483 0.502542078495026 0.448066502809525 0.408338457345963 0.308393597602844 0.269808650016785 0.252594470977783 0.219934433698654 0.207810267806053 -0.0230130050331354 -0.0307358857244253 -0.0376940369606018 -0.0625385567545891 -0.0572465285658836 0.176225796341896 0.748589515686035 1.6127747297287 2.68941855430603 3.19211530685425 3.22255706787109 3.17460155487061 3.35292911529541 3.48672533035278 3.60997986793518 3.30742835998535 2.93840336799622 2.6336362361908 2.57084608078003 2.55593848228455 2.62696599960327 2.61275959014893 2.31386661529541 2.03658723831177 2.38778352737427 2.66355586051941 2.93003702163696 3.00059461593628 2.79091691970825 2.54511094093323 2.55189776420593 2.54713368415833 2.5003399848938 2.28028917312622 1.95843994617462 1.74948239326477 1.69305074214935 1.74304354190826 1.87276315689087 1.96459150314331 2.0346200466156 2.10029482841492 2.05643463134766 2.02739644050598 1.89580905437469 1.70289742946625 1.42482376098633 1.13773822784424 0.777656555175781 0.106479860842228 -0.60183310508728 -1.0370774269104 -1.24938535690308 -1.2990665435791 -1.19107019901276 2.15649271011353 3.03706455230713 6.82764196395874 9.81012535095215 11.6658191680908 13.9587211608887 15.9195232391357 16.4189224243164 16.5633430480957 15.9264364242554 13.9567937850952 11.4708480834961 8.26999759674072 7.41720819473267 7.73902702331543 6.87261486053467 5.11696290969849 3.14383387565613 2.81801533699036 3.01121211051941 3.33209466934204 6.59986305236816 2.18746447563171 -0.410529911518097 -0.130164042115211 5.98687601089478 7.85927104949951 7.80939769744873
0.51440417766571 0.438931107521057 0.356735616922379 0.268286049365997 0.244958490133286 0.195923745632172 0.151251122355461 0.125496506690979 0.0823617801070213 0.0250168237835169 -0.0126780960708857 -0.0303497239947319 -0.0673073455691338 -0.0877585411071777 -0.0938549190759659 -0.109690792858601 -0.155711337924004 -0.192436411976814 -0.240971446037292 -0.339466094970703 -0.143751680850983 0.204409793019295 0.611723661422729 0.766395449638367 0.924692749977112 1.26561725139618 1.27195918560028 0.870438575744629 0.479838669300079 0.389783591032028 0.272672742605209 0.225712090730667 0.130453988909721 -0.0734459534287453 -0.210610821843147 -0.379645079374313 -0.528051555156708 -0.0869977846741676 0.400225430727005 0.424477756023407 -0.0820849165320396 -1.15187573432922 -0.270130485296249 1.49549698829651 0.609230637550354 -1.16240978240967 -1.16527307033539 -1.36451983451843 -1.66799795627594 -1.93173468112946 -1.94886803627014 4.06273698806763 4.50642871856689 2.76419353485107 2.64860725402832 2.01353073120117 0.801596164703369 -0.137930676341057 -1.00952184200287 -1.0239166021347 -0.859126269817352 -0.423467427492142 0.229103982448578 0.544537782669067 1.02978467941284 0.996417999267578 2.45171570777893 6.79364347457886 6.06286001205444 2.47497081756592 0.885244369506836 0.411399811506271 0.509869873523712 0.634456038475037 0.701839506626129 0.695138573646545 0.563811659812927 0.398612052202225 0.359321922063828 0.431195110082626 0.459262639284134 0.472508043050766 0.417124420404434 0.342529892921448 0.29487156867981 0.255447149276733 0.23265266418457 0.202968075871468 0.0999790206551552 -0.0378529019653797 -0.060125257819891 -0.068514958024025 0.0595305301249027 -0.129541516304016 -0.0648112073540688 0.161969974637032 1.54231417179108 2.20173645019531 2.37690138816833 2.507493019104 2.59817910194397 2.98012924194336 2.97397422790527 2.81101226806641 2.31926393508911 2.21912789344788 2.06013822555542 2.23793649673462 2.38783001899719 2.42733597755432 2.15774440765381 1.91678321361542 1.76406645774841 2.08072376251221 2.36941242218018 2.66108584403992 2.5942976474762 2.42839741706848 2.2037398815155 2.3347430229187 2.32995223999023 2.29261875152588 2.08920669555664 1.75079691410065 1.47793686389923 1.45716905593872 1.53234994411469 1.67203569412231 1.78455674648285 1.8434294462204 1.75701987743378 1.63823664188385 1.55663454532623 1.36752676963806 1.12247693538666 0.827648282051086 0.4144586622715 -0.147252112627029 -0.664092004299164 -1.17088937759399 -1.38842129707336 -1.41483795642853 2.61661553382874 5.34008884429932 7.15684461593628 12.3516731262207 14.9058294296265 14.3908214569092 15.6477088928223 15.5787353515625 13.2740755081177 12.7459583282471 12.4825525283813 11.5597105026245 9.89519500732422 6.23905277252197 4.88316059112549 5.86568641662598 5.52562379837036 3.35950684547424 2.62930059432983 2.63693928718567 7.57295083999634 4.69063854217529 3.00615692138672 0.940587341785431 -0.325319409370422 0.894228279590607 11.2108030319214 10.4499015808105 7.63481760025024
0.526362299919128 0.458846598863602 0.375691890716553 0.278572529554367 0.207751825451851 0.175087943673134 0.132440239191055 0.0907811224460602 0.0633722543716431 0.0138465343043208 -0.0348073877394199 -0.0629197061061859 -0.0770441368222237 -0.103822559118271 -0.118533797562122 -0.131874695420265 -0.166135311126709 -0.195270523428917 -0.233755841851234 -0.371119499206543 -0.351142883300781 -0.0887021794915199 0.181127145886421 0.434708297252655 0.650786519050598 0.776405513286591 1.08743047714233 1.10507500171661 0.526129007339478 0.349606961011887 0.275182783603668 0.155736118555069 0.0438781157135963 -0.105203919112682 -0.265930831432343 -0.374985009431839 -0.576005280017853 -0.671763062477112 -0.437895864248276 -0.0535878539085388 -0.0620900392532349 -0.546888470649719 0.528370559215546 0.188037812709808 -0.622018158435822 -1.25107407569885 -1.32639110088348 -1.49795091152191 -1.66400873661041 -1.83996534347534 1.65997695922852 8.39061641693115 5.03595113754272 5.65725946426392 3.65965509414673 1.31412637233734 0.427804499864578 -0.705186545848846 -1.50311851501465 -1.57537829875946 -1.38739848136902 -1.02068448066711 -0.516168296337128 0.0637131407856941 0.428725719451904 0.924741625785828 2.77952575683594 6.78632879257202 5.95991277694702 2.81840586662292 1.75940072536469 0.665206730365753 0.348013997077942 0.483891278505325 0.644650518894196 0.67417049407959 0.666041910648346 0.461172103881836 0.372233837842941 0.332986831665039 0.441612362861633 0.458461433649063 0.410658240318298 0.372063815593719 0.323552548885345 0.27573174238205 0.228250414133072 0.217223525047302 0.18794085085392 -0.0377970822155476 -0.0556525662541389 0.0265921782702208 -0.098802424967289 -0.325884819030762 -0.628688454627991 -0.8491290807724 -0.0810126736760139 0.899238288402557 1.48313283920288 1.66393864154816 1.60138213634491 1.88304209709167 1.99026942253113 1.55939090251923 0.788411378860474 0.392025172710419 0.432059496641159 1.04687321186066 1.62325024604797 1.98248052597046 2.11980867385864 1.92414724826813 1.69225609302521 1.59566807746887 2.03829503059387 2.32199478149414 2.26764369010925 2.29447865486145 2.08953881263733 1.91724848747253 2.13034439086914 2.13269233703613 2.08980798721313 1.74529278278351 1.34889709949493 1.23915135860443 1.2738960981369 1.34791386127472 1.48564195632935 1.45746326446533 1.38103687763214 1.23138844966888 1.11249339580536 0.977696657180786 0.801383793354034 0.596161365509033 0.158858880400658 -0.310876905918121 -0.886738955974579 -1.35852098464966 -1.5002646446228 2.33202314376831 7.51899433135986 10.3304243087769 13.7974224090576 15.73854637146 13.9608211517334 12.7716159820557 11.6590414047241 11.2839498519897 10.3397274017334 9.51457118988037 9.29962730407715 9.05547428131104 8.12120819091797 7.36950159072876 5.29054927825928 4.21012783050537 3.42114591598511 2.92445087432861 2.56473183631897 7.52562093734741 10.1830005645752 3.03486227989197 1.51365149021149 0.932681977748871 0.528403043746948 3.49102377891541 15.853310585022 11.1237182617188 8.48124599456787
0.524429380893707 0.457820266485214 0.369883805513382 0.288981020450592 0.202874168753624 0.149566769599915 0.104190871119499 0.0665324404835701 0.0319173000752926 0.00864222925156355 -0.049401618540287 -0.0786218047142029 -0.100479371845722 -0.116175159811974 -0.137386947870255 -0.155020534992218 -0.19049859046936 -0.247384235262871 -0.31498110294342 -0.381580144166946 -0.442942559719086 -0.417170286178589 -0.175528332591057 0.136807516217232 0.493792563676834 0.546919882297516 0.778571844100952 1.01516652107239 0.742708683013916 0.358660876750946 0.232251107692719 0.153226733207703 -0.00281062279827893 -0.0740057975053787 -0.216007769107819 -0.347763180732727 -0.672933757305145 -0.815489709377289 -0.884132921695709 -0.313920378684998 -0.202317431569099 -0.577408611774445 -0.398356229066849 0.0970763340592384 -0.23847122490406 -1.08657705783844 -1.31176364421844 -1.49722993373871 -1.57456254959106 1.07593429088593 4.99684619903564 7.51548147201538 4.57587623596191 5.02607870101929 3.24546480178833 2.39148139953613 -0.00364458886906505 -1.1926783323288 -1.68664133548737 -1.77824544906616 -1.71045804023743 -1.57764029502869 -1.21645319461823 -0.700735032558441 0.173687890172005 0.653094351291656 3.93286395072937 6.35803127288818 6.00454139709473 3.24084091186523 2.00861287117004 1.39057946205139 0.523878395557404 0.409205704927444 0.590308427810669 0.656205236911774 0.649625897407532 0.529471158981323 0.375402003526688 0.342083960771561 0.391518771648407 0.422959357500076 0.438159435987473 0.396329939365387 0.356262445449829 0.308099538087845 0.226770728826523 0.216536343097687 0.184285447001457 0.0771055072546005 -0.050990354269743 -0.0839601755142212 -0.262492775917053 -0.606709599494934 -1.05291759967804 -1.30159139633179 -1.38217902183533 -0.266217917203903 0.619260132312775 0.787959098815918 0.643041014671326 0.606690585613251 0.750359356403351 0.364660859107971 -0.348999977111816 -0.807453334331512 -0.679893255233765 0.215433150529861 0.84362930059433 1.2053941488266 1.648965716362 1.85084772109985 1.66610944271088 1.49267601966858 1.59872889518738 1.69506859779358 1.92992389202118 2.07899689674377 1.97859716415405 1.81592571735382 2.01787900924683 2.0085551738739 1.95348393917084 1.73701345920563 1.388911485672 1.15005481243134 1.08807075023651 1.10092461109161 1.11926162242889 1.06680858135223 0.942852318286896 0.790362477302551 0.633415043354034 0.512841582298279 0.423715054988861 0.288124531507492 -0.139446347951889 -0.555086314678192 -1.09890222549438 -1.44421970844269 -1.16765332221985 4.98994016647339 8.15960311889648 12.9532451629639 14.2343816757202 13.3558530807495 11.4316453933716 10.3895931243896 9.13095188140869 8.47845268249512 7.95969915390015 7.30894088745117 7.1108512878418 6.88131189346313 6.97509336471558 6.67324781417847 5.37541007995605 4.26003742218018 2.92188811302185 2.65867829322815 4.58849716186523 9.02474594116211 6.3494291305542 2.76318097114563 1.42040944099426 1.10028409957886 4.26751089096069 5.80563879013062 18.2497730255127 14.5475597381592 10.7441606521606
0.5020472407341 0.442951112985611 0.36897599697113 0.302537947893143 0.239519238471985 0.133576065301895 0.0807255432009697 0.0486685708165169 0.0121584832668304 -0.0088809747248888 -0.0503352321684361 -0.0921912789344788 -0.122231498360634 -0.146301418542862 -0.162878677248955 -0.192626550793648 -0.225817322731018 -0.271530210971832 -0.335605144500732 -0.394511878490448 -0.477280765771866 -0.530810654163361 -0.400016516447067 -0.117557764053345 0.202113538980484 0.346785068511963 0.387227058410645 0.812790632247925 0.847221672534943 0.534289300441742 0.233196392655373 0.0903513580560684 -0.0128171388059855 -0.0958775579929352 -0.146847680211067 -0.29672583937645 -0.607831835746765 -0.889151155948639 -1.00001442432404 -1.04250800609589 -0.625612556934357 -0.523529589176178 -0.222144529223442 0.965234756469727 0.256936877965927 -0.26870858669281 -0.723997056484222 -1.06018543243408 2.24715638160706 3.6674280166626 6.17605781555176 7.15277099609375 5.77418804168701 4.13142967224121 4.07144451141357 2.08720469474792 -0.633410453796387 -1.52776706218719 -1.8583517074585 -1.93265330791473 -1.92747604846954 -1.87750494480133 -1.7460640668869 -1.54802072048187 -0.489996761083603 0.178996756672859 4.37703084945679 6.70636701583862 6.20584726333618 3.80872631072998 2.50392079353333 1.5691659450531 0.589343667030334 0.355967104434967 0.453765273094177 0.567292094230652 0.630780577659607 0.625493705272675 0.502320349216461 0.340500086545944 0.305907696485519 0.373725265264511 0.406533747911453 0.419826179742813 0.384792000055313 0.345019102096558 0.255958408117294 0.221815660595894 0.201355844736099 0.171989575028419 0.0735392794013023 -0.216268286108971 -0.538624465465546 -0.895449638366699 -1.53457462787628 -1.74946653842926 -1.72904419898987 -1.60241329669952 -0.424390882253647 -0.2015340924263 -0.210375085473061 -0.444898098707199 -0.442532926797867 -0.452953279018402 -0.763388931751251 -1.13302886486053 -1.44105756282806 -0.933743953704834 2.41113257408142 1.88983190059662 1.12329733371735 1.44985055923462 1.60573744773865 1.43190085887909 1.23212385177612 1.19979774951935 1.46332347393036 1.73250985145569 1.74541509151459 1.6882016658783 1.52033615112305 1.76645863056183 1.7688295841217 1.72926187515259 1.50090181827545 1.16781997680664 1.01698243618011 0.933916747570038 0.848129093647003 0.767705142498016 0.537963807582855 0.345001757144928 0.174123674631119 -0.0133374910801649 -0.272950857877731 -0.345886141061783 -0.568454384803772 -0.877529978752136 -1.25412929058075 -1.41695165634155 4.13992404937744 7.39734268188477 10.916446685791 14.5866937637329 11.2069463729858 10.867621421814 9.64381694793701 8.6923131942749 7.62864971160889 7.01869201660156 6.60899066925049 6.06483173370361 5.72378253936768 5.6051812171936 5.30514717102051 5.76872825622559 5.97594404220581 4.96037626266479 4.13736343383789 7.05474805831909 8.75787925720215 6.24605178833008 5.70616006851196 4.81278657913208 2.51259827613831 8.55451107025146 13.7805681228638 16.3856964111328 22.983829498291 17.6618900299072 12.0913114547729
0.478564232587814 0.433796465396881 0.376209110021591 0.313637435436249 0.245280593633652 0.16797736287117 0.0836424455046654 0.0207268744707108 -0.00188335997518152 -0.0288692452013493 -0.0560962669551373 -0.0886598080396652 -0.137741789221764 -0.176810190081596 -0.202591493725777 -0.243821442127228 -0.280561149120331 -0.294119387865067 -0.355364382266998 -0.425939857959747 -0.505097150802612 -0.563355267047882 -0.593817830085754 -0.373077780008316 -0.155315980315208 0.0729719176888466 0.213394835591316 0.378274947404861 0.656280398368835 0.708401560783386 0.42828094959259 0.0629167258739471 -0.00534944655373693 -0.105010271072388 -0.189241752028465 -0.265647619962692 -0.577730596065521 -0.878760814666748 -1.06655979156494 -1.09310781955719 -0.10700611025095 -0.665438830852509 0.976619839668274 1.055251121521 0.372140407562256 -0.238449245691299 -0.313129872083664 0.810992836952209 3.17214035987854 4.13211393356323 4.33840465545654 4.55177974700928 5.55823659896851 5.58533668518066 5.15000104904175 2.71237707138062 -0.252547264099121 -1.67981123924255 -1.94471120834351 -2.03030848503113 -2.06362533569336 -2.0720956325531 -2.03900599479675 -1.89419329166412 -1.03378558158875 0.460335224866867 5.64003133773804 7.94102811813354 7.26519775390625 3.87784743309021 2.99367833137512 1.46300375461578 1.03122091293335 0.490559846162796 0.304638653993607 0.436842501163483 0.545900344848633 0.607534050941467 0.596497595310211 0.476239711046219 0.325283974409103 0.29684591293335 0.360615342855453 0.390441596508026 0.410026043653488 0.361376732587814 0.290011167526245 0.246161371469498 0.205590128898621 0.19545741379261 0.119849219918251 -0.274211764335632 -0.746762275695801 -1.27194535732269 -2.0075352191925 -2.04766058921814 -1.91743803024292 -1.87116312980652 -1.72315561771393 -1.43756568431854 -1.38525485992432 -1.25845491886139 -1.16715800762177 -1.13306796550751 -1.26182699203491 -1.69467008113861 -1.89341616630554 -1.63727355003357 -1.26232731342316 -0.207777589559555 0.619952023029327 1.05928003787994 1.32024788856506 1.21416401863098 1.01043355464935 0.735873162746429 1.06334435939789 1.29722452163696 1.29685270786285 1.34617006778717 1.27136099338531 1.18094432353973 1.52491354942322 1.54585409164429 1.485391497612 1.29448580741882 0.987310707569122 0.719462037086487 0.577015817165375 0.505855321884155 0.31693509221077 0.0217950437217951 -0.353798180818558 -0.783346891403198 -0.994981110095978 -0.993806481361389 -1.10673809051514 -1.24477386474609 -1.3941365480423 0.45963978767395 7.52476644515991 10.7391347885132 13.1500186920166 14.276047706604 10.5603189468384 9.27290058135986 8.40098762512207 7.19204998016357 6.80953788757324 6.39166212081909 5.74617147445679 4.92606163024902 4.59030961990356 4.65522146224976 4.78626108169556 5.00921869277954 5.75012683868408 5.81570434570312 6.64767837524414 9.99561309814453 9.60622024536133 6.08315658569336 7.16492748260498 8.55902576446533 8.43755722045898 14.427303314209 17.6331024169922 20.0129890441895 21.5878562927246 16.6327896118164 12.5480756759644
0.445320010185242 0.411405056715012 0.368019282817841 0.316641092300415 0.252573162317276 0.183609396219254 0.0946499109268188 0.0325577035546303 -0.0205732099711895 -0.0440088510513306 -0.0839693322777748 -0.099778912961483 -0.132309377193451 -0.17665795981884 -0.210710629820824 -0.301273286342621 -0.341522395610809 -0.341335147619247 -0.397179752588272 -0.458826124668121 -0.546086966991425 -0.612069606781006 -0.659410059452057 -0.663302779197693 -0.462217956781387 -0.290407717227936 -0.0442064218223095 0.139312446117401 0.235314652323723 0.524526178836823 0.594339549541473 0.132396146655083 -0.0298862103372812 -0.101503275334835 -0.19971227645874 -0.323606252670288 -0.477180957794189 -0.72707998752594 -0.931019127368927 2.34999799728394 3.79029440879822 2.78518223762512 2.24543976783752 1.54585433006287 0.827225685119629 0.181019902229309 0.46648782491684 2.79303598403931 2.66709184646606 2.638916015625 2.82608580589294 2.64878559112549 3.69669342041016 5.24811697006226 4.76587009429932 2.43023800849915 -0.230166226625443 -1.81018137931824 -2.03185343742371 -2.11621522903442 -2.15159130096436 -2.1764509677887 -2.18188333511353 -0.3685182929039 3.59869861602783 4.91178369522095 10.4345903396606 9.78557968139648 8.73908233642578 4.4194450378418 3.05037307739258 1.84364330768585 1.18164229393005 0.915741086006165 0.37997367978096 0.293235450983047 0.420550256967545 0.562740385532379 0.585639834403992 0.565753281116486 0.385455161333084 0.308202147483826 0.281410485506058 0.383060872554779 0.396625936031342 0.359538406133652 0.322811007499695 0.278475731611252 0.208637341856956 0.198189824819565 0.0979166999459267 -0.371401071548462 -0.891837596893311 -1.67421519756317 -2.26610445976257 -2.44600462913513 -2.24366426467896 -2.13018441200256 -2.27130508422852 -2.69225120544434 -2.24495220184326 -1.84765672683716 -1.89394402503967 -1.82587873935699 -1.80311930179596 -1.88944053649902 -1.96289896965027 -0.286841541528702 -1.71292877197266 -1.42685484886169 -0.229749098420143 1.03507947921753 0.981069922447205 1.11813604831696 0.883678436279297 0.524072587490082 0.340117156505585 0.541728854179382 0.746037065982819 0.766270816326141 0.939105212688446 0.856227874755859 0.926378607749939 1.25941300392151 1.26306986808777 1.21253108978271 0.903633177280426 0.516781806945801 0.284231573343277 0.128336742520332 -0.0628059431910515 -0.399548709392548 -0.920862257480621 -1.43756926059723 -1.49611568450928 -1.43991196155548 -1.47861671447754 -1.51416432857513 -1.43939352035522 4.30656623840332 9.50078582763672 10.7214736938477 11.1800212860107 10.9372577667236 9.96892642974854 8.49532127380371 7.53405523300171 6.69802331924438 6.17521238327026 5.57748174667358 5.1700382232666 4.55384159088135 4.16270637512207 4.48682975769043 8.00176334381104 9.87113380432129 10.1115121841431 9.49794769287109 10.1277446746826 10.2141227722168 9.60624408721924 7.84476757049561 8.59144020080566 9.30137729644775 10.8253211975098 15.3549966812134 16.9993438720703 19.4508190155029 18.9085388183594 17.8486156463623 14.6853876113892
0.450643360614777 0.371357291936874 0.344938218593597 0.312950134277344 0.253693133592606 0.172572478652 0.0842131227254868 0.0359026379883289 -0.0403942614793777 -0.0786215737462044 -0.110139943659306 -0.126235917210579 -0.142701536417007 -0.184070691466331 -0.239350810647011 -0.339743465185165 -0.403547406196594 -0.423798978328705 -0.4380883872509 -0.473951399326324 -0.540674448013306 -0.654036223888397 -0.718968987464905 -0.765546321868896 -0.751148521900177 -0.551019012928009 -0.281008809804916 -0.00851449184119701 0.00589777948334813 0.28728187084198 0.502051413059235 0.299104392528534 -0.0240843389183283 -0.117680713534355 -0.206594839692116 -0.333978801965714 -0.429681569337845 -0.595546066761017 -0.0512004122138023 2.82912302017212 3.28128695487976 2.40171957015991 2.17616534233093 1.96840417385101 1.4626544713974 1.21212863922119 2.10136580467224 3.11333680152893 1.72828567028046 1.65997421741486 1.80607402324677 1.85550689697266 2.285804271698 4.15306901931763 4.13166904449463 2.10046052932739 -0.363104194402695 -1.92784106731415 -2.15223050117493 -2.23426842689514 -2.24523401260376 -2.26239728927612 -2.25568103790283 1.07636880874634 1.98327589035034 1.64909029006958 10.7165126800537 11.0097694396973 9.08752059936523 5.18942975997925 3.43774795532227 2.23263454437256 1.63188230991364 1.03674781322479 0.792500913143158 0.328627973794937 0.36020827293396 0.516404151916504 0.571552157402039 0.558541655540466 0.45090651512146 0.320469081401825 0.300192058086395 0.340520292520523 0.374007552862167 0.386257499456406 0.347673654556274 0.309116184711456 0.227444723248482 0.200795471668243 0.0857325196266174 -0.474745482206345 -1.0909606218338 -1.64648747444153 -2.32797527313232 -2.65135359764099 -2.63328194618225 -2.45519876480103 -2.49652361869812 -2.73913073539734 -2.80117034912109 -2.32863807678223 -2.27835488319397 -2.37817811965942 -2.05469441413879 -2.04034233093262 -2.09349703788757 -1.57531273365021 -1.95204782485962 -0.16671983897686 3.85580134391785 10.2150182723999 0.451144874095917 0.752510845661163 0.745550394058228 0.275685459375381 -0.0517278872430325 -0.19972662627697 -0.0973662883043289 0.186706185340881 0.511354684829712 0.588985443115234 0.530492424964905 0.561982154846191 0.596582114696503 0.632589161396027 0.597722291946411 0.334336429834366 0.0127777829766273 -0.328873246908188 -0.589098930358887 -0.927333950996399 -1.37278175354004 -1.7219660282135 -1.81158399581909 -1.70525050163269 -1.61022543907166 0.142687559127808 3.35925936698914 5.78860187530518 9.52036666870117 9.43486785888672 9.33752822875977 9.86854934692383 9.12856578826904 7.80825614929199 6.85490369796753 6.02070283889771 5.45376873016357 5.10563564300537 4.7052435874939 4.44326210021973 4.25593376159668 7.2926173210144 9.90518188476562 10.5453748703003 10.9883193969727 9.37066078186035 9.94696044921875 9.83743190765381 8.53900337219238 7.48651266098022 8.43555164337158 11.3773622512817 14.4366521835327 14.247166633606 15.3404579162598 16.9644470214844 17.9092922210693 16.9065093994141 16.0560512542725
0.493061423301697 0.357077449560165 0.31274002790451 0.293794691562653 0.257446050643921 0.172265142202377 0.0925013795495033 0.0553561002016068 -0.0346954166889191 -0.093314602971077 -0.138163134455681 -0.151129230856895 -0.165087684988976 -0.19944079220295 -0.283435434103012 -0.370047569274902 -0.42810246348381 -0.43866166472435 -0.447226941585541 -0.509917378425598 -0.59670627117157 -0.684515058994293 -0.75152188539505 -0.812634766101837 -0.855940401554108 -0.731204867362976 -0.541699886322021 -0.307778537273407 -0.18608994781971 -0.160933569073677 0.323640942573547 0.410271733999252 0.174054697155952 -0.114946462213993 -0.237495288252831 -0.338626325130463 -0.46867111325264 -0.537480592727661 0.090976744890213 1.01544713973999 1.96436047554016 2.2890625 1.84993207454681 1.74347937107086 1.36556279659271 1.56502652168274 2.07727932929993 2.06395435333252 1.49803924560547 1.15597093105316 1.27026164531708 1.40285837650299 2.1090247631073 3.34218573570251 3.56960487365723 2.5208113193512 -0.0927484259009361 -1.60585677623749 -2.08847570419312 -2.08406949043274 -2.18647074699402 -2.33108329772949 -2.30869603157043 -1.69773197174072 -1.85107171535492 2.18155169487 18.2880020141602 13.9920845031738 10.2461414337158 6.04368162155151 4.09881639480591 2.31084990501404 1.93624007701874 1.42812752723694 0.902707457542419 0.481281638145447 0.301147550344467 0.396646052598953 0.495247721672058 0.544214189052582 0.539420127868652 0.437740325927734 0.303768396377563 0.26928123831749 0.330794483423233 0.36014661192894 0.36687844991684 0.323519021272659 0.266872704029083 0.221994698047638 0.0481956601142883 -0.467732518911362 -1.1057163476944 -1.68126654624939 -2.21123027801514 -2.66410326957703 -2.78744101524353 -2.76283288002014 -2.79682850837708 -2.88718199729919 -3.0459361076355 -2.47933173179626 -1.85551035404205 -2.62188482284546 -2.31299042701721 -2.08809947967529 -1.77246534824371 2.5284686088562 2.26154589653015 3.87818622589111 8.1043586730957 24.4210815429688 -0.0399557091295719 0.256365835666656 0.374741941690445 0.166396990418434 -0.351056963205338 -0.744547843933105 -0.692935943603516 -0.395261883735657 0.0052506779320538 0.225729689002037 0.268729865550995 0.217617899179459 0.0438159517943859 -0.0227732304483652 0.069142147898674 0.0143990265205503 -0.32433146238327 -0.670231759548187 -1.04334843158722 -1.41559052467346 -1.68418300151825 -1.92677319049835 -1.86024761199951 2.92930769920349 2.90159940719604 1.86602795124054 2.49383878707886 4.98568391799927 8.18642425537109 9.27221298217773 8.31916809082031 8.34485721588135 7.94892644882202 7.42133617401123 6.3683500289917 5.7413125038147 5.12436008453369 4.63083696365356 4.34497117996216 4.22177457809448 4.32417917251587 6.71469211578369 7.99984884262085 8.03307151794434 9.14808654785156 9.01688003540039 8.25082969665527 8.45383930206299 8.05396938323975 8.41486740112305 11.9991188049316 16.5127582550049 15.6389265060425 13.0364952087402 13.3225841522217 14.3451147079468 15.6675987243652 15.8298063278198 14.9400053024292
0.731398403644562 0.38245090842247 0.301286309957504 0.257222920656204 0.197209507226944 0.144813597202301 0.0738724619150162 0.0294654164463282 -0.0415069498121738 -0.087675929069519 -0.141957193613052 -0.1778314858675 -0.211062550544739 -0.25333109498024 -0.310721188783646 -0.387900441884995 -0.464015960693359 -0.461440414190292 -0.494829565286636 -0.568432688713074 -0.673362135887146 -0.717446386814117 -0.791650116443634 -0.828181862831116 -0.926924288272858 -0.984636545181274 -0.870100438594818 -0.710992515087128 -0.482541888952255 -0.354410529136658 -0.104062244296074 0.234529063105583 0.313312917947769 -0.0952605754137039 -0.25212362408638 -0.328960984945297 -0.437526047229767 -0.535431444644928 -0.542576313018799 0.569301128387451 1.22346198558807 1.68153584003448 1.97680914402008 1.66632294654846 1.29485166072845 1.04821872711182 1.27538919448853 1.50790584087372 1.43559682369232 1.23395335674286 0.940001010894775 1.48178148269653 1.91233193874359 2.12801122665405 2.62335515022278 2.14548301696777 0.670117557048798 -0.551475405693054 -1.63204836845398 0.22855269908905 0.259696364402771 -0.156635567545891 -0.569612205028534 0.192993000149727 5.38187408447266 12.8265247344971 25.0066413879395 15.7957935333252 11.6249294281006 6.70635604858398 4.767662525177 2.6331639289856 2.0278742313385 1.70009529590607 0.966791987419128 0.677917122840881 0.411431342363358 0.263125538825989 0.380291700363159 0.507245302200317 0.527654647827148 0.51757287979126 0.351539999246597 0.280899077653885 0.26020735502243 0.35065421462059 0.360060125589371 0.330284535884857 0.297040194272995 0.21988619863987 -0.0418597348034382 -0.532699465751648 -1.08841800689697 -1.6046541929245 -2.19813299179077 -2.57433557510376 -2.80281138420105 -0.936911702156067 -2.88633155822754 -3.03195571899414 -3.10658574104309 -2.43356442451477 0.193914532661438 -2.88959980010986 -2.54548311233521 2.27851963043213 4.28445529937744 4.4123969078064 3.46731090545654 6.47260093688965 16.1635513305664 24.3492698669434 4.47417211532593 -0.172129347920418 -0.00248886551707983 -0.0854324996471405 -0.667141556739807 -1.32738065719604 -1.2586874961853 -1.01684355735779 -0.643327534198761 -0.359795749187469 -0.148455902934074 -0.0740995183587074 -0.2179986089468 -0.403398275375366 -0.443101733922958 -0.524893701076508 -0.698842227458954 -1.00021886825562 -1.45605158805847 -1.72203075885773 -1.94094717502594 -1.90867042541504 5.70108509063721 5.64304494857788 1.0436133146286 -0.000684219994582236 2.41034197807312 6.04422426223755 8.1605110168457 9.45030212402344 8.04671096801758 7.26627111434937 6.98420143127441 6.63300228118896 5.97085762023926 5.53117561340332 4.93200063705444 4.41581773757935 4.00626945495605 3.95894718170166 3.89154982566833 3.94976305961609 5.00264072418213 6.65189027786255 7.16565942764282 7.62915945053101 7.97397565841675 8.0035982131958 8.43161010742188 10.3293581008911 13.8236560821533 14.4132528305054 12.397216796875 11.6189956665039 11.1800975799561 11.861704826355 13.1186475753784 14.0926942825317 13.532564163208
0.891156911849976 0.630800008773804 0.305560201406479 0.216108247637749 0.162389874458313 0.0978466644883156 0.0537432506680489 0.0146042136475444 -0.0411093086004257 -0.0927881821990013 -0.133498251438141 -0.195599675178528 -0.218366727232933 -0.275287747383118 -0.342689216136932 -0.425683170557022 -0.519289016723633 -0.558040022850037 -0.628862082958221 -0.68141508102417 -0.734172105789185 -0.772564828395844 -0.844317317008972 -0.854827046394348 -1.02063143253326 -1.07282698154449 -1.0956619977951 -1.07040774822235 -0.860954284667969 -0.575527906417847 -0.384048312902451 -0.002580113010481 0.215419143438339 0.0313216187059879 -0.245296120643616 -0.325347244739532 -0.400855094194412 -0.517654776573181 -0.553067088127136 -0.0237155519425869 0.537707805633545 1.01507461071014 1.45634114742279 1.69560527801514 1.36607027053833 1.04695045948029 0.909101665019989 0.776366829872131 0.968993961811066 0.84481406211853 0.696155786514282 0.646244585514069 1.11564671993256 1.52863502502441 1.55373871326447 1.74212145805359 1.08596169948578 0.513506293296814 1.86175465583801 3.40804243087769 3.63982558250427 2.30816411972046 1.52150630950928 6.79678630828857 15.9588012695312 20.1603679656982 24.4689693450928 15.022162437439 10.3465242385864 7.8820948600769 5.32451391220093 3.18975925445557 2.28489232063293 1.72762322425842 1.18910682201385 0.925412058830261 0.651969373226166 0.29275107383728 0.324534326791763 0.465177476406097 0.515307784080505 0.506106913089752 0.409350275993347 0.28565502166748 0.266319781541824 0.302709370851517 0.333219081163406 0.355310350656509 0.302565306425095 0.108163900673389 -0.206819638609886 -0.725292026996613 -1.26367247104645 -1.71561849117279 -2.21807551383972 -2.60067963600159 -2.3932671546936 0.284619957208633 -1.89902722835541 -3.02775073051453 -3.14083313941956 -3.27260112762451 -3.38090944290161 -3.10017657279968 -2.21991539001465 3.28438138961792 1.98481202125549 1.76308143138885 1.27137243747711 1.33572280406952 12.0193567276001 15.4305009841919 7.09864330291748 -0.380920350551605 -0.374870389699936 -0.343726813793182 -0.650787174701691 -1.46489500999451 -1.66688907146454 -1.48675310611725 -1.3442040681839 -1.06410360336304 -0.797320425510406 -0.523680150508881 -0.527724862098694 -0.655398488044739 -0.730008244514465 -0.906947731971741 -1.00905466079712 -1.26838195323944 -1.62969374656677 -1.86493337154388 -1.92185544967651 6.46926307678223 7.6713752746582 5.38455438613892 2.39321422576904 0.977217435836792 6.22099733352661 9.83775329589844 10.7539033889771 10.8196907043457 7.27632427215576 6.74956655502319 6.14502668380737 5.98042678833008 5.64749002456665 5.1786994934082 4.81975221633911 4.11249876022339 3.42332196235657 3.08815097808838 2.93391990661621 2.73560905456543 3.11742043495178 3.90236377716064 5.11338329315186 5.65282297134399 6.78205347061157 7.82147741317749 7.91520357131958 9.23325729370117 10.4856328964233 11.2086267471313 11.2075548171997 10.3576393127441 10.4421606063843 10.3961200714111 11.8978700637817 12.2960386276245 12.2911539077759
0.891000390052795 0.721955716609955 0.430730938911438 0.214534670114517 0.0965321958065033 0.0355515889823437 0.0138199282810092 -0.0138326622545719 -0.0657147392630577 -0.111969262361526 -0.154709428548813 -0.204275250434875 -0.221156254410744 -0.297647148370743 -0.384774744510651 -0.484148442745209 -0.56580251455307 -0.65425181388855 -0.728340446949005 -0.762423574924469 -0.766307294368744 -0.795390188694 -0.887022197246552 -0.954147279262543 -1.04508626461029 -1.16021466255188 -1.21753001213074 -1.23643743991852 -1.13122630119324 -0.854985356330872 -0.576722502708435 -0.444486260414124 -0.0282929930835962 0.0478958077728748 -0.0870157703757286 -0.306594371795654 -0.414293438196182 -0.488918721675873 -0.602585852146149 -0.588013172149658 0.115321457386017 0.193743482232094 1.2890682220459 1.48199737071991 1.14853668212891 0.811051249504089 0.599447906017303 0.324179261922836 0.40233114361763 0.258818089962006 0.142432361841202 -0.0491338856518269 0.221743777394295 0.808830559253693 0.909010946750641 0.893026828765869 1.52764046192169 3.83243060112 4.81471920013428 4.99771928787231 4.18004322052002 3.06378698348999 3.38061451911926 7.55977630615234 15.5729341506958 17.7398853302002 18.2754516601562 16.3559513092041 12.4204778671265 8.47750282287598 5.61386442184448 3.67777705192566 2.79720234870911 1.93779683113098 1.40870010852814 1.0727379322052 0.827179253101349 0.434609234333038 0.279346287250519 0.351748943328857 0.442718654870987 0.488610118627548 0.486066997051239 0.391067147254944 0.264668196439743 0.235459536314011 0.299573957920074 0.333195567131042 0.267509132623672 -0.0159681774675846 -0.339237600564957 -0.861804187297821 -1.58472788333893 -1.97539436817169 -2.34918212890625 -2.61256122589111 -2.77089953422546 -0.45634064078331 -1.56800436973572 -3.06379246711731 -3.19933438301086 -3.36122417449951 -3.71411156654358 -3.61824798583984 -2.97908926010132 -1.75696587562561 -2.31313920021057 -1.99478149414062 -2.04884457588196 -0.151476845145226 9.2392053604126 8.72816181182861 8.56004047393799 5.96550226211548 -0.61622017621994 -0.652605533599854 -0.758600890636444 -1.24444580078125 -1.74175465106964 -1.78249216079712 -1.73670935630798 -1.67320168018341 -1.39643943309784 -1.02933609485626 -0.883851647377014 -0.807879447937012 -0.833019256591797 -1.08659732341766 -1.19944882392883 -1.47263526916504 -1.73617494106293 -1.82491147518158 3.88776278495789 8.8836669921875 5.72475337982178 4.22876882553101 3.51413655281067 3.50563073158264 9.10383224487305 11.2947521209717 10.5761203765869 8.80093765258789 5.82361745834351 5.39124393463135 5.50130176544189 5.28438520431519 5.22385263442993 4.90242147445679 4.46076583862305 3.78534626960754 3.1169581413269 2.35971641540527 1.81034529209137 1.65615773200989 1.82457935810089 2.46868658065796 3.60540223121643 4.26088809967041 5.49197053909302 7.58449268341064 7.4310622215271 7.56153678894043 7.69019460678101 8.31968784332275 9.49148750305176 9.58968067169189 9.2799825668335 9.09722232818604 9.38288974761963 10.4170207977295 10.6622009277344
0.863382995128632 0.768375873565674 0.519252181053162 0.228751614689827 0.100529290735722 0.0191304665058851 -0.0260216817259789 -0.0500895231962204 -0.0776902735233307 -0.132393881678581 -0.177698075771332 -0.218917444348335 -0.238148927688599 -0.289259552955627 -0.398461759090424 -0.512783408164978 -0.595530569553375 -0.678318619728088 -0.749819040298462 -0.798645675182343 -0.814035773277283 -0.854876816272736 -0.931509852409363 -1.02673053741455 -1.10809397697449 -1.24651145935059 -1.31039571762085 -1.36754357814789 -1.41166043281555 -1.17526340484619 -0.823709785938263 -0.608555018901825 -0.474743872880936 -0.230519592761993 -0.00905290804803371 -0.131254568696022 -0.417385220527649 -0.483905166387558 -0.568271219730377 -0.629527688026428 -0.611099243164062 -0.323797553777695 0.272945880889893 0.989385724067688 1.16636276245117 0.722663938999176 0.129776403307915 0.0282892752438784 -0.087035670876503 -0.0732550472021103 -0.220251798629761 -0.387220293283463 -0.322990775108337 0.0996154770255089 0.584470093250275 1.07815420627594 2.32919764518738 4.11943006515503 5.07503414154053 4.80002689361572 4.19398260116577 3.64469313621521 6.39281272888184 11.338737487793 19.4358901977539 18.6588516235352 16.6943378448486 15.4803056716919 14.1516141891479 10.1950778961182 6.17429637908936 4.20946168899536 3.2276885509491 2.30300712585449 1.54119729995728 1.27576410770416 0.864495873451233 0.610091626644135 0.416166096925735 0.257518768310547 0.340644061565399 0.429533421993256 0.475161582231522 0.47298863530159 0.381409406661987 0.263660877943039 0.41253387928009 0.294757694005966 0.253078460693359 -0.0147515209391713 -0.355972975492477 -0.914465129375458 -1.61050283908844 -2.02160787582397 -2.36673712730408 -2.61973738670349 -2.83800172805786 -2.910325050354 -3.06099271774292 -3.28642272949219 -3.48605990409851 -3.7309467792511 -4.17470359802246 -4.38929986953735 -3.58120250701904 -3.13219141960144 -2.79611873626709 -2.51748514175415 -2.32018160820007 -2.088050365448 7.71355104446411 7.76603651046753 9.24784374237061 7.33390331268311 3.7834095954895 -0.827902019023895 -0.969727098941803 -1.2787801027298 -1.67443215847015 -1.88067662715912 -1.88975524902344 -1.90814781188965 -1.8715193271637 -1.52574026584625 -1.19911456108093 -0.954183161258698 -0.968613922595978 -1.06094074249268 -1.26470983028412 -1.60018932819366 -1.84362602233887 -1.85353755950928 6.06260204315186 6.09010934829712 4.51166343688965 3.53842854499817 3.08116292953491 3.66088628768921 8.78535270690918 11.2081546783447 9.6666784286499 7.39282417297363 4.98885011672974 4.15034103393555 4.78420782089233 4.8212833404541 4.60746622085571 4.55695676803589 4.1439528465271 3.8351731300354 3.06916499137878 2.3503839969635 1.3316468000412 0.85625809431076 1.15026557445526 1.54931473731995 2.38683915138245 3.54435086250305 6.25459671020508 9.8477029800415 7.04539108276367 6.73754596710205 6.68471622467041 6.65729999542236 7.01662635803223 7.7048168182373 8.01917171478271 8.14668083190918 8.02311229705811 8.2823543548584 9.27553653717041
0.704601407051086 0.764493823051453 0.666420519351959 0.42433288693428 0.152294129133224 0.0381226576864719 -0.0409275069832802 -0.0678404122591019 -0.103498138487339 -0.157933667302132 -0.209862112998962 -0.240670755505562 -0.275549650192261 -0.29024812579155 -0.40252423286438 -0.535399913787842 -0.622195899486542 -0.685730397701263 -0.761929094791412 -0.835191190242767 -0.843534350395203 -0.888231039047241 -0.946540057659149 -1.05538249015808 -1.19868576526642 -1.30812108516693 -1.4174085855484 -1.48658549785614 -1.4896582365036 -1.42366325855255 -1.19052219390869 -0.858736634254456 -0.76153439283371 -0.623180270195007 0.428712427616119 -0.0613839961588383 -0.364386945962906 -0.461645483970642 -0.529496252536774 -0.588096976280212 -0.656276822090149 -0.657065212726593 -0.407190144062042 0.135569170117378 0.658252358436584 0.678096830844879 0.159715369343758 -0.134114623069763 -0.299331575632095 -0.490897655487061 -0.493667483329773 -0.665655672550201 -0.726487576961517 1.08783042430878 2.61340570449829 3.5027163028717 3.9722695350647 4.31178092956543 4.21934509277344 5.49158143997192 6.75592184066772 8.29223823547363 11.9072608947754 15.872410774231 19.341775894165 16.8934516906738 15.0501232147217 14.903263092041 13.4872341156006 11.5072641372681 6.36914491653442 5.0885591506958 3.69092464447021 2.67249441146851 1.69249284267426 1.2615305185318 0.948303043842316 0.833440482616425 0.588088989257812 0.355122655630112 0.224987983703613 0.329482972621918 0.418277710676193 0.46465665102005 0.459415584802628 0.312582314014435 0.250818699598312 0.231534704566002 0.231982111930847 -0.00544572249054909 -0.374636471271515 -0.838785707950592 -1.45257258415222 -1.98322260379791 -2.38398814201355 -2.7080512046814 -3.00139808654785 -3.19710946083069 -3.44692730903625 -3.6614203453064 -3.94606137275696 -4.23791170120239 -4.41974639892578 -4.60930585861206 -4.53714799880981 -3.66122722625732 -3.19237399101257 -2.88769841194153 -2.6124861240387 -1.93609690666199 9.27513027191162 8.31081104278564 9.90696334838867 7.60463190078735 4.7668194770813 -0.894269168376923 -1.14861488342285 -1.39814341068268 -1.61983478069305 -1.81635022163391 -1.95733797550201 -2.02299427986145 -2.01958751678467 -1.85733652114868 -1.32465922832489 -1.09865236282349 -1.02086412906647 -1.09255182743073 -1.23815619945526 -1.54988026618958 -1.87404680252075 1.40810704231262 5.20322179794312 3.52743792533875 4.58796215057373 3.56711935997009 3.24335193634033 6.42363548278809 9.7471809387207 9.51480388641357 8.29985618591309 6.74138069152832 5.06383037567139 4.36221647262573 3.67248106002808 4.19101858139038 4.31074333190918 4.10228824615479 3.77920246124268 3.46990513801575 3.2183256149292 2.43940329551697 1.55496215820312 0.741430878639221 0.8205326795578 2.53290319442749 5.08507966995239 7.6203465461731 8.50398921966553 10.988920211792 6.11870670318604 6.22249555587769 5.75666427612305 5.61144351959229 5.47379064559937 6.36064910888672 6.95274877548218 6.973069190979 7.03270959854126 7.19153261184692 7.52318525314331
0.559876143932343 0.612609565258026 0.667189359664917 0.571341037750244 0.341596364974976 0.10528925806284 -0.0244565382599831 -0.0831229612231255 -0.127987444400787 -0.201251566410065 -0.245164543390274 -0.265885204076767 -0.304899722337723 -0.336462318897247 -0.420888006687164 -0.545946061611176 -0.644203841686249 -0.703594148159027 -0.776437819004059 -0.848537385463715 -0.904767334461212 -0.91363388299942 -0.986067533493042 -1.0712913274765 -1.2059063911438 -1.32543241977692 -1.40492618083954 -1.5288120508194 -1.53566229343414 -1.54055285453796 -1.46480929851532 -1.19720065593719 -0.943874657154083 -0.805930078029633 0.339531689882278 -0.185876369476318 -0.288403570652008 -0.472938925027847 -0.521783292293549 -0.570941865444183 -0.666881322860718 -0.675412893295288 -0.731933832168579 -0.473079442977905 -0.174366757273674 0.328052639961243 0.28119769692421 -0.265276581048965 -0.545252680778503 -0.687171697616577 -0.877583265304565 -0.972432672977448 -0.688656151294708 3.58518052101135 3.42168116569519 3.96315622329712 4.85605049133301 5.31201553344727 6.64274215698242 8.47278881072998 9.95116901397705 11.667534828186 15.4396276473999 17.7302207946777 18.2275352478027 16.7113170623779 14.7789144515991 13.8925819396973 12.9833898544312 10.7622013092041 7.64698171615601 5.48905754089355 4.37131881713867 2.33595943450928 1.14861476421356 0.63121086359024 0.653940200805664 0.869569540023804 0.791581630706787 0.561798930168152 0.252817302942276 0.218366488814354 0.32065412402153 0.342020124197006 0.350407630205154 0.280512541532516 0.259104311466217 0.229810178279877 0.135787710547447 -0.102211453020573 -0.492427110671997 -0.944575846195221 -1.53087723255157 -2.03750252723694 -2.52992677688599 -2.90494823455811 -3.40477752685547 -3.65207409858704 -3.86929988861084 -4.08677864074707 -4.21444797515869 -4.35309219360352 -4.51997995376587 -4.7648606300354 -4.88315725326538 -4.26911640167236 -3.56179618835449 -3.16157817840576 -1.06312084197998 1.95303916931152 10.4452962875366 9.30894088745117 10.6687602996826 5.80924224853516 3.82141590118408 0.99334055185318 -1.25417387485504 -1.5442715883255 -1.75302112102509 -1.83621466159821 -1.98463177680969 -2.11381864547729 -2.11962628364563 -2.09859156608582 -0.789505004882812 -0.772430419921875 -1.14289927482605 -1.11207818984985 -1.24111032485962 -1.41852450370789 -1.75487160682678 2.9903461933136 4.7177906036377 6.69300889968872 5.59834909439087 4.58747911453247 6.20146560668945 9.51262474060059 10.699875831604 7.72172069549561 6.4876880645752 5.77861928939819 5.87251806259155 4.78435277938843 3.9110004901886 5.58292627334595 4.11845350265503 3.51320958137512 3.12248349189758 3.16013646125793 3.0333571434021 2.58013820648193 2.05661511421204 1.1988343000412 2.44904494285583 7.06660175323486 8.36359596252441 13.7166805267334 14.5339756011963 10.9880828857422 5.12914657592773 5.33734798431396 5.20923709869385 4.84566974639893 4.29916620254517 4.37076234817505 5.35936737060547 5.77155637741089 5.75846385955811 6.18457841873169 6.56552934646606
0.461472064256668 0.477556616067886 0.590537309646606 0.574788987636566 0.425474345684052 0.16623666882515 0.02595204859972 -0.0674696862697601 -0.134912267327309 -0.209455206990242 -0.255602598190308 -0.296816289424896 -0.346224457025528 -0.397817015647888 -0.450783491134644 -0.553490102291107 -0.656772792339325 -0.731527090072632 -0.790819346904755 -0.862105965614319 -0.94088751077652 -0.976446211338043 -1.06866562366486 -1.12882101535797 -1.2192497253418 -1.28816735744476 -1.46953165531158 -1.57944691181183 -1.59159517288208 -1.60105049610138 -1.61479938030243 -1.51508438587189 -1.30161845684052 -1.02794897556305 -0.806577682495117 -0.40910804271698 -0.227687627077103 -0.336234271526337 -0.514322936534882 -0.595637142658234 -0.651404917240143 -0.717245399951935 -0.719713389873505 -0.765843510627747 -0.513041853904724 0.236568942666054 0.150340914726257 -0.505461633205414 -0.763415336608887 -0.79565155506134 -0.886236310005188 -1.08787679672241 1.09620201587677 4.52052068710327 4.5644063949585 5.58036184310913 5.77511072158813 5.49355459213257 7.25761365890503 9.44454956054688 10.2514724731445 11.7593250274658 14.2367086410522 14.69810962677 15.014554977417 15.4085140228271 14.6247634887695 12.9120016098022 11.488395690918 10.0250377655029 8.45253086090088 6.06213045120239 3.84431266784668 1.49361896514893 0.515446841716766 0.11114925891161 -0.190476566553116 0.209992349147797 0.549734115600586 0.548553287982941 0.331981986761093 0.213222116231918 0.181133300065994 0.250927060842514 0.242226853966713 0.232343286275864 0.247293084859848 0.184365883469582 0.0264723971486092 -0.241145953536034 -0.700875282287598 -1.25956308841705 -1.83211433887482 -2.3339855670929 -2.83816170692444 -3.28600835800171 -3.76506114006042 -4.01946353912354 -4.11988496780396 -4.292396068573 -4.36881065368652 -4.47075700759888 -4.64279699325562 -4.92276334762573 -5.06112098693848 -4.98917484283447 -4.0175347328186 -1.33800113201141 0.347403794527054 1.2316859960556 5.51286125183105 4.25325536727905 3.39405989646912 5.24437379837036 4.28420829772949 2.40815424919128 -0.257111728191376 -1.68261337280273 -1.91330969333649 -1.90962958335876 -1.90691864490509 -2.07453751564026 -2.22981977462769 -2.26300644874573 -1.26109445095062 -0.635752081871033 -1.33901524543762 -1.23216331005096 -1.25829064846039 -1.37713241577148 -1.70639038085938 2.92323446273804 6.18244791030884 8.67939758300781 5.80062913894653 7.72800636291504 8.74891567230225 10.2420539855957 9.50221347808838 7.97639942169189 6.75367259979248 6.25407409667969 6.47971534729004 5.23544692993164 7.07965326309204 8.90648365020752 7.33190250396729 3.68399333953857 2.97591924667358 2.93656849861145 2.93310618400574 2.94294834136963 2.34815573692322 3.23639631271362 6.23095941543579 8.80001258850098 10.5579738616943 15.0043745040894 13.4236688613892 7.35862064361572 5.2404146194458 4.61305379867554 4.40504932403564 4.18876981735229 3.9374475479126 3.83463072776794 3.79699659347534 4.27949333190918 4.71087598800659 4.99687147140503 5.29722261428833
0.383379995822906 0.404990255832672 0.513550162315369 0.551630318164825 0.467627227306366 0.253594249486923 0.039675310254097 -0.0556148253381252 -0.130550101399422 -0.204417616128922 -0.282676070928574 -0.364751696586609 -0.424924105405807 -0.454527288675308 -0.499494999647141 -0.570670425891876 -0.661122262477875 -0.7437744140625 -0.811084449291229 -0.881098330020905 -0.952676057815552 -1.02144992351532 -1.14738988876343 -1.18181896209717 -1.20291090011597 -1.37840187549591 -1.50910294055939 -1.62300980091095 -1.62902629375458 -1.64596605300903 -1.67591857910156 -1.74194395542145 -1.71130883693695 -1.41934168338776 -1.08405148983002 -0.344873130321503 0.563962042331696 -0.251689523458481 -0.355103194713593 -0.599063813686371 -0.668093919754028 -0.694719076156616 -0.75673234462738 -0.749254405498505 -0.768572390079498 -0.411150932312012 -0.238210871815681 -0.43116420507431 -0.667336702346802 -0.994342267513275 -0.983174622058868 -0.957304000854492 4.27717399597168 5.40529203414917 5.58688735961914 6.57547998428345 5.73834419250488 4.61929988861084 4.88526630401611 6.29535531997681 8.00438785552979 8.88679790496826 9.8125467300415 11.2252712249756 11.8622198104858 13.1279678344727 13.0378122329712 12.0437450408936 10.5186634063721 8.9470739364624 7.7740216255188 5.78370046615601 3.33451437950134 0.88199508190155 -0.0546405427157879 -0.51775848865509 -0.864524245262146 -0.76329094171524 -0.211695939302444 -0.0278611443936825 0.0492346994578838 0.0171769913285971 -0.0831946507096291 0.0228149052709341 0.16281558573246 0.13759271800518 0.142698362469673 0.0972533896565437 -0.0666055232286453 -0.434990763664246 -0.924500286579132 -1.64229834079742 -2.36710953712463 -3.03493475914001 -3.41127586364746 -3.674067735672 -3.8265483379364 -4.05660438537598 -4.19848966598511 -4.29985761642456 -3.37471890449524 -4.53474712371826 -4.71417951583862 -4.96250486373901 -5.12963819503784 -3.05692577362061 0.795550584793091 2.83469271659851 2.6411759853363 1.97025120258331 7.4966254234314 8.3927526473999 7.41009044647217 12.2626218795776 3.68022990226746 2.99026823043823 0.822945594787598 -1.83725869655609 -2.0983099937439 -2.12172174453735 -2.1571683883667 -2.22366118431091 -2.30171155929565 -1.7157210111618 -1.16977739334106 -1.17916238307953 -1.65650641918182 -1.40127444267273 -1.3363151550293 -1.45250236988068 -1.69105350971222 2.16789388656616 6.11247587203979 6.32193517684937 5.75378942489624 6.27248287200928 7.0380597114563 8.81534957885742 9.23521137237549 8.74238967895508 8.58749198913574 9.62135219573975 9.88572120666504 9.14311790466309 8.61803150177002 8.59144496917725 7.05850601196289 4.21000003814697 4.3744592666626 6.679612159729 7.56262397766113 3.81235551834106 2.81964564323425 3.81776094436646 6.60348272323608 9.26942253112793 12.9736652374268 15.7095136642456 11.9153060913086 8.14363574981689 5.14425277709961 3.96236610412598 3.63765978813171 3.26805233955383 3.19091248512268 3.37842702865601 3.26604199409485 3.16035985946655 3.37241411209106 3.58704233169556 4.05783748626709
0.378797709941864 0.323580980300903 0.362969845533371 0.409306466579437 0.456463128328323 0.389868587255478 0.195687994360924 -0.0657025873661041 -0.178224489092827 -0.246232435107231 -0.345954447984695 -0.429330050945282 -0.491402983665466 -0.528281211853027 -0.573680460453033 -0.600607633590698 -0.673636734485626 -0.753205955028534 -0.82785576581955 -0.888604283332825 -0.962834477424622 -1.06497097015381 -1.17563593387604 -1.20192134380341 -1.24485766887665 -1.35805904865265 -1.53723752498627 -1.65453112125397 -1.32996892929077 -1.33497941493988 -1.73090720176697 -1.77734136581421 -1.82631647586823 -0.348273098468781 0.846811830997467 1.86641383171082 1.42784833908081 -0.30425688624382 0.0449932254850864 -0.543467998504639 -0.673551917076111 -0.69954913854599 -0.708932161331177 -0.771369636058807 -0.759035646915436 -0.803579390048981 -0.733405768871307 -0.540391266345978 -0.547848284244537 -1.19138753414154 -1.07049763202667 1.37068951129913 8.04299163818359 7.14156246185303 7.08452367782593 7.24242305755615 5.04622602462769 4.24668979644775 4.11696529388428 4.52828788757324 6.45325422286987 7.64061403274536 8.15680694580078 9.0695686340332 10.3580570220947 10.704794883728 10.8405246734619 9.72292900085449 8.43227291107178 7.58991861343384 5.99402666091919 4.7646222114563 2.79588270187378 0.475701719522476 -0.644866168498993 -1.0031920671463 -1.31512260437012 -1.35080087184906 -1.17040407657623 -1.09370350837708 -0.487220734357834 -0.269344627857208 -0.317704826593399 -0.188346311450005 0.000380856188712642 0.0403163433074951 -0.0165814254432917 -0.0678305700421333 -0.238247901201248 -0.725883781909943 -1.36161160469055 -2.32998871803284 -2.80743765830994 -3.29057621955872 -3.62680959701538 -3.7930953502655 -3.92857217788696 -4.05486488342285 -3.08258557319641 -2.17001581192017 -1.22173392772675 -3.05860900878906 -4.33615732192993 -4.85918092727661 -2.59196162223816 1.2519611120224 4.33257532119751 5.19783782958984 4.24393749237061 5.21820449829102 9.69759654998779 10.9277143478394 14.1223917007446 17.0287322998047 7.23402881622314 2.63659763336182 0.956896126270294 -1.46248137950897 -2.22218918800354 -1.96172249317169 -1.46542823314667 -0.905681431293488 0.388512253761292 -0.00566037697717547 -0.0833600983023643 0.489446491003036 -1.9337569475174 -1.66281092166901 -1.47040367126465 -1.51781690120697 -1.21137189865112 0.258205771446228 2.17478680610657 3.5662214756012 4.91245126724243 5.44065809249878 6.79878616333008 9.33777904510498 8.91227054595947 8.92321872711182 8.6522102355957 9.79633808135986 10.7421741485596 9.47306346893311 8.15799236297607 6.81018257141113 6.62257623672485 5.43701887130737 5.77307510375977 8.36873340606689 7.60321569442749 4.39507246017456 2.81844854354858 2.59597325325012 3.65817594528198 7.32214498519897 11.5692873001099 13.3790626525879 11.1678161621094 9.03785705566406 6.39402914047241 3.52146220207214 3.28548908233643 2.84826850891113 2.82463502883911 2.94652032852173 2.90855622291565 2.56119179725647 2.51331782341003 2.77695441246033 2.94444537162781
0.390417605638504 0.292132049798965 0.246799305081367 0.266902893781662 0.392053186893463 0.384227871894836 0.264110326766968 0.0377880185842514 -0.214468792080879 -0.299303948879242 -0.360199272632599 -0.461616367101669 -0.548148810863495 -0.562690854072571 -0.601524949073792 -0.649444282054901 -0.691544532775879 -0.750831186771393 -0.833985209465027 -0.905041635036469 -0.990565299987793 -1.11657643318176 -1.17779541015625 -1.2382116317749 -1.26480233669281 -1.35238301753998 -1.50804769992828 -1.67195427417755 -1.48825907707214 -0.849544823169708 -1.751509308815 -1.79443633556366 -1.82555556297302 0.340777724981308 2.94059872627258 3.28647041320801 2.10369038581848 -0.0252398699522018 0.381461262702942 -0.422341644763947 -0.640384197235107 -0.683979451656342 -0.470264375209808 -0.723597466945648 -0.748549044132233 -0.794697225093842 -0.802842795848846 -0.474494844675064 -0.704729735851288 -1.02743875980377 -0.47244319319725 8.0878849029541 10.7930641174316 7.18240451812744 7.88026523590088 8.15785121917725 4.91580152511597 4.68121290206909 5.94740438461304 6.53611612319946 6.6394739151001 6.18053722381592 7.21278810501099 7.90648508071899 8.11327362060547 8.23427391052246 8.02918243408203 7.88083553314209 6.88757085800171 5.61577701568604 4.32384061813354 2.67408418655396 1.42730987071991 -0.0788895487785339 -1.31231737136841 -1.11475121974945 -1.41916525363922 -1.47948384284973 -1.42459750175476 -1.40226149559021 -1.21625590324402 -0.825484335422516 -0.633778631687164 -0.402902156114578 0.380012422800064 0.109314687550068 -0.157723560929298 -0.302435487508774 -0.513738393783569 -1.0623596906662 -1.69655525684357 -2.49497938156128 -2.97762489318848 -3.4025559425354 -3.77588033676147 -3.9063241481781 -3.96681237220764 -1.17230713367462 -0.243018820881844 0.657848596572876 0.821496427059174 0.202577143907547 0.200817734003067 0.220843121409416 0.774587571620941 2.84203028678894 5.93628168106079 6.07276487350464 5.39895439147949 5.22923994064331 10.3024501800537 11.8111200332642 14.3538227081299 15.4025287628174 7.87388706207275 2.11060333251953 0.460224777460098 -0.832118988037109 -2.07315921783447 0.863209784030914 1.58679866790771 2.09975481033325 2.95880675315857 2.70850920677185 2.30502104759216 2.82314896583557 1.23940980434418 0.489755570888519 -1.57880675792694 -1.62018346786499 -1.84932422637939 -1.12999701499939 0.135074734687805 0.650468349456787 1.20730876922607 2.30715465545654 3.57027292251587 5.39726209640503 7.52964353561401 8.10769748687744 8.16335868835449 7.84218454360962 7.6104621887207 8.03049373626709 7.11071634292603 6.06225824356079 5.40754842758179 5.26486778259277 4.5515775680542 3.81192779541016 5.22618675231934 5.21445655822754 3.01766514778137 2.57978224754333 2.13380694389343 4.32501697540283 11.1592388153076 11.2102270126343 9.95343112945557 8.79303359985352 7.59900188446045 4.96081638336182 3.30626559257507 3.10270404815674 3.16228795051575 5.04480743408203 5.25163507461548 4.52585792541504 4.70802354812622 4.71236038208008 4.10167837142944
0.416184186935425 0.307586014270782 0.193050906062126 0.214265421032906 0.308300524950027 0.372505635023117 0.336143791675568 0.144309550523758 -0.102323450148106 -0.303011983633041 -0.425495088100433 -0.5229172706604 -0.573053121566772 -0.624501287937164 -0.663781523704529 -0.707823693752289 -0.740323007106781 -0.794470965862274 -0.870435118675232 -0.947247743606567 -1.00952363014221 -1.0833957195282 -1.19647181034088 -1.21941435337067 -1.28695333003998 -1.35417461395264 -1.46898365020752 -1.65233671665192 -1.73055875301361 -0.557915866374969 -1.73116159439087 -1.50571918487549 -1.65978312492371 -0.299844443798065 3.26866865158081 3.78414916992188 2.52647304534912 0.890809714794159 0.685471773147583 -0.312888503074646 -0.46189883351326 0.0192703939974308 -0.0928552150726318 -0.696361124515533 -0.744145095348358 -0.769216418266296 -0.836838662624359 -0.967299342155457 -0.847149014472961 -0.867638230323792 3.44944834709167 8.87534141540527 9.77192115783691 9.00393199920654 9.44380760192871 6.83258438110352 5.33989191055298 7.83108901977539 5.61490058898926 4.63260412216187 4.30842399597168 4.75123643875122 6.17421627044678 5.32223415374756 5.12006139755249 5.3184494972229 5.77159404754639 5.64238452911377 5.21186447143555 3.93353462219238 2.67119884490967 1.39098012447357 0.776774287223816 -0.533899545669556 -1.71989357471466 -1.41438519954681 -1.48897039890289 -1.44599187374115 0.0121707757934928 -0.175200670957565 3.14219951629639 3.75217056274414 -0.917639434337616 -0.4728142619133 -0.440790951251984 -0.325233221054077 -0.271580278873444 -0.473317354917526 -0.766492187976837 -1.30061948299408 -2.05292415618896 -2.75375461578369 -3.14582443237305 -3.45331597328186 -3.88996267318726 -3.98189401626587 -0.293641537427902 3.04889273643494 2.42982029914856 2.09939527511597 1.83065485954285 1.15803122520447 1.69160878658295 1.78745770454407 1.59656822681427 3.34756851196289 5.32659959793091 5.83089351654053 6.1931791305542 4.4499945640564 6.02995300292969 11.0189085006714 14.0977344512939 15.3421974182129 9.98566246032715 3.21972918510437 0.5870041847229 0.353092640638351 3.53392362594604 3.57962894439697 2.29111480712891 2.91813206672668 3.11369299888611 2.50255465507507 2.83922696113586 3.08772683143616 2.10479021072388 1.18424105644226 -0.219517230987549 -1.78778958320618 -1.88578903675079 0.807332694530487 -0.0526047833263874 -1.33123207092285 -0.258039534091949 0.874518930912018 3.53619456291199 3.72591257095337 8.18231678009033 6.91901588439941 7.41962718963623 7.12674236297607 6.6936182975769 6.33705854415894 6.25340843200684 5.7277889251709 4.94523000717163 4.44268035888672 4.30648803710938 3.67669701576233 3.4782829284668 4.14454936981201 3.92312335968018 2.7109260559082 2.83239936828613 6.74653196334839 11.8848037719727 9.75135231018066 9.4977331161499 8.75507736206055 7.64702224731445 5.48247385025024 3.47360038757324 4.28901863098145 7.69650459289551 7.20512628555298 7.2274317741394 7.58361911773682 8.2770824432373 8.4419994354248 6.79272890090942
0.403662800788879 0.320449620485306 0.193929433822632 0.133688554167747 0.169154718518257 0.266305148601532 0.331268548965454 0.267328709363937 0.0637470111250877 -0.182213321328163 -0.406548768281937 -0.572492599487305 -0.631848692893982 -0.68712455034256 -0.742045819759369 -0.786037027835846 -0.804779827594757 -0.850256323814392 -0.89549332857132 -0.962292313575745 -1.02730476856232 -1.10102963447571 -1.19113492965698 -1.24334108829498 -1.31862723827362 -1.38079822063446 -1.47600257396698 -1.65452301502228 -1.73793232440948 0.545224666595459 -1.21605682373047 0.225571498274803 0.678763329982758 0.557157397270203 4.26576232910156 4.52284383773804 2.62570524215698 1.71141672134399 0.241142496466637 -0.197075635194778 -0.324641555547714 -0.35173100233078 -0.53204083442688 -0.700932145118713 -0.726987421512604 -0.786430597305298 -0.801835060119629 -0.96220988035202 -1.08022892475128 1.23991191387177 6.76175403594971 9.21211051940918 10.5358762741089 8.92655372619629 7.27545309066772 6.67046403884888 8.15269374847412 5.03077125549316 3.01150703430176 2.61727547645569 2.73624730110168 3.51409196853638 3.89021897315979 3.78168845176697 3.35636043548584 3.52276611328125 3.46738910675049 3.31978893280029 2.75327634811401 2.06973075866699 1.16041207313538 0.511403799057007 0.023858305066824 -0.521873950958252 -1.47571849822998 -1.71767807006836 -1.51222407817841 0.131096422672272 4.13721418380737 6.88378238677979 8.32511043548584 6.89143657684326 3.88687801361084 1.12629890441895 -0.932036995887756 -1.09553825855255 -0.751160204410553 -0.608302593231201 -0.873162448406219 -1.35947322845459 -2.21967530250549 -2.88756465911865 -3.33817481994629 -3.61137437820435 -3.84801363945007 -3.46962070465088 2.06475687026978 1.97193717956543 0.653377294540405 1.45199489593506 1.33975172042847 1.20139968395233 1.35651803016663 1.20461165904999 1.37299108505249 3.94090414047241 5.09743595123291 5.29573392868042 5.15035581588745 4.20189619064331 3.83643984794617 11.2546186447144 12.1372509002686 12.8861103057861 10.1648836135864 6.18224620819092 1.80756902694702 3.26092791557312 4.0717134475708 2.43814969062805 2.39060807228088 2.98387265205383 2.39302325248718 1.66581904888153 1.26274597644806 1.69040942192078 2.55180168151855 2.01419758796692 0.555434823036194 0.627446055412292 1.09073686599731 2.41603088378906 1.09929192066193 -1.39047920703888 1.22102689743042 7.57359647750854 11.6972961425781 11.8722610473633 14.2479038238525 6.92144250869751 6.41708612442017 6.65320158004761 6.25328016281128 5.8578839302063 5.79805088043213 5.412428855896 5.04677724838257 4.56097841262817 3.9974672794342 3.6102774143219 3.40407252311707 3.25786828994751 3.26319050788879 2.97775101661682 5.98200368881226 8.66647148132324 10.3386135101318 8.89233112335205 8.63565444946289 8.30015563964844 7.46199560165405 6.54768753051758 5.1118369102478 5.17849016189575 6.91228628158569 8.4696569442749 7.65032720565796 7.38596057891846 8.20163726806641 8.31799507141113 5.85788774490356
0.414886295795441 0.325838923454285 0.202108561992645 0.0952129885554314 0.060887835919857 0.123240604996681 0.19191500544548 0.22925990819931 0.168167784810066 -0.0374243259429932 -0.338091045618057 -0.572166502475739 -0.706459105014801 -0.758542776107788 -0.812249600887299 -0.830371558666229 -0.848453462123871 -0.896287560462952 -0.929350554943085 -0.974920332431793 -1.04105246067047 -1.11390686035156 -1.19210112094879 -1.27471387386322 -1.33648490905762 -1.41673243045807 -1.52394485473633 -1.6560252904892 -1.72990608215332 1.27874302864075 0.328269273042679 1.03268158435822 1.94452714920044 3.3025860786438 4.62602138519287 4.01769781112671 2.67000484466553 1.92237269878387 1.12537562847137 0.230166226625443 -0.252597719430923 -0.158640876412392 -0.289449512958527 -0.620096147060394 -0.718969881534576 -0.791819393634796 -0.788107812404633 -0.912521839141846 -1.0289980173111 4.20862245559692 7.41646385192871 9.36647129058838 8.3592700958252 7.67717218399048 8.25349521636963 7.89154386520386 5.33128595352173 2.6283802986145 1.8483794927597 1.76385533809662 1.68751788139343 1.63030064105988 1.65846741199493 1.76684617996216 1.70123291015625 2.00643634796143 1.94469821453094 1.79067504405975 1.36634647846222 0.845751881599426 0.403629392385483 0.0462941005825996 -0.330570191144943 -0.713685393333435 -0.978755593299866 2.12890553474426 2.75027775764465 3.56820559501648 6.68794012069702 8.5024585723877 6.73085165023804 4.37170076370239 1.55162632465363 -1.0329966545105 -1.2915586233139 -1.46414589881897 -1.39218652248383 1.92405569553375 -0.927726566791534 -1.34108138084412 -2.26497340202332 -2.93298578262329 -3.398024559021 -3.70572590827942 -3.85103726387024 -1.84847509860992 1.88358914852142 1.11954963207245 0.25513744354248 0.0631501451134682 1.27190256118774 0.983860492706299 1.25022578239441 1.32481694221497 2.34963726997375 4.73784160614014 4.24506998062134 4.04171323776245 4.25510501861572 3.8043315410614 3.57927417755127 7.01198959350586 11.1573791503906 10.4781560897827 9.89325141906738 6.76575803756714 2.87248563766479 2.14832305908203 2.42716145515442 3.1542181968689 2.69530510902405 2.08836483955383 1.93632996082306 1.47798728942871 1.22238552570343 2.40889573097229 7.57129955291748 8.5189733505249 7.47541236877441 7.19090509414673 4.71800136566162 5.32043886184692 4.28681802749634 4.18631362915039 8.86631679534912 9.28096294403076 11.5222578048706 11.9492778778076 11.8596429824829 8.42780303955078 5.80736112594604 5.84341382980347 5.84183788299561 5.39609813690186 5.02161931991577 5.19341325759888 4.95242118835449 4.64910793304443 4.05050945281982 3.64163303375244 3.35823178291321 3.23211240768433 3.45746326446533 3.41782855987549 6.11967658996582 8.45685482025146 9.26334095001221 9.01350212097168 7.86966323852539 8.04165267944336 7.52852392196655 6.9110631942749 6.08374357223511 4.84356069564819 5.61202096939087 6.3871054649353 6.84632015228271 6.69138145446777 6.7805552482605 7.21683597564697 6.95201587677002
0.437847763299942 0.308040738105774 0.219297274947166 0.100871570408344 0.0183937009423971 0.00679721822962165 0.0298668351024389 0.0994438827037811 0.157730504870415 -0.00428434275090694 -0.271202325820923 -0.541114568710327 -0.742512226104736 -0.831607937812805 -0.860274136066437 -0.893174052238464 -0.904159724712372 -0.93467390537262 -0.958629786968231 -0.986024737358093 -1.05357658863068 -1.1202597618103 -1.19561064243317 -1.2802060842514 -1.34276390075684 -1.44845700263977 -1.55944931507111 -1.63744497299194 -1.70950353145599 1.48229193687439 1.18186581134796 1.75821697711945 2.10532546043396 3.45470428466797 4.52408742904663 3.22197890281677 2.8389265537262 2.25322365760803 1.60409045219421 0.657555282115936 -0.188070684671402 -0.251479774713516 -0.36984845995903 -0.536173343658447 -0.740752637386322 -0.764892220497131 -0.82630842924118 -0.424685120582581 2.09346532821655 7.97930335998535 9.35280704498291 8.73006153106689 7.37147665023804 7.79427480697632 7.22890758514404 6.05277919769287 2.24272680282593 0.465204894542694 0.415552347898483 0.778684675693512 0.620132207870483 0.462701857089996 0.747906386852264 0.657805740833282 0.924293220043182 0.957282841205597 1.11507892608643 0.961124658584595 0.892918348312378 0.798395991325378 0.633488774299622 0.454294264316559 1.45181739330292 2.96714925765991 4.58271932601929 5.83280849456787 5.95541191101074 6.7914719581604 8.07612133026123 7.02956295013428 5.17987155914307 4.27354669570923 1.04796195030212 -1.27468121051788 -1.41423177719116 -1.67381405830383 -1.75776994228363 14.4873886108398 -1.00326800346375 -1.29764401912689 -2.17325568199158 -3.00925898551941 -3.45694923400879 -3.76118922233582 -3.89944553375244 -2.5997531414032 0.0329280830919743 0.83886593580246 0.399596065282822 1.49301624298096 1.91912996768951 2.06876826286316 1.64393699169159 1.31937050819397 2.95335841178894 4.24236011505127 3.51544165611267 3.52582979202271 3.67263603210449 3.8118462562561 4.18097162246704 6.70745325088501 12.964804649353 10.2328681945801 9.36292362213135 6.83347749710083 4.05723714828491 1.84740340709686 2.08332490921021 3.35427308082581 2.17118978500366 1.85436058044434 1.69831252098083 1.85981357097626 4.89343070983887 11.0109796524048 14.443790435791 10.3632907867432 10.1443223953247 10.021017074585 8.62966632843018 8.55383682250977 8.76323795318604 10.51220703125 12.1009721755981 11.9984998703003 12.6554899215698 13.1183595657349 11.412727355957 9.05415058135986 5.54484128952026 5.23920106887817 5.02358388900757 4.62383937835693 4.05224561691284 4.18692064285278 4.58531856536865 4.44311141967773 4.07623243331909 3.68769574165344 3.4458909034729 3.17110919952393 3.11583614349365 3.32796382904053 6.04726982116699 6.31917095184326 7.08112287521362 7.17870855331421 7.39577913284302 6.99535179138184 7.4456033706665 6.98961162567139 6.49129390716553 5.74248266220093 4.43115758895874 5.30357217788696 5.96006774902344 6.26958560943604 6.48984813690186 6.54221105575562 6.77547121047974
0.471235871315002 0.320427119731903 0.20170371234417 0.114666774868965 0.0279936157166958 -0.0567715764045715 -0.0832676589488983 -0.0446770861744881 0.0141238030046225 -0.0705541521310806 -0.271002054214478 -0.485023260116577 -0.734378457069397 -0.888850212097168 -0.945610165596008 -0.960948407649994 -0.976434946060181 -0.983338952064514 -0.998145699501038 -1.00757908821106 -1.059321641922 -1.12841749191284 -1.20786678791046 -1.27704155445099 -1.3788253068924 -1.48332858085632 -1.60403394699097 -1.68487811088562 -1.7187762260437 1.15189409255981 1.4089275598526 1.67843055725098 2.44940114021301 2.97415924072266 3.17665958404541 3.67302203178406 3.20040583610535 2.57150411605835 1.78108847141266 0.887087643146515 0.0856172516942024 -0.391765356063843 -0.367420464754105 -0.475361585617065 -0.687002718448639 -0.743592202663422 -0.773002147674561 0.117592714726925 3.23976373672485 6.90315294265747 7.40557050704956 6.94780111312866 6.39544582366943 4.9351978302002 5.68127965927124 4.6072826385498 2.41730833053589 0.371529757976532 -0.0259195733815432 -0.171571403741837 -0.306051880121231 -0.106016233563423 0.238380417227745 0.418271988630295 0.466905921697617 0.509722173213959 0.461156725883484 0.505101680755615 0.592110574245453 0.765814960002899 2.08532643318176 3.84537243843079 5.03942823410034 5.66075468063354 7.2173547744751 6.91854763031006 6.84209966659546 6.82644081115723 7.02373790740967 6.04236364364624 4.58336925506592 3.35436415672302 1.15539658069611 -0.634312808513641 -1.62921369075775 -1.78507745265961 -1.62059915065765 15.9119215011597 -1.14619207382202 -1.33055078983307 -1.91979432106018 -2.95687913894653 -3.53523421287537 -3.81116509437561 -3.9050829410553 -0.900640547275543 -0.294554114341736 0.192819133400917 1.11149668693542 1.78111040592194 2.10427594184875 1.999626994133 1.18283605575562 2.30578541755676 3.88240814208984 3.90870189666748 2.98290824890137 4.34157562255859 4.71554565429688 5.84684181213379 6.13510799407959 4.74339914321899 10.9912662506104 11.4297475814819 8.01723957061768 6.98938226699829 4.88597726821899 2.88290429115295 3.38809871673584 3.23348689079285 2.48493027687073 2.25145792961121 3.478031873703 5.75389289855957 10.0156774520874 13.9707469940186 12.5293645858765 9.11890316009521 7.57903623580933 6.56468534469604 6.00386714935303 6.9289870262146 9.82803726196289 11.9829397201538 13.3078899383545 13.4561367034912 13.2926959991455 13.0407161712646 11.1832809448242 9.43989753723145 8.02923011779785 4.86850690841675 4.33053493499756 3.83098244667053 3.57792711257935 3.47263717651367 3.8780791759491 4.2596378326416 4.16901302337646 3.8466489315033 3.47639632225037 3.0906229019165 2.97709059715271 3.05825591087341 3.07170605659485 3.93014740943909 4.25061655044556 5.0786075592041 5.74012327194214 6.28283071517944 6.50812768936157 6.95639181137085 6.58029651641846 5.94345235824585 4.85153532028198 5.43847227096558 5.83562135696411 6.51131057739258 6.60742521286011 6.37870979309082 6.67472124099731
0.620699524879456 0.346234560012817 0.203458994626999 0.121769495308399 0.0355296097695827 -0.0533273778855801 -0.138949155807495 -0.158041089773178 -0.153100356459618 -0.228245094418526 -0.344129234552383 -0.488838195800781 -0.734752595424652 -0.940366446971893 -1.03707849979401 -1.04242205619812 -1.05951488018036 -1.06386721134186 -1.0611492395401 -1.04951095581055 -1.07745087146759 -1.13068068027496 -1.21256291866302 -1.29645049571991 -1.41956448554993 -1.5301765203476 -1.65791869163513 -1.73873794078827 -1.73615479469299 1.5769921541214 1.39475619792938 1.17522871494293 1.61326968669891 2.02088499069214 2.11896657943726 2.38784551620483 3.14260053634644 2.80558609962463 2.03328466415405 1.11058139801025 0.560259819030762 -0.036862526088953 -0.41688534617424 -0.383367717266083 -0.62294590473175 -0.669217348098755 -0.2480648458004 1.60113167762756 2.98072266578674 3.30347514152527 4.81089448928833 5.04473781585693 4.59322881698608 3.90386962890625 3.92835426330566 4.01405143737793 2.1983060836792 0.866398096084595 0.288882076740265 -0.319221764802933 -0.385584980249405 -0.413960814476013 -0.0957279875874519 0.0211472176015377 0.0294243842363358 0.234123811125755 0.359788417816162 0.327461123466492 0.411165654659271 0.578660726547241 2.31593441963196 4.61171340942383 5.810142993927 6.4167160987854 7.38716220855713 6.44395875930786 5.46041631698608 4.70090055465698 4.18015003204346 4.09006309509277 4.1294379234314 3.00003528594971 1.58555495738983 -0.660904288291931 -1.7405641078949 -1.8555281162262 4.46983289718628 15.9108409881592 2.19388437271118 -1.46024203300476 -1.77055871486664 -2.76736330986023 -3.4031126499176 -3.79784417152405 -2.8965892791748 1.71545076370239 0.575116455554962 0.379741966724396 2.85438776016235 1.41111898422241 1.32263004779816 0.77741014957428 0.496944695711136 2.8800196647644 4.57870531082153 4.19157648086548 4.26720905303955 5.14398002624512 5.62572526931763 5.83565807342529 5.7250075340271 5.6193962097168 11.8365678787231 11.5579948425293 7.50735425949097 6.92750453948975 5.78904867172241 4.24437856674194 4.79549312591553 4.96286773681641 4.0574893951416 5.10399675369263 7.2629828453064 10.2184610366821 12.7655515670776 12.5691318511963 10.5971117019653 9.39404964447021 6.61194372177124 5.01166343688965 4.55224752426147 5.98536539077759 11.4067316055298 11.6814384460449 12.1699552536011 12.1539506912231 12.6887884140015 12.5133924484253 11.1202592849731 9.94546699523926 8.60560989379883 6.90226316452026 4.36972236633301 3.66029834747314 3.35114312171936 3.43145823478699 3.49762392044067 6.35334634780884 4.20979738235474 3.95379281044006 3.61449956893921 3.14076828956604 3.01675176620483 2.83177495002747 2.70826363563538 2.76588606834412 2.83514881134033 3.44797682762146 4.46560382843018 5.12594223022461 5.67523765563965 6.62070798873901 6.4275221824646 6.1082820892334 5.58551549911499 5.4452166557312 5.90931177139282 6.53418970108032 6.68850946426392 6.45459079742432 6.83729982376099
0.938163280487061 0.455450654029846 0.208661809563637 0.102747716009617 0.030847754329443 -0.0562952943146229 -0.153701156377792 -0.272747129201889 -0.31360387802124 -0.367237567901611 -0.484256953001022 -0.553389966487885 -0.743468880653381 -0.977907836437225 -1.11018800735474 -1.1331193447113 -1.16338157653809 -1.18414628505707 -1.15848100185394 -1.13702797889709 -1.12456178665161 -1.15156102180481 -1.21917915344238 -1.30332410335541 -1.43832325935364 -1.62504506111145 -1.72229623794556 -1.7762553691864 -1.76221179962158 2.59070491790771 1.45240616798401 0.949254810810089 0.859276831150055 1.01396417617798 1.36403155326843 1.65176343917847 2.21274900436401 2.43871879577637 1.95945286750793 1.49674534797668 0.903718888759613 0.454891324043274 0.21784970164299 0.403035581111908 1.20965337753296 1.5105744600296 1.56144261360168 1.93776607513428 1.87690126895905 1.55008578300476 2.17218399047852 3.16698932647705 3.2232494354248 3.18937516212463 2.59241223335266 3.08796238899231 2.15911483764648 0.722863078117371 0.457156777381897 -0.178465023636818 -0.561003386974335 -0.509108901023865 -0.438436686992645 -0.240131616592407 -0.158609062433243 -0.114280924201012 0.220392122864723 0.268345594406128 0.144726365804672 0.945249676704407 1.25462222099304 1.84260427951813 3.42963147163391 4.44641160964966 4.99032258987427 4.61099243164062 3.97542810440063 3.47274994850159 2.78241872787476 2.45719337463379 2.61855506896973 2.48989677429199 1.1342248916626 -0.703058540821075 -1.67875826358795 0.946568429470062 7.36578416824341 11.6958885192871 5.86883497238159 -1.07653510570526 -1.7786785364151 -2.57579231262207 -3.1843740940094 -2.66475105285645 -1.14659953117371 2.78737950325012 1.5959700345993 1.25673496723175 3.10090303421021 2.10419201850891 0.534749209880829 1.04627418518066 2.52891206741333 3.88735795021057 3.8427574634552 3.56608772277832 4.60155248641968 6.17047214508057 5.31946516036987 4.98857641220093 4.79668474197388 5.42519807815552 7.89200830459595 7.91593503952026 8.1899299621582 6.83499956130981 6.43578910827637 5.11682367324829 5.5310697555542 5.07754373550415 4.77835750579834 6.90948629379272 9.86089515686035 12.5617141723633 13.412317276001 11.170802116394 10.6971006393433 9.02778911590576 7.27759265899658 5.72092819213867 6.98161458969116 10.7441692352295 11.8155250549316 10.1949510574341 9.73051452636719 10.0792837142944 10.567214012146 10.374397277832 10.2165021896362 9.85877132415771 8.50541496276855 6.8880615234375 4.70075607299805 4.0897650718689 3.56418704986572 4.46593475341797 6.74306440353394 7.67630863189697 5.33388376235962 4.01745271682739 3.72452259063721 3.21174216270447 2.86065673828125 2.48599147796631 2.31357741355896 2.27058625221252 2.31198287010193 2.44787955284119 2.72165012359619 4.07680416107178 4.96830177307129 5.71117973327637 6.30977773666382 6.14772844314575 5.83451652526855 5.3865065574646 4.87131690979004 5.2937479019165 5.92645931243896 6.3076319694519 6.95325946807861
1.08319580554962 0.759246528148651 0.234885528683662 0.097197413444519 0.00434827990829945 -0.0645266026258469 -0.159257888793945 -0.366482853889465 -0.472630649805069 -0.523140370845795 -0.6230628490448 -0.618764221668243 -0.750976741313934 -0.981740176677704 -1.1781861782074 -1.24268817901611 -1.27208244800568 -1.28849768638611 -1.26008260250092 -1.24081838130951 -1.21015238761902 -1.20948696136475 -1.25667190551758 -1.32663226127625 -1.4402027130127 -1.66927695274353 -1.77335727214813 -1.80528843402863 0.246398746967316 4.17211294174194 1.33614754676819 0.819195330142975 0.763698697090149 0.717193245887756 1.04941892623901 1.23267590999603 1.58242094516754 2.12100982666016 2.03209137916565 1.65207755565643 1.28319013118744 0.730766832828522 0.155757889151573 0.348599672317505 0.823628067970276 0.617710649967194 0.639169335365295 0.438411504030228 0.543572247028351 0.692693471908569 0.423056960105896 0.89825165271759 1.91728091239929 1.79431509971619 2.18397641181946 1.53222250938416 0.914610326290131 1.01713037490845 0.457714080810547 0.00476052891463041 -0.589521050453186 -0.608199119567871 0.148599043488503 -0.442964404821396 -0.0577628687024117 -0.0945477038621902 0.0438948906958103 0.215263456106186 0.412717401981354 0.527726411819458 0.700288712978363 0.743685007095337 1.0601921081543 1.88278222084045 2.15646314620972 2.22132611274719 2.18671059608459 1.7678165435791 1.25605452060699 1.14612424373627 0.930193662643433 1.02355432510376 0.474387496709824 -0.306863814592361 -0.887662291526794 3.28210926055908 7.01259851455688 9.28365421295166 7.12964487075806 1.93891298770905 -1.89240324497223 -2.45128178596497 -3.03565502166748 -3.64131855964661 -1.35715305805206 1.65625500679016 1.69885838031769 2.1433572769165 2.27643537521362 1.97797226905823 1.11180567741394 3.9813826084137 3.54923057556152 4.09837675094604 3.03829908370972 3.08492469787598 4.2075572013855 5.99049997329712 6.91553783416748 5.77115201950073 4.03223371505737 3.90735650062561 4.34621238708496 6.13262224197388 8.09153938293457 8.25137042999268 6.52568197250366 5.70535850524902 5.9157190322876 5.19272327423096 4.89758014678955 8.82549953460693 10.9706192016602 11.7720041275024 11.6740617752075 11.2751970291138 10.0450792312622 9.66209602355957 8.34589767456055 8.88253593444824 10.2093658447266 11.6079797744751 10.5311441421509 8.70229434967041 7.5416784286499 7.8465895652771 8.49585723876953 9.03509140014648 8.63437271118164 8.62849617004395 8.37194633483887 7.31205320358276 5.96429777145386 4.38819122314453 6.42388296127319 6.6979284286499 7.00312089920044 6.85723733901978 4.84349870681763 3.980708360672 3.59661555290222 3.23417115211487 2.78523373603821 2.28701496124268 1.73346245288849 1.53022038936615 1.57276248931885 1.97353935241699 2.1592869758606 2.5331289768219 4.0692982673645 4.78964233398438 5.58237457275391 5.99093866348267 5.76443862915039 5.36207675933838 4.68237686157227 4.46711921691895 4.98586750030518 5.54507446289062 6.04866504669189
0.917259454727173 0.886242866516113 0.398841083049774 0.104536354541779 -0.0108836311846972 -0.10076616704464 -0.17812292277813 -0.324319034814835 -0.52470850944519 -0.621388554573059 -0.680557727813721 -0.721974849700928 -0.841433465480804 -1.01144111156464 -1.19745481014252 -1.32779014110565 -1.36387658119202 -1.36419761180878 -1.35081934928894 -1.34392035007477 -1.31500494480133 -1.29360389709473 -1.31172895431519 -1.35581541061401 -1.44497168064117 -1.65423703193665 -1.82327878475189 -1.77903997898102 3.65417170524597 2.94908618927002 1.46673512458801 0.88023829460144 0.707406640052795 0.700853168964386 0.664903402328491 0.826756000518799 0.992821097373962 1.24614274501801 1.66213667392731 1.61781108379364 1.27218639850616 0.670827925205231 0.102728888392448 -0.402081161737442 -0.672874748706818 -0.710866034030914 -0.742760241031647 -0.853882372379303 -0.921605229377747 -0.979850053787231 -1.0448933839798 -1.12855637073517 -0.0859960094094276 0.893278121948242 1.09555041790009 1.02037286758423 0.689700067043304 1.08021700382233 0.542340636253357 0.194933861494064 -0.252316474914551 0.997207462787628 1.373894572258 0.738609254360199 0.799143135547638 0.0808051005005836 0.525441765785217 2.06412029266357 1.44843876361847 0.454501330852509 0.360714673995972 0.497391909360886 0.574120700359344 0.532901465892792 0.783039152622223 0.939583361148834 0.627293944358826 -0.326590597629547 -0.944609105587006 -1.43240308761597 -0.634165167808533 -0.454881936311722 -0.315035194158554 -0.172428965568542 -0.318581998348236 2.01794934272766 3.91826009750366 8.62050533294678 5.90847206115723 3.23472428321838 -0.645806074142456 -2.53934717178345 -3.13095784187317 -3.63620615005493 -3.85716342926025 0.534629285335541 1.61825680732727 1.14061510562897 1.80836689472198 2.70010495185852 4.06260251998901 5.32292890548706 3.72701978683472 2.2148654460907 2.71591448783875 3.35830807685852 4.23544597625732 5.22987508773804 5.41160869598389 5.44763231277466 3.76299524307251 2.86449909210205 3.25610685348511 3.72858333587646 7.75239944458008 9.2481632232666 6.76188707351685 6.25080680847168 5.48505592346191 6.18793487548828 7.6499137878418 11.0672388076782 12.2523279190063 12.8773355484009 12.2124357223511 11.2441844940186 10.4749803543091 9.43563365936279 8.85372257232666 10.2451248168945 10.7325744628906 10.3824310302734 9.05369186401367 6.53644561767578 5.52751159667969 5.79915332794189 7.26951932907104 7.89248037338257 7.70231866836548 7.86271667480469 8.20980358123779 7.85200929641724 6.70426225662231 5.52735090255737 5.72639846801758 7.55821847915649 7.10744190216064 5.92733716964722 4.87172508239746 3.81009411811829 3.6169764995575 3.28959345817566 2.85334134101868 2.29379916191101 1.53155219554901 1.16474795341492 1.22469878196716 1.36308562755585 1.70172536373138 2.03819537162781 3.32210087776184 3.95681190490723 4.80026721954346 5.5906457901001 5.60696268081665 5.46634435653687 5.12268924713135 4.55012559890747 4.46362495422363 4.74611711502075 5.73094177246094
0.821444153785706 0.854321599006653 0.541728734970093 0.102451577782631 -0.0127977514639497 -0.119586065411568 -0.221128180623055 -0.35249388217926 -0.552362680435181 -0.68509840965271 -0.783758342266083 -0.839033663272858 -0.936210215091705 -1.06835401058197 -1.21382701396942 -1.36687111854553 -1.44272005558014 -1.44620227813721 -1.45492422580719 -1.45133829116821 -1.42414212226868 -1.38598191738129 -1.38752782344818 -1.41356766223907 -1.4938690662384 -1.64675724506378 -1.76181662082672 0.894479393959045 2.91930747032166 1.82910478115082 1.65865683555603 1.0287618637085 0.667459309101105 0.644550919532776 0.541221737861633 0.438412547111511 0.552450954914093 0.622947454452515 0.805014610290527 1.11121034622192 1.02701759338379 0.424524962902069 -0.112238988280296 -0.650054037570953 -0.963661968708038 -0.988304853439331 -1.0254921913147 -1.13766467571259 -1.1927011013031 -1.2404191493988 -1.32889330387115 -1.51470565795898 -1.367182970047 -1.04476988315582 0.0672035664319992 0.543314754962921 0.64849841594696 0.593257188796997 0.697889149188995 0.375698745250702 0.268914222717285 3.48128461837769 4.13848257064819 2.61632657051086 1.21484780311584 0.338923186063766 0.643616199493408 1.68385696411133 1.11010575294495 0.234870091080666 0.210201725363731 0.156764179468155 0.145491391420364 0.0959439501166344 -0.0171544905751944 -0.266329556703568 -0.835803985595703 -1.71718859672546 -2.26734566688538 -2.49365210533142 -1.87090027332306 -1.56798648834229 -1.22443091869354 -0.504978954792023 -0.247654169797897 0.880071103572845 1.8087112903595 8.94684886932373 5.28971433639526 2.9228892326355 -0.581641018390656 -2.86474990844727 -3.36667585372925 -3.63428807258606 -3.81842422485352 0.0469912402331829 2.22904396057129 1.14938306808472 1.94172012805939 6.40709495544434 6.36303997039795 4.31286811828613 3.03656840324402 2.27030777931213 1.68881320953369 2.05480885505676 2.95825719833374 3.42574787139893 3.51096606254578 3.26269817352295 3.08383750915527 2.47218322753906 2.62668657302856 3.07976818084717 9.08418655395508 10.9827213287354 8.1165714263916 6.55031490325928 6.34547090530396 8.20230770111084 9.17080497741699 11.3186740875244 10.9794998168945 11.0875034332275 11.8834600448608 11.4376678466797 10.3789491653442 9.58692836761475 8.77450180053711 8.41552543640137 8.94315910339355 8.42097187042236 6.77574825286865 5.83878803253174 4.62721061706543 4.65915107727051 5.54944038391113 6.73434495925903 7.12624216079712 7.4246392250061 8.3601541519165 7.82424449920654 7.2594428062439 6.14487600326538 5.04725456237793 4.06849718093872 5.13381958007812 4.94258975982666 4.21278762817383 3.45373058319092 3.5292797088623 3.36904358863831 3.02303862571716 2.57486057281494 1.9127424955368 1.37408792972565 1.11262404918671 1.12173390388489 1.76918423175812 5.50221920013428 7.26777362823486 4.17803144454956 3.86841487884521 4.78376245498657 5.4281439781189 5.45726156234741 5.33904790878296 5.02007722854614 4.52114105224609 4.77152252197266 5.45932102203369
0.766667187213898 0.642214477062225 0.647330045700073 0.331102907657623 -0.0303365234285593 -0.143016412854195 -0.291905790567398 -0.443755149841309 -0.602301001548767 -0.763150155544281 -0.905357301235199 -0.966191530227661 -1.04283404350281 -1.15411746501923 -1.264528632164 -1.38899886608124 -1.4745090007782 -1.48637771606445 -1.52557933330536 -1.52790832519531 -1.51050245761871 -1.48543858528137 -1.46765756607056 -1.48670303821564 -1.58841562271118 -1.65336811542511 -1.68695878982544 1.59861326217651 1.65756738185883 1.37306392192841 1.03030359745026 1.10989534854889 0.742492139339447 0.373331993818283 0.414828389883041 0.318121939897537 0.0951549708843231 0.27252385020256 0.413457304239273 0.490447819232941 0.234298318624496 -0.0597231537103653 -0.45401594042778 -1.06233334541321 -1.28377258777618 -1.3101726770401 -1.32761490345001 -1.35448229312897 -1.44128489494324 -1.54686534404755 -1.6216539144516 -1.74501216411591 -1.71703898906708 -1.59120392799377 -1.456827044487 -0.664891183376312 0.323340892791748 0.366905212402344 0.407474309206009 0.628397762775421 1.21770370006561 3.57588529586792 4.03905200958252 2.41639733314514 1.10740268230438 0.641537308692932 0.209944948554039 0.345972955226898 0.734090089797974 0.187778756022453 0.0761169195175171 -0.235633820295334 -0.218567311763763 -0.488775759935379 -0.767590045928955 -0.997183561325073 -1.98923778533936 -2.70493006706238 -2.93445467948914 -2.8740541934967 -2.76475930213928 -2.26168060302734 -2.06834602355957 -0.359805911779404 -0.385674715042114 2.33946776390076 4.84483003616333 10.9984331130981 4.40971088409424 2.87760257720947 -2.47951173782349 -3.10513305664062 -3.38811802864075 -3.64115428924561 -3.58731341362 1.79121732711792 5.23548555374146 3.37473797798157 5.58606433868408 8.63223266601562 6.74368572235107 4.1493444442749 3.41893482208252 2.50994658470154 2.06809711456299 1.24677121639252 2.19057035446167 2.3878927230835 2.42334938049316 2.09641265869141 2.28794288635254 2.27497172355652 2.36913251876831 3.71300435066223 10.2976999282837 12.0205764770508 11.5321254730225 7.18754053115845 7.41632127761841 10.0002346038818 11.0575008392334 11.9642543792725 11.2783889770508 10.7964382171631 12.6296653747559 11.0557308197021 10.0793170928955 9.26159286499023 8.50096225738525 8.26397132873535 7.71136569976807 6.93389320373535 5.49611139297485 4.96696805953979 4.59293556213379 4.53956270217896 6.85811328887939 7.19324398040771 6.60798072814941 7.01092195510864 7.43319940567017 7.71120643615723 7.21342086791992 5.97143363952637 4.71195125579834 3.97137832641602 3.78428912162781 3.54181861877441 3.57559776306152 3.25660300254822 3.18616795539856 3.29436755180359 3.14238905906677 2.7417323589325 2.23708939552307 4.31603908538818 2.91935920715332 1.9385861158371 6.12196826934814 9.03712558746338 9.08842468261719 5.68930196762085 3.99993467330933 4.1704216003418 4.77808523178101 5.26327037811279 5.39968252182007 5.20126676559448 4.87115573883057 4.19422149658203 4.50833320617676
0.674409031867981 0.543396234512329 0.410392373800278 0.425854802131653 0.189232289791107 -0.186116769909859 -0.338198989629745 -0.507271289825439 -0.686084568500519 -0.873797237873077 -1.01084637641907 -1.1067146062851 -1.16599786281586 -1.24438679218292 -1.35354137420654 -1.45840728282928 -1.528151512146 -1.52879846096039 -1.58008658885956 -1.58637940883636 -1.60800337791443 -1.62512862682343 -1.60087931156158 -1.58347177505493 -1.60092234611511 -1.67566466331482 -1.72923386096954 0.158396527171135 0.780576944351196 0.993375301361084 0.910737216472626 0.54816061258316 0.620197832584381 0.173701390624046 0.0680491402745247 0.0150351319462061 -0.14702770113945 -0.207740187644958 -0.276474118232727 -0.456402540206909 -0.457049280405045 -0.488331913948059 -0.772358357906342 -1.31288111209869 -1.56284260749817 -1.63808512687683 -1.64472126960754 -1.66849303245544 -1.78882563114166 -1.90997135639191 -1.98324632644653 -2.03386640548706 -2.01485371589661 -1.92393481731415 -1.82011187076569 -1.6214702129364 -0.912395656108856 -0.049262423068285 0.213023453950882 0.574870586395264 0.408105880022049 1.52203130722046 2.96652603149414 2.73292517662048 1.57898342609406 0.740651786327362 0.300225049257278 -0.237187102437019 -0.145058304071426 -0.107871018350124 -0.101682931184769 -0.203323259949684 -0.5595942735672 -1.04854702949524 -1.35404098033905 -1.83112645149231 -2.6076819896698 -2.91112279891968 -2.98705053329468 -2.77404236793518 -1.37209892272949 1.59685587882996 0.0714984461665154 1.73672068119049 0.851717710494995 4.53417110443115 7.07565784454346 6.25016784667969 3.00552010536194 1.92688310146332 -2.36812686920166 -3.20578074455261 -3.43988108634949 -3.68992376327515 -3.28050756454468 3.71304273605347 5.40611553192139 4.41107225418091 7.33737564086914 7.79524612426758 6.18925523757935 4.3637490272522 3.21953845024109 2.51115202903748 1.91996598243713 1.60624480247498 1.87628865242004 1.71437096595764 1.68717050552368 1.65717005729675 1.79771018028259 2.21290993690491 2.97821688652039 5.40138626098633 9.28346538543701 13.7131071090698 15.2306575775146 7.63380527496338 7.51103782653809 9.61300277709961 11.7843418121338 12.7385377883911 11.981372833252 11.4394464492798 12.5780200958252 10.4891347885132 9.58332633972168 9.16008949279785 8.66028690338135 8.08861541748047 7.31859016418457 6.33696937561035 5.1561484336853 4.82299709320068 5.26372718811035 7.09058570861816 7.14075422286987 8.11246299743652 7.73020648956299 6.64062738418579 7.28279495239258 7.34796285629272 6.87292098999023 6.20775365829468 5.14595127105713 4.14206409454346 3.61416530609131 3.51986956596375 3.23128938674927 3.11555886268616 3.00593662261963 2.97414565086365 3.07169890403748 2.75174880027771 2.37879085540771 3.31599354743958 5.67286586761475 5.00106573104858 7.04618549346924 10.6491689682007 10.2332792282104 8.21649646759033 6.29108333587646 6.06807518005371 5.84621095657349 4.81577014923096 5.81565809249878 5.14094305038452 4.80963039398193 4.30997514724731 3.91740608215332
