NCOLS 173
NROWS 32
XLLCORNER 353712
YLLCORNER 6699168
CELLSIZE 16 
NODATA_value -3.4e+38 
1.48918557167053 1.50561535358429 1.63036155700684 1.7240903377533 1.70418429374695 1.74910068511963 1.73280727863312 1.87933373451233 1.95839774608612 2.03822231292725 2.22455739974976 2.38762307167053 2.46544098854065 2.37971949577332 2.45657444000244 2.73890161514282 2.70479989051819 2.53197836875916 2.38727164268494 2.32559180259705 2.1764440536499 2.02506399154663 1.91192543506622 1.75192892551422 1.62141478061676 1.58343517780304 1.60583889484406 1.66475856304169 1.91605663299561 2.58652544021606 3.08590531349182 3.49767184257507 3.7130115032196 3.78351211547852 3.7621591091156 4.10668039321899 4.56230688095093 4.95272159576416 5.23396921157837 5.48574113845825 5.61812305450439 5.8159384727478 5.92765808105469 5.95483541488647 5.948570728302 6.0384349822998 6.06329250335693 5.99702787399292 6.01670169830322 5.96680593490601 5.57979536056519 5.35172462463379 5.41037225723267 5.33453226089478 5.30353927612305 5.16710901260376 4.98317718505859 5.22667407989502 5.61120462417603 5.99553918838501 6.26606845855713 6.40539312362671 6.56478929519653 6.46643495559692 6.62941932678223 7.00374412536621 7.00905132293701 6.94389724731445 6.98639249801636 7.08126926422119 6.81717777252197 6.19941377639771 6.79869937896729 7.45650959014893 6.8211407661438 7.15190362930298 7.21288251876831 7.5080771446228 7.57953643798828 14.4093198776245 18.5326957702637 14.367280960083 12.2712144851685 11.7101564407349 17.2620468139648 19.3848609924316 15.8651475906372 10.9694766998291 11.8656816482544 13.7556238174438 15.0394601821899 12.8818683624268 12.8237628936768 8.53416442871094 7.168053150177 7.10397911071777 6.22698163986206 6.35798215866089 7.11137104034424 7.29642772674561 6.80629730224609 6.64093160629272 6.19672966003418 5.16035127639771 4.27298545837402 8.6935567855835 16.1569213867188 23.6264190673828 19.9290428161621 28.4867553710938 9.63471221923828 9.307448387146 8.91521167755127 10.8876123428345 9.63728809356689 7.09717988967896 4.44432878494263 1.25715410709381 -0.0377549678087234 1.75818061828613 1.09484171867371 0.687930941581726 -1.07657694816589 -1.02506899833679 -1.11026751995087 -1.31903755664825 -1.5363484621048 -1.91944086551666 -2.24976754188538 -2.60834217071533 -0.0375933572649956 0.729424774646759 0.092016227543354 0.469086915254593 8.86374950408936 5.21974515914917 3.55959725379944 1.41833877563477 2.4903883934021 0.177884876728058 -0.189414113759995 0.337434768676758 -0.654877364635468 0.255570322275162 0.469974786043167 0.257742285728455 -0.0819895341992378 0.14788693189621 -1.53545415401459 -1.32348763942719 -1.10345315933228 -0.921739876270294 -0.835692465305328 -0.804642975330353 -0.83567214012146 -0.886439919471741 -1.0894364118576 -1.20685577392578 -1.10445737838745 -0.802264511585236 -0.466817587614059 0.080376997590065 1.13972628116608 0.874620139598846 1.94099450111389 4.0253791809082 4.72201681137085 5.21814632415771 4.29749631881714 2.21381878852844 0.910127401351929 0.91405314207077 0.983704626560211
1.51832234859467 1.53656041622162 1.61998248100281 1.75212109088898 1.80721056461334 1.82632553577423 1.7317498922348 1.86556339263916 2.05041241645813 2.0921323299408 2.15513634681702 2.44777011871338 2.56541037559509 2.51299858093262 2.54936456680298 2.84212851524353 2.90536260604858 2.78277182579041 2.55132293701172 2.4468560218811 2.36353158950806 2.15033268928528 2.02257657051086 1.8460294008255 1.69073700904846 1.61244916915894 1.63070321083069 1.66071474552155 1.9019523859024 2.31441879272461 3.05452442169189 3.63623952865601 4.05128383636475 3.81448245048523 3.87680244445801 4.17525291442871 4.65101051330566 5.070641040802 5.38466548919678 5.65217161178589 5.75069713592529 5.83835411071777 5.99077367782593 6.1193733215332 6.17044162750244 6.28799819946289 6.34483957290649 6.25639772415161 6.24180221557617 6.15847730636597 5.86417245864868 5.6344747543335 5.71511030197144 5.72602510452271 5.69515562057495 5.62818193435669 5.58366870880127 5.60389280319214 5.86918973922729 6.28991413116455 6.55440521240234 6.77545547485352 6.88376140594482 6.98555326461792 7.08818531036377 7.45300054550171 7.46033382415771 7.38738059997559 7.2010703086853 7.36214303970337 7.2774806022644 7.0695424079895 7.6837329864502 8.42299652099609 8.69206047058105 7.98155927658081 8.06255912780762 8.33106803894043 8.92299842834473 20.1229667663574 20.4867916107178 16.5224208831787 14.594277381897 13.3859071731567 14.0486497879028 9.80716133117676 12.3498163223267 11.2488050460815 11.1739635467529 11.0155038833618 10.212366104126 4.82846784591675 3.9350061416626 4.15321111679077 4.56869029998779 5.06640481948853 6.29066705703735 6.94523477554321 8.19458484649658 8.80924892425537 8.52845573425293 8.02664852142334 7.38796329498291 5.90280246734619 4.62506484985352 11.0565891265869 13.8039951324463 11.5605525970459 15.3093566894531 17.6719627380371 14.1871147155762 8.84366416931152 10.0496549606323 7.46271514892578 7.02064895629883 6.11577224731445 2.91720604896545 2.4128532409668 -0.287384629249573 2.58936357498169 2.41270327568054 -0.997636079788208 -1.25305724143982 -0.982027590274811 -1.05430543422699 -1.18036413192749 -1.44071090221405 -1.74721610546112 -1.97090756893158 -2.46013903617859 -2.52396368980408 -1.66254770755768 -2.42696452140808 -1.84560883045197 0.905935406684875 6.23735189437866 4.38519620895386 2.9814567565918 0.206087693572044 -1.44521570205688 -1.2827410697937 -0.901920258998871 0.0536033101379871 1.40733695030212 1.00740373134613 -0.490832716226578 -1.41942524909973 -1.47750854492188 -1.46347332000732 -1.12664830684662 -0.733597159385681 -0.578140676021576 -0.565856575965881 -0.621560096740723 -0.662040710449219 -0.736027359962463 -0.828374326229095 -0.859202325344086 -0.901431381702423 -0.72605699300766 -0.362244009971619 0.0935702696442604 0.590875089168549 0.901057124137878 1.2839834690094 3.63029742240906 5.81772708892822 7.51782321929932 7.08719110488892 5.75221490859985 1.26047194004059 0.966371715068817 1.04501390457153
1.55947077274323 1.5511589050293 1.57429075241089 1.74104905128479 1.87280035018921 1.90813612937927 1.89127278327942 1.92399144172668 2.16150307655334 2.19716024398804 2.21932625770569 2.55260491371155 2.69049978256226 2.62444496154785 2.67673993110657 2.84110283851624 3.05618214607239 2.99402499198914 2.78897523880005 2.60922122001648 2.55950713157654 2.44433808326721 2.20165157318115 2.0339891910553 1.76686799526215 1.70495927333832 1.68696784973145 1.68209481239319 1.84708726406097 2.43204426765442 3.40469908714294 4.3257908821106 4.68607759475708 3.78203916549683 3.95109939575195 4.2601203918457 4.65525388717651 5.0731348991394 5.34349679946899 5.55117559432983 5.7918848991394 5.95154809951782 6.18660545349121 6.32529401779175 6.41174030303955 6.54242515563965 6.68405199050903 6.59354162216187 6.50558757781982 6.40216636657715 6.21367597579956 5.9843225479126 6.04651069641113 6.12736082077026 6.15101671218872 6.0850567817688 6.11679267883301 6.09097337722778 6.18464756011963 6.5683765411377 6.85671138763428 7.09723567962646 7.31240844726562 7.44239330291748 7.60762691497803 7.99767637252808 7.91432189941406 8.06077003479004 7.69071435928345 7.77343988418579 8.01121616363525 8.03241634368896 8.52884674072266 9.91515922546387 10.3672180175781 9.13974094390869 8.88700008392334 8.94947624206543 8.3896427154541 6.64561700820923 6.03644514083862 8.74723625183105 13.255054473877 12.5668058395386 9.64234066009521 9.20351409912109 6.48402500152588 7.22276496887207 7.13023519515991 5.56758642196655 5.03497982025146 4.69698095321655 4.50495958328247 4.52295875549316 5.39891862869263 5.75737619400024 6.19298934936523 8.4551477432251 9.91735458374023 10.5228071212769 11.5602130889893 11.3369436264038 10.4108924865723 7.13036870956421 5.57253503799438 4.87201499938965 7.1266303062439 9.26943111419678 8.87535190582275 9.90560436248779 15.6870012283325 9.25980377197266 10.8549251556396 7.26530504226685 3.96260595321655 3.80759763717651 2.45340609550476 0.402728646993637 -1.41529512405396 -0.0457622595131397 3.34449148178101 0.442123025655746 -0.793676257133484 -0.981300055980682 -0.955711364746094 -1.0736129283905 -1.34349572658539 -1.57635033130646 -1.78524732589722 -2.21186685562134 -2.49992251396179 -2.61164355278015 -2.74555468559265 -1.72504734992981 -0.570676207542419 3.81730794906616 4.4981689453125 5.07386112213135 0.698925912380219 -1.40034580230713 -1.62266898155212 -1.70297455787659 -0.730572104454041 -1.15553867816925 -1.29261803627014 -1.27859950065613 -1.3338166475296 -1.29304027557373 -1.15579473972321 -0.828683614730835 -0.523478209972382 -0.30625107884407 -0.302831023931503 -0.358024567365646 -0.414373099803925 -0.44330245256424 -0.461578011512756 -0.45518171787262 -0.51869785785675 -0.503953456878662 -0.224278524518013 0.197824284434319 0.631454765796661 0.936312258243561 1.38068759441376 4.45409727096558 5.97990655899048 5.71004676818848 5.87954759597778 7.47270536422729 2.19117593765259 1.02977645397186 1.05976998806
1.60318768024445 1.59140932559967 1.59984076023102 1.75941073894501 1.89440071582794 1.91090619564056 2.00713849067688 2.02102661132812 2.28305602073669 2.31411004066467 2.30567693710327 2.65370321273804 2.8001389503479 2.72986936569214 2.70897054672241 2.99544906616211 3.22522950172424 3.15605187416077 2.94247579574585 2.75922179222107 2.76839423179626 2.76958084106445 2.41770434379578 2.18957042694092 1.92551422119141 1.74053537845612 1.71043348312378 1.74320340156555 1.80548894405365 2.79280304908752 4.07250070571899 5.0663914680481 5.2153205871582 3.83811521530151 4.19812345504761 4.46330881118774 4.48379421234131 4.87092971801758 5.34582996368408 5.66266918182373 5.98294973373413 6.15212488174438 6.40894174575806 6.56376934051514 6.66461706161499 6.81433153152466 7.01245307922363 6.91983699798584 6.7817268371582 6.63970327377319 6.43801784515381 6.31329917907715 6.45204591751099 6.51700353622437 6.61885118484497 6.60479307174683 6.61813735961914 6.64820098876953 6.73158597946167 6.92486000061035 7.27917098999023 7.56322526931763 7.77932548522949 7.93415546417236 8.13009548187256 8.21654415130615 8.69461917877197 8.75710868835449 8.56073188781738 8.37118625640869 8.66885280609131 9.04136180877686 9.85641288757324 11.2885684967041 11.5467681884766 10.0700225830078 8.91600131988525 9.17591571807861 8.58339309692383 6.92517805099487 6.09829235076904 5.98576021194458 5.57429647445679 5.67765235900879 6.65164232254028 8.36994552612305 7.3320689201355 4.54896783828735 4.23183012008667 5.38009929656982 5.36353969573975 5.18189287185669 5.36711931228638 5.49303960800171 6.49282360076904 6.5384316444397 7.37405252456665 10.0715751647949 11.3622455596924 13.2672262191772 14.2570858001709 13.959942817688 12.5315475463867 10.2061157226562 6.84649658203125 4.35297012329102 4.56365537643433 6.13552141189575 4.69193267822266 1.07789850234985 9.90720844268799 8.2455472946167 10.7593021392822 9.42662811279297 4.72623634338379 1.59906506538391 0.867218196392059 -0.373777002096176 -1.29060876369476 -1.47132790088654 -0.31011489033699 0.880260169506073 -0.493072837591171 -0.229943916201591 -0.272631764411926 -1.02779078483582 -1.2001678943634 -1.4465833902359 -1.66341853141785 -2.09748411178589 -2.4033055305481 -2.52025818824768 -2.64699792861938 -0.97005033493042 -0.464762389659882 1.37470591068268 3.62923622131348 5.24189424514771 1.36897385120392 -1.32137632369995 -1.40486013889313 -1.53920245170593 -1.31646537780762 -1.08709836006165 -1.12156736850739 -1.22111833095551 -1.16404235363007 -0.975332736968994 -0.835577428340912 -0.623273730278015 -0.441876858472824 -0.226886093616486 -0.232066541910172 -0.315976649522781 -0.304845660924911 -0.199778661131859 -0.0466039404273033 -0.0694700926542282 -0.148255586624146 -0.174454614520073 0.0929564908146858 0.50343269109726 0.677781999111176 1.01676321029663 1.04018676280975 0.756226181983948 0.451571732759476 0.279469192028046 0.323185563087463 0.444283902645111 1.46994388103485 1.11255705356598 1.14284300804138
1.65283906459808 1.64744031429291 1.65562522411346 1.82027876377106 1.9593665599823 1.96793568134308 2.08976316452026 2.12584853172302 2.36738419532776 2.43696188926697 2.39712500572205 2.62446475028992 2.83344054222107 2.96127319335938 2.86985468864441 3.17040085792542 3.40514039993286 3.32600927352905 3.09334850311279 2.91626310348511 2.96292948722839 2.9496967792511 2.6700747013092 2.42203760147095 2.12313389778137 1.82739126682281 1.82863342761993 1.86885392665863 1.83891332149506 2.61008977890015 3.97519946098328 4.74618434906006 4.44638109207153 4.210768699646 4.42509603500366 4.68261051177979 4.5910325050354 4.91052627563477 5.40694856643677 5.77841281890869 6.14603328704834 6.36650562286377 6.65112543106079 6.82502126693726 6.96448802947998 7.12903165817261 7.23220682144165 7.18136930465698 6.94492149353027 6.72523307800293 6.65422677993774 6.65346956253052 6.87506532669067 6.99019479751587 7.07806253433228 7.17804050445557 7.15882015228271 7.18413734436035 7.3826699256897 7.52585077285767 7.7951021194458 8.13724231719971 8.28362274169922 8.47248840332031 8.69074440002441 8.88522529602051 9.40754318237305 9.59717178344727 9.32351875305176 9.3159294128418 9.78806495666504 10.049090385437 10.9807786941528 12.1020517349243 12.4804630279541 10.5551919937134 9.3066463470459 9.24475288391113 9.02265453338623 7.30361557006836 6.4886212348938 6.20911455154419 5.7922477722168 5.32661533355713 5.05638980865479 5.14258337020874 4.65859174728394 3.67907977104187 3.75443887710571 5.7916316986084 5.96024751663208 5.92699766159058 6.13428163528442 6.14333963394165 7.26844692230225 7.79770088195801 9.23677349090576 11.3111696243286 13.6603450775146 16.1877784729004 17.0302810668945 16.6117515563965 14.9802713394165 11.9910478591919 8.02958297729492 4.85951852798462 1.89033365249634 1.3309371471405 1.42131662368774 1.24534344673157 6.61486053466797 7.68901586532593 10.5891141891479 12.4038133621216 6.92316770553589 3.4980731010437 0.858969271183014 -0.354672491550446 -0.796471118927002 -1.45193862915039 -1.50576329231262 -0.659657835960388 -0.100758843123913 0.147750318050385 -0.869879722595215 -0.941828668117523 -1.0463193655014 -1.26723027229309 -1.50867199897766 -1.84922063350677 -2.29159450531006 -2.43567585945129 -2.2838442325592 -0.0556043311953545 0.857340514659882 2.53326344490051 4.49602365493774 0.910005211830139 -0.915237069129944 -1.1157191991806 -1.28769862651825 -1.28519701957703 -1.04702007770538 -0.767898321151733 -0.716343104839325 -0.911932349205017 -0.87573254108429 -0.634385287761688 -0.556069791316986 -0.399124205112457 -0.274476438760757 -0.23519341647625 -0.253849148750305 -0.255613535642624 -0.11943145096302 0.0661599636077881 0.569995045661926 0.534936666488647 0.390600144863129 0.383046180009842 0.480764418840408 0.767335474491119 0.874886512756348 1.15781152248383 1.24967205524445 1.01520943641663 0.546960294246674 0.298878788948059 0.330516785383224 0.498533666133881 0.876252412796021 1.17913174629211 1.22253513336182
1.72506046295166 1.74184536933899 1.7472060918808 1.82888126373291 1.99261963367462 2.10489916801453 2.21053028106689 2.25157928466797 2.4348258972168 2.58863139152527 2.61641550064087 2.54929566383362 2.95949268341064 3.10414171218872 3.00839853286743 3.24001121520996 3.59742069244385 3.50456881523132 3.27627062797546 3.08201503753662 3.12443280220032 3.16631197929382 2.97623682022095 2.70788598060608 2.36175537109375 1.97536075115204 1.92394113540649 1.95224368572235 2.09260821342468 2.73372936248779 3.29371953010559 4.07002544403076 3.96034049987793 3.90174102783203 4.37101697921753 4.49808835983276 4.52341318130493 4.9908447265625 5.50573444366455 5.91298484802246 6.29598665237427 6.54578876495361 6.87994432449341 7.09533452987671 7.15440559387207 7.25994825363159 7.40040111541748 7.48030138015747 7.14921236038208 7.00087738037109 6.9677791595459 7.02987861633301 7.36856603622437 7.44732284545898 7.47283315658569 7.55494403839111 7.59470748901367 7.73644781112671 7.93093156814575 8.09100437164307 8.32959270477295 8.62748146057129 8.95092868804932 9.10084819793701 9.32442283630371 9.9683313369751 10.6585502624512 10.9511461257935 10.9305934906006 10.6353416442871 11.0761747360229 11.2074127197266 11.9820318222046 12.8093585968018 13.8345308303833 13.5848083496094 11.4387626647949 10.0475826263428 10.0536508560181 8.83340358734131 6.71532154083252 6.46988296508789 6.07524585723877 5.5596079826355 5.02205371856689 4.0439133644104 3.59932065010071 3.81385016441345 3.82732725143433 6.0133752822876 6.42977046966553 6.7072901725769 7.03549575805664 7.10661458969116 7.92272472381592 9.02533531188965 10.6445121765137 12.2668771743774 16.2795066833496 19.6523399353027 20.4619388580322 20.4191875457764 17.9351997375488 13.8537197113037 9.11091423034668 7.20153522491455 2.21250939369202 -0.0471489652991295 0.0219090301543474 2.1837010383606 4.08405208587646 7.32574987411499 10.2484836578369 15.8872747421265 11.7661924362183 6.7411003112793 2.42194175720215 0.178376644849777 0.915754735469818 -1.1043473482132 -1.48072183132172 -0.70328289270401 -0.117342486977577 -1.03576004505157 -0.803030133247375 -0.729628264904022 -0.881699681282043 -1.00667142868042 -1.34894609451294 -1.55408835411072 -2.02779984474182 -2.23466658592224 -1.73721659183502 0.699684977531433 3.29605102539062 5.80665397644043 6.89471483230591 3.89801526069641 -0.829116582870483 -0.953763961791992 -1.0502632856369 -1.03254044055939 -0.816984474658966 -0.653413414955139 -0.497764855623245 -0.56107360124588 -0.532567203044891 -0.269268453121185 -0.20411479473114 -0.0721613243222237 0.0604917630553246 -0.0300215762108564 -0.0394121743738651 0.0442173965275288 0.123969435691833 0.560277938842773 1.42697238922119 3.77539134025574 4.0400824546814 0.697665512561798 0.731553077697754 2.13216519355774 2.26976776123047 1.33210015296936 1.50376546382904 1.38896358013153 1.02465200424194 0.654959738254547 0.641060650348663 0.876350343227386 1.01958954334259 1.27346014976501 1.29186034202576
1.82143568992615 1.835697889328 1.84195601940155 1.86547601222992 2.06929230690002 2.24553918838501 2.33788895606995 2.19491910934448 2.42008304595947 2.78239703178406 2.78607487678528 2.66893744468689 3.11498641967773 3.26068115234375 3.15880107879639 3.27576565742493 3.69904279708862 3.85117149353027 3.67539262771606 3.40610861778259 3.35114002227783 3.26442694664001 3.22950792312622 3.06102895736694 2.61823320388794 2.21635055541992 1.95316159725189 1.93019008636475 2.27880930900574 2.74756836891174 2.2619194984436 2.6617443561554 3.36221575737 3.12869071960449 4.1425518989563 4.61771583557129 5.10031652450562 5.00927448272705 5.58605623245239 6.0225887298584 6.42532396316528 6.71167659759521 6.87615823745728 7.18627834320068 7.39675188064575 7.53559541702271 7.70513677597046 7.8530445098877 7.42221212387085 7.30769109725952 7.34949970245361 7.66595506668091 7.98688268661499 7.99991703033447 8.01471614837646 8.04252815246582 8.08262157440186 8.23362064361572 8.51302623748779 8.75247097015381 8.95070266723633 9.22878170013428 9.73145961761475 9.92782306671143 10.3161211013794 11.0701789855957 11.8885669708252 12.3350534439087 12.6188154220581 12.07102394104 12.2052755355835 12.6432476043701 13.628945350647 14.3371524810791 15.6652584075928 14.6743650436401 12.3030424118042 11.1952686309814 10.1447954177856 8.89268207550049 7.60815906524658 6.82972717285156 6.32333183288574 5.54380893707275 5.05383491516113 4.41756248474121 3.86224603652954 4.22908020019531 4.28474187850952 6.36060762405396 7.12679147720337 7.52082824707031 7.87251043319702 8.30964946746826 8.34310150146484 10.1357755661011 11.256760597229 14.3976469039917 19.570348739624 23.6061153411865 24.2126216888428 26.6897716522217 27.092737197876 15.1036148071289 9.35451793670654 5.02633857727051 1.77839243412018 1.13130116462708 0.968660771846771 3.0538604259491 3.09778785705566 6.43194437026978 12.3103733062744 17.6236515045166 13.824517250061 9.0547046661377 2.45708441734314 -0.318747967481613 1.59072470664978 0.208114951848984 -1.40953028202057 -1.22539496421814 -1.34708344936371 -1.26590991020203 -0.738444447517395 -0.64143443107605 -0.708402335643768 -0.893284201622009 -1.20251762866974 -1.33611059188843 -1.15664935112 -0.218804985284805 0.169724091887474 0.37320739030838 5.06769418716431 6.40117931365967 8.36985206604004 6.18610382080078 1.91610968112946 -0.826328992843628 -0.816088378429413 -0.832463324069977 -0.700850069522858 -0.541763424873352 -0.340774357318878 -0.249570980668068 -0.120662912726402 0.0692408606410027 0.207152754068375 0.176799893379211 0.330059021711349 0.342284172773361 0.505824685096741 0.539928257465363 0.733673751354218 0.984650194644928 1.09748840332031 6.76847457885742 7.98385763168335 3.02059531211853 0.803516566753387 0.794717133045197 0.926245033740997 1.45114398002625 1.68591403961182 1.65249264240265 1.55391681194305 1.38665509223938 1.25188207626343 1.20842552185059 1.41320335865021 1.36921215057373 1.37858259677887
2.07534623146057 1.94936168193817 1.95280933380127 1.9893159866333 2.2215039730072 2.36990690231323 2.46077847480774 2.48015809059143 2.56932854652405 2.9862174987793 2.97703695297241 2.81065344810486 3.28857040405273 3.43103671073914 3.32137274742126 3.45136642456055 3.85358643531799 4.08546209335327 3.93216490745544 3.6430037021637 3.32402491569519 3.3761191368103 3.48981595039368 3.24653267860413 2.87532734870911 2.58214211463928 2.01768279075623 1.98359656333923 2.08205604553223 2.61916399002075 2.50304269790649 2.69351601600647 3.10442161560059 3.71992301940918 3.97220301628113 4.1176609992981 4.33503341674805 4.87590265274048 5.49915790557861 5.91394329071045 6.29097652435303 6.73516225814819 7.02332544326782 7.45256233215332 7.71228313446045 7.87303972244263 8.08866691589355 8.36416339874268 7.99598264694214 7.66913652420044 7.99626779556274 8.53702831268311 8.6052074432373 8.59859943389893 8.61853981018066 8.63788414001465 8.64376926422119 8.98157024383545 9.29036712646484 9.57135200500488 9.75384140014648 10.0638465881348 10.5847282409668 10.7376089096069 11.0365648269653 11.7541513442993 12.4771757125854 13.4819402694702 13.8238077163696 13.2505893707275 13.2228584289551 13.7978649139404 14.4172086715698 14.692702293396 16.1357097625732 14.9704437255859 15.4123182296753 14.1609058380127 10.9732608795166 9.81496715545654 8.48363590240479 7.51071643829346 7.02520942687988 6.12765026092529 5.30127716064453 4.49549102783203 4.09562969207764 4.65168523788452 4.97163724899292 5.76678991317749 8.49324607849121 8.88733863830566 9.20781898498535 9.89675331115723 9.57318496704102 11.2492046356201 13.4447107315063 17.0332527160645 22.7404632568359 24.0170822143555 31.5528945922852 34.308162689209 33.4368133544922 25.7464866638184 15.206955909729 7.70675897598267 2.38969874382019 2.31335663795471 1.55818295478821 3.66801071166992 2.76361465454102 6.66875886917114 13.4191446304321 18.3731231689453 15.1372499465942 11.1426687240601 2.33081293106079 -1.30907845497131 0.650998294353485 0.568908751010895 -0.941770970821381 -1.45974171161652 -1.33657455444336 -1.18288803100586 -0.791810214519501 -0.579996943473816 -0.634067416191101 -0.820007264614105 -0.27907931804657 -0.578460812568665 0.185603484511375 0.823813736438751 0.842168986797333 -0.213620007038116 -0.636301577091217 3.11098623275757 6.11804628372192 6.47738981246948 4.17291402816772 -0.703625500202179 -0.602157473564148 -0.579278111457825 -0.495568871498108 -0.277515769004822 -0.0704811438918114 0.0621185526251793 0.285183161497116 0.447731524705887 0.594013690948486 0.51359623670578 0.545373618602753 0.61448210477829 0.899406135082245 0.90770161151886 1.19960927963257 1.21101260185242 1.18703019618988 0.543236255645752 1.58373594284058 3.94265270233154 0.954141020774841 0.972101271152496 0.929430186748505 1.57217061519623 1.88876986503601 1.94164609909058 2.01529765129089 1.95174860954285 1.91166985034943 1.69585514068604 1.64256286621094 1.48157060146332 1.53139555454254
2.19652462005615 2.07989239692688 2.09410357475281 2.15781450271606 2.3589289188385 2.49499559402466 2.56147503852844 2.63954401016235 2.75569677352905 3.21999263763428 3.19650053977966 2.96725463867188 3.43956995010376 3.61164140701294 3.56448888778687 3.48397278785706 4.11952543258667 4.34349346160889 4.15330600738525 3.81781721115112 3.58479356765747 3.44309878349304 3.70714545249939 3.68904614448547 3.54536008834839 3.08257126808167 2.30884838104248 2.03845715522766 2.30813670158386 2.57878804206848 2.47494387626648 2.67485237121582 3.16973519325256 3.88616132736206 4.02107620239258 3.84502744674683 4.26053190231323 4.57375526428223 5.17033290863037 5.89788103103638 6.4279580116272 6.89926242828369 7.2045111656189 7.71235609054565 8.08780765533447 8.27162647247314 8.53918933868408 8.85526847839355 8.6229248046875 8.41366958618164 8.70326328277588 9.19436359405518 9.48131942749023 9.51112461090088 9.48450946807861 9.50799942016602 9.56314754486084 9.8189058303833 10.2718696594238 10.4920177459717 10.615668296814 10.9185380935669 11.4435443878174 11.5479907989502 11.5922288894653 12.1919069290161 12.9912281036377 14.070631980896 14.6555395126343 13.6741933822632 13.4288377761841 14.2966270446777 15.232234954834 15.5046091079712 14.7539911270142 15.0067882537842 15.610634803772 18.2574901580811 15.8705062866211 10.915753364563 9.88709735870361 8.20578479766846 8.39685153961182 8.23073101043701 6.44632053375244 5.19414949417114 4.23883581161499 4.56222295761108 5.4876446723938 6.21126842498779 10.2614603042603 10.6485500335693 11.1922435760498 11.9993934631348 11.093111038208 12.664436340332 14.6967172622681 17.7986946105957 21.0912265777588 27.9965381622314 25.1623687744141 20.0761756896973 17.2706050872803 31.2793216705322 20.4704151153564 11.2119674682617 5.20706462860107 1.88344264030457 0.248972490429878 0.34978112578392 2.51776671409607 6.51900577545166 11.6427440643311 15.8343687057495 11.2357425689697 6.10260963439941 1.77616083621979 -0.725341022014618 -1.69535779953003 -1.45665264129639 -1.40264320373535 -1.38041567802429 -1.25341093540192 -1.05991947650909 -0.745101928710938 -0.529871642589569 -0.544890463352203 -0.750183045864105 -1.08916127681732 -0.473922371864319 0.684878885746002 1.34625566005707 1.94443643093109 -0.862724304199219 -2.48156571388245 -2.22268462181091 -0.00322384922765195 4.36664485931396 4.96409940719604 -0.555423617362976 -0.362724184989929 -0.195844650268555 -0.0742228105664253 0.0537884533405304 0.316477537155151 0.382943361997604 0.562626540660858 0.850686609745026 1.00879216194153 0.931674838066101 0.893960893154144 0.830071449279785 1.12094330787659 1.43713164329529 1.5571700334549 1.40791141986847 1.16821253299713 0.823104560375214 0.582994699478149 0.635952532291412 1.03402554988861 1.29035484790802 1.53436028957367 1.6987681388855 2.15426301956177 2.28388667106628 2.25265574455261 2.23312091827393 2.28741431236267 2.12565565109253 1.7603178024292 1.54268193244934 1.73859667778015
2.33324837684631 2.23057126998901 2.28633975982666 2.31682133674622 2.49166417121887 2.63895916938782 2.74881982803345 2.81867790222168 2.97058439254761 3.34958267211914 3.56692624092102 3.35659980773926 3.38925004005432 3.73720407485962 3.86155581474304 3.74143242835999 4.42551422119141 4.63799047470093 4.4048957824707 3.97994327545166 3.79949140548706 3.8402841091156 4.33533906936646 4.28266477584839 3.76894569396973 3.46785593032837 2.45782160758972 2.3250253200531 2.41344261169434 2.41421031951904 2.38399457931519 2.78217148780823 3.44800972938538 3.4596095085144 3.55121660232544 3.69189524650574 3.81535983085632 4.3600058555603 5.20827388763428 6.0188889503479 6.65384578704834 7.15614175796509 7.487220287323 8.04977607727051 8.48068237304688 8.78865814208984 9.01542854309082 9.12230491638184 9.27611446380615 9.15801906585693 9.56153011322021 10.0222873687744 10.2977523803711 10.3572187423706 10.3153009414673 10.3599004745483 10.4229183197021 10.8285312652588 11.1680564880371 11.5072536468506 11.7152671813965 11.8761386871338 12.0856533050537 11.9764099121094 11.9419689178467 12.7034063339233 13.6423273086548 15.0581321716309 15.90149974823 14.5845985412598 14.7307109832764 15.6109647750854 16.5310707092285 16.327112197876 16.3508110046387 16.7582511901855 13.3325271606445 14.5208587646484 17.6834449768066 15.8740196228027 12.3237857818604 10.2478456497192 9.99098205566406 9.91927433013916 8.03697776794434 6.08580255508423 4.79722166061401 5.45526361465454 6.44097566604614 7.70644283294678 12.6427488327026 13.2924833297729 14.0410394668579 14.1763162612915 12.5909252166748 14.411826133728 13.3053293228149 14.5489807128906 19.2472667694092 17.3678131103516 9.18734073638916 5.75786781311035 5.07257318496704 9.30742835998535 20.7486667633057 12.4880361557007 7.28179168701172 1.44415616989136 0.155537486076355 0.700507462024689 3.81447911262512 5.61082983016968 10.84144115448 12.4587574005127 7.28932189941406 5.96363925933838 3.17009449005127 -0.657199323177338 -1.62589704990387 -1.39712500572205 -1.36074209213257 -1.22728204727173 -1.06657218933105 -0.904967367649078 -0.63153487443924 -0.429147601127625 -0.428286284208298 -0.621357262134552 -1.01713228225708 -1.18902957439423 0.174633741378784 0.18832129240036 -2.09207844734192 -2.24262070655823 -2.3649799823761 -2.37480878829956 -2.21194386482239 1.47354793548584 1.85576891899109 0.127136930823326 -0.065131850540638 0.105302914977074 0.262929558753967 0.366338610649109 0.565991342067719 0.769094944000244 1.08793210983276 1.31750071048737 1.42036139965057 1.32954335212708 1.23927175998688 1.19438135623932 1.3089085817337 1.78051233291626 1.88268792629242 1.76660120487213 1.53174793720245 1.42038464546204 1.00198376178741 0.914285778999329 1.21637046337128 1.68598878383636 2.02895617485046 2.04671859741211 2.44234180450439 2.53413391113281 2.46982049942017 2.42483830451965 2.47083353996277 2.31967687606812 2.06602501869202 1.61015820503235 1.92828094959259
2.49437880516052 2.40037894248962 2.4859766960144 2.47173619270325 2.50303363800049 2.67877149581909 2.96314644813538 3.02427911758423 3.17533946037292 3.44423007965088 3.90513110160828 3.79549169540405 3.38811755180359 3.97518134117126 4.10340976715088 3.9715564250946 4.50544881820679 4.97009897232056 4.73285293579102 4.1077094078064 3.64824390411377 4.33231115341187 4.59142351150513 4.67816066741943 4.09609174728394 3.02782702445984 2.53984522819519 2.32961845397949 2.45852017402649 2.39998006820679 2.3992772102356 2.66462373733521 2.79661273956299 3.0709285736084 2.94516277313232 3.1869809627533 3.82993912696838 4.40799999237061 5.2439603805542 6.09476375579834 6.84364223480225 7.43383407592773 7.81511449813843 8.42509078979492 8.75555896759033 9.13375091552734 9.4278039932251 9.72798728942871 9.90412616729736 9.79745960235596 10.4151010513306 11.0179510116577 11.3237409591675 11.3411407470703 11.2703456878662 11.2377548217773 11.4432001113892 11.9056615829468 12.4226341247559 12.713005065918 12.9442586898804 12.9674682617188 12.7587432861328 12.8003711700439 13.0216188430786 14.3148221969604 15.2756671905518 16.4244213104248 16.0864963531494 18.5000801086426 16.380163192749 14.3034029006958 14.0510025024414 16.6834869384766 18.88037109375 21.0658531188965 19.1335258483887 13.8082981109619 12.44775390625 16.6288967132568 13.731481552124 11.6678476333618 11.8048839569092 11.7221536636353 9.36223316192627 7.37853336334229 5.39522123336792 6.83753776550293 7.95577335357666 9.88167667388916 15.9427251815796 16.0311908721924 17.0554962158203 17.0804996490479 17.3805294036865 14.0334196090698 12.2716484069824 13.0833549499512 12.5048131942749 5.43418598175049 5.05443811416626 3.64433813095093 2.96939992904663 1.54868233203888 4.93261623382568 9.13477611541748 7.5393853187561 2.29366278648376 0.302674740552902 1.22877264022827 2.59942889213562 4.81873750686646 9.11350631713867 9.16922283172607 5.40338659286499 6.24593687057495 3.99885392189026 -0.835423171520233 -1.42350089550018 -0.791404664516449 -0.523095965385437 -1.06592309474945 -0.942289352416992 -0.786232829093933 -0.547174036502838 -0.35797855257988 -0.37173393368721 -0.234137579798698 -0.690723061561584 -1.11886942386627 -1.36138689517975 -0.966817140579224 -2.02013850212097 -2.13176894187927 -2.15996813774109 -2.16394901275635 -2.00620937347412 -1.68263626098633 -0.442614763975143 0.806428134441376 0.129398196935654 0.358106911182404 0.552195310592651 0.668907940387726 0.801603198051453 1.0637195110321 1.69417011737823 1.7749969959259 1.73956561088562 1.66222977638245 1.63665735721588 1.63104128837585 1.79786419868469 2.04672503471375 1.9483824968338 1.53942799568176 1.81129229068756 2.1169764995575 1.79932248592377 1.38095700740814 1.52689623832703 2.05284023284912 2.51845335960388 2.47590208053589 2.72988390922546 2.74039483070374 2.62469291687012 2.60656356811523 2.65799641609192 2.50462174415588 2.21478414535522 1.7454377412796 1.66173768043518
2.67406582832336 2.59462094306946 2.64995265007019 2.63587951660156 2.6418936252594 2.84445333480835 3.09035515785217 3.2744927406311 3.32865357398987 3.60525345802307 4.30849123001099 4.15633153915405 3.62578463554382 4.25805902481079 4.36831331253052 4.22036027908325 4.50566720962524 5.22118425369263 5.18593072891235 4.5563793182373 3.82879495620728 4.01979112625122 4.18413019180298 4.93987035751343 4.16160154342651 2.93764901161194 2.33717846870422 2.128577709198 2.41860866546631 2.31425213813782 2.49255275726318 2.5283727645874 2.20927214622498 2.27506566047668 2.44562315940857 3.18937182426453 3.93659591674805 4.48835802078247 5.36884546279907 6.20018672943115 6.91202306747437 7.61420059204102 8.16183185577393 8.51997375488281 9.02896022796631 9.64479637145996 10.0468835830688 10.4262914657593 10.8172454833984 10.7916059494019 11.5093908309937 12.1423568725586 12.4166955947876 12.7620973587036 12.591513633728 12.3137435913086 12.4332838058472 13.0684185028076 13.7077827453613 13.7637948989868 14.2678747177124 14.3334856033325 14.2020893096924 14.3162603378296 14.691478729248 14.7607278823853 14.3904848098755 15.4807500839233 16.6533241271973 20.0278606414795 16.7277984619141 13.7294836044312 12.4452142715454 10.4104156494141 12.7891340255737 18.7794361114502 25.6037139892578 17.3577575683594 15.3909111022949 14.0758228302002 14.871789932251 12.575475692749 13.9706678390503 14.3500175476074 11.1550884246826 8.24196624755859 5.85667991638184 8.91339492797852 10.2447242736816 10.5476093292236 15.8543653488159 20.3747024536133 20.749095916748 19.4784030914307 20.8171806335449 15.3028497695923 13.6253824234009 10.55628490448 7.62904596328735 4.68265104293823 1.09292995929718 3.29234766960144 1.4215897321701 0.0902130603790283 1.09125030040741 3.1130838394165 2.42327117919922 2.23973417282104 0.563008010387421 1.57633435726166 2.29695796966553 4.02364253997803 6.88757467269897 7.85352659225464 4.74338245391846 0.979217171669006 0.622233092784882 0.0539858005940914 -1.63536286354065 -1.48373556137085 -1.28920817375183 -0.697997152805328 -0.887419044971466 -0.788159847259521 -0.909134149551392 -0.436017632484436 -0.398406058549881 -0.465619593858719 -0.59511798620224 -1.0246696472168 -1.25106632709503 -1.6713148355484 -1.89199876785278 -1.97018432617188 -1.96669638156891 -1.92557787895203 -1.83278381824493 -1.46456253528595 -0.841403245925903 0.345931231975555 0.240629717707634 0.556762397289276 0.722865462303162 0.872025668621063 1.03955900669098 1.71949982643127 2.33129858970642 2.22747397422791 2.25002956390381 2.11207747459412 2.02560257911682 2.04744601249695 2.12740635871887 2.26969218254089 2.0743043422699 1.88097989559174 2.25790691375732 2.90006709098816 2.75852632522583 2.24297881126404 2.07616782188416 2.56149697303772 3.04156398773193 2.87704110145569 2.95339703559875 2.87910008430481 2.76510858535767 2.79503846168518 2.86145687103271 2.82093667984009 2.27621674537659 1.89196467399597 1.47941219806671
2.73635745048523 2.89807534217834 2.83002424240112 2.82525229454041 2.83374810218811 3.03623676300049 3.20671248435974 3.57711386680603 3.7061755657196 4.00471830368042 4.80735731124878 4.75920534133911 4.16374588012695 4.58002138137817 4.66719579696655 4.49791955947876 4.7469367980957 5.59043598175049 5.34105634689331 4.67907810211182 4.01546812057495 3.54663801193237 4.13361549377441 3.8347179889679 3.8077335357666 3.48964810371399 2.41598916053772 2.10262537002563 2.29746246337891 2.47509908676147 2.56693243980408 2.36602926254272 2.29147624969482 2.32176375389099 2.55175995826721 3.32287192344666 4.10010528564453 4.69654893875122 5.3428111076355 6.12106800079346 6.63093185424805 7.32953929901123 8.28246879577637 9.03542613983154 9.67741203308105 10.1861019134521 10.5986995697021 11.2357959747314 11.689474105835 11.7659406661987 12.1749467849731 12.9380264282227 13.4871883392334 14.1556978225708 13.7690124511719 13.6265497207642 13.790319442749 14.5367088317871 15.2916574478149 15.7969846725464 15.8874187469482 16.0996017456055 15.8192462921143 15.7330675125122 15.2472467422485 14.6247587203979 14.0480966567993 14.1491479873657 17.945369720459 12.9857149124146 12.2330570220947 12.5776462554932 12.7927713394165 10.5381851196289 7.15213060379028 6.79323196411133 15.1195306777954 12.4987134933472 11.5579566955566 15.8919525146484 15.9972066879272 13.1414594650269 16.1632709503174 17.5776519775391 14.0017433166504 9.68144226074219 6.62672996520996 9.27653980255127 13.0074262619019 12.942723274231 11.0530099868774 17.6605281829834 11.3435173034668 9.25040245056152 7.39399528503418 8.91108703613281 9.43604183197021 8.16226577758789 7.13066530227661 5.13477849960327 1.34278786182404 -0.684871435165405 -0.728222846984863 -1.67515921592712 -1.83111464977264 -1.16239011287689 -0.25785157084465 -0.0128134349361062 0.429253309965134 1.8030116558075 2.55912590026855 3.30627012252808 4.9771728515625 4.79910898208618 -0.972775280475616 -1.23547160625458 -1.88802206516266 -1.69751906394958 -1.63109350204468 -1.46346020698547 -0.685258984565735 1.58709383010864 1.16528809070587 -0.74823272228241 -0.811115503311157 -0.576901078224182 -0.422845363616943 -0.423133969306946 -0.42823714017868 -0.771237015724182 -1.11366295814514 -1.51057314872742 -1.7715163230896 -1.80382096767426 -1.75479936599731 -1.6744019985199 -1.60031223297119 -1.29414534568787 -0.796590149402618 -0.178159117698669 0.299167811870575 0.668195366859436 0.87263548374176 1.05205309391022 1.37517333030701 2.36394691467285 2.94454455375671 2.85318899154663 2.82904672622681 2.71012115478516 2.43798279762268 2.42385506629944 2.55506372451782 2.78489184379578 2.44356870651245 2.33478927612305 3.09437775611877 3.62999296188354 3.85971283912659 3.47060418128967 2.93851351737976 3.17516231536865 3.50447130203247 3.13166475296021 3.1259458065033 3.03808450698853 2.98419260978699 3.17400336265564 3.0257294178009 3.07736968994141 2.81631135940552 2.1726701259613 1.62506711483002
2.76008605957031 3.08091735839844 3.05153751373291 3.04253911972046 3.04211401939392 3.24335289001465 3.42602491378784 3.92468929290771 3.90126848220825 4.38910341262817 4.96182823181152 5.53997850418091 5.18823099136353 4.77007246017456 5.01747941970825 5.06259155273438 5.21114015579224 5.9253454208374 5.5817608833313 4.8909764289856 4.18464422225952 3.79245519638062 3.45603275299072 3.27836155891418 2.88246464729309 3.62371230125427 2.7587308883667 2.29385709762573 2.31479573249817 2.47649168968201 2.43965554237366 2.09777641296387 2.43441843986511 2.58596611022949 2.73956155776978 3.48301482200623 4.29215955734253 4.6723051071167 4.99629688262939 5.90625095367432 6.80314588546753 7.65613269805908 8.57176208496094 9.56812381744385 10.3803176879883 10.9576721191406 11.1491661071777 11.5090312957764 11.9056034088135 12.4823360443115 12.6708459854126 13.8825101852417 14.5013751983643 15.667797088623 14.9852323532104 14.5836772918701 14.6422777175903 15.6785354614258 17.294319152832 17.8100337982178 17.6635780334473 17.279821395874 18.1053829193115 16.8311042785645 15.1323881149292 13.3066310882568 11.5069150924683 10.7433347702026 9.95543956756592 6.7650260925293 10.5959529876709 8.43460941314697 8.2445011138916 9.41031074523926 6.71377754211426 5.51374959945679 5.1554069519043 7.28878021240234 9.24710178375244 9.72708320617676 12.148850440979 18.44020652771 17.7763843536377 24.0872631072998 25.6068458557129 20.9426574707031 9.05753993988037 6.97351741790771 13.599910736084 14.9040307998657 4.60027551651001 3.53915786743164 6.59620475769043 4.43079662322998 -0.230886459350586 4.93329381942749 8.37350273132324 8.17084503173828 2.47109770774841 -1.11236548423767 -2.2402560710907 -2.20566701889038 -2.0700855255127 -1.90971481800079 -1.62545073032379 -0.822686731815338 -1.05529177188873 -0.242687687277794 0.776641130447388 1.54636871814728 2.0122811794281 2.24780702590942 2.65357160568237 2.84059381484985 -0.905041873455048 -1.58321952819824 -1.75572776794434 -1.65145742893219 -1.57206106185913 -1.39006519317627 0.0450519174337387 3.09954524040222 3.24224066734314 -0.763714075088501 -0.682623267173767 -0.413527756929398 -0.304115355014801 -0.358863681554794 -0.31388908624649 -0.493803590536118 -0.971073985099792 -1.30789065361023 -1.60284650325775 -1.63037669658661 -1.52021276950836 -1.41619753837585 -1.34448635578156 -1.09295451641083 -0.71373587846756 -0.1727314889431 0.361195236444473 0.778162181377411 1.05648839473724 1.33841145038605 1.56858193874359 2.76814413070679 3.45077800750732 3.40695738792419 3.35064435005188 3.13342142105103 2.93064880371094 2.93553161621094 3.20954060554504 3.63296413421631 3.35579872131348 3.555912733078 4.38039541244507 4.6487455368042 4.51363277435303 4.26023435592651 3.80927777290344 3.65193343162537 3.78173446655273 3.74316215515137 3.26886034011841 3.75137090682983 3.74680066108704 3.4836630821228 3.40969085693359 3.48603272438049 2.98360300064087 2.57282900810242 1.83365869522095
2.95046162605286 3.29040884971619 3.26790428161621 3.36581230163574 3.33877325057983 3.45768094062805 3.65699911117554 4.35983943939209 4.43117618560791 4.90399742126465 5.47568130493164 6.42704248428345 5.97334480285645 5.11284732818604 5.43978595733643 5.45906162261963 5.0782151222229 5.70700311660767 5.93469047546387 5.42897462844849 4.50174999237061 3.82140779495239 3.29287576675415 2.92472004890442 2.45611953735352 2.57199859619141 2.98573446273804 2.59968328475952 2.38788414001465 2.3073513507843 2.28139710426331 2.14197158813477 2.65637588500977 2.86889958381653 3.09556794166565 3.73145174980164 4.20978212356567 4.1418251991272 5.03455877304077 6.32678318023682 7.31000232696533 8.22850513458252 9.04170322418213 9.87007617950439 10.828031539917 11.2574996948242 11.6275224685669 11.7507066726685 12.6551303863525 13.2305555343628 13.422963142395 15.0932378768921 16.1140823364258 17.6887168884277 16.6340446472168 15.7373905181885 15.3672094345093 15.382098197937 15.4204425811768 14.8212337493896 15.5709924697876 15.173394203186 14.49840259552 14.6123523712158 14.1634035110474 12.069920539856 9.1315803527832 8.81885528564453 4.3010139465332 5.20434141159058 6.12241077423096 7.88620758056641 8.29095935821533 8.17882537841797 6.01631116867065 5.73233556747437 5.86958789825439 7.36337423324585 9.59523963928223 11.2880239486694 15.6889009475708 22.7491683959961 19.3129177093506 23.766731262207 28.9029293060303 29.8452968597412 14.1920518875122 7.94427967071533 3.80183935165405 5.98668956756592 5.78264045715332 0.0451917424798012 -0.598858296871185 -0.316051632165909 -0.323296427726746 2.54504895210266 7.42066669464111 5.04904365539551 2.5462818145752 -0.0876056700944901 -2.23131489753723 -2.12516927719116 -1.96841549873352 -1.78161132335663 -0.421660870313644 1.34255576133728 2.30897879600525 0.0484678149223328 2.23764729499817 2.689772605896 2.26406669616699 1.78083527088165 1.48607218265533 2.08641743659973 0.34044736623764 -1.46064221858978 -1.441281914711 -1.50562715530396 -1.52257966995239 -1.385901927948 -1.22509741783142 -0.474823892116547 -0.170617625117302 -0.301522761583328 -0.600488722324371 -0.265675514936447 -0.191875249147415 -0.297224164009094 -0.240742638707161 -0.243568271398544 -0.921747863292694 -1.39772987365723 -1.4422447681427 -1.41042053699493 -1.34793591499329 -1.23539662361145 -1.1125146150589 -0.858477592468262 -0.53529167175293 -0.110999844968319 0.366823017597198 0.877086460590363 1.32129287719727 1.60665309429169 1.89564943313599 2.74820423126221 3.52534866333008 3.95349884033203 3.76594138145447 3.49715709686279 3.3783643245697 3.43129968643188 3.83181881904602 4.48104953765869 4.71915483474731 5.35282611846924 5.97530317306519 5.87467050552368 5.66175127029419 5.356125831604 4.85588932037354 4.48642253875732 3.9961838722229 3.92292881011963 3.37638330459595 3.20972681045532 3.09599924087524 3.77532005310059 4.10828399658203 3.84774470329285 3.17000770568848 2.68100595474243 2.14023303985596
3.16370630264282 3.52775144577026 3.53514981269836 3.6676983833313 3.62340497970581 3.61010193824768 3.79483485221863 4.49258756637573 5.37169075012207 5.94028043746948 6.58923053741455 7.70629930496216 6.91112422943115 5.89331579208374 5.90280675888062 5.80176305770874 5.24309062957764 5.48593330383301 6.3787202835083 6.14635467529297 5.30347871780396 4.2047758102417 3.5190749168396 2.68201875686646 2.17323160171509 2.75076627731323 2.70359325408936 2.60051536560059 2.35838747024536 2.40973424911499 2.36394190788269 2.24422264099121 2.68995976448059 2.93378067016602 3.12283062934875 3.35035300254822 3.6841402053833 4.53586864471436 5.63942098617554 6.9407262802124 7.94592666625977 8.89678573608398 9.74240207672119 10.2506294250488 11.3698835372925 12.1846017837524 12.4002246856689 12.5576152801514 13.7293519973755 14.4424505233765 14.742392539978 16.6904239654541 17.9861755371094 18.3261451721191 19.5914096832275 17.7403678894043 16.4450607299805 14.6652431488037 12.5208463668823 12.0081701278687 12.8782720565796 12.1063356399536 11.2965497970581 10.2269859313965 11.3106842041016 10.195574760437 9.71163272857666 6.25193023681641 4.29891061782837 4.87455368041992 6.63538837432861 8.03140068054199 9.79255676269531 10.0878534317017 10.1790599822998 6.37595510482788 6.5224437713623 8.14032649993896 11.1692304611206 13.4397020339966 18.0428657531738 18.2592391967773 16.5762825012207 7.31615781784058 6.18681192398071 8.29461288452148 17.9265251159668 6.80503082275391 4.13683795928955 2.81873250007629 1.74922096729279 0.452249467372894 -0.363338500261307 -0.03130953758955 0.18229641020298 3.03121709823608 5.80649614334106 3.00300097465515 2.56504416465759 1.21780323982239 -1.69980847835541 -1.50569629669189 -1.84240007400513 -0.948064386844635 3.29120397567749 6.35054445266724 8.15221309661865 2.6324679851532 3.42403101921082 3.45031428337097 2.53027772903442 1.84029412269592 1.39025914669037 2.01808834075928 1.51643669605255 -0.636063098907471 -1.27877724170685 -1.33436095714569 -1.39750564098358 -1.38098752498627 -1.38249039649963 -1.26791274547577 -1.00508856773376 0.348663181066513 -0.51608020067215 -0.693034112453461 -0.253171265125275 -0.259766072034836 -0.0910377651453018 -0.0762636363506317 -0.504251837730408 -0.939327239990234 -1.28082323074341 -1.26815056800842 -1.12393093109131 -0.943710505962372 -0.824970543384552 -0.647723615169525 -0.335614770650864 0.00670273788273335 0.448066771030426 1.0100029706955 1.53034996986389 1.69811916351318 2.00794672966003 3.12011861801147 3.89261245727539 4.26922988891602 4.15410327911377 4.07142496109009 3.86097407341003 3.94418478012085 4.02749633789062 4.46525001525879 5.18519496917725 6.34761571884155 6.56339025497437 7.11075925827026 7.28938341140747 6.58111143112183 5.49584913253784 4.79551601409912 4.19513082504272 4.1216459274292 3.43694877624512 3.25559544563293 3.09829330444336 4.47606563568115 4.17673254013062 4.60098123550415 4.01152324676514 2.82643461227417 2.6085033416748
3.41395497322083 3.80324935913086 3.89692068099976 4.03770351409912 4.0073618888855 3.98154973983765 4.12274742126465 4.82670783996582 6.64077138900757 7.35013866424561 8.19054889678955 9.51146411895752 8.58296012878418 7.87804889678955 6.58841323852539 6.00903367996216 5.51752138137817 6.37649202346802 7.31450128555298 6.59708642959595 5.67429971694946 4.45995378494263 3.55213761329651 2.81371259689331 2.39245104789734 2.60082149505615 2.76346302032471 2.50191187858582 2.31934118270874 2.66448569297791 2.75109386444092 2.54726481437683 2.85555505752563 2.86565089225769 3.053551197052 3.18822932243347 4.06794261932373 5.01686239242554 6.26700162887573 7.07018661499023 7.96525573730469 9.18842315673828 10.3340587615967 10.9193344116211 12.4336433410645 13.4084939956665 13.5275888442993 13.9059591293335 15.2090711593628 15.7445497512817 15.4966516494751 17.8452224731445 17.7806091308594 19.6340045928955 21.4551639556885 19.3226013183594 16.676342010498 13.8614892959595 10.7707061767578 9.49521923065186 8.93644332885742 8.84833240509033 8.75179958343506 8.37672424316406 6.95136260986328 8.10741901397705 8.14447593688965 4.23434066772461 4.20880031585693 4.4235200881958 6.54160451889038 9.97274589538574 12.1540470123291 11.8027257919312 15.0236482620239 9.17778205871582 6.86579513549805 6.7739462852478 11.6187305450439 11.978343963623 7.35712909698486 6.0211296081543 10.4724712371826 9.49035549163818 7.34748888015747 6.25932741165161 12.7388229370117 9.90308570861816 4.71870136260986 3.24736332893372 2.22344398498535 1.04538178443909 0.272243589162827 0.387153029441833 1.2558126449585 4.44571971893311 3.45102262496948 1.47482228279114 1.90581059455872 2.09836101531982 -0.402646690607071 -0.303585410118103 -1.20403969287872 -0.743397057056427 1.98646092414856 6.78038215637207 7.89035320281982 4.22116231918335 3.54985404014587 2.02711892127991 1.15637159347534 0.968100845813751 1.67244160175323 2.04412984848022 1.00457668304443 -0.151097297668457 -1.18988382816315 -1.23743331432343 -1.29541981220245 -1.29207384586334 -1.24519324302673 -1.25339829921722 -0.964406847953796 -0.504847168922424 -0.496430218219757 -0.619408905506134 -0.350072652101517 -0.0459572486579418 0.218127489089966 0.320571273565292 -0.141604706645012 -0.640774667263031 -1.07899582386017 -1.06324994564056 -0.926014959812164 -0.808989942073822 -0.767504394054413 -0.493263810873032 -0.108133971691132 0.141261547803879 0.541063547134399 1.05164074897766 1.65232133865356 1.907710313797 2.34088397026062 3.5040454864502 4.28776359558105 4.60947322845459 4.47369289398193 4.66404867172241 4.30768203735352 4.42616748809814 4.75964164733887 5.17592716217041 5.95668029785156 6.63081932067871 6.73994159698486 7.174241065979 7.8428373336792 6.93212032318115 5.88772869110107 5.05461549758911 4.3391227722168 4.27170515060425 3.61724948883057 3.47213935852051 3.2076690196991 2.98991847038269 3.41089558601379 5.14748859405518 5.39826059341431 4.00395154953003 2.52776622772217
3.46481132507324 3.85839915275574 4.36317300796509 4.5024676322937 4.46436595916748 4.44355154037476 4.57565212249756 6.02848100662231 7.57717370986938 9.43595504760742 9.84718036651611 13.1087455749512 13.1444387435913 11.2627859115601 7.62970447540283 6.52767610549927 6.36983680725098 7.50626754760742 8.19982242584229 7.33408260345459 6.08290529251099 4.61965370178223 3.63263058662415 3.17895555496216 2.8537712097168 2.74515056610107 3.22027659416199 2.69631505012512 2.15552568435669 2.69373154640198 2.85543012619019 2.53259778022766 2.83957695960999 3.65450382232666 3.44939851760864 3.40828156471252 4.40336656570435 5.73282051086426 6.56009101867676 6.98346757888794 8.88436126708984 10.6892986297607 11.8002023696899 12.1243333816528 14.5613965988159 15.5727348327637 15.283031463623 15.2735900878906 15.8632392883301 16.3357906341553 16.1000957489014 16.1988830566406 17.0786647796631 15.0290765762329 13.2359495162964 13.7243013381958 12.5168628692627 11.1089611053467 9.7411994934082 7.59909200668335 6.76424074172974 6.62880754470825 7.13106870651245 8.55118370056152 6.52921342849731 6.03503036499023 5.15618801116943 4.20787477493286 4.12708616256714 4.38323402404785 7.42607355117798 7.13499641418457 4.76145315170288 4.5888409614563 5.45417356491089 9.85548877716064 7.27840709686279 6.98604154586792 6.19371366500854 6.17834281921387 6.23256301879883 6.58375024795532 7.07676124572754 7.66908740997314 7.82682085037231 6.76709461212158 6.29490661621094 9.07718849182129 5.09910774230957 4.10752630233765 2.93567967414856 1.93361294269562 1.06462001800537 1.46429228782654 2.29663872718811 4.17681264877319 2.24439096450806 -0.414787709712982 1.8550865650177 0.588768899440765 0.455564022064209 -1.15540206432343 -0.458733022212982 -0.718826055526733 0.928988218307495 1.82847630977631 1.35654985904694 1.56768345832825 -0.0859920158982277 0.451015383005142 1.20096755027771 1.24027788639069 1.06719326972961 1.43991506099701 0.452074021100998 -1.37891042232513 -0.708391129970551 -1.17290163040161 -1.15151798725128 -1.19574129581451 -1.23301124572754 -1.20111083984375 -0.95120096206665 -0.767199993133545 -0.42826110124588 -0.293766438961029 0.0522973202168941 0.472381949424744 0.781961739063263 0.745343267917633 0.126024454832077 -0.319204241037369 -0.821990370750427 -0.90515410900116 -0.792660593986511 -0.640488266944885 -0.597927629947662 -0.213732123374939 0.139174535870552 0.380304127931595 0.752712190151215 1.15954649448395 1.61756026744843 2.17200088500977 2.25586700439453 3.47009611129761 4.54745101928711 4.98382425308228 5.04570579528809 5.16196203231812 4.81354379653931 4.98527383804321 5.83592700958252 6.61288118362427 6.88840627670288 6.37813997268677 6.89948749542236 7.89868974685669 8.46486949920654 8.2164134979248 6.31466341018677 5.30860996246338 4.2689208984375 4.428053855896 4.32717370986938 3.56667304039001 3.4220335483551 3.09612989425659 2.70343637466431 3.06080722808838 4.95089340209961 4.89578676223755 2.9976818561554
3.70235824584961 4.31910228729248 4.77952575683594 5.04802799224854 5.20598268508911 5.12129354476929 4.95941257476807 6.09551477432251 9.55540561676025 14.0206346511841 10.6115264892578 8.38858318328857 12.1112852096558 8.63194465637207 6.40132761001587 6.33606386184692 6.45621728897095 7.66433763504028 9.30808925628662 8.18129730224609 6.63003396987915 4.87570381164551 3.98016476631165 3.22656178474426 2.88879013061523 2.76346731185913 2.24428081512451 2.08460974693298 2.08634161949158 2.89134526252747 2.86169123649597 2.4881420135498 2.26834845542908 3.25380969047546 3.6544017791748 3.91605830192566 4.97233629226685 5.76284790039062 6.50076675415039 7.82589101791382 10.1908407211304 12.1790332794189 13.3596601486206 14.0774278640747 16.4769248962402 16.6173706054688 15.4821071624756 14.2112407684326 13.8952713012695 16.2785625457764 18.1166744232178 16.6413612365723 18.8628063201904 13.9907217025757 11.002236366272 11.5677375793457 11.8203163146973 11.5455522537231 10.6867837905884 8.50522518157959 7.10383129119873 6.61221885681152 6.34621286392212 5.51741170883179 5.64229106903076 5.87541103363037 4.35080862045288 3.99623036384583 4.15060377120972 4.38256025314331 4.35991716384888 4.37713289260864 4.21710681915283 4.49955224990845 4.51260566711426 5.89904165267944 7.28638696670532 7.405189037323 6.70322227478027 6.82385110855103 7.16757106781006 7.30546998977661 7.26375913619995 7.60327577590942 8.19172096252441 8.02760887145996 7.01197910308838 6.59089756011963 5.34300756454468 4.7366247177124 3.55188822746277 2.50804543495178 1.48966634273529 0.958913147449493 2.44585204124451 2.91909885406494 0.358831703662872 -2.29168272018433 -2.36519265174866 -0.643950462341309 -0.265200704336166 -1.08450448513031 -0.82781594991684 -1.62922441959381 -1.50025308132172 -1.47921144962311 -1.34705662727356 2.05244040489197 1.9458281993866 1.94083416461945 1.21832203865051 0.505639433860779 0.265364617109299 0.485066384077072 -0.0573495253920555 -1.36869215965271 -1.29753136634827 -1.15062916278839 -1.04296100139618 -1.03521800041199 -1.1035395860672 -1.03017044067383 -0.801642239093781 -0.638117909431458 -0.34676855802536 0.0674304813146591 0.561232030391693 1.06483352184296 1.33259904384613 1.20466780662537 0.763308107852936 0.234121650457382 -0.384880036115646 -0.704009413719177 -0.411954820156097 -0.450948715209961 -0.318587154150009 0.0888580679893494 0.427569389343262 0.743227005004883 1.35398852825165 1.79708135128021 1.90682804584503 2.39498543739319 2.35550284385681 3.38914847373962 4.73277235031128 5.44049644470215 5.55764102935791 5.63789367675781 5.35068511962891 6.24496984481812 7.63978624343872 8.04212379455566 8.1458101272583 6.90942430496216 6.35325622558594 8.03071403503418 9.49925899505615 9.35536575317383 8.43731021881104 6.69667863845825 4.7170205116272 4.2978458404541 4.32825517654419 3.52219176292419 3.60600590705872 3.39207148551941 2.85722637176514 2.65084314346313 2.78305101394653 3.64069199562073 3.81340479850769
4.11742782592773 4.7386155128479 5.12265872955322 5.84834098815918 6.01455402374268 5.84313821792603 5.48325204849243 6.63701248168945 6.94783592224121 4.1270751953125 4.84224414825439 4.28739404678345 5.84983539581299 7.49535942077637 5.81002044677734 6.39314413070679 6.5554518699646 6.08929681777954 8.32714080810547 9.66990184783936 8.87349128723145 5.83694505691528 4.15224599838257 3.20957374572754 2.64468336105347 2.53455090522766 2.26183915138245 2.18384838104248 2.10860872268677 2.89119434356689 2.82186150550842 2.4647810459137 2.37990212440491 2.9590859413147 3.52288103103638 3.99811935424805 4.3643946647644 5.38065147399902 7.58367109298706 9.23325824737549 11.9599161148071 14.5401735305786 15.7794027328491 15.8368148803711 15.8591146469116 17.8829612731934 16.8543548583984 15.0426321029663 14.0637540817261 18.903751373291 21.7191696166992 17.2464618682861 8.03277683258057 7.14987087249756 6.23330211639404 6.82146215438843 7.41366195678711 7.62926149368286 8.5802755355835 8.87476539611816 7.52099180221558 6.22898197174072 5.80192184448242 4.72948932647705 5.97909593582153 5.9563946723938 4.39209508895874 4.16482925415039 4.66932582855225 4.43952655792236 4.47106742858887 4.52711868286133 4.30860805511475 4.49368381500244 4.91357326507568 6.27926778793335 8.2052526473999 8.46688461303711 8.48684310913086 8.96764850616455 9.00135517120361 8.25532150268555 8.15182113647461 8.73616981506348 9.4446439743042 10.2246437072754 8.64712619781494 7.6953501701355 6.41265964508057 5.02683973312378 4.04482460021973 2.85750842094421 1.73190999031067 1.38372850418091 1.04556906223297 0.594213962554932 -0.604759573936462 -2.16698122024536 -2.30881428718567 -2.2571747303009 -2.09318590164185 -1.89063584804535 -1.58043992519379 -1.31484925746918 -1.28851163387299 -1.22751235961914 -1.06970262527466 1.02381837368011 2.76746010780334 2.5904541015625 0.789547204971313 0.278041154146194 -0.261202692985535 -0.140453398227692 0.701896369457245 -1.36658930778503 -1.35511577129364 -1.0716165304184 -0.916726589202881 -0.783615469932556 -0.784405171871185 -0.575701951980591 -0.641171216964722 -0.321753412485123 -0.0487254001200199 0.439280897378922 1.44250583648682 1.92206215858459 1.85006761550903 1.89084374904633 1.7105678319931 1.03942883014679 0.29020956158638 0.349363386631012 0.576232850551605 -0.12314511090517 -0.101231604814529 0.384070158004761 0.701484024524689 1.13217127323151 2.17213463783264 2.46740674972534 2.60107731819153 2.90011787414551 2.9747359752655 3.90874576568604 5.0306978225708 5.86224222183228 6.10103273391724 6.35010147094727 6.47224426269531 7.21425819396973 7.69693374633789 7.45411825180054 8.49095153808594 7.57136678695679 6.28903150558472 6.85945558547974 7.97279167175293 8.78479671478271 8.76239490509033 8.59437942504883 6.54870986938477 4.32652568817139 4.46863746643066 3.60230612754822 3.82774329185486 3.60492658615112 3.08357620239258 2.08049845695496 1.96144545078278 2.87955784797668 4.05192136764526
4.40665197372437 5.11120843887329 6.09328079223633 6.95072412490845 7.10259199142456 6.8958740234375 6.46949434280396 6.3279824256897 5.19868898391724 4.63376426696777 2.75502371788025 3.59874486923218 2.79395699501038 5.0625433921814 4.50302886962891 6.58492136001587 6.88318157196045 5.7887134552002 5.3161735534668 10.5292329788208 9.97449493408203 7.77148199081421 4.68328237533569 3.46320366859436 2.44930171966553 2.39225602149963 2.36927318572998 2.25357675552368 2.01269793510437 2.50681972503662 2.48834896087646 2.10774159431458 2.17180109024048 2.47495174407959 2.66894626617432 4.41294813156128 5.12509727478027 6.50650501251221 9.08303642272949 11.2089023590088 14.584210395813 16.0583839416504 18.0855484008789 16.4460906982422 15.2746076583862 12.295485496521 11.1465873718262 13.2128553390503 12.3629417419434 7.8211555480957 5.58342361450195 6.30416393280029 4.6526346206665 2.14790725708008 1.41899585723877 1.48209357261658 2.57845759391785 2.84434723854065 3.12144660949707 4.62511253356934 4.94495487213135 5.38301467895508 4.48260974884033 4.75097990036011 3.7855920791626 2.79888010025024 3.40655016899109 3.860924243927 4.13474941253662 4.32087898254395 4.47747898101807 4.56678152084351 4.72392225265503 4.86217212677002 5.20753860473633 7.75616312026978 10.5521516799927 10.858983039856 10.8527746200562 12.0419502258301 14.4541034698486 13.8001050949097 12.5955505371094 13.1027460098267 13.1942234039307 16.1388854980469 13.6003494262695 11.9546813964844 7.33375310897827 5.89963865280151 4.88784885406494 3.20416402816772 1.97569704055786 1.79217779636383 1.60669553279877 0.836773276329041 -0.104712419211864 -1.91009640693665 -1.99217975139618 -1.93176817893982 -1.79421138763428 -1.59805989265442 -1.35674571990967 -1.10013997554779 -1.10750782489777 -0.959904253482819 -0.699514210224152 -0.516637682914734 -0.502102792263031 -0.67929869890213 -0.798793613910675 -0.403780430555344 -0.0243154726922512 0.00776698393747211 1.24414610862732 -0.309527277946472 -1.25115704536438 -0.868724644184113 -0.624887228012085 -0.388287007808685 -0.386035680770874 -0.315074890851974 -0.246618404984474 0.178756222128868 0.47773876786232 0.82500433921814 1.60953831672668 2.49875068664551 2.70344805717468 2.86735153198242 3.18443369865417 2.60231924057007 2.05956268310547 2.08926844596863 1.90077412128448 1.50817334651947 0.717792332172394 0.832415819168091 1.0647052526474 1.66103422641754 2.98646926879883 3.10681295394897 3.0643265247345 3.23624396324158 3.4935507774353 4.34198713302612 5.60835409164429 6.60268926620483 6.86917018890381 7.05094814300537 7.09184265136719 7.12070226669312 6.98379945755005 7.60392379760742 8.2967529296875 7.70871782302856 5.07750511169434 5.30091381072998 7.34901332855225 10.2081451416016 8.6070671081543 7.45393037796021 7.46330451965332 4.67422723770142 4.86909246444702 3.84187388420105 4.16492414474487 3.86520290374756 3.12582325935364 2.29925465583801 1.88017570972443 2.2819881439209 2.65742921829224
4.83637475967407 5.93790864944458 7.46321535110474 8.46781158447266 8.87620067596436 8.61661338806152 7.8958797454834 8.08081436157227 6.93796920776367 6.86738252639771 4.71833658218384 2.66436672210693 2.72562670707703 2.88863372802734 3.69238328933716 7.19666004180908 7.57438182830811 6.24775266647339 4.65801382064819 2.24873423576355 7.37286233901978 8.60884284973145 5.44369554519653 3.3875367641449 2.67130327224731 2.36933374404907 2.38816547393799 2.26868200302124 2.02238249778748 2.20146942138672 1.87624800205231 1.83592331409454 1.8719048500061 2.87708711624146 3.99040055274963 5.0989089012146 5.88627576828003 7.26285839080811 10.6319303512573 12.6323022842407 14.2354564666748 22.8394470214844 22.9910583496094 19.4440841674805 12.5786352157593 8.10586643218994 8.56288528442383 7.06415939331055 5.15935897827148 2.34194159507751 1.10176491737366 0.921598434448242 0.995505630970001 1.01439213752747 1.07334315776825 1.27246224880219 1.53970015048981 1.67381012439728 1.82971715927124 2.09582018852234 2.20088648796082 2.24010729789734 2.17661809921265 2.30986738204956 2.5600802898407 2.82886838912964 3.18823099136353 3.6526300907135 4.07383489608765 4.29653549194336 4.57247447967529 4.83468818664551 5.12110805511475 5.37797689437866 6.81041383743286 10.5443964004517 13.6784038543701 16.6074466705322 16.7287502288818 17.8904590606689 18.6606292724609 17.3141670227051 15.4730358123779 14.2169961929321 13.5622730255127 14.1629667282104 12.3725481033325 13.6520614624023 11.2458486557007 6.49843788146973 5.47188377380371 4.09508228302002 2.41528463363647 1.8322833776474 2.12135624885559 1.48453831672668 0.309375643730164 -1.40491878986359 -1.45948851108551 -1.70413255691528 -1.63262152671814 -1.46236956119537 -1.29708921909332 -0.0341509431600571 -1.05290687084198 -0.874842166900635 -0.629365801811218 -0.464299112558365 -0.487691968679428 -0.487269103527069 -0.640746295452118 -0.370300382375717 -0.204688102006912 0.260982692241669 0.777877449989319 -0.527664840221405 -1.23422420024872 -0.756060123443604 -0.537632048130035 0.00786903873085976 0.0995503216981888 0.268257290124893 0.234607860445976 0.712578773498535 1.1126846075058 1.38420414924622 2.42324066162109 3.27623867988586 3.89220547676086 4.91569519042969 5.12763547897339 5.41515970230103 5.10756826400757 3.80183339118958 3.86362433433533 3.86829972267151 3.39226412773132 2.32729578018188 2.023188829422 2.40869665145874 3.47842717170715 3.44897055625916 3.29290819168091 3.41871953010559 3.84325480461121 4.24224519729614 5.50291919708252 6.89192962646484 7.56707000732422 7.92835235595703 7.73436450958252 6.90405130386353 5.19174003601074 4.70984315872192 3.95951128005981 4.88398838043213 3.86591100692749 4.75811576843262 6.52650308609009 6.74524974822998 6.98886013031006 6.22545862197876 4.22413778305054 5.04635953903198 5.60097217559814 4.26593685150146 4.52880477905273 4.08250188827515 3.73277688026428 3.13874340057373 2.05856609344482 1.97419273853302 2.40119028091431
5.69827795028687 7.221351146698 9.42299652099609 10.613865852356 10.6351737976074 11.5866031646729 11.1388425827026 10.7567310333252 4.07110548019409 2.83786010742188 6.40410709381104 2.68059492111206 2.59875178337097 2.8327956199646 3.6153302192688 6.65960025787354 9.6397647857666 8.40377140045166 4.76329135894775 2.1276171207428 1.81744992733002 4.5702657699585 4.68043947219849 2.67659187316895 2.25167059898376 2.39835810661316 2.39899182319641 2.27468466758728 2.0233428478241 1.9549663066864 1.77953732013702 1.77109611034393 1.80232131481171 2.54607939720154 4.36353540420532 5.46186208724976 6.13955926895142 8.01331424713135 10.5939035415649 11.7272777557373 17.0206184387207 11.515362739563 9.23299503326416 9.50771045684814 10.7244253158569 7.00608587265015 2.55040073394775 -0.0933198258280754 0.342801004648209 0.572567105293274 0.666575908660889 0.871170341968536 1.03343737125397 1.09616219997406 1.20888936519623 1.40673267841339 1.52834570407867 1.67584002017975 1.83280253410339 2.09035754203796 2.29496312141418 2.31524395942688 2.21157240867615 2.40248560905457 2.66566300392151 3.01550769805908 3.37609696388245 4.07475662231445 4.54137516021729 4.74525833129883 4.948073387146 5.18287229537964 5.46739149093628 5.77231073379517 9.63054466247559 13.4739570617676 16.2963466644287 22.1023654937744 17.0170707702637 13.9192380905151 9.4882287979126 8.78763866424561 9.35520648956299 9.97507858276367 13.8749828338623 16.3985824584961 12.8821144104004 10.4023675918579 11.6602449417114 7.91357326507568 6.02082681655884 4.53849172592163 3.25645756721497 2.18949556350708 2.66417264938354 2.46185445785522 1.06082999706268 -0.385189950466156 -0.508624732494354 -1.5160905122757 -1.44214904308319 -1.35750937461853 -1.25972950458527 -1.20677769184113 -0.973437488079071 -0.756498038768768 -0.516390442848206 -0.314423531293869 -0.2071503251791 -0.320970207452774 -0.600072622299194 -0.758087694644928 -0.300758361816406 0.215107291936874 0.207400903105736 -1.22785270214081 -1.20650947093964 -0.771123766899109 -0.260395705699921 0.290897130966187 0.498011499643326 0.820961713790894 0.976332187652588 1.22750329971313 1.42049789428711 2.08583879470825 3.15250110626221 4.39992666244507 5.59845304489136 6.98846960067749 7.20936727523804 7.96587133407593 7.49643516540527 7.27541303634644 5.90928888320923 5.61007118225098 4.73717784881592 3.5924699306488 2.69723653793335 2.50154948234558 3.69382858276367 3.64389681816101 3.47018551826477 3.54250812530518 4.85713911056519 5.23774242401123 5.96859788894653 7.37619972229004 8.40135765075684 8.59128570556641 8.29206657409668 6.64669132232666 5.17651224136353 3.30916213989258 2.32018089294434 2.01820921897888 2.45631337165833 2.25517010688782 1.60822319984436 2.86083555221558 5.91825771331787 6.72183465957642 4.69605731964111 4.55158758163452 6.6490683555603 7.80159330368042 5.31951856613159 5.27062463760376 4.5519814491272 3.76249718666077 2.46605944633484 2.00287413597107 2.42309665679932
6.81686878204346 8.97103214263916 10.1134910583496 12.8593950271606 15.5572376251221 12.5584383010864 9.27359580993652 5.65746974945068 4.51013040542603 2.86466431617737 2.74320197105408 2.79530358314514 2.67145466804504 2.89472985267639 3.48470139503479 4.58708000183105 7.62221622467041 9.0128927230835 5.40989112854004 3.42028784751892 1.86096513271332 1.71275162696838 1.68991196155548 1.88669717311859 2.24986386299133 2.41898894309998 2.45143914222717 2.29134368896484 2.11120748519897 1.98210573196411 1.80262327194214 1.79796779155731 2.15404629707336 3.37519502639771 5.22130966186523 5.57259464263916 5.84709405899048 8.33624076843262 9.05515956878662 12.137152671814 8.15363216400146 2.6298508644104 2.49627423286438 1.45249736309052 -0.834810554981232 -1.06614804267883 -0.958993256092072 -0.0884649306535721 0.311981916427612 0.553797543048859 0.826320827007294 1.02791583538055 1.10817897319794 1.2203848361969 1.43172633647919 1.61481785774231 1.63693976402283 1.94049537181854 2.09286308288574 2.33918023109436 2.52876853942871 2.54913401603699 2.37171673774719 2.6908323764801 2.92048740386963 3.18095254898071 3.86908960342407 4.6351752281189 5.060218334198 5.17250394821167 5.25634527206421 5.46419286727905 5.76229858398438 5.82250308990479 10.5285863876343 12.3532085418701 11.190580368042 8.58048915863037 7.77178382873535 7.38015794754028 6.66901397705078 7.91621923446655 8.55318737030029 7.414306640625 7.11522436141968 8.86511039733887 13.5918703079224 12.3911838531494 10.260217666626 11.5743846893311 7.47314882278442 5.54622888565063 3.8352427482605 2.53857254981995 2.67827224731445 3.00617527961731 2.25948214530945 1.81927311420441 -0.271272212266922 -1.41102421283722 -1.29952645301819 -1.24813890457153 -1.17503237724304 -1.08900845050812 -0.830141723155975 -0.595366179943085 -0.425915151834488 -0.208565056324005 -0.157856613397598 -0.303645253181458 -0.584788918495178 -0.880119442939758 -0.580682814121246 -0.150673627853394 0.160998180508614 -1.13943648338318 -1.21829473972321 -0.645848095417023 -0.0247227642685175 0.599915027618408 0.998276948928833 1.29005968570709 1.59227514266968 1.7847912311554 2.09530138969421 2.8272647857666 4.29156637191772 6.37221240997314 7.18449640274048 8.1617603302002 8.39255046844482 8.87670803070068 9.68101024627686 9.04481410980225 6.74763250350952 6.26301050186157 5.26534986495972 3.98429322242737 2.94218254089355 2.6083607673645 3.51971316337585 3.98120760917664 3.92153859138489 4.44335842132568 6.04116916656494 6.00731182098389 6.84469604492188 8.2290735244751 8.88570308685303 9.01128387451172 8.95164775848389 6.90623950958252 5.13261032104492 3.41182112693787 2.51336884498596 2.2365927696228 2.92300701141357 2.52921485900879 1.62188470363617 1.45362770557404 4.18203163146973 5.59018898010254 5.13355875015259 4.95086669921875 7.43878030776978 9.71354389190674 6.29093790054321 5.66670894622803 3.57712364196777 1.80540347099304 1.83076667785645 2.02574324607849 2.47313952445984
8.20643520355225 9.14283657073975 11.8064432144165 12.4052438735962 10.6199321746826 7.48702049255371 6.32736206054688 4.94534826278687 4.54652452468872 3.68687963485718 2.80597305297852 3.05297493934631 2.80791783332825 3.21916794776917 3.65646028518677 3.02585387229919 2.71300053596497 5.03561067581177 5.2293496131897 2.3489716053009 2.02389812469482 1.78613877296448 1.75156080722809 1.87916994094849 2.29255318641663 2.46307349205017 2.49948000907898 2.496089220047 2.25119304656982 2.01319718360901 1.86756980419159 2.3890917301178 2.52830362319946 3.73765826225281 4.86081266403198 4.74071884155273 4.61627388000488 5.14035701751709 6.55837678909302 4.83643913269043 2.90950679779053 -0.323284208774567 -0.53727388381958 -0.649127840995789 -0.732104003429413 -0.934514164924622 -0.907626986503601 0.0621909722685814 0.382530391216278 0.831326723098755 1.15711224079132 1.37660813331604 1.41940748691559 1.48120176792145 1.60436034202576 1.74840211868286 1.96110498905182 2.3010687828064 2.46639370918274 2.69999694824219 2.93666958808899 2.96406841278076 2.84179210662842 3.1071515083313 3.39727210998535 3.86340856552124 4.34494352340698 5.01807308197021 5.39770936965942 5.47875118255615 5.40754890441895 5.60528421401978 6.08710289001465 7.52181577682495 9.75546550750732 10.3904733657837 11.8001079559326 5.70707130432129 6.22385215759277 6.33319139480591 5.62726068496704 7.39915418624878 7.96786117553711 6.10104274749756 5.32776594161987 4.92158126831055 14.0492277145386 13.8714685440063 10.5315704345703 12.2234802246094 8.95693111419678 7.66586494445801 4.99015522003174 2.75783014297485 2.83633613586426 3.73017573356628 3.22009992599487 1.51820659637451 -0.278183698654175 -1.49939072132111 -1.37284016609192 -1.13059651851654 -1.05930685997009 -0.947300732135773 -0.669899940490723 -0.497005850076675 -0.332942962646484 -0.156777575612068 -0.129798203706741 -0.284387946128845 -0.573578238487244 -0.872591435909271 -0.790803730487823 -0.746333539485931 -0.368982791900635 -1.22469878196716 -1.22274601459503 -0.461101710796356 0.203431203961372 1.06200182437897 1.74636471271515 1.87635791301727 2.2367467880249 2.58378195762634 2.92965960502625 3.5580108165741 5.7579197883606 7.48293447494507 8.10617351531982 8.91137981414795 9.59675598144531 10.3613090515137 11.2825899124146 10.5692367553711 8.00470542907715 7.8807110786438 5.8463830947876 4.38636112213135 3.24352598190308 2.81548833847046 3.10754299163818 4.24726581573486 4.16190195083618 4.34728384017944 6.30509567260742 7.26961421966553 8.41049480438232 8.76482677459717 9.3479061126709 9.4192008972168 8.29692363739014 7.23495864868164 4.01602268218994 2.85478544235229 2.73097038269043 2.77521133422852 3.89241337776184 3.58280563354492 1.78667032718658 1.59146618843079 1.3335577249527 1.38939309120178 2.29551768302917 2.84293007850647 1.55487608909607 1.45894289016724 1.59087038040161 1.62743532657623 1.73403739929199 1.86577939987183 1.89329421520233 2.0843300819397 2.53758668899536
9.51691818237305 11.8050947189331 9.72681522369385 4.97178363800049 3.45290040969849 2.73699975013733 2.55220031738281 2.69673132896423 4.1133394241333 4.01036787033081 2.8803551197052 2.81287026405334 2.88573551177979 3.06247973442078 4.86195039749146 3.02428650856018 2.71787929534912 2.59593844413757 2.90266680717468 2.38763976097107 2.18483948707581 1.94637048244476 1.83636283874512 1.87254667282104 2.32042741775513 2.50616455078125 2.64176750183105 2.94308304786682 2.34385895729065 2.05260396003723 2.13479828834534 2.85115122795105 2.75731730461121 3.42607092857361 3.57076573371887 3.21999049186707 2.00787258148193 3.49171686172485 5.00531339645386 1.25473833084106 0.431146562099457 -0.27073672413826 -0.114422053098679 0.0168240647763014 -0.0324200615286827 -0.393246710300446 -0.672832310199738 0.135231882333755 0.505087852478027 1.47362220287323 1.81656301021576 1.51997661590576 1.49125874042511 1.62926983833313 1.75322663784027 1.96983134746552 2.37039518356323 2.79156088829041 2.96357417106628 3.15392589569092 3.42400479316711 3.44952011108398 3.34696221351624 3.54200220108032 3.71045780181885 4.98969411849976 5.8265905380249 5.45928049087524 5.65664052963257 6.15656042098999 5.49329280853271 5.7913064956665 7.05700731277466 7.64552736282349 7.92571496963501 5.7452974319458 4.95391225814819 5.59070301055908 5.8626503944397 6.35336446762085 5.394700050354 4.69754981994629 6.0131983757019 6.14211177825928 6.11042928695679 5.5231499671936 6.42621660232544 14.2821350097656 12.6308822631836 10.682035446167 9.69456481933594 8.65856838226318 6.36437177658081 3.72459673881531 3.6301953792572 4.53530788421631 4.06962203979492 2.33497047424316 0.122586838901043 -1.39408755302429 -1.31628739833832 -1.02438735961914 -0.987669169902802 0.747153043746948 0.55363792181015 -0.304364025592804 -0.192651584744453 -0.136968716979027 -0.106679625809193 -0.248883351683617 -0.540725708007812 -0.745856940746307 -1.02496612071991 -1.19483232498169 -1.23532259464264 -1.28694248199463 -1.19424760341644 -0.313915431499481 0.330836206674576 1.38475179672241 2.13087582588196 2.22876071929932 2.72879099845886 3.1367175579071 3.32912540435791 4.07458209991455 6.34909009933472 8.36448764801025 8.83917331695557 9.49533176422119 11.1957035064697 12.3629493713379 13.3651962280273 12.8481931686401 9.22543144226074 9.12570953369141 7.88963508605957 6.39904594421387 4.52251195907593 3.67303824424744 3.2752091884613 4.52327060699463 4.41914129257202 4.17143535614014 5.71177816390991 5.94834041595459 6.25443315505981 8.62832736968994 9.96166801452637 9.39543724060059 8.38831615447998 8.01608753204346 4.34170866012573 2.63346982002258 2.85826778411865 2.68321013450623 3.8867290019989 3.76097369194031 4.63424587249756 1.76180911064148 1.58310031890869 1.50901734828949 1.55733287334442 1.65134859085083 1.67236888408661 1.54808402061462 1.58692145347595 1.74027287960052 1.8912159204483 1.99761152267456 2.0502073764801 2.09364151954651 2.51296663284302
8.70789241790771 7.99075698852539 3.90561389923096 3.8278112411499 3.73425269126892 1.81613981723785 1.86310040950775 2.51587414741516 2.72676825523376 2.94972467422485 2.90755343437195 2.84322452545166 2.93436789512634 2.99903631210327 3.01875734329224 3.05009865760803 2.89887833595276 2.64103269577026 2.55765891075134 2.40156984329224 2.22763752937317 2.05046343803406 1.9112423658371 1.8695855140686 2.22012734413147 2.57630920410156 3.30375576019287 3.4782395362854 2.69531059265137 2.08376955986023 2.2565712928772 2.44112610816956 2.32764911651611 2.07652521133423 1.92431306838989 2.00405931472778 1.89577543735504 2.07436966896057 1.72815585136414 1.29458796977997 0.57609236240387 -0.0469266772270203 0.506179869174957 0.623062252998352 0.501017093658447 0.343222618103027 0.617490231990814 0.542726576328278 0.55560040473938 1.33016157150269 2.56836915016174 3.77291584014893 1.61025977134705 1.83288931846619 2.13851618766785 2.25310873985291 2.61985611915588 3.03709697723389 3.20474123954773 3.39570689201355 3.73184943199158 3.84072113037109 3.73805999755859 3.64606952667236 4.94367027282715 6.42320680618286 6.59423017501831 7.99598121643066 6.00787544250488 5.51466703414917 5.63621091842651 6.33069229125977 7.51502275466919 7.44412136077881 7.01666593551636 5.50993013381958 5.0663890838623 4.92644357681274 5.27345561981201 4.58460283279419 5.74320840835571 5.24538898468018 4.87028551101685 5.81729459762573 8.63580322265625 7.25525808334351 7.15499496459961 12.028923034668 16.5828952789307 11.7406969070435 10.2590913772583 9.52932262420654 7.11486339569092 4.84283924102783 3.524169921875 5.35719442367554 4.93451166152954 3.25372385978699 -0.335652559995651 -1.22764468193054 -1.23953056335449 -0.961464941501617 -0.92680835723877 -0.916514337062836 -0.64213353395462 0.343472450971603 -0.103408955037594 -0.116906024515629 -0.0716223269701004 -0.212254658341408 -0.32878515124321 -0.566659271717072 -0.882745027542114 -1.17869102954865 -1.21030426025391 -1.2694833278656 -1.20498943328857 -0.388046205043793 0.393589794635773 1.77609515190125 2.48955655097961 2.59781742095947 3.02893257141113 3.34692287445068 3.52632737159729 4.58700323104858 6.90307760238647 8.53901863098145 9.84614658355713 11.2490530014038 13.1801471710205 14.9912576675415 16.2576465606689 16.5201530456543 10.947377204895 10.8118505477905 9.10180568695068 7.49005079269409 5.6828670501709 4.27075910568237 3.75034117698669 4.8179497718811 4.7059211730957 4.40332174301147 3.72966575622559 3.20983195304871 4.75220060348511 6.41866827011108 9.33065414428711 9.75048732757568 9.41153335571289 5.95312452316284 4.5270037651062 2.69323801994324 2.99201560020447 2.24169087409973 2.08235907554626 3.13435792922974 5.49556684494019 3.68934202194214 1.73663771152496 1.66615557670593 1.63666439056396 1.73327696323395 1.79525780677795 1.75656688213348 1.80017590522766 1.98367238044739 2.16093707084656 2.18696808815002 2.1720724105835 2.18612360954285 2.29314208030701
2.0279426574707 2.11806488037109 2.4172031879425 3.10914754867554 5.01154947280884 1.44483876228333 1.53946959972382 2.04446244239807 2.71646523475647 3.00696086883545 2.95222091674805 2.93162059783936 2.97901582717896 2.94284820556641 2.98625230789185 3.1066906452179 3.04672741889954 2.80412530899048 2.64188003540039 2.44411683082581 2.25140976905823 2.13152718544006 1.99483525753021 1.89837956428528 2.14043998718262 3.2021541595459 3.7364194393158 4.24919509887695 3.1179027557373 2.23498392105103 2.17884516716003 1.85807514190674 1.82030534744263 1.86931025981903 1.97743332386017 2.06912803649902 1.94859266281128 2.04076552391052 1.98649966716766 1.73074042797089 0.865491092205048 0.202055484056473 0.36688420176506 1.01087439060211 1.00156772136688 0.670080900192261 0.901785552501678 1.25019955635071 0.727966547012329 1.40441536903381 1.32850682735443 1.28701388835907 1.64634525775909 2.05905842781067 2.21509003639221 2.37409496307373 2.66704535484314 2.90143418312073 3.36481618881226 3.65241956710815 3.96787595748901 4.08849954605103 4.02767181396484 3.99359250068665 5.08717441558838 6.00249814987183 8.37038707733154 10.363299369812 6.12725687026978 5.54957914352417 5.76493167877197 6.235924243927 7.56850576400757 6.80774736404419 6.40503406524658 5.6344780921936 4.98394012451172 4.57795238494873 4.99401140213013 4.96819734573364 4.49051666259766 5.00704860687256 4.9239444732666 5.94061040878296 8.58783531188965 7.73028707504272 8.03599166870117 12.241641998291 18.8814468383789 17.446008682251 15.8414707183838 13.3648319244385 7.81052255630493 5.44834756851196 3.79954290390015 5.0374550819397 5.14696455001831 3.48046159744263 0.153105154633522 -1.04754686355591 -1.08481192588806 -0.924134016036987 -0.895099759101868 -0.861998796463013 -0.735339939594269 -0.45837327837944 -0.346804589033127 -0.134462520480156 -0.0210381578654051 0.00316015025600791 -0.17061123251915 -0.501891076564789 -0.814479529857635 -1.10117363929749 -1.12818217277527 -1.22150337696075 -1.15416550636292 -0.524074971675873 0.700445234775543 2.16024470329285 2.79881811141968 2.95976424217224 3.25116682052612 3.53745555877686 3.72741675376892 4.68482446670532 6.32140398025513 9.52525997161865 11.4693002700806 13.5962343215942 16.3444232940674 19.055118560791 20.6446781158447 24.094669342041 24.5422115325928 13.5567607879639 10.7052278518677 8.71177101135254 6.5438232421875 5.01808166503906 4.42735195159912 5.15222549438477 4.9869441986084 4.58185911178589 3.84129548072815 3.30972218513489 3.38217329978943 4.98994016647339 6.97903537750244 9.86034202575684 6.21194505691528 2.27741932868958 3.74035334587097 4.00755405426025 3.44276022911072 3.07280778884888 2.09680318832397 1.97176134586334 1.75278520584106 1.77142095565796 1.80555331707001 1.826944231987 1.85624623298645 1.90750181674957 1.99943220615387 1.98750984668732 2.04164338111877 2.18265390396118 2.35016441345215 2.3571674823761 2.30969023704529 2.23137402534485 2.37283039093018
1.13783884048462 0.809460163116455 0.451793998479843 0.620730638504028 0.6567622423172 0.769949555397034 1.27611446380615 2.06891322135925 2.79779624938965 3.11963844299316 3.07112097740173 3.06081032752991 3.04030251502991 3.03897643089294 3.14453411102295 3.20227575302124 3.16069436073303 2.96613621711731 2.87703084945679 2.74330711364746 2.53039216995239 2.23889851570129 2.09247207641602 1.9693797826767 2.10365295410156 3.6594398021698 4.5429949760437 3.4749493598938 3.95091199874878 3.16635608673096 2.08013272285461 1.83695387840271 1.74117815494537 1.86048305034637 2.05854606628418 2.27600526809692 2.12828946113586 2.22919607162476 2.30201315879822 2.16657948493958 1.60686862468719 0.828920423984528 0.820347964763641 1.41715037822723 1.31468558311462 0.931231379508972 0.745510637760162 1.53979885578156 0.733883678913116 0.695855259895325 1.05355143547058 1.34228777885437 1.7186119556427 2.08626818656921 2.27849268913269 2.49927687644958 2.67860746383667 2.99564146995544 3.55778574943542 3.80191707611084 4.71723747253418 4.86421823501587 4.28333282470703 4.16232681274414 4.65793561935425 8.42650985717773 7.07494926452637 4.33366632461548 5.25704669952393 5.69265556335449 5.95567607879639 6.16171073913574 6.88440179824829 6.9663028717041 5.8622989654541 5.84828805923462 5.42558670043945 5.03226709365845 5.19839572906494 4.99090242385864 4.54464864730835 4.54310035705566 4.92530965805054 5.43136405944824 5.44031143188477 6.59696006774902 6.67572498321533 7.8874044418335 13.0950355529785 21.0164947509766 20.8647861480713 18.1452598571777 14.2250185012817 7.04389715194702 3.70550298690796 3.44319772720337 5.15998220443726 4.15765428543091 0.569591701030731 -0.961461544036865 -0.979124248027802 -0.87632155418396 -0.887552380561829 -0.791217684745789 -0.657041549682617 -0.399237900972366 -0.254992663860321 -0.156315416097641 0.0132646420970559 0.0678941980004311 -0.0793837755918503 -0.386071652173996 -0.676801562309265 -0.882923781871796 -0.950401544570923 -1.04257881641388 -0.991868793964386 -0.64812445640564 0.899456679821014 2.61375069618225 3.20798277854919 3.13654398918152 3.26323914527893 3.5711841583252 3.89487814903259 4.40918493270874 6.67485475540161 11.4355382919312 13.8755493164062 17.1778831481934 19.9611721038818 22.5026226043701 29.6731662750244 31.3707695007324 31.7261276245117 20.7962913513184 17.0067462921143 10.3441944122314 7.57728481292725 5.99970102310181 5.11852502822876 4.7148699760437 5.42541074752808 5.09782409667969 5.11642789840698 3.71299290657043 2.02379560470581 1.98271191120148 1.75265753269196 3.67061114311218 5.10263395309448 2.87957143783569 2.7676374912262 4.82434034347534 4.42354536056519 4.19613552093506 2.08521223068237 2.05173301696777 1.86841249465942 1.82743906974792 1.8678286075592 1.98729205131531 2.06295013427734 2.12656831741333 2.20396184921265 2.19214558601379 2.21476173400879 2.35356211662292 2.44256162643433 2.49879813194275 2.49034309387207 2.43089461326599 2.44863891601562
0.39073121547699 0.368548572063446 0.320033401250839 0.229264155030251 0.205099701881409 0.631429731845856 1.01641941070557 2.0897536277771 2.81938433647156 3.18993234634399 3.19793772697449 3.16287732124329 3.11724734306335 3.12060737609863 3.25354504585266 3.30617094039917 3.25686264038086 3.10482597351074 2.9938759803772 2.8951051235199 2.68573760986328 2.38312578201294 2.20690321922302 2.07619071006775 2.06807947158813 2.44389510154724 2.55406856536865 2.50599384307861 4.3900580406189 3.84460186958313 2.48265314102173 1.91338300704956 1.80532073974609 1.89668393135071 2.14285516738892 2.40787172317505 2.25212717056274 2.38934731483459 2.59491491317749 2.49002552032471 2.01366996765137 1.15239942073822 1.17145168781281 1.87777507305145 1.707643866539 1.21357309818268 0.14564149081707 0.233880817890167 0.645835340023041 0.705409586429596 1.25808024406433 1.55356824398041 1.89825677871704 2.07934856414795 2.3873393535614 2.67660117149353 2.75029444694519 3.40405368804932 4.24638986587524 4.64053058624268 5.6679801940918 6.90136575698853 5.84364366531372 4.73906803131104 4.50384092330933 3.91982626914978 3.63293838500977 4.42365598678589 5.35406541824341 5.84201240539551 5.93488311767578 6.12344789505005 6.00536012649536 6.01284742355347 5.61628389358521 5.96064233779907 5.9764838218689 5.72245025634766 5.75071430206299 5.30703115463257 4.8201756477356 4.89153289794922 5.07042074203491 5.42242288589478 4.90558958053589 4.75112247467041 4.60614061355591 5.39452362060547 9.16462802886963 15.6618642807007 15.2145118713379 17.5296039581299 17.8550205230713 11.403018951416 4.37058305740356 3.46090340614319 2.57933115959167 3.48529314994812 0.735051929950714 -0.881542682647705 -0.904916226863861 -0.965019404888153 -0.821494221687317 -0.655307650566101 -0.535945177078247 -0.236371919512749 -0.0672386884689331 -0.0832959786057472 0.110482431948185 0.222290545701981 0.0897654816508293 -0.203656673431396 -0.330971717834473 -0.561565577983856 -0.795021116733551 -0.847462236881256 -0.845984756946564 -0.622468531131744 1.14635908603668 2.79395341873169 3.33456659317017 3.58646321296692 4.10161876678467 4.05670309066772 4.08130264282227 4.98361206054688 7.97241401672363 14.4389963150024 17.2439403533936 18.0547485351562 20.6391277313232 26.0677967071533 18.3957042694092 15.9138603210449 10.5026378631592 16.4539813995361 23.1597232818604 16.5711612701416 10.7432622909546 8.36141490936279 7.07629442214966 5.5012378692627 5.64677000045776 5.55339813232422 6.81104373931885 4.51764345169067 2.93867969512939 2.10980701446533 1.82322478294373 1.686678647995 6.43457984924316 3.18884682655334 3.00392127037048 3.46781754493713 3.09823775291443 1.83741509914398 2.05287909507751 3.52057242393494 2.16588377952576 2.19610381126404 2.18108224868774 2.18646097183228 2.27667856216431 2.35018253326416 2.37585282325745 2.36241030693054 2.33760952949524 2.36565184593201 2.49363493919373 2.636479139328 2.62544107437134 2.56406116485596 2.46176671981812
0.466154992580414 0.388414204120636 0.347853541374207 0.289988577365875 0.253413647413254 0.525281131267548 1.00179433822632 1.96478199958801 2.63118410110474 2.90370845794678 3.27400946617126 3.25820207595825 3.20230436325073 3.19439315795898 3.23355317115784 3.29878234863281 3.39052629470825 3.34325933456421 3.14519667625427 3.05277681350708 2.8102011680603 2.57784795761108 2.35483169555664 2.17628622055054 2.06038331985474 2.30975747108459 2.56542253494263 2.46210050582886 2.4376847743988 2.3528356552124 2.09991908073425 2.02885437011719 1.87802231311798 1.94560074806213 2.13886308670044 2.36146473884583 2.57041025161743 2.60340237617493 2.9178409576416 2.67010521888733 2.12332463264465 1.26691818237305 1.3880021572113 1.94824290275574 1.84906077384949 1.42899322509766 0.749931991100311 -0.368649661540985 0.545497059822083 0.781221151351929 1.37542819976807 1.69666910171509 2.31102466583252 2.0190258026123 2.50926232337952 2.87695336341858 3.05070495605469 3.92830729484558 4.86201858520508 4.87090158462524 4.09096717834473 4.29755163192749 4.31979084014893 4.2599892616272 4.43911695480347 3.85385322570801 4.18423795700073 5.00422239303589 5.25229930877686 5.70376825332642 5.94109773635864 6.0063853263855 6.03750133514404 5.65542650222778 5.87122011184692 6.06744813919067 6.49665689468384 6.39486503601074 6.51157760620117 6.29387187957764 5.94905948638916 5.54604816436768 5.37122774124146 5.65570878982544 5.69198369979858 5.45124197006226 4.86176013946533 3.81901216506958 3.85769748687744 4.14811515808105 12.1224241256714 12.3125944137573 15.1736488342285 14.1857223510742 5.9133243560791 2.06051707267761 0.144567474722862 1.44993078708649 1.15004932880402 -0.849915325641632 -0.830658912658691 -0.815405070781708 -0.612938344478607 -0.357262670993805 -0.310516893863678 0.0233222134411335 0.195906639099121 0.279641956090927 0.336175858974457 0.385844111442566 0.217720881104469 0.111594848334789 -0.0858349874615669 -0.386266052722931 -0.70448762178421 -0.722317695617676 -0.678143620491028 -0.354382753372192 1.12661492824554 2.72908759117126 4.43774175643921 4.74023485183716 4.79301643371582 4.83060550689697 4.59478998184204 5.93009662628174 9.92945194244385 14.7663545608521 17.1966743469238 17.750020980835 22.4565467834473 14.347466468811 6.50409173965454 2.89953780174255 2.60005140304565 10.8081684112549 17.1359539031982 17.9658908843994 15.5739326477051 10.85999584198 8.35522365570068 5.74604845046997 5.85287857055664 6.84283447265625 6.82218933105469 5.10379934310913 4.24781799316406 2.15770840644836 1.99911725521088 1.45303452014923 1.14626753330231 3.2258186340332 2.15669226646423 2.57030510902405 1.44517612457275 1.77953267097473 1.97691035270691 4.41166830062866 7.90466690063477 6.09503269195557 2.55390930175781 2.46703720092773 2.4966766834259 2.51559233665466 2.48994469642639 2.50538110733032 2.44450783729553 2.42404055595398 2.58185505867004 2.74771404266357 2.7758321762085 2.71789050102234 2.57480478286743
0.567453324794769 0.482404351234436 0.44621142745018 0.396466195583344 0.368226200342178 0.420722424983978 0.967605829238892 1.61316287517548 2.15245342254639 2.94407296180725 3.30073952674866 3.33890247344971 3.29335856437683 3.31302928924561 3.2641761302948 3.37596464157104 3.54316163063049 3.5459611415863 3.3917760848999 3.19654703140259 2.95619201660156 2.69450426101685 2.49442911148071 2.27320957183838 2.10137724876404 2.26704454421997 2.4865357875824 2.55841588973999 2.56838798522949 2.43876814842224 2.13096523284912 2.09561824798584 1.94081604480743 2.00211095809937 2.09009981155396 2.37955951690674 2.83294820785522 2.80432844161987 3.04241561889648 2.83011603355408 2.24410128593445 1.39933550357819 1.10318505764008 1.76666283607483 2.39779043197632 2.00712370872498 1.30316054821014 -0.18416453897953 -0.432880073785782 0.703364014625549 1.35559213161469 1.58161795139313 3.32268190383911 2.68658947944641 2.56205487251282 3.09496879577637 3.10058188438416 4.30807781219482 5.98128509521484 5.4123682975769 3.7750518321991 4.12060594558716 4.32208490371704 4.30216455459595 4.76826810836792 5.26668262481689 5.58839511871338 6.53857088088989 6.02612161636353 5.87809705734253 6.12958288192749 6.01536130905151 6.18368053436279 5.84405469894409 5.96418571472168 6.46394777297974 6.84113693237305 6.6167516708374 6.75321912765503 7.22131681442261 6.61578845977783 5.45098924636841 5.15958690643311 5.9427490234375 6.48618078231812 6.09435749053955 6.46244621276855 4.30856704711914 3.77027106285095 4.15996789932251 4.53195953369141 7.87365245819092 6.674485206604 10.0536613464355 8.77064037322998 2.66387438774109 0.596090078353882 0.280554622411728 -1.0393500328064 -0.729876399040222 -0.619911432266235 -0.540796041488647 -0.454627484083176 -0.247948050498962 0.0529853850603104 0.477982550859451 0.516925692558289 0.523683071136475 0.377810090780258 0.460628539323807 0.479240357875824 0.316436558961868 0.0197918377816677 -0.310177028179169 -0.616891860961914 -0.646610379219055 -0.429170787334442 0.293983906507492 1.22050881385803 3.07265138626099 5.26394653320312 6.90669727325439 5.98187923431396 5.98191976547241 7.09504747390747 7.26551914215088 10.1921377182007 12.0552415847778 17.6643486022949 18.1549301147461 9.84840774536133 7.76222944259644 6.09935522079468 3.50168824195862 3.23968076705933 5.31353235244751 6.25247049331665 14.4161176681519 18.1722221374512 10.9534206390381 6.71967887878418 5.19564342498779 5.98671770095825 9.03066730499268 5.00746726989746 4.87620401382446 4.08030891418457 2.14785003662109 2.04722476005554 1.73104286193848 1.27126252651215 1.19209372997284 1.12019777297974 1.13774037361145 1.38961267471313 1.8160628080368 2.07886171340942 2.23663663864136 8.78398323059082 12.8329315185547 3.2828848361969 2.71691727638245 2.65478134155273 2.65781664848328 2.61585807800293 2.56804037094116 2.45563936233521 2.42494177818298 2.69550657272339 2.88596296310425 2.92550563812256 2.8884289264679 2.76192474365234
