NCOLS 174
NROWS 32
XLLCORNER 353728
YLLCORNER 6700096
CELLSIZE 16 
NODATA_value -3.4e+38 
3.9572160243988 3.83634757995605 4.34316921234131 2.00580954551697 2.72580933570862 2.8552885055542 3.25492167472839 2.74784088134766 2.15608215332031 2.30032205581665 2.54275107383728 2.87813544273376 4.02552890777588 5.06897592544556 6.18167161941528 5.33341503143311 5.45026636123657 4.83775997161865 3.55301547050476 7.36687517166138 7.37346220016479 8.2982292175293 5.4937310218811 2.94615936279297 9.38349914550781 11.5996189117432 12.2118902206421 13.985969543457 1.38144195079803 10.5881519317627 25.5226955413818 28.3454761505127 2.01143217086792 1.595618724823 2.31264638900757 3.50030636787415 5.31021118164062 5.23345518112183 5.83882570266724 5.139244556427 4.13959789276123 4.51720952987671 4.67336273193359 4.99821519851685 6.09082412719727 6.26468086242676 6.8574595451355 6.94122695922852 7.96793222427368 8.14355278015137 9.00130176544189 8.3418025970459 7.99998474121094 9.00795650482178 7.50638723373413 8.37027359008789 6.02276659011841 5.3345685005188 6.62589836120605 6.35319328308105 13.7096529006958 15.0328588485718 13.4210138320923 14.8792514801025 17.611722946167 14.8069839477539 23.344877243042 6.64340496063232 7.701256275177 7.76059913635254 16.1135768890381 10.3516902923584 15.5731239318848 8.95765399932861 8.32011127471924 8.25094890594482 33.7116394042969 23.8063526153564 31.6997089385986 1.89993834495544 3.81929564476013 3.37756633758545 3.63485956192017 1.59585058689117 4.33468627929688 2.43090105056763 1.68384778499603 1.48628878593445 2.47492504119873 1.55330038070679 4.48378849029541 4.85569095611572 7.93043041229248 12.0137481689453 22.205286026001 27.0339794158936 23.840934753418 31.4726257324219 22.4561824798584 31.1672763824463 30.4250907897949 21.5565128326416 18.8176155090332 21.7327823638916 8.19210433959961 16.8069648742676 16.3288707733154 16.1330223083496 8.77378463745117 7.72318506240845 6.70325040817261 14.9876394271851 17.782075881958 7.85500574111938 7.46645736694336 4.67400550842285 8.67029666900635 9.26190376281738 11.971342086792 24.4978637695312 20.9882278442383 25.5638484954834 31.8938217163086 0.933230757713318 7.32125616073608 12.4367570877075 9.40531158447266 7.58834362030029 12.5140295028687 18.3758544921875 11.2786569595337 6.98944139480591 2.15015006065369 -3.32506155967712 3.87509489059448 4.21886253356934 2.85572695732117 21.0632495880127 -1.46810686588287 1.57012557983398 1.12427139282227 14.1616182327271 17.7921810150146 23.4189510345459 23.9620914459229 13.5140771865845 27.2134342193604 9.44968605041504 9.89184379577637 3.27393388748169 5.15273571014404 11.7497682571411 10.3342237472534 9.72560214996338 15.2522773742676 9.3248176574707 12.5224189758301 10.9983768463135 16.9020233154297 7.2509913444519 9.14618682861328 9.58157253265381 9.13639163970947 12.2144136428833 13.6277513504028 19.995548248291 21.9166736602783 25.3340911865234 23.6475486755371 22.5141124725342 21.7469654083252 19.1889057159424 14.0961580276489 13.0073843002319
3.6947033405304 3.58642625808716 4.11188936233521 2.11096477508545 2.55956125259399 3.06477546691895 2.69551801681519 2.50000667572021 2.04077744483948 2.22465300559998 2.45472097396851 3.1280152797699 4.50433874130249 4.91093158721924 5.90276098251343 5.15869951248169 4.8944878578186 3.08951282501221 6.22283267974854 6.93876218795776 7.87201309204102 6.92188549041748 5.18529558181763 2.63431406021118 7.7448582649231 9.88420677185059 7.19123506546021 11.1101684570312 40.7539176940918 13.7979707717896 13.2276210784912 14.6194381713867 1.94819462299347 0.792044579982758 0.905411601066589 3.78958749771118 4.99894952774048 4.94946908950806 5.48182916641235 4.85775089263916 3.91988968849182 4.20648431777954 4.26308965682983 4.67729997634888 5.6543493270874 5.41233921051025 6.3030104637146 6.18473625183105 7.193115234375 7.36307382583618 8.26039218902588 7.68453073501587 7.40956830978394 8.25381946563721 6.9828987121582 7.69964122772217 5.61486959457397 6.09984588623047 6.16951560974121 6.07776641845703 11.2217073440552 11.9243450164795 11.3721017837524 12.9274682998657 14.7324714660645 10.7084331512451 13.5308065414429 25.1627006530762 27.6262073516846 2.00801062583923 6.53684186935425 23.7617721557617 10.4410018920898 5.84641170501709 6.47704076766968 6.46672630310059 18.2451763153076 25.2218132019043 18.6437816619873 19.4875679016113 1.55475091934204 1.28069710731506 1.39172089099884 1.55818569660187 0.677001774311066 1.68057072162628 5.88689804077148 9.49731636047363 8.86619281768799 1.57451605796814 3.3944308757782 7.19583129882812 18.9904289245605 9.74507141113281 17.1718444824219 21.2044277191162 24.8534507751465 25.7356662750244 29.1251602172852 29.3140544891357 21.559497833252 19.0226497650146 20.2960605621338 18.1012439727783 29.2962474822998 23.6691818237305 22.0853824615479 7.97448492050171 5.7940616607666 7.97527837753296 25.3623294830322 10.679217338562 13.2400760650635 8.62160873413086 8.76325416564941 25.8234596252441 6.2386589050293 7.12825870513916 9.37798023223877 22.2706336975098 21.5537395477295 9.63923454284668 20.187219619751 25.3958930969238 15.193247795105 11.4840145111084 7.79772329330444 8.74005317687988 11.1578378677368 13.447582244873 10.1159019470215 4.81035327911377 1.97183990478516 2.19755959510803 10.5329141616821 21.9568786621094 6.73995018005371 12.5211954116821 5.15997648239136 7.59815263748169 11.0503253936768 7.28108787536621 15.1213817596436 13.7366218566895 11.7786407470703 13.7282638549805 12.0522737503052 0.89714378118515 3.5950710773468 2.68120980262756 3.48002862930298 3.5913028717041 1.56870555877686 0.764826714992523 6.73402214050293 13.0765438079834 11.4683313369751 8.19456577301025 6.65907430648804 34.0419006347656 8.49858951568604 6.90342664718628 8.41830062866211 10.8900995254517 12.0254468917847 17.4978485107422 18.6807346343994 21.7820205688477 20.4335708618164 19.5604381561279 18.8641319274902 17.0883979797363 12.453498840332 11.6888589859009
3.4589204788208 3.34797215461731 3.8467276096344 1.80180251598358 2.34203362464905 2.75901627540588 2.30903315544128 2.18378043174744 1.98770332336426 2.31834840774536 2.60465455055237 2.98162508010864 4.42581748962402 4.20738124847412 4.76715850830078 4.93735647201538 4.7109432220459 2.97457098960876 5.9432692527771 6.60266304016113 7.33798027038574 4.54814767837524 4.92352819442749 2.58986353874207 6.60981607437134 8.61813640594482 6.00413942337036 9.12781143188477 22.9678344726562 10.6441631317139 9.69165229797363 1.64369821548462 3.7626781463623 0.325749665498734 0.666139960289001 3.55330514907837 4.72002267837524 4.74503755569458 5.22559452056885 4.36168098449707 3.56908273696899 3.95672821998596 3.97408080101013 4.49339151382446 5.25483226776123 5.68329668045044 5.87697744369507 5.76834440231323 6.57230138778687 7.49388980865479 6.93798637390137 6.69428300857544 7.5020318031311 6.74232816696167 7.04700326919556 4.95011186599731 5.28724718093872 5.70564937591553 5.80701017379761 6.71073913574219 9.50852489471436 10.1546211242676 9.80728816986084 11.4489974975586 12.9517631530762 10.2269515991211 11.4361629486084 14.6096830368042 15.7592334747314 27.4839534759521 24.9192810058594 11.2059774398804 7.78095149993896 4.82472276687622 4.61176061630249 10.7071228027344 15.7540864944458 15.4150876998901 7.60871887207031 17.9465198516846 27.2502498626709 15.6752910614014 1.2766979932785 8.86587333679199 6.74517726898193 14.6818981170654 13.4544506072998 17.3341579437256 18.3587474822998 17.962308883667 7.74414539337158 4.54507160186768 8.59634876251221 10.9144601821899 14.3859081268311 18.1211071014404 17.2217636108398 14.9713106155396 16.3140544891357 24.2324123382568 20.2154750823975 15.3110084533691 15.5805816650391 9.95872020721436 10.0136747360229 8.20398807525635 4.52334880828857 5.0670018196106 6.60078716278076 5.5327320098877 16.846607208252 9.53427314758301 10.4870681762695 16.3255290985107 7.17435884475708 12.4649362564087 3.58507561683655 3.29785823822021 5.10491609573364 18.3101749420166 23.6469783782959 42.1342506408691 23.6938343048096 20.124828338623 17.5240268707275 20.9464836120605 15.6637239456177 11.9153327941895 10.6356115341187 8.16470432281494 8.08897972106934 4.57021427154541 17.4414463043213 35.4712944030762 32.6767272949219 16.8211326599121 53.8531723022461 4.15685415267944 3.71328401565552 11.4136772155762 12.0116624832153 13.0662517547607 12.9060134887695 12.5467014312744 8.26777362823486 6.72116470336914 4.87496042251587 15.7096300125122 20.3818817138672 20.4087886810303 5.26886081695557 2.18472528457642 0.266650646924973 4.73728799819946 20.1635284423828 32.7997245788574 50.4148406982422 41.5232734680176 3.82746887207031 20.0006713867188 8.08348369598389 7.20638084411621 7.27119541168213 9.9332160949707 10.9061269760132 15.6122140884399 16.3635177612305 19.1034545898438 18.021297454834 17.2852478027344 16.6879329681396 15.4364070892334 11.7889013290405 10.9715251922607
2.80485796928406 3.09030938148499 3.60049629211426 1.65058612823486 2.12958216667175 2.53906083106995 2.0603289604187 1.92628836631775 1.89688241481781 2.25179767608643 2.52808594703674 2.92520403862 4.37205410003662 26.8167400360107 4.56889295578003 4.74334239959717 4.52642488479614 3.07913041114807 5.72088241577148 6.34854888916016 6.94291305541992 4.80985355377197 2.25777339935303 4.23657655715942 7.69010448455811 6.09516477584839 5.14202451705933 16.4979496002197 4.90908765792847 8.88925743103027 7.64595031738281 1.39820039272308 6.46176767349243 42.8209266662598 37.619800567627 3.31910014152527 4.46023416519165 4.77432441711426 4.18410158157349 3.93990445137024 3.22725915908813 3.73262906074524 3.93661189079285 4.37434339523315 4.90771579742432 5.27639484405518 5.52580833435059 5.41962242126465 5.97848033905029 6.90534973144531 6.40524911880493 6.20632266998291 6.98887920379639 6.30362892150879 6.57902956008911 4.75589895248413 5.02350521087646 5.35095739364624 5.46969747543335 6.27063179016113 8.28372192382812 8.99305248260498 9.86585426330566 10.1321401596069 11.5120897293091 9.15820407867432 10.8803243637085 11.0979862213135 6.27207565307617 15.13134765625 13.3484544754028 6.00103425979614 6.54357051849365 4.22378969192505 4.18917942047119 7.73128938674927 11.9765634536743 11.8384952545166 17.2350406646729 7.67483615875244 19.1468410491943 2.22373628616333 0.861958682537079 9.41017436981201 32.5412063598633 11.6225061416626 12.744610786438 9.57649803161621 12.122462272644 14.9306783676147 12.1892166137695 5.43240690231323 8.53942966461182 8.78450202941895 10.0074729919434 15.9954261779785 9.82253837585449 19.051778793335 22.3886013031006 21.8174018859863 16.5881500244141 13.8957204818726 14.3240356445312 11.6300039291382 13.8467140197754 5.26250600814819 4.7236852645874 4.74930715560913 6.17798662185669 6.14614772796631 10.751992225647 9.24434566497803 6.58357095718384 6.01804685592651 -0.774981915950775 2.89267563819885 0.724160313606262 -0.938245356082916 4.44428014755249 7.49812746047974 19.0354251861572 26.1641654968262 22.9317417144775 39.2244758605957 26.2152214050293 23.4837799072266 16.0614471435547 11.8285236358643 10.2659931182861 6.06309127807617 6.82152938842773 3.54827547073364 29.9547271728516 26.1453380584717 24.27294921875 34.5707511901855 38.8421630859375 27.8583812713623 7.61786460876465 8.25895309448242 7.74070358276367 8.81093692779541 12.3861961364746 11.8826465606689 11.4014377593994 21.9655456542969 21.3207206726074 23.322135925293 15.5661239624023 15.8072748184204 10.7074337005615 1.63166844844818 15.7062177658081 17.1488208770752 46.1646156311035 36.0634880065918 31.9902191162109 23.8395004272461 49.5559272766113 6.36820936203003 7.29093408584595 6.82853841781616 8.52798748016357 9.36132717132568 13.5087089538574 12.9177227020264 14.6281242370605 16.999397277832 16.0966758728027 15.5003232955933 14.9788513183594 11.6759223937988 10.847412109375 10.4587593078613
2.86136627197266 3.34309577941895 1.4661500453949 1.90654146671295 2.06144952774048 2.31842517852783 1.81413114070892 1.77768492698669 1.83996307849884 2.2139458656311 2.47121095657349 3.43698883056641 4.20218372344971 14.057074546814 4.42289161682129 4.5887279510498 4.08445644378662 2.98159670829773 5.50445604324341 6.12808609008789 6.66204166412354 4.51369714736938 1.98084986209869 5.17650318145752 6.9224271774292 5.00922441482544 5.30675268173218 12.9637365341187 4.37653779983521 7.64216613769531 6.28695392608643 0.474468737840652 12.5364112854004 24.7373142242432 20.7551097869873 4.09934520721436 3.95083928108215 4.46773290634155 3.9374668598175 3.08686256408691 3.07731223106384 3.51591062545776 3.68120193481445 4.06209278106689 4.57002449035645 4.90777254104614 5.11583757400513 5.35216522216797 5.44158792495728 6.4084267616272 5.97618722915649 5.82361793518066 6.5680365562439 5.96701145172119 6.11791515350342 4.69151639938354 4.11033821105957 5.06429004669189 5.20209169387817 7.25229978561401 7.75917863845825 8.22958278656006 8.91145420074463 9.09188556671143 10.1516427993774 8.10312080383301 9.12767887115479 9.01370716094971 10.3834161758423 9.50016498565674 7.87234783172607 4.65682601928711 5.74474334716797 3.8631386756897 3.88409876823425 6.11324214935303 9.57617378234863 9.46247482299805 10.1793794631958 15.0665149688721 14.9619007110596 2.21629452705383 23.001256942749 21.5918941497803 12.6203804016113 7.755784034729 8.47627449035645 7.32400226593018 12.5145721435547 6.81629943847656 6.0733323097229 9.71440124511719 7.76611089706421 7.93888378143311 9.20804309844971 10.7700090408325 9.49756622314453 9.37602424621582 25.2312545776367 18.656925201416 10.4380712509155 11.9592094421387 12.1178340911865 26.6583957672119 8.08914566040039 19.1159915924072 3.59453725814819 4.00440406799316 9.97776317596436 26.6124706268311 8.9997673034668 8.39936351776123 9.22143745422363 20.8913326263428 12.954701423645 -0.283312678337097 -1.47810363769531 -1.6585453748703 -1.0364305973053 4.76757574081421 17.5622520446777 17.5235824584961 21.145528793335 21.5733966827393 27.3264579772949 19.2538757324219 25.6589641571045 27.4817981719971 28.2556552886963 11.3053722381592 12.0332345962524 17.3139686584473 17.4483871459961 26.0990085601807 17.4832077026367 27.587911605835 19.4044342041016 23.7290325164795 25.1647148132324 20.4875011444092 7.95151042938232 7.68952465057373 11.8691654205322 14.5830059051514 26.8503170013428 25.8441753387451 28.9056129455566 17.3715362548828 23.1958427429199 11.0014228820801 13.739857673645 23.7446899414062 23.3329086303711 30.5931129455566 25.6022319793701 22.3676605224609 15.9524822235107 11.7552089691162 31.6403293609619 5.68419647216797 6.94854974746704 6.4979100227356 7.93015813827515 8.78095817565918 12.3276538848877 12.4507884979248 14.5711860656738 13.9175968170166 13.9896383285522 13.1623497009277 12.6615610122681 10.6580657958984 9.97915935516357 9.18418598175049
2.62523818016052 3.13751292228699 1.39292144775391 1.67120635509491 2.07913851737976 1.85778546333313 1.74866259098053 1.72044897079468 1.81793248653412 2.20336651802063 2.75243353843689 3.84629106521606 8.55312919616699 4.87865591049194 4.3591046333313 4.20121431350708 2.63214683532715 2.89755010604858 5.77660942077637 5.50268888473511 6.40555906295776 4.28340482711792 1.95621585845947 4.72283124923706 6.28405714035034 4.54980754852295 6.25286531448364 10.73708152771 3.85629749298096 6.70123767852783 5.38667058944702 0.488619893789291 16.3166770935059 13.2735252380371 2.94497013092041 3.92594933509827 3.75306582450867 4.21648693084717 3.68364644050598 2.92500925064087 3.16087174415588 3.24937987327576 3.45709609985352 4.12426996231079 4.19827508926392 4.5570650100708 4.75902032852173 4.91751146316528 5.04516792297363 6.0367636680603 5.63319778442383 5.46073913574219 6.12743043899536 5.39740228652954 5.69450855255127 4.43486738204956 3.91561579704285 4.86046171188354 4.63305711746216 6.6865029335022 7.1085638999939 7.55809116363525 8.10120677947998 8.85085201263428 7.17564344406128 6.83642148971558 7.44050884246826 7.52254867553711 8.24071884155273 7.52175617218018 6.43861436843872 5.45863580703735 3.67007923126221 3.52659320831299 3.50807762145996 5.21522426605225 7.93479251861572 7.80020332336426 8.17110157012939 11.4250659942627 11.76025390625 36.479175567627 29.7377319335938 7.39743804931641 6.83232355117798 2.73956227302551 6.30660486221313 6.09882879257202 8.71358680725098 4.72588062286377 4.24199819564819 5.45833349227905 6.78036117553711 6.74977540969849 8.01691055297852 9.01737594604492 6.62200021743774 17.7774410247803 12.4525852203369 17.5109157562256 11.9638690948486 10.3152933120728 7.82103443145752 10.7242746353149 34.9950180053711 9.11776924133301 34.4850578308105 34.3877143859863 12.9487075805664 18.8518123626709 12.5083198547363 17.8896255493164 8.04085826873779 3.32047653198242 5.65729379653931 -0.461543798446655 -1.74253010749817 -1.85753631591797 -0.250916182994843 3.10801649093628 6.90263032913208 15.2119169235229 17.0669116973877 17.04368019104 16.3515167236328 28.6211318969727 19.722354888916 19.9029541015625 22.6884613037109 23.3460083007812 14.5445594787598 12.5605173110962 3.93079471588135 14.2809057235718 14.3562021255493 22.2240104675293 26.7416591644287 35.7458000183105 10.8439340591431 11.4912242889404 25.7627811431885 14.892840385437 15.4672193527222 15.8071823120117 18.4259185791016 22.1991386413574 21.6389656066895 19.3552589416504 16.5520458221436 16.9920063018799 22.2715721130371 20.2986946105957 38.8826065063477 32.38623046875 18.5452175140381 18.723237991333 14.1177988052368 21.5814609527588 6.02941131591797 22.1417789459229 5.74122381210327 6.19156074523926 7.38678789138794 8.39402198791504 11.2890377044678 11.2784986495972 13.2163715362549 12.8596782684326 12.9828701019287 12.0716495513916 11.683177947998 10.0290622711182 9.48424434661865 8.13305759429932
2.41395497322083 2.89822149276733 1.25430381298065 1.54019021987915 1.91173911094666 1.52640235424042 1.54682099819183 1.57629191875458 2.10157895088196 2.33165884017944 2.74756217002869 3.87860774993896 6.95790100097656 4.01648330688477 4.24092817306519 4.1001238822937 2.58186745643616 4.9871621131897 5.55811357498169 6.02509307861328 5.27497625350952 4.07877063751221 1.90059971809387 4.36349868774414 5.77262687683105 4.1615571975708 5.60715293884277 9.07753849029541 6.18767118453979 4.62423896789551 4.71843910217285 0.712067902088165 12.7331552505493 10.272931098938 2.83776378631592 3.7822892665863 3.67008066177368 3.99487352371216 3.18790793418884 2.5770537853241 2.88995981216431 2.8553295135498 3.3626503944397 3.84851264953613 3.69798922538757 4.34482622146606 4.35439968109131 4.55348491668701 4.66758680343628 5.65150213241577 5.23397016525269 5.07464647293091 5.71434354782104 5.0920991897583 5.3613486289978 4.21198892593384 4.41005086898804 4.60958909988403 4.39694452285767 6.02964019775391 6.97749662399292 6.39027070999146 7.45338582992554 7.88371133804321 6.26253128051758 5.68314552307129 6.29468584060669 4.17073583602905 1.19757437705994 6.32671880722046 5.65284490585327 5.04069089889526 3.57008194923401 3.39557385444641 3.35515284538269 4.74249172210693 6.75027084350586 6.66448831558228 6.66876363754272 9.06019306182861 13.4636735916138 19.8391132354736 15.6258268356323 23.5633735656738 14.0547428131104 25.8865795135498 3.77700781822205 5.41480731964111 3.50806140899658 3.38861131668091 3.80642485618591 5.40027618408203 6.73912620544434 8.41526794433594 19.6571445465088 8.92434787750244 22.7187328338623 11.4464874267578 11.51171875 11.7183837890625 8.9578218460083 9.63321113586426 26.1793632507324 9.63744163513184 9.94448280334473 21.9442291259766 31.6914138793945 31.2040348052979 26.6212844848633 22.0799083709717 12.302038192749 12.3622627258301 8.06735324859619 31.3019504547119 39.4858283996582 4.23405838012695 28.2861919403076 3.34057068824768 33.1846618652344 12.4567070007324 23.5107383728027 11.0177335739136 21.9814987182617 12.8834648132324 15.0296268463135 16.2370738983154 45.8079605102539 36.3435287475586 51.0372047424316 28.0289821624756 27.0249652862549 6.99094581604004 50.6552734375 10.1042747497559 0.727583944797516 9.86950302124023 21.4081707000732 28.053092956543 29.7054042816162 8.85392761230469 10.0237426757812 10.4496831893921 10.1993579864502 12.446084022522 16.908805847168 18.7772350311279 16.5652027130127 16.1360988616943 14.1503715515137 26.4196949005127 34.2480087280273 37.3501129150391 33.1757659912109 27.5539627075195 17.862060546875 12.4854784011841 12.4629878997803 17.0778388977051 28.9565563201904 13.2013063430786 5.68221807479858 5.9686803817749 7.03152227401733 7.93657398223877 10.4471874237061 10.3574705123901 12.1216535568237 11.6301889419556 11.3752479553223 11.1125526428223 10.8478012084961 9.53451633453369 9.01416015625 8.75788497924805
2.29286074638367 2.72360467910767 1.14237725734711 1.46679425239563 1.76172029972076 1.40682637691498 1.43725872039795 1.45953333377838 2.0639181137085 2.41759634017944 2.98780512809753 3.87857270240784 5.94617986679077 3.87928819656372 4.04318428039551 3.99105167388916 2.72843027114868 4.83470487594604 5.37161493301392 5.79476022720337 3.36640810966492 3.88646531105042 3.32578802108765 5.50545930862427 4.14259672164917 3.57127356529236 5.06158494949341 7.83259534835815 5.59214496612549 4.55046892166138 1.33305859565735 1.72820115089417 10.4407033920288 8.38541984558105 2.73025965690613 3.64861416816711 3.72368454933167 3.18399620056152 2.98025870323181 2.33233213424683 2.70244193077087 2.67262864112854 3.06696724891663 3.58299660682678 3.73331141471863 4.02367067337036 4.02055168151855 4.32195997238159 5.18250513076782 4.79419231414795 4.67684555053711 5.30762767791748 4.95467615127563 4.98003673553467 3.86024379730225 4.0003137588501 4.18395662307739 4.38272714614868 4.92936325073242 5.70143795013428 6.56168460845947 6.92787790298462 6.97686338424683 7.00461196899414 5.47405004501343 2.1869843006134 2.11003613471985 11.778600692749 0.964713394641876 2.39395546913147 2.11862707138062 4.64549589157104 3.45187878608704 3.28639149665833 3.33221578598022 5.15798234939575 5.24292612075806 5.12012672424316 5.58835697174072 7.41199111938477 13.4175386428833 14.0253057479858 9.18827438354492 12.0874252319336 7.04709959030151 13.5372047424316 1.90980327129364 4.63480567932129 3.31450986862183 3.51713085174561 5.01812410354614 10.2241945266724 12.4361705780029 7.46332788467407 8.91926574707031 7.48285293579102 15.8535375595093 10.8493156433105 9.23689746856689 9.99205684661865 21.0410442352295 5.72237253189087 6.0239052772522 7.11517381668091 4.51566505432129 15.2056751251221 10.2300100326538 13.4913282394409 15.3907155990601 11.3290996551514 8.83835601806641 10.5149927139282 22.1335163116455 29.0201168060303 24.587043762207 41.6514434814453 41.2599792480469 38.718391418457 23.4835815429688 8.60834121704102 5.48595285415649 10.1400928497314 13.2609148025513 36.3956260681152 14.985312461853 38.7634086608887 32.7607612609863 33.9472122192383 32.475456237793 34.5942573547363 8.1643123626709 6.18678188323975 31.7744216918945 0.294179052114487 12.9977512359619 5.12286615371704 17.6941547393799 22.7198352813721 38.7710304260254 32.812801361084 8.83135986328125 12.9174556732178 9.95365333557129 11.7138872146606 15.0100364685059 14.9038162231445 15.1573362350464 12.4751329421997 16.2251815795898 20.80246925354 30.4838714599609 28.1951084136963 26.7873802185059 20.6458625793457 16.0350112915039 24.6086692810059 11.2796726226807 15.6253204345703 17.571044921875 6.40996122360229 5.59538173675537 6.50255060195923 7.00932836532593 9.66684627532959 9.13877582550049 10.2514095306396 11.3119888305664 10.9566230773926 10.5838165283203 10.3490839004517 9.18655109405518 9.07944107055664 8.53770065307617 8.23233985900879
2.13264012336731 2.53876614570618 1.12531936168671 1.40088963508606 1.66297519207001 1.38051104545593 1.36392438411713 1.55572474002838 2.04115653038025 2.37443876266479 2.6688277721405 3.74103999137878 4.96746492385864 3.78497362136841 3.96939325332642 3.86942338943481 2.63532495498657 4.68130826950073 5.21188402175903 5.59859943389893 3.64981365203857 1.8074117898941 3.87630200386047 5.19442462921143 3.73581051826477 3.79528832435608 6.98906946182251 3.01729702949524 5.10143852233887 4.16314029693604 1.6389696598053 2.94161987304688 8.79033946990967 7.03616952896118 2.62988567352295 3.52001929283142 3.56601905822754 3.04028534889221 2.31741666793823 2.15838766098022 2.50121569633484 2.53223013877869 2.90709614753723 3.3257462978363 3.46771335601807 3.74810838699341 3.70891904830933 3.95319104194641 4.92603731155396 4.58197116851807 4.44132137298584 5.01883888244629 4.71250247955322 4.73709440231323 3.72611093521118 3.84335374832153 3.9953179359436 4.17990970611572 5.07330656051636 5.44293880462646 6.04855108261108 6.25581169128418 6.33297395706177 6.46208810806274 4.94883632659912 21.9437599182129 10.2953157424927 1.36053192615509 4.18576002120972 14.2755613327026 23.0304393768311 3.57589435577393 2.35203337669373 3.18936777114868 3.00785636901855 4.25013971328735 4.17080068588257 4.39175415039062 3.46256804466248 6.16856002807617 10.0174474716187 11.0623321533203 8.07710075378418 7.63635063171387 8.17265701293945 5.63996982574463 0.931000947952271 3.75788497924805 15.1926136016846 3.42448568344116 4.98717451095581 4.83795690536499 8.22943115234375 7.06714820861816 7.30494451522827 6.6384744644165 8.06381511688232 9.29363918304443 8.77159214019775 7.79762697219849 7.34712171554565 3.70940184593201 3.47117638587952 3.103440284729 3.21873378753662 3.71768116950989 3.50845623016357 6.3097128868103 5.15371465682983 7.39637851715088 7.63871717453003 7.43353986740112 21.851053237915 23.2480335235596 17.3283538818359 25.3308429718018 30.7358684539795 43.9658203125 42.4052200317383 26.495246887207 43.6597671508789 14.321722984314 13.5364103317261 24.4691734313965 22.0527324676514 27.4705028533936 23.267894744873 22.7580528259277 25.1591339111328 25.0232009887695 24.7644577026367 6.03616571426392 5.81164836883545 3.39786052703857 11.9131689071655 24.9501094818115 7.87827157974243 23.3243846893311 27.2937870025635 39.1427040100098 46.2831726074219 36.4758071899414 17.8341789245605 12.0415058135986 14.7379217147827 17.8420734405518 22.6596851348877 26.9751491546631 51.9826698303223 47.9645080566406 34.8451728820801 24.1959857940674 22.0365200042725 16.0360317230225 14.5241718292236 9.88075542449951 10.5082931518555 14.0217514038086 8.07454013824463 5.95451641082764 5.5628776550293 6.36127424240112 7.41884469985962 9.4314489364624 9.15378570556641 10.4977521896362 10.5014877319336 10.509204864502 9.8217248916626 9.52046871185303 8.75886154174805 8.2349681854248 8.11253070831299 7.74126863479614
2.38485789299011 0.804464221000671 -0.893060207366943 1.41436290740967 1.5619490146637 1.30288803577423 1.34405601024628 1.71550393104553 1.98808646202087 2.31250357627869 3.13669633865356 3.63188600540161 4.49841451644897 3.78326272964478 3.93863010406494 3.51181125640869 2.56509757041931 4.9291615486145 4.66436767578125 5.40547800064087 3.51822781562805 1.58628690242767 3.55767679214478 4.91756629943848 3.55656027793884 4.48695087432861 6.36847496032715 2.81056094169617 4.69384622573853 3.82793664932251 1.85689425468445 5.42057609558105 7.60623455047607 6.04685068130493 3.38309526443481 3.09895944595337 3.42127466201782 2.90805697441101 2.1977596282959 2.21841502189636 2.2517511844635 2.38089776039124 2.71278119087219 2.95242714881897 3.1328272819519 3.48215293884277 3.45046401023865 3.66375279426575 4.49160861968994 4.17848443984985 4.07614994049072 4.65637350082397 4.41232681274414 4.43279218673706 3.61525893211365 3.29737949371338 3.81258797645569 4.02024221420288 4.67733812332153 4.92415142059326 5.49007797241211 5.73315525054932 5.86984586715698 5.16626453399658 3.97878074645996 8.51291847229004 1.80313944816589 14.323769569397 19.0840244293213 16.0560855865479 5.8364896774292 2.35876679420471 12.8449048995972 1.97132408618927 2.89985346794128 3.70471668243408 3.44119930267334 3.48217487335205 5.01487684249878 5.41742181777954 7.7612681388855 8.84198093414307 6.28934621810913 6.1212215423584 5.99215602874756 1.20890402793884 21.5772228240967 5.62618398666382 11.6437406539917 10.4786262512207 4.65896654129028 4.83611679077148 5.28504657745361 6.98082494735718 6.78762722015381 5.84403562545776 6.44374752044678 7.64367055892944 9.7322826385498 7.12110376358032 5.17067766189575 1.9030909538269 1.05658555030823 0.41055890917778 1.95563364028931 3.62474226951599 10.8030643463135 3.80025911331177 21.2349376678467 6.710289478302 5.33446025848389 4.66962337493896 16.8559837341309 13.9647359848022 14.8679218292236 19.4869956970215 28.220365524292 25.0429134368896 23.0846576690674 22.8170280456543 15.426139831543 11.7004222869873 11.5767812728882 17.9376888275146 14.478138923645 14.2092561721802 19.041862487793 19.5980854034424 20.9596977233887 20.3407135009766 38.8394393920898 23.2167148590088 30.4540138244629 35.8816566467285 31.3043689727783 9.54165649414062 7.34008502960205 10.6064529418945 19.716215133667 29.0232124328613 40.4765205383301 28.1978397369385 39.4479751586914 31.3917999267578 16.2883949279785 31.9299201965332 22.5822772979736 25.4583415985107 36.5555305480957 31.5075168609619 26.2798709869385 27.4884948730469 19.5995197296143 13.8532962799072 11.6232614517212 22.2782611846924 7.55568027496338 12.8598699569702 7.56209516525269 5.89499807357788 5.55742120742798 6.27914476394653 7.3094539642334 9.23932266235352 9.01162910461426 10.2877140045166 10.2705888748169 10.1914110183716 9.46197319030762 9.01646423339844 8.17419624328613 7.61385774612427 6.93231725692749 7.28495407104492
2.30233335494995 0.77944278717041 33.7143630981445 1.42815780639648 1.18082368373871 1.24861061573029 1.26970076560974 1.49878692626953 1.94196593761444 2.50246787071228 3.52011775970459 4.29300785064697 5.2547492980957 4.41348314285278 3.68800830841064 2.30846786499023 4.30615282058716 4.75039052963257 5.17833709716797 4.48126983642578 3.36835408210754 1.53375160694122 3.3271918296814 4.61870574951172 3.36178731918335 4.21374607086182 5.85403537750244 4.48699378967285 3.36004710197449 3.54206156730652 1.91993355751038 7.03852987289429 5.42471551895142 2.47718715667725 3.28793263435364 2.99048113822937 3.29686737060547 2.79231977462769 2.09486794471741 2.09262681007385 2.10667085647583 2.38711166381836 2.65271377563477 2.62848472595215 2.87410020828247 3.24178147315979 3.25765371322632 3.44631242752075 4.18513584136963 3.88761782646179 3.791832447052 4.30683660507202 3.94414567947388 4.05644512176514 3.32023119926453 2.94269871711731 3.69058060646057 3.5268349647522 4.1585636138916 4.38575839996338 5.11620044708252 5.31957626342773 5.37589311599731 4.15288829803467 7.63485765457153 7.18465566635132 21.3455619812012 0.502540290355682 17.4243183135986 0.791062831878662 2.10636878013611 16.2558307647705 9.80497264862061 13.5798101425171 2.96365094184875 1.45337355136871 1.08417093753815 2.36419200897217 3.55072593688965 4.19474792480469 6.13305425643921 7.17867136001587 5.32134580612183 4.08404588699341 4.56088399887085 21.9309825897217 14.4258279800415 7.85390996932983 9.88197231292725 14.9152460098267 4.03703546524048 4.57704067230225 4.9692554473877 5.6610746383667 6.54431390762329 5.83682298660278 7.4171028137207 7.10906791687012 8.23126411437988 5.83489847183228 3.55695390701294 1.18724739551544 -0.29123929142952 0.121294818818569 0.79968535900116 2.51480746269226 2.57776427268982 3.61069512367249 4.26462602615356 4.91066122055054 6.70071029663086 8.62722301483154 13.3064546585083 10.4308738708496 3.20639276504517 13.6743106842041 24.8377437591553 18.2948379516602 15.8433084487915 23.2002239227295 30.0962429046631 11.1260843276978 10.3594598770142 13.4688024520874 14.6082286834717 13.7837839126587 14.0812158584595 17.2999839782715 18.5693683624268 23.2611026763916 24.6269092559814 31.1547260284424 28.0948905944824 37.7269248962402 22.9124603271484 39.0726051330566 20.2792224884033 25.3282890319824 29.755313873291 28.7948627471924 28.5694904327393 35.9522819519043 30.9472312927246 27.0427360534668 37.1106262207031 26.4752807617188 31.9921970367432 28.9759273529053 25.0363693237305 22.7671432495117 23.1431732177734 20.1027317047119 17.9417686462402 12.1227388381958 3.96898603439331 3.60441088676453 10.8903837203979 9.10219287872314 6.96441745758057 5.2672905921936 5.52575922012329 6.17265558242798 7.14255809783936 8.94314956665039 8.83387565612793 9.99996280670166 9.97914409637451 9.85364437103271 9.07826995849609 8.4666633605957 7.82634305953979 7.25091314315796 6.13488435745239 6.88240575790405
1.84667789936066 0.077291838824749 18.4990615844727 1.36100566387177 1.09063076972961 1.187992811203 1.21065151691437 1.80526864528656 1.53721296787262 2.48260045051575 3.55298471450806 4.2740535736084 4.72532415390015 3.8600025177002 3.61469149589539 2.24343800544739 4.20403432846069 4.69913625717163 5.05922603607178 2.91948127746582 3.30958700180054 1.27019953727722 3.10955214500427 4.32762575149536 3.16909050941467 3.95314574241638 5.39561796188354 4.20950937271118 3.43271207809448 1.51597487926483 1.84794437885284 6.41021776199341 4.96847486495972 2.41876268386841 3.20363664627075 3.00349855422974 3.18015003204346 2.39875745773315 1.8473573923111 1.98326086997986 1.9824675321579 2.22833514213562 2.42405247688293 2.36378908157349 2.82130169868469 2.81782555580139 3.16191744804382 3.24113535881042 3.92433452606201 3.65005540847778 3.55339288711548 4.03667783737183 3.69974184036255 3.75821828842163 3.07376599311829 3.15740323066711 3.40637755393982 3.25928711891174 3.80814933776855 4.68821096420288 4.23302364349365 4.85205841064453 4.92158460617065 3.7125723361969 5.24451923370361 5.67080307006836 10.9403476715088 40.2692527770996 8.1138162612915 39.1504287719727 1.19945883750916 2.26462841033936 3.07541608810425 1.10716426372528 2.47204446792603 1.36860990524292 18.7159652709961 1.73595583438873 2.6907787322998 1.80705094337463 2.89026379585266 4.85552024841309 4.62230157852173 3.57179760932922 3.59037351608276 16.2793235778809 2.56468963623047 5.4073920249939 9.79072761535645 7.5090970993042 3.58096837997437 4.72748470306396 19.3561172485352 18.8698806762695 5.95284557342529 5.5263032913208 6.90863132476807 9.58378314971924 7.80731391906738 5.49704933166504 8.1424388885498 0.150302350521088 -0.721927225589752 -0.385890573263168 0.222583502531052 1.36080241203308 0.935786426067352 2.57942605018616 4.0069055557251 3.45123505592346 5.19656610488892 16.8260059356689 11.2310619354248 8.56388473510742 33.5960121154785 9.60892581939697 14.8255558013916 13.4659147262573 17.6662769317627 19.1111869812012 17.9614658355713 8.78762245178223 11.1571006774902 9.93520259857178 13.7021427154541 12.0567502975464 9.64597129821777 14.9694232940674 16.7462615966797 19.7041664123535 23.6883888244629 26.27073097229 26.9679374694824 24.7298717498779 31.984977722168 13.5729684829712 7.95877742767334 23.2582187652588 19.1459770202637 23.483814239502 23.7110004425049 26.7803802490234 28.2311592102051 35.9435424804688 36.5545310974121 38.7498970031738 25.8248405456543 14.8793268203735 18.0857944488525 20.8660087585449 21.0281276702881 17.9778823852539 14.3288259506226 7.54095268249512 52.6899528503418 19.2736797332764 6.80530071258545 7.99610614776611 6.44402027130127 5.20905590057373 5.45611667633057 6.25157451629639 6.94442224502563 8.5730619430542 8.68950462341309 9.56392097473145 9.33638858795166 8.67443084716797 8.32075214385986 8.01380634307861 7.47646522521973 6.90786695480347 6.45790576934814 5.702392578125
10.6242237091064 13.2680835723877 1.03736281394958 1.28002977371216 1.04734420776367 1.17208862304688 1.29637551307678 1.71803200244904 2.0937352180481 2.43041396141052 3.47289204597473 4.12288570404053 3.62539148330688 3.75178647041321 3.55792498588562 2.39446806907654 4.12109327316284 4.60428524017334 4.91293668746948 3.19292902946472 1.58355331420898 2.31499791145325 4.06970977783203 3.04924345016479 2.89200901985168 5.06524896621704 2.50292491912842 3.96617078781128 3.22364020347595 1.32826685905457 2.47963857650757 5.91666746139526 4.6596040725708 2.38053917884827 3.1276798248291 3.08763313293457 2.5864269733429 2.31476545333862 1.67529654502869 1.88458275794983 1.86548280715942 2.0794370174408 2.23452854156494 2.25881743431091 2.5458071231842 2.51661610603333 2.76061129570007 3.61422538757324 3.36537599563599 3.25109052658081 3.69978642463684 3.51476311683655 3.43600583076477 2.80709671974182 2.83170032501221 2.88619589805603 3.12264251708984 3.45686149597168 3.54811263084412 4.24726629257202 4.36069345474243 4.441246509552 4.29750347137451 3.29768586158752 3.83885049819946 6.64957857131958 7.22850751876831 22.8257694244385 5.98338079452515 22.1310329437256 36.4094200134277 1.88853394985199 1.91786050796509 1.09531533718109 5.95353221893311 13.7768430709839 8.13595104217529 1.34742343425751 1.92729341983795 11.5473251342773 6.60836124420166 4.34512090682983 4.12888240814209 3.16490197181702 11.5219717025757 10.0074768066406 11.0909452438354 3.61158847808838 7.63641166687012 17.1446361541748 3.42145037651062 4.42259311676025 6.50304126739502 8.56891632080078 4.83659601211548 4.93965625762939 9.04941844940186 9.48872661590576 6.8535737991333 15.7264852523804 6.67017412185669 19.1048545837402 -0.375518083572388 -0.598166644573212 0.200870975852013 1.18975734710693 11.5484838485718 1.59780526161194 1.33271110057831 2.13306879997253 3.75485754013062 4.52287006378174 9.63620471954346 22.9890289306641 19.7811679840088 8.54533004760742 11.6641407012939 13.3637037277222 12.485369682312 14.8014440536499 9.96029949188232 8.00689125061035 8.26572608947754 7.52442932128906 9.11701107025146 8.59555912017822 13.7588148117065 9.9154109954834 14.0537786483765 17.3193759918213 20.0962295532227 17.611270904541 22.9183387756348 21.2681045532227 23.9209823608398 43.0404472351074 44.5566940307617 14.5785112380981 17.1950263977051 20.1915912628174 20.1866970062256 22.1024589538574 23.6966800689697 26.2959060668945 24.8075656890869 24.4687252044678 25.6633472442627 32.5321769714355 16.4590225219727 19.3797225952148 19.2879486083984 15.7991027832031 9.51943206787109 5.50066566467285 35.5233268737793 34.1089057922363 26.5702304840088 7.13734006881714 5.64723634719849 5.10672235488892 5.59034156799316 6.14651489257812 7.99428558349609 7.82256031036377 8.54769229888916 9.06574153900146 8.91578578948975 8.28764343261719 7.94561958312988 7.30014944076538 7.13191699981689 6.57831335067749 6.12514638900757 5.43464422225952
5.29842615127563 8.96001720428467 0.98218309879303 1.19231688976288 1.08655416965485 1.15014564990997 1.28861463069916 1.65447318553925 2.01998138427734 2.36140370368958 3.38841652870178 4.01028442382812 3.53189778327942 3.67960596084595 3.4783182144165 2.3549473285675 3.99435114860535 4.48908615112305 4.78806686401367 3.11417961120605 1.44650101661682 2.86558365821838 3.87188696861267 2.86096000671387 2.85915303230286 4.67959260940552 2.35319399833679 3.72643494606018 3.02048873901367 1.28931152820587 4.08011198043823 5.46206188201904 4.39383411407471 2.36277151107788 3.06972694396973 3.00537514686584 2.51106405258179 1.84741127490997 1.59938049316406 1.79092252254486 1.74892926216125 1.94251072406769 2.07042026519775 2.07196068763733 2.40834546089172 2.38534688949585 2.59442377090454 3.37436246871948 3.08948087692261 2.97298312187195 3.45093679428101 3.33212280273438 3.23730778694153 2.62821054458618 2.41225361824036 2.63618588447571 2.84630537033081 3.13314008712769 3.30858182907104 3.81000065803528 3.91550755500793 4.00162792205811 3.80878472328186 3.00027132034302 2.8756058216095 4.67269134521484 14.5741167068481 6.97344923019409 14.3415851593018 6.90848064422607 20.1141033172607 1.34959077835083 1.72866427898407 32.2783279418945 1.14688456058502 7.63377904891968 1.82020652294159 1.50241410732269 1.69843173027039 1.81571543216705 2.5437958240509 4.0650782585144 3.67536234855652 2.62114644050598 9.24127864837646 8.18290424346924 12.8887042999268 2.8611536026001 7.6642484664917 10.8588314056396 26.0470676422119 14.9029111862183 10.5369834899902 6.09339952468872 12.0511350631714 4.76272869110107 6.04445552825928 7.38463068008423 8.75638484954834 16.1913871765137 8.00011253356934 10.0976829528809 -0.376564115285873 1.14984726905823 -0.308487117290497 0.30352395772934 0.565894544124603 1.50707161426544 3.77771425247192 2.64786076545715 5.25161457061768 7.04047393798828 8.97537422180176 18.2391090393066 11.0781688690186 30.2587337493896 18.1324901580811 11.9755344390869 10.7551393508911 13.8850126266479 9.44283580780029 6.69927597045898 6.61960506439209 6.50672340393066 7.40195798873901 40.1349182128906 19.783784866333 33.5815200805664 12.8762149810791 15.4794893264771 17.7365283966064 15.6572351455688 20.1529884338379 18.959436416626 20.7212390899658 28.8442420959473 29.8675785064697 14.3357753753662 16.0793972015381 18.1560859680176 17.8117008209229 18.747465133667 20.2296104431152 21.7240581512451 21.2784423828125 19.8198223114014 22.4620628356934 28.4619731903076 30.4050769805908 18.3010730743408 14.9211120605469 15.0217313766479 30.1558132171631 44.6210060119629 13.7111339569092 22.5879058837891 15.8447389602661 5.26824378967285 5.01855087280273 4.96231126785278 5.41430950164795 6.44982671737671 7.77739715576172 7.58178472518921 8.47957038879395 8.60049724578857 8.4993200302124 7.92873907089233 7.58798503875732 6.7998366355896 6.36142778396606 6.27078866958618 5.81219244003296 5.19388866424561
-1.56393110752106 7.2628698348999 1.03472483158112 1.18440699577332 1.07262492179871 1.12715518474579 1.26641178131104 1.64685356616974 1.96185481548309 2.74765515327454 3.30276823043823 3.90873527526855 3.50989031791687 3.58842468261719 3.21157765388489 2.30221271514893 4.30053758621216 4.03588628768921 4.62849044799805 2.99579524993896 1.4372364282608 2.65533232688904 3.61043620109558 2.72198247909546 3.36802387237549 4.36099910736084 2.15904951095581 3.50427722930908 2.83442091941833 1.24962818622589 5.09530925750732 4.1502833366394 1.93055701255798 3.0622410774231 2.73035383224487 2.93678736686707 2.45142078399658 1.79029178619385 1.7108119726181 1.66037023067474 1.59005796909332 1.86186504364014 1.80040514469147 0.370297193527222 2.21044230461121 2.27165842056274 2.49015951156616 3.10885214805603 2.85755729675293 2.7369019985199 3.1762363910675 2.98062968254089 2.97776007652283 2.45711183547974 2.25224184989929 2.6175684928894 2.45476174354553 2.86199831962585 3.01391553878784 3.43859481811523 3.53363442420959 3.61682534217834 3.33647561073303 2.60002183914185 2.2417778968811 3.55483031272888 10.6770191192627 5.77455759048462 11.0571899414062 12.9702281951904 4.46496868133545 1.23738443851471 5.15919733047485 17.5265102386475 28.2006244659424 2.75198411941528 4.65176582336426 5.76872634887695 1.36982727050781 11.0509672164917 8.4598388671875 3.73117876052856 3.03064393997192 4.61073970794678 8.36387062072754 7.32170486450195 7.21261835098267 16.3519458770752 5.99915838241577 11.6008825302124 19.5359878540039 9.55895900726318 5.90625238418579 9.05685234069824 14.1526203155518 4.37878227233887 5.43859720230103 9.2179479598999 5.41385650634766 11.3894100189209 21.6532649993896 9.11497592926025 9.68556499481201 0.796804964542389 0.857430696487427 0.0520392470061779 4.52120447158813 2.14491176605225 0.652621030807495 10.6115474700928 3.73266792297363 5.84258699417114 7.43249225616455 9.09932041168213 14.9207201004028 13.8243789672852 11.2308168411255 9.88247489929199 12.1664562225342 11.9103364944458 7.1445107460022 15.5374460220337 6.33574342727661 5.82395553588867 6.80166673660278 7.78397083282471 22.5416030883789 9.61440277099609 11.9820194244385 13.7600555419922 15.7504653930664 14.3430032730103 18.3461990356445 17.3174266815186 21.1925926208496 22.3338947296143 14.5766983032227 14.8978843688965 15.2325878143311 16.8995761871338 16.2690391540527 16.6876850128174 17.6157531738281 18.3877353668213 18.5390033721924 17.6499118804932 20.5676670074463 17.2095928192139 17.5999565124512 17.112585067749 22.1072635650635 13.2379627227783 23.2678852081299 27.1209259033203 24.7004833221436 12.9309587478638 5.84578514099121 5.10543251037598 4.78193330764771 4.85129356384277 5.24184370040894 6.29993581771851 7.48526191711426 7.36225414276123 8.07356834411621 8.2125883102417 8.12638759613037 7.60385990142822 7.12306833267212 6.44800281524658 5.84658813476562 5.28754568099976 5.53537893295288 3.74066758155823
45.505931854248 5.85746431350708 1.04345965385437 0.912083566188812 1.00590443611145 1.09763395786285 1.25212848186493 1.64016366004944 2.10039710998535 3.01828289031982 3.20400381088257 3.81148099899292 3.45123147964478 3.34290504455566 2.16082215309143 3.78396153450012 4.24983072280884 4.54598188400269 3.87318515777588 2.9284942150116 1.36114311218262 2.43590712547302 3.4098961353302 2.5913450717926 3.19689631462097 4.1471152305603 3.40453958511353 2.50458407402039 2.65373301506042 1.16395223140717 4.71277809143066 3.82443761825562 2.30039262771606 2.98829698562622 2.67499709129333 2.87338900566101 2.39255952835083 1.73971486091614 1.65131008625031 1.59852540493011 1.74224460124969 1.76951575279236 1.67813622951508 7.35890245437622 0.455329447984695 2.19347071647644 2.28281998634338 2.87504172325134 2.62904381752014 2.52531313896179 2.90007352828979 2.72554445266724 2.72771573066711 2.28420758247375 2.24771451950073 2.43751358985901 2.28054237365723 2.64657783508301 2.80720591545105 3.13630700111389 3.20432209968567 3.27154469490051 2.45895719528198 2.34084844589233 2.14783835411072 2.81488442420959 8.52370643615723 4.64273452758789 9.02345180511475 0.864430129528046 6.6198034286499 10.8865528106689 5.17751884460449 3.05197834968567 15.8382911682129 3.35469913482666 1.20915925502777 4.92523956298828 1.00616145133972 0.989376723766327 1.47635781764984 3.47581481933594 2.9248628616333 3.82911252975464 7.74206209182739 6.86472463607788 1.27021706104279 9.39123916625977 5.15204334259033 18.0906600952148 15.5635194778442 26.9043445587158 27.02197265625 23.2379913330078 7.60310888290405 21.0582370758057 5.19828844070435 6.51568460464478 4.750732421875 8.78079509735107 14.3845043182373 13.412205696106 9.91779613494873 -0.11806309223175 0.298361539840698 -0.0556851401925087 0.481996595859528 0.850236415863037 9.31882095336914 10.0869398117065 3.23268222808838 5.77091360092163 5.22203683853149 8.68670272827148 11.0064792633057 10.7545146942139 12.5308675765991 10.8059406280518 11.0214204788208 8.59459018707275 6.15714359283447 5.16133737564087 9.23338890075684 5.11627912521362 6.13940143585205 7.71949148178101 7.68181467056274 29.8483867645264 11.2861948013306 11.508713722229 13.2860193252563 13.6177186965942 16.0715217590332 15.6013202667236 18.0687885284424 19.0851135253906 13.5829696655273 14.2804050445557 15.5293455123901 14.8969955444336 14.8590183258057 14.9611005783081 15.6485385894775 16.1423759460449 16.3685970306396 17.5769863128662 16.6194076538086 15.5244407653809 15.909462928772 15.3364152908325 13.7913818359375 17.2482738494873 26.2562065124512 26.3519134521484 22.3770713806152 12.1185264587402 8.08625030517578 5.0888090133667 4.44382524490356 4.69998121261597 5.4999737739563 6.12367105484009 7.18265390396118 7.09240198135376 7.69690179824829 7.86948871612549 7.78615760803223 7.20982027053833 6.71098899841309 6.34332227706909 5.67163562774658 4.71239233016968 5.29033231735229 3.95587182044983
26.3964405059814 4.89013051986694 0.961013615131378 0.834177315235138 0.976417243480682 1.53065001964569 2.0007050037384 1.87729847431183 2.0901210308075 2.99491667747498 3.59757494926453 3.19314432144165 3.36551570892334 3.26857542991638 2.10249614715576 3.70533013343811 4.2204384803772 4.42510843276978 2.460604429245 2.85821080207825 1.13647449016571 2.32585167884827 3.25927495956421 2.47163033485413 3.03076577186584 3.90074872970581 3.22590088844299 2.61168599128723 1.05582082271576 1.33297252655029 4.36545085906982 3.52734208106995 2.22564220428467 2.90100979804993 2.70009088516235 2.80388236045837 2.0719199180603 1.5545357465744 1.59390306472778 1.54593253135681 0.0858049020171165 0.481506079435349 -0.340330183506012 -0.0831599980592728 -0.438631951808929 2.01578092575073 2.59068202972412 2.38858246803284 2.29555821418762 2.66702365875244 2.57301068305969 2.49934029579163 2.07526993751526 2.0746853351593 2.07391571998596 2.27404546737671 2.46491289138794 2.44103097915649 2.89502596855164 2.62997031211853 2.99628114700317 3.03037714958191 2.26879811286926 2.12614440917969 1.92923951148987 2.96026039123535 7.19055795669556 2.99959945678711 3.99889779090881 6.00479745864868 10.189661026001 19.7015247344971 18.6614627838135 10.345046043396 3.1726450920105 19.6339836120605 17.1750659942627 3.81866836547852 20.8734092712402 12.9254913330078 1.44116628170013 3.34084224700928 2.84544801712036 2.78770589828491 7.15020275115967 1.46654987335205 21.9499320983887 4.89295387268066 16.6402606964111 8.36618614196777 11.5973472595215 17.0684146881104 17.0124225616455 12.3019723892212 18.1976280212402 11.6046981811523 5.11273956298828 5.4331579208374 20.1326808929443 11.7498016357422 15.8955736160278 23.3822975158691 8.2227725982666 11.830638885498 11.3061237335205 11.0457143783569 0.292572557926178 14.2872457504272 0.177489802241325 2.15656232833862 1.57422471046448 5.32518529891968 11.2416667938232 8.02988052368164 9.97464561462402 14.4832258224487 12.0215511322021 8.96936416625977 6.25021934509277 7.28674697875977 6.34765338897705 7.06947088241577 4.93019580841064 18.5747528076172 15.7709112167358 7.44283676147461 6.57817506790161 6.3591194152832 7.57891845703125 10.7144145965576 9.70948886871338 12.9686164855957 12.4960317611694 12.6238374710083 15.1228799819946 16.4497661590576 12.5078029632568 13.5932931900024 14.7017526626587 14.1341400146484 14.0989761352539 13.8691940307617 14.299388885498 14.7911815643311 14.5128536224365 15.9312419891357 14.4885892868042 14.8757057189941 15.1953439712524 14.2692632675171 12.9072847366333 14.3645439147949 21.7048950195312 19.2571468353271 15.5445928573608 11.1783208847046 8.36406230926514 6.90934944152832 4.43245077133179 4.58747339248657 5.29821920394897 5.89569520950317 6.88213157653809 6.94185304641724 7.49425506591797 7.41937828063965 6.98452138900757 6.8306131362915 6.43951511383057 6.24984979629517 5.66199350357056 5.14518928527832 4.67832660675049 3.88137578964233
2.22675323486328 0.708149611949921 1.39689302444458 0.933331072330475 1.74726259708405 1.46554136276245 1.85361957550049 2.54894185066223 2.47617673873901 2.94046330451965 3.50451517105103 3.09070801734924 3.26831459999084 3.18360352516174 2.17618370056152 3.63154768943787 4.12578058242798 4.28923606872559 2.75400233268738 1.38730943202972 1.8495409488678 3.13476753234863 2.38168883323669 2.33160781860352 3.69519352912903 1.964714884758 3.05909705162048 2.45888662338257 1.03427612781525 1.87709057331085 4.05111408233643 3.26931810379028 2.15386891365051 2.81027865409851 2.74833130836487 2.3163206577301 2.02539253234863 1.43591868877411 1.55680584907532 1.48453998565674 5.55632209777832 -0.627079904079437 -0.583268046379089 -0.929179966449738 -0.996035516262054 -0.44141885638237 2.38383007049561 2.19573760032654 2.11638236045837 2.48181915283203 2.40430355072021 2.31240487098694 1.90603923797607 1.89901852607727 1.89899265766144 2.10918402671814 2.28723406791687 2.40118789672852 2.69935297966003 2.76588153839111 2.87929368019104 2.69304060935974 2.1744384765625 1.76123082637787 1.83600306510925 2.7207133769989 6.35577058792114 2.82908630371094 20.8552093505859 22.6574249267578 10.0557765960693 10.374363899231 10.5443248748779 2.72409820556641 1.15541112422943 9.47921371459961 9.02069473266602 4.74678421020508 11.2952098846436 22.8093414306641 31.1052875518799 3.78060054779053 2.91022896766663 5.98054790496826 1.69949471950531 17.9187030792236 12.6051359176636 14.5629138946533 8.22348403930664 17.2492771148682 10.2353963851929 10.9749736785889 9.70350360870361 10.7392807006836 15.4628715515137 11.9846506118774 15.9516630172729 11.3973903656006 3.98431849479675 10.8413162231445 17.7900218963623 19.4529628753662 22.4041481018066 9.26519966125488 11.8007411956787 3.76127576828003 3.21497392654419 2.04558634757996 16.0274505615234 0.733975827693939 1.90481412410736 3.60449242591858 4.48523092269897 7.36620044708252 8.68431282043457 8.32532691955566 5.3130054473877 6.32929134368896 26.397123336792 6.22099018096924 5.16493606567383 5.75546884536743 4.61507940292358 16.3325099945068 6.12391233444214 7.10518503189087 5.99441194534302 9.28443336486816 23.8664569854736 9.5824556350708 8.65621852874756 11.6999664306641 11.4706354141235 11.8918790817261 12.8120775222778 14.142201423645 11.682448387146 12.7488889694214 13.7130374908447 13.225172996521 13.2152538299561 12.8874921798706 13.5952739715576 14.0083742141724 13.7705631256104 14.6499700546265 13.6369028091431 13.9915599822998 14.4996614456177 13.3299980163574 12.3834533691406 12.4259271621704 18.5356693267822 17.2659301757812 14.0770845413208 10.2053899765015 7.23159790039062 6.79615497589111 5.36558818817139 4.55322456359863 5.45704793930054 6.4167366027832 6.39291620254517 6.7974967956543 7.21349000930786 7.14231491088867 6.73423910140991 6.60289621353149 6.10094308853149 5.75618457794189 5.6252646446228 5.14330911636353 4.63807106018066 3.85702347755432
-1.02267849445343 0.761755406856537 1.08569931983948 1.28289127349854 1.00766634941101 1.20455193519592 1.61511313915253 1.854487657547 2.4754912853241 2.89216256141663 3.41152572631836 3.06501340866089 3.15855383872986 2.87764739990234 2.13366103172302 3.5805196762085 4.0283637046814 4.20021724700928 2.6857488155365 1.26882290840149 2.19850444793701 3.02396249771118 2.27691006660461 2.31107497215271 3.47941875457764 1.85547840595245 2.90634799003601 2.34054183959961 1.00877320766449 3.00366258621216 3.82157731056213 3.05835938453674 2.75052976608276 2.44762563705444 2.65395188331604 2.24515819549561 1.654256939888 1.39179265499115 1.48382782936096 1.41040825843811 21.7369499206543 7.93195962905884 17.2539463043213 0.203533321619034 11.1503458023071 -0.0448716022074223 0.217599630355835 1.99775195121765 1.94787263870239 2.31930828094482 2.2734808921814 2.18427109718323 1.76393783092499 1.63278675079346 1.71852707862854 1.92289912700653 2.10516500473022 2.2342221736908 2.52184271812439 2.59986591339111 2.72707486152649 2.58585643768311 1.9069721698761 1.73596858978271 1.77012884616852 5.37226581573486 3.37791204452515 5.48608064651489 14.2863464355469 19.4260597229004 2.67846345901489 0.926050245761871 5.92873430252075 0.619085848331451 21.4974727630615 -0.340980023145676 2.28456902503967 6.58410167694092 11.8736686706543 13.7758598327637 18.3064079284668 4.51037359237671 0.92970335483551 0.796169102191925 8.39640712738037 9.33870029449463 9.10036945343018 3.41800379753113 5.76425361633301 9.0064058303833 8.48966312408447 7.69442844390869 7.44963693618774 9.33469676971436 13.4708127975464 18.3683280944824 11.9886922836304 9.63225841522217 5.58655834197998 8.44601631164551 11.1956729888916 19.1026000976562 24.5010795593262 32.1708488464355 11.4884653091431 15.453727722168 13.7747011184692 13.9088649749756 4.78238248825073 13.435474395752 1.52626860141754 3.4234459400177 5.19306802749634 7.33317279815674 5.22052955627441 6.63015460968018 4.95553255081177 4.70453977584839 4.78116416931152 5.18758964538574 4.77962779998779 4.73424482345581 4.46176052093506 4.01260709762573 5.99634122848511 6.27832555770874 5.826256275177 5.50800848007202 4.6126594543457 8.67076110839844 7.96147394180298 10.7165212631226 10.4759664535522 10.806435585022 11.1210784912109 12.3619470596313 11.4732456207275 11.8709125518799 12.6866502761841 12.2248058319092 12.2011556625366 11.8489952087402 12.8960962295532 13.2775363922119 13.0453615188599 13.5692129135132 12.7854270935059 13.2019052505493 13.7417192459106 12.7404127120972 11.8554744720459 10.9720764160156 16.2017440795898 12.7555351257324 11.9165859222412 9.36722564697266 6.88640403747559 6.9078950881958 7.16291570663452 5.56537246704102 5.35023403167725 6.1145486831665 6.22291135787964 6.69243621826172 6.95704078674316 6.8848819732666 6.5037956237793 6.21739101409912 5.91464233398438 5.48091650009155 4.94338846206665 5.0741810798645 3.65605211257935 3.84996390342712
-1.3951381444931 -1.65911149978638 0.683599591255188 0.85617733001709 1.80471754074097 1.36692595481873 1.56279265880585 1.98855078220367 2.75710606575012 2.85046243667603 3.34422278404236 3.0253267288208 2.96160483360291 1.8998156785965 2.07354474067688 3.7910463809967 3.5957977771759 4.03561067581177 2.61169648170471 1.24375808238983 2.124915599823 2.91233968734741 2.194415807724 2.62630200386047 3.28915572166443 1.76054048538208 2.76444339752197 2.23567342758179 0.959256529808044 3.70751094818115 2.97997236251831 2.07299947738647 2.67084574699402 2.34858775138855 2.55143523216248 2.14707493782043 1.55962717533112 1.43505120277405 1.3629424571991 15.2972059249878 20.7885284423828 14.9759902954102 10.7386283874512 19.4351367950439 12.3819704055786 6.40581226348877 -0.241539791226387 0.0304877180606127 1.84064316749573 2.1467821598053 2.05790948867798 1.98501038551331 1.66065490245819 1.49647259712219 1.74200129508972 1.63616096973419 1.95014357566833 2.07218599319458 2.33826661109924 2.40974926948547 2.5534884929657 1.99733221530914 1.85627067089081 1.71270298957825 1.72181069850922 4.84624242782593 3.00885081291199 6.57126951217651 12.3613548278809 8.13933563232422 20.0631141662598 31.5060577392578 4.01318025588989 30.9513301849365 -0.341685920953751 -1.3096262216568 1.28814041614532 3.79264116287231 8.87946891784668 11.5198936462402 0.852727711200714 0.0538088902831078 0.737027585506439 22.3119583129883 3.33040904998779 5.97201871871948 2.81406831741333 19.533031463623 6.3492283821106 8.1369161605835 7.05803251266479 5.77250146865845 5.98831844329834 7.79993534088135 10.9209642410278 16.2468395233154 8.77230072021484 8.55993843078613 4.92184209823608 9.33750057220459 9.88482856750488 25.1720409393311 26.7905006408691 15.7107620239258 20.8340892791748 33.4541969299316 35.6972045898438 30.7005863189697 18.8762359619141 10.3782796859741 24.6783180236816 2.42040038108826 2.67196536064148 5.99240159988403 18.8568286895752 7.80960607528687 4.90563488006592 7.85016441345215 5.79581022262573 14.2184619903564 11.0392713546753 4.85158634185791 4.19659948348999 11.2345705032349 6.02118873596191 14.479419708252 5.45815944671631 5.23448085784912 13.1786556243896 4.40811347961426 8.83915901184082 10.0176973342896 9.68496608734131 9.92605686187744 9.92695999145508 9.47367000579834 10.797474861145 11.5058565139771 11.2676792144775 11.0918626785278 11.0618553161621 12.1014270782471 12.4512205123901 12.3376426696777 12.4162521362305 12.187783241272 12.220760345459 12.456000328064 12.9800033569336 11.8589715957642 10.9029502868652 11.1534366607666 14.3314323425293 11.7339534759521 8.66693305969238 6.39639043807983 6.26110887527466 5.8973970413208 5.88010835647583 4.82319402694702 5.23609066009521 5.85849475860596 5.95513105392456 6.39378309249878 6.70202302932739 6.65239763259888 6.19025182723999 5.84066343307495 5.76423311233521 5.32800149917603 4.26529455184937 3.44819736480713 1.97903919219971 1.43292009830475
-1.64237916469574 -1.75895535945892 -2.02738928794861 0.600463509559631 0.940758466720581 1.49987494945526 1.19316792488098 1.96627449989319 2.77672529220581 3.26904082298279 2.83281898498535 2.966548204422 2.88923788070679 1.83421742916107 3.27172374725342 3.68977189064026 3.9478178024292 3.35524392127991 2.54634475708008 1.21657931804657 2.05814576148987 2.81173205375671 2.10890960693359 2.50801873207092 3.12623143196106 2.68025755882263 2.02794241905212 2.11953163146973 0.87405663728714 3.50424528121948 2.81836080551147 2.01595377922058 2.59251403808594 2.36375260353088 2.43184185028076 1.74652981758118 1.29143142700195 1.34060823917389 1.28781580924988 13.3080396652222 21.2702903747559 1.22127568721771 1.53122758865356 12.3411407470703 9.77040672302246 -0.744569659233093 -0.54059773683548 -0.218509331345558 1.69220399856567 1.99987959861755 1.92815566062927 1.85115766525269 1.55554735660553 1.4053008556366 1.6009556055069 1.50103878974915 1.80374050140381 2.12798595428467 1.9746800661087 2.31318426132202 2.40775108337402 1.90603542327881 1.79585456848145 1.68695402145386 2.0363028049469 4.38465738296509 2.22457647323608 4.87661838531494 9.38876247406006 2.47118258476257 9.94080352783203 1.11541068553925 5.18786096572876 14.9149465560913 -1.15261113643646 1.12420868873596 -0.79986834526062 1.76818943023682 6.46381616592407 0.440215885639191 0.266493231058121 39.1053276062012 33.3316459655762 13.8164415359497 2.53913021087646 19.5432720184326 2.67725014686584 9.21686935424805 6.2879467010498 5.83002042770386 5.29243516921997 5.48487854003906 5.84560346603394 5.79572582244873 8.1839714050293 12.4595308303833 6.58194541931152 4.66412210464478 11.7177791595459 7.76742124557495 23.0142669677734 14.2987747192383 31.2172203063965 35.6421813964844 26.02587890625 32.591121673584 31.1265449523926 25.2879257202148 25.8708057403564 29.0694828033447 16.4928302764893 9.10926628112793 1.82825314998627 4.52645874023438 10.0913429260254 15.869158744812 24.5602855682373 30.1335868835449 39.7154769897461 14.9331045150757 14.3144330978394 8.1533670425415 15.8305625915527 18.1334095001221 16.4427795410156 6.60643482208252 4.98497247695923 4.32583618164062 12.6292114257812 2.62788271903992 4.59053564071655 9.03115367889404 8.8082103729248 9.26968193054199 9.11732864379883 9.58219909667969 10.1305017471313 10.762547492981 10.5747909545898 10.341025352478 10.5180025100708 11.5080518722534 11.8428506851196 11.7651653289795 11.8396005630493 11.6130647659302 11.6553163528442 12.1491708755493 11.5218200683594 10.6168279647827 9.08582305908203 12.5379886627197 12.9371519088745 10.8231801986694 7.94564008712769 5.83337879180908 5.61940479278564 5.16529178619385 4.55682325363159 4.95224523544312 5.18000459671021 5.73125028610229 5.77308559417725 6.25944423675537 6.2822151184082 6.0495433807373 5.98675966262817 5.58612632751465 5.39670467376709 4.38265323638916 3.10670399665833 2.67494559288025 1.19759142398834 1.10827219486237
2.47223615646362 3.39755821228027 11.3062839508057 -1.8187472820282 -0.689071893692017 1.422203540802 1.75873863697052 1.94303059577942 2.73954463005066 3.20264673233032 2.77847480773926 2.89201712608337 2.81495428085327 1.89688014984131 3.16594076156616 3.57977676391602 3.82644128799438 2.23523592948914 2.48454117774963 1.64521312713623 2.73865056037903 2.07859349250793 2.02804851531982 2.40599012374878 2.95918321609497 2.54355978965759 2.08152914047241 0.873855471611023 1.15340554714203 3.33396100997925 2.66731643676758 1.9606237411499 2.5374608039856 2.40722560882568 1.91752076148987 -0.573984742164612 -0.709369897842407 -0.786442756652832 1.17882204055786 9.83678817749023 18.5410900115967 45.3992156982422 -1.07882189750671 7.53329563140869 -0.0450139418244362 2.16349101066589 -0.995994329452515 -0.761792421340942 0.250095665454865 1.82897508144379 0.323968827724457 -0.098957784473896 1.36183762550354 1.32153153419495 1.52616620063782 1.64595210552216 1.67168915271759 1.99394011497498 2.0671968460083 2.2046525478363 2.16477751731873 1.83048474788666 1.55906283855438 1.54948794841766 1.87992167472839 3.94892930984497 2.0983419418335 3.90689992904663 7.47656393051147 5.9913969039917 10.7406826019287 28.314868927002 10.941216468811 -0.584191501140594 -1.51687598228455 2.17787384986877 13.1547317504883 -0.409243792295456 -0.564994692802429 -0.00170870043803006 33.4498443603516 24.7310466766357 16.5576076507568 2.7425799369812 13.0386085510254 5.38404369354248 27.4040546417236 3.4794602394104 5.51781034469604 5.27672719955444 5.06594562530518 4.83738422393799 4.63077163696289 5.79450559616089 6.96697664260864 9.67771911621094 23.2082576751709 7.71334838867188 10.9979152679443 12.0964288711548 10.1013822555542 14.0470037460327 23.0975036621094 24.7265701293945 25.8555908203125 24.8914337158203 23.3817176818848 23.3217582702637 22.735034942627 22.2810115814209 14.229700088501 1.90091073513031 3.32313084602356 10.2972784042358 34.0506324768066 9.18841361999512 11.884747505188 13.0935859680176 18.4648132324219 19.1237964630127 16.043249130249 36.5953178405762 23.6858558654785 23.1779727935791 17.0332622528076 23.258129119873 18.3103523254395 7.44515466690063 4.24092102050781 16.8724174499512 4.49284648895264 6.47783613204956 8.42330074310303 7.77580595016479 8.50230312347412 9.16196632385254 9.62863922119141 10.0726003646851 9.96025562286377 9.78729057312012 10.0223245620728 10.9634714126587 11.2828340530396 11.2384243011475 11.3060264587402 11.089973449707 11.0636472702026 11.5432214736938 10.8296680450439 10.1110639572144 8.68721580505371 11.3233489990234 11.8465633392334 9.90423202514648 7.30409288406372 5.68891668319702 4.95157480239868 4.48917770385742 4.48300313949585 4.88026809692383 5.66034603118896 5.53817701339722 5.70182132720947 6.05808115005493 6.03035879135132 5.80408334732056 5.783127784729 4.59195613861084 4.70684051513672 4.32262802124023 3.34571146965027 7.38926649093628 17.3448600769043 10.1084184646606
11.295202255249 -1.61908602714539 2.83888292312622 14.1648931503296 -0.937654614448547 1.30716550350189 1.71259582042694 1.92057871818542 2.67326807975769 3.14327883720398 2.72331500053406 2.83173823356628 2.73766779899597 1.82097005844116 3.05586671829224 3.46628785133362 3.70429015159607 2.44638776779175 1.25312733650208 1.93026053905487 2.64879727363586 2.00128507614136 1.99333035945892 2.85825824737549 1.52770030498505 2.40934681892395 1.96890377998352 0.823400378227234 1.55039572715759 3.17964172363281 2.56340289115906 1.92620825767517 2.46246886253357 2.3137218952179 1.88803374767303 14.2644214630127 -1.21004712581635 -0.0990922823548317 1.03959202766418 -0.0376090630888939 -0.440325349569321 -0.739940941333771 20.394100189209 1.08476543426514 -0.773437261581421 -0.230613261461258 4.67795372009277 -0.771783173084259 0.0647334605455399 1.73910880088806 40.2340126037598 43.9530830383301 1.288214802742 1.24447977542877 1.45571231842041 1.58126044273376 1.67402184009552 1.88859117031097 1.96495652198792 2.1069655418396 2.05989146232605 1.72554016113281 1.47712802886963 1.44251585006714 3.4789936542511 2.31765627861023 3.4198682308197 3.09012007713318 6.04067182540894 4.24625635147095 7.81002283096313 13.9595212936401 7.88007593154907 -0.497166156768799 -2.21631956100464 1.12357091903687 3.88592052459717 16.5540180206299 39.8302841186523 24.4828624725342 14.3642091751099 9.06939601898193 5.29799842834473 3.23206353187561 7.9774603843689 2.62197113037109 15.6660499572754 4.05124092102051 5.22348690032959 4.31266736984253 3.97566866874695 4.55891132354736 3.73311281204224 4.80029344558716 6.48621225357056 8.9088191986084 14.3903350830078 11.0320844650269 6.78292083740234 10.3874263763428 9.09217643737793 12.9394359588623 16.9690551757812 22.0655384063721 20.5996112823486 15.7871341705322 19.1182041168213 19.7526264190674 16.2025184631348 12.7916593551636 11.6057100296021 19.0525379180908 26.8977108001709 21.1877670288086 16.5100021362305 27.0182247161865 30.3337669372559 19.4399375915527 13.1131010055542 14.8420724868774 23.5207252502441 29.4967594146729 44.2563552856445 22.617919921875 10.7876024246216 17.4221534729004 15.1178207397461 5.57500171661377 4.44305562973022 9.67332744598389 13.771203994751 3.56508231163025 4.1032829284668 7.35821342468262 7.96130704879761 8.78320407867432 9.16521549224854 9.46809482574463 9.58228492736816 9.4167308807373 9.56786727905273 10.4649839401245 10.7709503173828 10.7533206939697 10.814341545105 10.6018886566162 10.5570211410522 10.9833030700684 10.336371421814 9.66544914245605 8.29903888702393 10.790807723999 9.03235244750977 8.19188117980957 6.75475263595581 4.92031097412109 4.627366065979 4.32866382598877 4.37880992889404 5.00031852722168 5.51976299285889 5.43977403640747 5.76954221725464 5.94607639312744 5.87573099136353 5.60053873062134 5.56659460067749 22.4812088012695 4.25861740112305 4.27189207077026 15.3972139358521 2.54947853088379 8.68686294555664 3.50696635246277
44.4531326293945 18.2542591094971 14.8544111251831 7.1097149848938 -0.51773065328598 -0.21899339556694 1.5724128484726 2.25439715385437 2.63748526573181 3.08494162559509 2.75614786148071 2.78191065788269 2.4808144569397 1.76336133480072 3.29288601875305 3.08356475830078 3.59438991546631 2.36020684242249 1.17861926555634 1.86823105812073 2.55999255180359 1.93744230270386 2.26141595840454 2.71943783760071 1.43827509880066 2.29145932197571 1.89716064929962 0.801495611667633 2.41901087760925 3.05333662033081 2.4944007396698 2.48687481880188 2.14854764938354 2.2724974155426 1.84552407264709 9.40129566192627 13.0661430358887 -1.00080442428589 -0.233465164899826 37.5513496398926 48.1578598022461 20.3987197875977 -1.33750200271606 -0.583428561687469 4.28617286682129 6.06864261627197 8.92448234558105 8.59200191497803 0.0073214927688241 0.335569679737091 21.9872226715088 25.6411972045898 1.20814371109009 1.20516443252563 1.35998606681824 1.46351504325867 1.607306599617 1.79750895500183 1.86002027988434 1.98540186882019 1.96082699298859 1.41583108901978 1.40318071842194 1.39985144138336 3.18114519119263 2.13747715950012 3.11090779304504 4.9985613822937 4.95766258239746 3.12146377563477 8.80868816375732 2.46986389160156 0.716031730175018 12.2924003601074 40.1938781738281 14.4384241104126 27.3507480621338 31.4848613739014 27.3748664855957 22.9576396942139 29.4161243438721 6.26589059829712 4.70085096359253 3.19213032722473 1.40943586826324 22.7140712738037 3.54846286773682 4.37511157989502 4.75474166870117 3.4216103553772 9.71394443511963 4.36199378967285 3.59959268569946 4.06423473358154 6.64994049072266 8.71013259887695 9.66984272003174 13.7156200408936 15.9212684631348 8.52872753143311 20.6896991729736 30.2163887023926 14.0122699737549 20.763370513916 32.6509857177734 39.0027770996094 18.1618194580078 18.1955280303955 13.21120262146 11.8834419250488 10.8386869430542 19.5124492645264 22.906120300293 20.7656803131104 38.9628791809082 21.2245674133301 20.8057079315186 10.5666656494141 10.5068912506104 14.7922115325928 25.9764881134033 23.9690265655518 19.7236957550049 18.1602172851562 5.55049467086792 7.7099552154541 4.68330812454224 4.09304571151733 6.87228441238403 15.2958850860596 9.08247661590576 25.8155517578125 17.0257015228271 4.15535736083984 7.68596315383911 8.43451976776123 8.7538366317749 8.93490886688232 9.23647499084473 9.07376194000244 9.15429210662842 10.0098352432251 10.3069019317627 10.2792882919312 10.0788269042969 9.80715942382812 10.0943183898926 10.4879293441772 9.88153266906738 9.21598434448242 7.66988182067871 10.0240211486816 8.39628410339355 6.10960865020752 6.45052194595337 4.78675699234009 4.35760736465454 4.21803379058838 4.26268529891968 4.85229396820068 5.32784032821655 5.38880634307861 5.58729124069214 5.74711561203003 5.64833450317383 5.35067796707153 5.10980176925659 5.34116363525391 3.71446561813354 5.27688121795654 6.20882558822632 1.57229340076447 10.1567916870117 15.9238758087158
26.8074398040771 32.8113975524902 9.22187900543213 0.996667206287384 -1.1775838136673 -0.427173852920532 1.62828147411346 2.4691743850708 2.58694696426392 3.01318597793579 2.71699333190918 1.60052525997162 1.63472056388855 2.84202218055725 3.19975185394287 3.41232991218567 2.95331811904907 2.28060173988342 1.15400528907776 1.81992828845978 2.48697423934937 1.88843107223511 2.17700457572937 2.60369038581848 2.23746395111084 1.69417583942413 1.84902763366699 0.799538135528564 2.99866199493408 2.46548819541931 1.9170229434967 2.44641661643982 2.11880397796631 2.22551774978638 26.4536666870117 3.6049633026123 5.80692720413208 9.80695152282715 -0.263133406639099 19.939208984375 28.1589756011963 37.0402603149414 43.5598564147949 37.5136528015137 6.35543394088745 -0.872214794158936 -0.940068125724792 6.9147047996521 -0.411368578672409 -0.672969341278076 16.2947368621826 1.24409794807434 1.00649547576904 1.28770542144775 1.18498551845551 1.44829905033112 1.53867936134338 1.68289005756378 1.73495399951935 1.87983107566833 1.49939131736755 1.3491405248642 1.33799004554749 1.31786036491394 2.81680130958557 1.74724221229553 2.73529005050659 4.23966455459595 1.64478099346161 2.41286706924438 6.12679386138916 1.36568236351013 22.3322467803955 18.2835292816162 31.5362300872803 21.943021774292 7.55031156539917 16.7265739440918 12.1400890350342 11.4145202636719 14.7043523788452 5.11439800262451 3.88467597961426 7.74836492538452 9.6179723739624 12.34739112854 3.31698751449585 4.19313383102417 4.07771730422974 11.6709785461426 3.68766665458679 6.84867334365845 23.4147510528564 12.8864612579346 5.90066337585449 6.63216066360474 7.83511781692505 9.58693599700928 12.9020824432373 10.6525888442993 15.1697359085083 13.6715211868286 28.6494674682617 21.1410522460938 20.3449211120605 23.9292106628418 24.4168395996094 15.6604852676392 29.1834049224854 18.7549533843994 13.2234935760498 13.7013874053955 33.8244895935059 33.6171035766602 16.3862037658691 8.83377552032471 7.35633325576782 8.1517391204834 10.4939241409302 13.0032482147217 19.5098896026611 18.5321979522705 14.0249366760254 10.5752048492432 23.3189754486084 29.4454078674316 4.42403364181519 3.81506252288818 4.10339879989624 7.78118562698364 3.96719288825989 16.9627208709717 3.80929207801819 15.9368886947632 4.82699871063232 8.1510763168335 8.40175533294678 8.8275318145752 8.69199848175049 8.68991184234619 9.50349044799805 9.79787731170654 9.81587314605713 9.87266826629639 9.6740894317627 9.59488010406494 9.61589908599854 10.0003538131714 9.13755512237549 8.40874862670898 8.48079872131348 9.32765865325928 7.79013824462891 6.11308479309082 5.1936616897583 4.636305809021 4.0992374420166 4.14265060424805 3.99594211578369 4.70707368850708 5.15126752853394 5.23071336746216 5.47369861602783 5.57366275787354 5.48673295974731 5.11025810241699 7.24267625808716 3.30557417869568 2.93056273460388 2.38884305953979 2.47267770767212 33.9220390319824 6.87856531143188 8.10960674285889
24.5190353393555 28.9268951416016 24.9847221374512 19.8622550964355 -0.617181301116943 -1.29260122776031 -0.0250478889793158 2.38706755638123 2.93240928649902 2.5596981048584 2.69768929481506 1.37369585037231 1.69524991512299 1.81077456474304 3.13477492332458 3.31369209289551 1.88272356987 2.18219494819641 0.962370812892914 1.83168065547943 2.4297924041748 1.83448088169098 2.10814118385315 2.50414133071899 2.16904830932617 1.79712855815887 0.833833575248718 1.10032713413239 2.88363575935364 2.33782315254211 1.87538492679596 2.16354417800903 2.18096494674683 2.19201350212097 22.6275234222412 13.796106338501 12.6000881195068 2.98586106300354 34.6325759887695 17.7802867889404 19.075231552124 20.1724147796631 16.8898468017578 29.1349849700928 16.7115383148193 10.2354946136475 13.4927291870117 1.11948943138123 13.3016633987427 21.5280265808105 12.272008895874 1.05302095413208 1.00109434127808 1.23373019695282 1.17219066619873 1.3894122838974 1.5903571844101 1.45748376846313 1.70904910564423 1.78069293498993 1.42467200756073 1.27616441249847 1.26162111759186 1.23361945152283 2.47674345970154 1.55206525325775 2.36491394042969 3.54545211791992 1.81731736660004 1.87907254695892 4.13963842391968 1.38287305831909 19.0701675415039 32.277229309082 28.4639720916748 10.1286687850952 14.1964273452759 13.0951910018921 9.71676349639893 9.54048442840576 11.3993759155273 1.68921136856079 5.32505750656128 1.7862696647644 6.25985383987427 6.41733312606812 3.23576521873474 3.8749668598175 4.0581226348877 6.3854923248291 10.3436555862427 5.6485767364502 14.0938472747803 8.09025001525879 5.3583984375 5.95135164260864 6.18366622924805 7.91731309890747 10.2012281417847 14.937744140625 18.4370288848877 25.0625495910645 24.5560035705566 17.9546337127686 22.0149803161621 21.1055564880371 24.9079685211182 32.1738739013672 18.900447845459 15.3394060134888 23.2555561065674 38.625415802002 18.6380615234375 14.1993350982666 7.85461664199829 6.6897292137146 14.7743806838989 21.7871112823486 8.83752727508545 11.7535667419434 15.6773490905762 15.2804851531982 13.6489658355713 9.44519901275635 12.4543800354004 10.6054353713989 25.6124420166016 27.7368812561035 29.8443698883057 12.751389503479 15.8783416748047 15.3618993759155 6.79327774047852 3.57473659515381 8.33902931213379 7.86300134658813 8.04907894134521 8.53841018676758 8.40072441101074 8.34844207763672 9.13202571868896 9.40913105010986 9.44166851043701 9.50004863739014 9.31524562835693 9.19611740112305 9.48966979980469 8.98111724853516 8.37225723266602 7.23939657211304 7.84857606887817 8.69568824768066 7.25747442245483 5.83505344390869 5.0194411277771 4.46996545791626 3.94835567474365 3.99583077430725 4.35438203811646 4.55451488494873 3.70785284042358 5.04088115692139 5.3599967956543 5.29052925109863 5.04789924621582 4.96317672729492 5.54789447784424 2.71939659118652 2.17004609107971 2.28374671936035 11.1244649887085 15.4816989898682 13.190299987793 11.7622385025024
16.642520904541 13.3711442947388 22.7420787811279 -1.41665327548981 10.0601034164429 18.1721382141113 11.890097618103 2.25762057304382 2.84322595596313 2.53223371505737 1.51383233070374 6.75046873092651 1.74175047874451 1.7060718536377 3.09832835197449 3.24000024795532 2.04682850837708 1.02538919448853 1.34746909141541 2.36755061149597 1.84157955646515 1.78253269195557 2.4838273525238 1.3649480342865 2.11864876747131 1.74084544181824 0.911433577537537 1.43117868900299 2.7194709777832 2.22108936309814 1.49051129817963 2.12026023864746 2.2486789226532 1.89878141880035 21.6274337768555 45.0507621765137 50.508171081543 49.0726203918457 20.1992340087891 13.3261184692383 14.565957069397 12.5070686340332 40.7445526123047 18.9782676696777 17.7426280975342 18.7838764190674 9.4300012588501 -0.407873630523682 4.02304363250732 6.53835487365723 9.82947826385498 0.926181077957153 0.671939432621002 0.963945686817169 -0.865700781345367 1.28075265884399 1.47760784626007 1.49538946151733 1.62005746364594 1.61980199813843 1.346355676651 1.10905957221985 1.07357740402222 1.13571655750275 2.09265208244324 1.3724650144577 2.0020112991333 2.93858003616333 1.46032059192657 2.38185095787048 2.49233293533325 5.92089080810547 13.9330158233643 25.717945098877 21.4619941711426 36.9243812561035 -0.488609790802002 11.2231922149658 8.64166736602783 8.58604717254639 10.1003303527832 10.100191116333 3.06767392158508 7.19554424285889 1.99696516990662 5.13481187820435 3.05228018760681 3.61712503433228 9.5139331817627 13.0138683319092 3.82208681106567 3.9708616733551 5.25791788101196 4.91731595993042 5.39004421234131 5.42087173461914 5.75528478622437 6.81756591796875 8.51531600952148 12.0582523345947 11.8162260055542 15.1509523391724 16.4777927398682 18.2292861938477 14.363582611084 15.5103397369385 16.584135055542 19.7205066680908 18.0581035614014 16.5327014923096 21.0786437988281 22.4180278778076 14.0384130477905 10.7925567626953 6.49371385574341 4.526686668396 6.58162212371826 6.01332855224609 7.90261459350586 9.84728050231934 10.4948968887329 13.2807464599609 12.351993560791 9.19357395172119 19.8966407775879 11.0737752914429 17.127613067627 11.1167402267456 14.2932443618774 8.19415378570557 12.6592016220093 6.72899103164673 23.9930381774902 32.6078872680664 4.97566509246826 4.96025705337524 7.72514867782593 8.25925350189209 8.12612247467041 8.07770442962646 8.79084300994873 9.03962802886963 9.08736419677734 9.14122581481934 8.95571136474609 8.82418727874756 9.08982086181641 8.60506439208984 8.03511142730713 6.94141864776611 7.27916860580444 8.15385246276855 6.7820930480957 5.55547046661377 4.83151769638062 4.17221832275391 3.7742931842804 3.81668734550476 4.17110252380371 4.72198438644409 3.00751852989197 2.92334961891174 3.79343962669373 3.28130507469177 3.01466369628906 4.77599191665649 4.54557371139526 38.4345436096191 40.9827461242676 14.6847171783447 8.11314010620117 1.07822096347809 1.13120639324188 3.0328688621521
13.7537078857422 16.7705993652344 13.2539701461792 30.5075435638428 3.1840832233429 0.430461853742599 5.30095863342285 -0.633619546890259 2.19846868515015 0.301940411329269 13.8628454208374 38.1941223144531 0.776104748249054 28.3065414428711 2.67762923240662 3.19717764854431 2.00159931182861 0.934603452682495 1.56079792976379 2.29094123840332 1.7841659784317 1.72636008262634 2.40125846862793 1.3415447473526 2.07333779335022 1.70206069946289 0.745456039905548 2.10507941246033 2.60289716720581 2.12418818473816 1.1843022108078 2.06827402114868 2.20949149131775 2.23533320426941 21.8563919067383 26.9118900299072 31.5016059875488 31.2821712493896 7.10695600509644 10.9171361923218 11.7843446731567 15.9226226806641 23.6649723052979 17.4799175262451 24.7069129943848 22.681568145752 1.90515124797821 3.3018319606781 30.8120594024658 21.4725074768066 8.2587251663208 0.810281813144684 0.45844030380249 0.631199061870575 -1.12463855743408 -0.209458842873573 1.37011969089508 1.39172315597534 1.53286528587341 1.52994918823242 1.2345597743988 0.9573734998703 0.962273418903351 1.68427455425262 1.11741936206818 1.63698947429657 2.36623692512512 1.97710466384888 1.14853668212891 1.55443429946899 1.68690979480743 3.76576232910156 10.6225214004517 21.0835494995117 17.4283103942871 23.5907745361328 39.8801918029785 9.91434478759766 7.93608665466309 8.17405414581299 9.05902576446533 20.9665508270264 1.56917321681976 6.29258441925049 6.68241691589355 2.44845509529114 3.13811612129211 3.41672849655151 7.40128326416016 9.46115493774414 22.4760665893555 13.9523601531982 4.09693622589111 4.79285955429077 5.21881866455078 4.94562911987305 5.83563232421875 6.2524209022522 7.76296520233154 9.77274227142334 12.2051420211792 13.2461948394775 15.1400880813599 16.5372943878174 27.3823261260986 13.9554529190063 13.1686010360718 15.1999349594116 16.6662044525146 14.9198246002197 15.3798913955688 15.0817384719849 12.841272354126 10.5970001220703 13.0635633468628 25.7141017913818 11.0368556976318 13.735279083252 7.81195592880249 9.15488719940186 12.7307176589966 11.9792509078979 12.5068769454956 21.0868854522705 13.688286781311 24.323127746582 25.5247669219971 27.7735614776611 24.5724258422852 11.0665235519409 21.1237850189209 22.424015045166 8.17478942871094 24.031925201416 20.7729930877686 21.4790458679199 6.30478191375732 7.96143054962158 7.8682713508606 7.82802152633667 8.4533052444458 8.70398902893066 8.74514293670654 8.57257747650146 8.32348728179932 8.47529315948486 8.71122646331787 8.25820541381836 7.69641208648682 6.51979303359985 7.57524681091309 6.29730415344238 5.47111225128174 5.25325393676758 4.12117767333984 3.64645648002625 3.59220743179321 3.61112093925476 4.10477018356323 4.45971727371216 9.40685939788818 3.1170699596405 3.18373250961304 14.6391353607178 7.64810466766357 3.46981120109558 6.43072891235352 11.5350275039673 19.4064025878906 2.55650424957275 1.49352490901947 0.803956806659698 0.0801144763827324 1.56016898155212
7.09748935699463 8.74779415130615 13.2356233596802 23.6435050964355 31.9662532806396 45.9199600219727 6.76411247253418 44.0385704040527 -0.0608976781368256 39.0107383728027 9.3783540725708 21.3840560913086 37.3911323547363 14.3236227035522 6.93810367584229 3.16967678070068 1.98563981056213 0.925209939479828 1.52444565296173 2.26134395599365 1.68997001647949 1.95711350440979 2.33822870254517 1.32446384429932 2.04609084129333 1.63869953155518 0.667419016361237 2.55386400222778 2.1123468875885 0.580498039722443 1.15400242805481 1.73402452468872 1.83544719219208 2.56386733055115 19.6386375427246 23.691535949707 23.1473693847656 11.8731670379639 6.34296131134033 9.66279792785645 10.243106842041 25.7667484283447 14.8680772781372 13.7866992950439 22.4183616638184 12.9093217849731 48.6904106140137 33.8932876586914 12.3724555969238 20.8485546112061 7.15217781066895 1.47371172904968 0.643114447593689 0.462684869766235 4.45267677307129 39.0981674194336 1.25513124465942 1.29769241809845 1.42323696613312 1.41704773902893 0.864712655544281 0.717148005962372 0.764930725097656 1.34719336032867 1.02651178836823 1.3708883523941 0.466068744659424 1.06831502914429 0.92794805765152 0.946992814540863 0.877290427684784 2.29753565788269 9.18091106414795 18.0511722564697 16.6346607208252 2.10046744346619 12.348123550415 8.79651165008545 7.20222043991089 7.72040891647339 14.6376104354858 9.59750080108643 1.10978400707245 2.80175352096558 15.2689323425293 14.6093311309814 3.2829327583313 3.66425085067749 5.99398708343506 7.47343444824219 11.8145341873169 8.04540729522705 3.97050428390503 4.67678022384644 5.07876253128052 4.48398876190186 5.22055578231812 7.103346824646 7.58465814590454 9.64731884002686 11.3697261810303 12.3729543685913 13.9060468673706 15.2032480239868 16.1339359283447 17.5408744812012 27.8584995269775 10.9294376373291 9.29884338378906 8.19106674194336 10.4670248031616 12.5960912704468 11.2340040206909 6.86195516586304 16.0909309387207 18.4893112182617 8.89540672302246 10.8082962036133 20.3161525726318 18.7129535675049 21.9168281555176 14.8062810897827 24.6350650787354 23.1644477844238 14.8147840499878 16.1912536621094 17.8383121490479 23.534704208374 22.7734127044678 28.6574325561523 20.1675090789795 20.3996963500977 35.7219696044922 17.0756816864014 26.5070896148682 15.1571741104126 5.99029493331909 6.79047679901123 7.57839775085449 8.07810020446777 8.32222461700439 8.40130233764648 8.43289089202881 8.25940132141113 8.11911964416504 8.04255199432373 8.34609031677246 7.57771253585815 6.94088506698608 6.23238754272461 7.07017087936401 5.82799768447876 4.97265434265137 4.44932413101196 3.92591428756714 3.44045901298523 3.44613766670227 3.24654197692871 3.84041285514832 8.78566360473633 34.6271705627441 33.0745582580566 10.9569149017334 5.78060817718506 2.27778959274292 2.41673946380615 3.72478818893433 6.69502115249634 1.89694428443909 1.42957711219788 0.22296305000782 0.235391974449158 -0.244617611169815 0.678550064563751
36.5477867126465 31.880012512207 27.1536159515381 36.7257881164551 35.6616554260254 35.4038467407227 26.8474769592285 9.17497730255127 -0.281858891248703 20.5381450653076 17.6467113494873 1.28874540328979 15.0558767318726 18.3482227325439 2.17634582519531 1.70372366905212 2.22350311279297 1.61502110958099 2.24937725067139 2.14590239524841 1.6402690410614 1.8737131357193 2.23818445205688 2.02252912521362 1.53060019016266 1.59261929988861 0.980760335922241 2.48876881599426 2.05522203445435 0.654837846755981 1.12447512149811 0.933003842830658 1.60983884334564 11.8182764053345 15.6579704284668 19.0749053955078 18.8484878540039 6.99828243255615 3.66144967079163 9.02872848510742 13.8442630767822 14.2617511749268 12.66774559021 11.4154586791992 17.8468112945557 28.5601387023926 18.9528522491455 18.0064296722412 35.8405990600586 23.7228469848633 2.11634373664856 3.8816032409668 -0.627458870410919 -1.02522587776184 47.6394119262695 18.5804214477539 1.00775849819183 1.18566334247589 1.33326816558838 1.01092457771301 0.723214745521545 0.615610480308533 0.669033050537109 1.13590395450592 0.688328742980957 1.09834265708923 22.9612808227539 0.938464164733887 0.862561762332916 0.809273660182953 0.790335297584534 -0.958989679813385 3.79557967185974 8.44237041473389 2.08454036712646 -0.952624082565308 0.80283111333847 5.44391870498657 5.80062913894653 7.1776008605957 1.66726243495941 2.26338052749634 0.779002785682678 1.19973468780518 14.5202198028564 16.3658618927002 2.45156049728394 3.55843806266785 5.02701187133789 7.66505765914917 5.7291316986084 4.33823490142822 3.94684052467346 4.53631782531738 4.93256950378418 4.3581805229187 4.8296217918396 6.7068829536438 7.66176462173462 8.95417404174805 10.7671594619751 11.4906787872314 13.7986173629761 13.9650230407715 13.8053045272827 13.4393882751465 13.7980365753174 26.1295299530029 29.797290802002 27.9483299255371 25.4000091552734 7.41432809829712 7.76105976104736 10.5361251831055 17.5588703155518 19.601131439209 16.451868057251 10.3381900787354 17.7424793243408 27.4489097595215 17.756462097168 14.3008918762207 14.3088130950928 12.109917640686 10.8878984451294 13.2849378585815 15.9188976287842 14.2994909286499 12.8740129470825 15.8782052993774 13.4169607162476 12.603157043457 18.2952289581299 14.0062780380249 5.35303211212158 5.25917148590088 5.64056301116943 5.53466463088989 5.90717840194702 7.75788927078247 8.02747058868408 8.08192825317383 8.12583351135254 7.95228433609009 7.80282068252563 7.97919607162476 7.54056072235107 6.97394514083862 6.06340217590332 5.91525173187256 6.51677703857422 5.35525465011597 4.65686559677124 4.23093366622925 3.72577977180481 3.25624632835388 3.25687003135681 3.50433158874512 3.58523535728455 12.7214345932007 9.5866174697876 14.1762609481812 2.53853058815002 2.09777975082397 2.09960842132568 2.25653171539307 2.15543913841248 1.91546404361725 0.937130570411682 0.835498452186584 -0.230369821190834 -0.924450755119324 -1.00656461715698 -1.24348402023315
21.0981597900391 18.3443412780762 22.154203414917 24.2681503295898 25.4862480163574 19.772798538208 26.5678424835205 34.3511199951172 39.4636878967285 0.862927734851837 9.38139247894287 13.1820459365845 14.0686616897583 10.0757761001587 38.8979988098145 38.7278289794922 3.68572330474854 3.97277998924255 1.56563115119934 2.04180359840393 1.58811366558075 1.82030951976776 2.15646147727966 1.9312127828598 1.57220959663391 0.743567049503326 0.954917728900909 2.42541170120239 -0.313719689846039 -1.22040796279907 0.872166693210602 1.16874432563782 1.36098754405975 10.6235408782959 13.2877607345581 15.9899520874023 15.9802141189575 21.199089050293 20.3902645111084 8.47643184661865 11.4316749572754 12.1850099563599 10.998950958252 9.63074588775635 14.7190828323364 20.7152137756348 23.1973419189453 29.8937950134277 20.5592594146729 12.8736619949341 3.52800893783569 6.1974892616272 47.050537109375 19.766544342041 30.8327140808105 3.06384491920471 0.847220897674561 1.16446256637573 1.22671473026276 0.935159623622894 0.664975881576538 0.499862134456635 0.595076620578766 0.848203301429749 7.14080905914307 0.896840989589691 10.2979421615601 0.866590797901154 0.774719774723053 0.728778839111328 -0.9871626496315 -1.00469386577606 5.93804979324341 2.35662817955017 -0.894081115722656 -0.732989549636841 -0.799897432327271 5.10098695755005 5.50724983215332 6.65262413024902 -0.213362023234367 0.623873233795166 0.266881108283997 0.497325897216797 0.75104033946991 1.10050272941589 3.89682412147522 2.91693687438965 3.38096642494202 3.44276571273804 3.40513277053833 2.96144652366638 3.34521508216858 4.40161657333374 4.8053994178772 4.15045118331909 4.80630779266357 6.36214923858643 7.96907329559326 8.56936740875244 9.98123168945312 11.0804624557495 12.6906623840332 12.5980167388916 12.5651330947876 12.6653842926025 12.0090570449829 12.3259286880493 14.2654695510864 12.8040504455566 12.0427179336548 29.5012874603271 7.06692457199097 5.84103631973267 6.69848680496216 6.46519041061401 9.54727077484131 10.728175163269 20.1072635650635 20.7274856567383 11.7166080474854 11.3074150085449 12.3207416534424 10.0658502578735 9.32615375518799 11.7645854949951 11.8579196929932 11.5514497756958 10.3556089401245 11.0365695953369 9.91358184814453 11.9380397796631 10.0852432250977 5.3610520362854 5.03616714477539 4.90035629272461 5.30690956115723 5.41006898880005 5.48726081848145 5.97049856185913 7.6173210144043 7.71770095825195 7.81548166275024 7.64376974105835 7.46188020706177 7.61343765258789 7.19230270385742 6.64490985870361 5.7111382484436 5.50422334671021 5.99885272979736 4.87142515182495 4.33692264556885 4.00350284576416 3.39074325561523 3.07105755805969 3.07529354095459 3.31233501434326 2.66120290756226 3.86414575576782 8.47509956359863 2.56315898895264 1.94667303562164 2.0744833946228 1.75188386440277 1.39551305770874 1.26683628559113 0.936891973018646 0.141169369220734 -0.110708341002464 -0.901562333106995 -1.54804599285126 -2.13763093948364 -2.3201858997345
11.7166986465454 10.4468450546265 18.4705581665039 19.3396778106689 20.6391925811768 18.6103286743164 14.9127330780029 19.6267757415771 23.0819873809814 3.61239671707153 7.62176847457886 10.1287031173706 9.38607215881348 5.47834253311157 22.7000484466553 22.1180248260498 2.3040144443512 2.41879177093506 1.98816287517548 1.49000477790833 1.53346192836761 2.09114980697632 1.19604218006134 1.86638712882996 -0.725965917110443 1.07956504821777 1.24075949192047 2.35795402526855 -0.824925124645233 7.97719669342041 0.949740529060364 1.13753247261047 1.38088798522949 9.64213085174561 11.9808549880981 13.785117149353 13.9701652526855 12.5666599273682 11.9928092956543 7.91058158874512 10.8481769561768 9.73245906829834 7.88099527359009 8.30816459655762 12.4333562850952 16.2382545471191 16.6859722137451 16.1949329376221 13.6335315704346 5.4386100769043 3.45440578460693 6.80377340316772 31.6894702911377 45.5769157409668 11.6999044418335 6.26465892791748 4.57410717010498 1.12626504898071 1.11757969856262 0.856959104537964 0.618297278881073 0.837785959243774 0.583168029785156 0.694396615028381 2.44581246376038 7.02588796615601 0.960436463356018 0.846249639987946 0.732881605625153 -0.674460291862488 0.0672226920723915 -0.970855712890625 3.79526543617249 1.4057981967926 -1.17334198951721 5.51811265945435 -0.936104595661163 -0.731878697872162 -0.429444313049316 -0.692206561565399 -0.409870684146881 0.16401594877243 0.321146249771118 -0.0132835386320949 5.99353742599487 12.3602046966553 1.51199471950531 1.94643199443817 2.79125189781189 3.04607939720154 2.92415738105774 2.91712212562561 3.66680693626404 4.64800548553467 4.64364337921143 3.89372992515564 4.54947423934937 6.19319295883179 7.53919410705566 8.61572360992432 9.70339488983154 10.486536026001 11.7360439300537 11.6826782226562 11.7295293807983 11.8189163208008 10.6708517074585 10.4046945571899 9.34135723114014 9.8986873626709 10.1550283432007 15.240216255188 17.3033847808838 9.80322456359863 7.29031848907471 6.41362142562866 16.6531391143799 16.0216846466064 10.3836126327515 12.2506837844849 10.8261795043945 6.05326128005981 5.58527708053589 4.96386861801147 6.40550136566162 10.5248508453369 17.8703269958496 11.403148651123 7.61576271057129 8.79502201080322 7.83232927322388 10.4789924621582 10.9580869674683 14.4021806716919 11.367938041687 18.5518169403076 23.7954139709473 5.25752210617065 5.2555775642395 5.6169261932373 7.36314344406128 7.46262693405151 7.47917985916138 7.28705024719238 7.09128475189209 7.22342967987061 6.84336757659912 6.31240653991699 5.42125034332275 5.03780794143677 5.55655574798584 4.44588756561279 4.04768848419189 3.35977578163147 3.18420362472534 2.89638519287109 2.90182256698608 3.23328399658203 2.54227328300476 2.70974707603455 4.19619607925415 1.41102492809296 1.86425006389618 1.09123408794403 1.03702974319458 0.718984186649323 0.181146338582039 -0.00276748184114695 -0.665627181529999 -0.864347457885742 -1.64757406711578 -2.10212635993958 -2.67376089096069 1.57924234867096
