NCOLS 173
NROWS 32
XLLCORNER 354048
YLLCORNER 6700208
CELLSIZE 16 
NODATA_value -3.4e+38 
-0.107189655303955 -0.0577571280300617 -0.02627844363451 0.00390575546771288 0.0359225980937481 0.346636921167374 1.03900849819183 2.34222102165222 3.36096405982971 5.6499547958374 4.9884352684021 7.49060583114624 2.88765144348145 1.50054907798767 1.56505501270294 1.38456547260284 1.23548340797424 1.21562528610229 1.234095454216 1.30780625343323 1.29928421974182 1.31057906150818 1.31647348403931 1.31612539291382 1.31687414646149 1.22310030460358 1.18888854980469 1.35765612125397 1.68313360214233 1.71428656578064 1.67796635627747 1.53867089748383 1.33063673973083 1.16956436634064 1.12296319007874 1.13690292835236 1.20129120349884 1.29026579856873 1.45875120162964 1.38520002365112 1.28912043571472 1.19059646129608 1.9791613817215 1.79563558101654 2.177405834198 1.50660407543182 2.28099250793457 3.28338861465454 2.94080281257629 2.40752840042114 1.82948625087738 1.77715802192688 1.95729279518127 1.64570784568787 1.69436120986938 1.76331675052643 1.63430619239807 1.3255512714386 1.19180142879486 1.09557974338531 1.37549376487732 1.4736932516098 1.40632104873657 1.54791903495789 1.43074250221252 0.681940853595734 0.471743166446686 0.46472430229187 0.443522751331329 0.42686516046524 0.351114332675934 0.259961932897568 0.0347690023481846 -0.827003180980682 -1.43882215023041 0.873458862304688 2.82456088066101 6.27846670150757 8.78753185272217 9.79471969604492 11.6049032211304 13.1843042373657 20.0665588378906 17.0141983032227 10.6018915176392 10.3142690658569 8.2749490737915 4.94871044158936 3.19078063964844 0.695297360420227 -0.137837037444115 -0.492460250854492 -1.15398383140564 -1.52614200115204 -1.73253560066223 -0.429842084646225 1.36204731464386 2.42870545387268 2.5875518321991 3.24190139770508 7.1680908203125 9.21577739715576 9.84206867218018 10.0381155014038 19.1226596832275 13.5625057220459 8.95714473724365 14.1301364898682 9.37331962585449 8.54410362243652 18.2899837493896 19.3265914916992 9.42868995666504 6.989990234375 7.02046775817871 8.55106639862061 12.5041236877441 11.2255792617798 8.47176551818848 6.782639503479 6.58523845672607 7.11907148361206 8.72401523590088 6.8681902885437 7.65685939788818 7.49666166305542 5.57135343551636 3.28325247764587 1.39382123947144 -0.26176518201828 -0.653893947601318 1.20095384120941 4.30628490447998 6.15132141113281 2.78604912757874 0.372088372707367 0.838692009449005 1.06289660930634 1.12624609470367 1.17382884025574 1.22870576381683 1.29708969593048 1.39028859138489 1.52996253967285 1.73121547698975 1.81337916851044 1.8563734292984 1.88040614128113 1.80828249454498 2.05475974082947 1.35495698451996 1.41636383533478 1.54474985599518 1.6573007106781 1.70940041542053 1.7671126127243 1.48943293094635 1.58003711700439 1.63583612442017 1.69192504882812 1.77811133861542 2.05102467536926 2.13383460044861 1.98881793022156 1.78817343711853 1.2771407365799 1.06918156147003 1.00445318222046 0.94836288690567 0.901615083217621 0.903899252414703 0.889217495918274 0.849047899246216
-0.0545106194913387 -0.0116403885185719 0.0284486617892981 0.0738697201013565 0.372402727603912 0.960038959980011 4.3365273475647 12.4379186630249 12.9168090820312 8.93864345550537 7.29050159454346 3.70833253860474 2.19743680953979 1.50622069835663 1.59527099132538 1.4180371761322 1.26751101016998 1.24781215190887 1.26440215110779 1.34354913234711 1.34614622592926 1.36502289772034 1.36504876613617 1.36379837989807 1.36638820171356 1.27251553535461 1.23714923858643 1.3233026266098 1.67059350013733 1.77494478225708 1.74890160560608 1.61187505722046 1.40713214874268 1.24149298667908 1.24528527259827 1.32965767383575 1.28300333023071 1.33056879043579 1.49883127212524 1.57606470584869 1.36179268360138 1.2837073802948 2.71841597557068 2.38140749931335 2.89198446273804 2.3966805934906 1.34735643863678 1.83602285385132 2.90934324264526 2.43510723114014 1.18485903739929 1.82288241386414 1.99178862571716 1.71330094337463 1.77526414394379 1.84334063529968 1.71401393413544 1.57571077346802 1.43521022796631 1.29770016670227 1.43296229839325 1.51939606666565 1.4779018163681 1.6598345041275 1.55199837684631 0.776067852973938 0.63278603553772 0.650378108024597 0.685408055782318 0.551674604415894 0.438034385442734 0.304590076208115 0.0986829698085785 -0.685611188411713 -1.4039900302887 -1.7093505859375 -0.61491197347641 1.37746572494507 6.5109691619873 9.63617992401123 12.9755973815918 13.8085298538208 8.70826625823975 10.9946546554565 11.5218410491943 11.9336557388306 9.20860290527344 5.74915885925293 3.99888110160828 1.10864722728729 -0.0235959365963936 -0.41045144200325 -0.849705398082733 -1.04867732524872 -1.31473135948181 -0.0407856181263924 1.57182478904724 2.64179372787476 2.69257736206055 2.90836215019226 6.24494457244873 8.46169948577881 9.09946537017822 10.1464757919312 8.95985126495361 11.0186891555786 9.03370571136475 10.3862180709839 9.11557388305664 4.82786703109741 2.55590867996216 3.42536950111389 11.0033159255981 8.09246349334717 6.29482460021973 9.22564888000488 15.599889755249 12.9249458312988 10.0331583023071 7.5503396987915 5.55924510955811 5.63541412353516 5.94761991500854 6.72137641906738 8.10332202911377 8.38188552856445 6.14652729034424 3.35885405540466 2.38545775413513 1.51099288463593 0.822462201118469 3.0002703666687 6.51938343048096 9.45992088317871 4.9446702003479 0.548397123813629 0.896240830421448 1.10979104042053 1.14902663230896 1.22261643409729 1.35556769371033 1.52303183078766 1.6840353012085 1.79084134101868 1.89449083805084 1.95241391658783 1.97529304027557 2.94433164596558 1.84892809391022 1.55080032348633 1.40033566951752 1.64035356044769 1.73807239532471 1.83443987369537 1.94692039489746 2.02049231529236 1.7082234621048 1.73634839057922 1.8410656452179 1.87734019756317 1.96567320823669 2.26126146316528 2.34722638130188 2.21130585670471 2.02132940292358 1.512366771698 1.17087173461914 1.0726865530014 1.00686526298523 0.949346899986267 0.934725403785706 0.896096348762512 0.852091670036316
-0.00974097847938538 0.047219630330801 0.125225022435188 1.50787365436554 4.24546766281128 6.21654891967773 5.6827244758606 1.87264883518219 1.17163753509521 0.993911385536194 2.21849727630615 1.57589173316956 1.61245179176331 1.6622371673584 1.64498126506805 1.45765054225922 1.30085492134094 1.28031027317047 1.30461776256561 1.36484694480896 1.4138331413269 1.40841686725616 1.41656494140625 1.42183816432953 1.42861020565033 1.33212792873383 1.28987741470337 1.27561819553375 1.45997202396393 1.82744324207306 1.85558462142944 1.80576467514038 1.48199272155762 1.2798992395401 1.31945192813873 1.45201599597931 1.49183917045593 1.41838204860687 1.51694297790527 1.46828281879425 1.39439582824707 1.31282293796539 3.17654967308044 0.885214805603027 1.86607158184052 1.13978087902069 1.37140655517578 1.43774330615997 1.25971078872681 1.20384764671326 1.21350646018982 1.87907755374908 2.0509729385376 1.7576938867569 1.88257777690887 1.92921841144562 1.80413949489594 1.80057013034821 1.75039327144623 1.62145578861237 1.53400897979736 1.61376810073853 1.60000884532928 1.78069269657135 1.67927503585815 0.809884190559387 0.640548288822174 0.668201327323914 0.783107936382294 0.694572687149048 0.580153822898865 0.464653432369232 0.17415215075016 -0.416541457176208 -1.19156742095947 -1.65179681777954 -1.85200130939484 -2.00285053253174 -0.693585515022278 5.90822887420654 9.02888202667236 8.50295352935791 6.2163462638855 4.2015700340271 8.81061172485352 16.7466144561768 11.5644340515137 7.23880386352539 5.11709356307983 1.86491167545319 0.0226778667420149 -0.325942397117615 -0.312616884708405 -0.557742416858673 -0.758472263813019 1.27474689483643 2.3672034740448 3.07662987709045 2.7987220287323 1.79221045970917 5.00107431411743 7.80200004577637 9.98593425750732 8.6751708984375 3.69629788398743 3.33198022842407 5.46229553222656 6.14894437789917 7.25549983978271 3.6206374168396 -2.82368421554565 5.06679964065552 9.25521945953369 8.6898193359375 7.0268087387085 11.1573181152344 11.931040763855 12.2481384277344 8.57191467285156 4.77292966842651 5.15030717849731 7.28872728347778 6.93029642105103 7.04325151443481 9.08142375946045 8.86252307891846 6.69971036911011 4.82523536682129 4.91751050949097 2.91435718536377 2.11759614944458 4.06279468536377 7.57474422454834 9.40353012084961 6.99690771102905 0.936089754104614 0.940926551818848 1.17878711223602 1.31302738189697 1.37927460670471 1.56835854053497 1.68569600582123 1.80871188640594 1.98423540592194 2.07108116149902 2.09711718559265 2.05473947525024 1.93693363666534 1.84913122653961 1.74518632888794 1.73545455932617 1.83909797668457 1.95847308635712 2.09679412841797 2.20663213729858 2.27217698097229 2.07969975471497 2.00179886817932 2.03364753723145 2.05475115776062 2.06377100944519 2.29440116882324 2.420734167099 2.34504199028015 2.18775248527527 1.62652659416199 1.32176327705383 1.1228563785553 1.04104864597321 0.968424260616302 0.944717824459076 0.90350329875946 0.873778402805328
0.0562129206955433 0.138927459716797 2.2436351776123 4.3480110168457 2.28306579589844 1.35346436500549 0.0938620343804359 0.0253339409828186 0.246208518743515 0.55826073884964 1.4953625202179 1.70573174953461 1.78615427017212 2.0337016582489 1.69473731517792 1.50123369693756 1.33707904815674 1.41943609714508 1.34612452983856 1.37418103218079 1.48893618583679 1.45583963394165 1.47221302986145 1.49408888816833 1.50273978710175 1.40943562984467 1.37356650829315 1.36490893363953 1.55569553375244 1.91367483139038 1.95215928554535 1.86890614032745 1.72778618335724 1.4822872877121 1.34717345237732 1.51584935188293 1.54908454418182 1.49147951602936 1.56806242465973 1.55530261993408 1.48223507404327 1.31689035892487 1.08642816543579 0.887635111808777 0.898236632347107 1.03600609302521 1.3870507478714 1.46977722644806 1.45051097869873 1.39699625968933 1.29448366165161 2.06974124908447 2.11543655395508 1.80821847915649 2.00862836837769 2.02794623374939 1.90481448173523 1.94451785087585 1.95234549045563 1.92238402366638 1.7856285572052 1.68208491802216 1.7577908039093 1.93624806404114 1.821004986763 0.886838495731354 0.720201790332794 0.761946260929108 0.887271583080292 0.843877136707306 0.654102206230164 0.468308180570602 0.196753785014153 -0.134184166789055 -0.760335505008698 -1.44274306297302 -1.7818865776062 -1.94612956047058 -0.385626643896103 -2.24994087219238 -1.19502246379852 -0.613909900188446 -0.637398242950439 -0.436819672584534 4.5810022354126 6.83048534393311 12.1491384506226 8.09210205078125 6.96883344650269 0.433818012475967 0.0762336254119873 0.244154199957848 0.122198462486267 -0.115586973726749 -0.175270020961761 2.5968222618103 3.53217649459839 3.70428514480591 3.16437292098999 1.86901032924652 4.71589469909668 9.98540019989014 12.1326351165771 9.317551612854 6.56910848617554 3.61089539527893 0.709784269332886 0.664110541343689 7.45511198043823 3.06072568893433 0.193320944905281 6.03170728683472 5.66365146636963 5.43037462234497 6.41588354110718 9.39640331268311 3.7504460811615 3.47462272644043 4.9205207824707 4.41705465316772 5.601487159729 9.25732135772705 8.13049983978271 6.97187519073486 5.56932401657104 3.10390377044678 3.26955509185791 2.3995988368988 -0.0103818876668811 0.541372001171112 1.21086692810059 -0.625717997550964 -0.50265097618103 -0.280535846948624 0.240128859877586 1.07696664333344 0.968599915504456 1.31573390960693 1.49638164043427 1.64651048183441 1.75142598152161 1.92531263828278 2.00357937812805 2.02843689918518 2.18519878387451 2.24347710609436 2.14416265487671 2.03484272956848 1.99601972103119 2.06876158714294 2.01293277740479 2.08589196205139 2.26379823684692 2.39859676361084 2.45402121543884 2.55439758300781 2.71467852592468 2.47218823432922 2.16725873947144 2.32094526290894 2.25694465637207 2.49196720123291 2.60734009742737 2.47716569900513 2.27863240242004 1.88716065883636 1.47617208957672 1.16876983642578 1.07271039485931 0.987476527690887 0.957478046417236 0.95382159948349 0.924437642097473
0.127218931913376 1.41878414154053 2.16471314430237 0.705891668796539 0.372376680374146 0.501760184764862 0.127573549747467 0.0675970166921616 0.304783940315247 0.588404774665833 0.928073227405548 1.88800024986267 1.87031543254852 2.33296346664429 1.9221134185791 1.73264241218567 1.50381255149841 1.74640738964081 1.40260648727417 1.41891610622406 1.53701364994049 1.50760352611542 1.5316663980484 1.58355295658112 1.6078382730484 1.53537106513977 1.48873519897461 1.41762232780457 1.59193480014801 1.96618628501892 2.01597380638123 1.93821346759796 1.79058337211609 1.56169462203979 1.38278996944427 1.55050754547119 1.58266305923462 1.52686512470245 1.5568470954895 1.61356937885284 1.53508472442627 1.33908915519714 1.14373099803925 0.978578448295593 0.968647122383118 1.09782350063324 1.28728497028351 1.49208462238312 1.62451994419098 1.44870316982269 1.42342805862427 2.47319746017456 2.42852115631104 1.87977373600006 2.11300182342529 2.19049072265625 1.9994637966156 2.03003668785095 2.05601239204407 2.06807255744934 1.94133424758911 1.78234970569611 1.96057295799255 2.12586116790771 2.00429105758667 0.961630344390869 0.862633049488068 0.907389879226685 0.995833516120911 1.15627145767212 0.920555174350739 0.504657566547394 0.268792450428009 -0.0426913388073444 -0.368113994598389 -0.98434978723526 -1.53459227085114 -1.85617899894714 -2.09985518455505 -2.16793489456177 -1.03187501430511 -0.527261912822723 -0.486220926046371 -0.354089707136154 -0.00896221492439508 -0.0659215077757835 0.298173636198044 0.406952410936356 0.209904432296753 0.186255514621735 0.143618404865265 0.611326098442078 0.66285640001297 0.376162737607956 0.234007611870766 3.49251818656921 4.51391839981079 4.63207626342773 3.85334897041321 2.15966844558716 1.37174463272095 10.0268001556396 14.138409614563 9.8773136138916 5.64866304397583 0.381774604320526 -0.438221633434296 -1.59589552879333 -2.59471225738525 -2.65754914283752 -2.3341920375824 -0.0571276843547821 4.15901327133179 3.42377233505249 4.15846967697144 1.00106728076935 -0.972388625144958 -0.977467715740204 -0.973519206047058 1.76852548122406 6.38666296005249 4.01679754257202 4.31505966186523 2.0992066860199 -0.401171445846558 -0.955919206142426 -1.39420354366302 -1.45211672782898 -1.23120439052582 -0.799596190452576 -0.322792232036591 -0.233776986598969 -0.146803945302963 0.0972883030772209 0.436131000518799 0.688836812973022 1.04805552959442 1.46130120754242 1.67554676532745 1.80978751182556 1.88203918933868 2.05310750007629 2.18448376655579 2.27463865280151 2.31419277191162 2.37947559356689 2.44853734970093 2.48690438270569 2.52281618118286 2.44945502281189 2.2963433265686 2.36218619346619 2.48674154281616 2.66328501701355 2.73931336402893 2.87211608886719 2.99665713310242 2.70856714248657 2.44247627258301 2.5079402923584 2.41526317596436 2.60867190361023 2.68572688102722 2.54984521865845 2.51593995094299 2.24575662612915 1.56537914276123 1.19610178470612 1.09422671794891 1.00448250770569 0.973536014556885 0.999239683151245 0.992953896522522
0.200188085436821 1.82958173751831 0.193975478410721 0.176646873354912 0.166503965854645 0.273041576147079 0.163044482469559 0.132314190268517 0.856783390045166 0.426127642393112 0.681427657604218 1.54728996753693 2.12046074867249 3.22071218490601 2.12833189964294 1.99285078048706 1.79469382762909 2.28757333755493 1.80507230758667 1.46629345417023 1.5841748714447 1.63153994083405 1.64239597320557 1.67197120189667 1.685142993927 1.62954807281494 1.5404577255249 1.4956841468811 1.64257216453552 2.03174519538879 2.07827591896057 2.02525234222412 1.85486268997192 1.61259639263153 1.42240381240845 1.58866596221924 1.62747538089752 1.57070243358612 1.58438646793365 1.65085244178772 1.58637034893036 1.4354213476181 1.26367628574371 1.12068331241608 1.09251463413239 1.0868331193924 1.19099688529968 1.53636014461517 1.64928996562958 1.50141322612762 1.46802747249603 2.74113392829895 3.36754274368286 2.77631187438965 2.14728999137878 2.3329164981842 2.35722851753235 2.12109041213989 2.14779686927795 2.13931655883789 2.03805327415466 1.91191625595093 2.22645711898804 2.38815689086914 2.22776675224304 1.08136892318726 0.968804121017456 1.15061831474304 1.31894969940186 1.6780663728714 1.17041325569153 0.591763615608215 0.367115408182144 0.097020298242569 -0.183415547013283 -0.606536209583282 -1.13857436180115 -1.62378776073456 -1.9483357667923 -1.99001705646515 -0.365732461214066 0.218231052160263 0.333613663911819 0.17467625439167 0.446455627679825 0.302585005760193 0.449557244777679 0.418127298355103 0.145717263221741 0.248575076460838 0.337584674358368 0.798664569854736 0.985675692558289 0.850869596004486 0.664452433586121 4.38289022445679 5.31810998916626 5.45603561401367 4.30306625366211 2.33498358726501 1.6308935880661 1.2561936378479 2.03686022758484 0.945758402347565 0.675849914550781 0.478350013494492 0.0873542875051498 -0.467962920665741 -1.85722708702087 -2.15146946907043 -1.89246392250061 -1.40851068496704 1.21433508396149 1.4950076341629 1.23072004318237 -0.596613943576813 -0.681567549705505 -0.684597194194794 -0.73780483007431 1.90740406513214 2.63996529579163 0.176245644688606 -1.23964083194733 -1.32677686214447 -1.38348984718323 -1.37773954868317 -1.22150421142578 -1.08414804935455 -0.802368462085724 -0.382772207260132 -0.0391974337399006 0.08590979129076 0.170157372951508 0.302270412445068 0.486388862133026 0.691062033176422 1.06666481494904 1.41588652133942 1.77384054660797 1.91533493995667 1.98560857772827 2.16736912727356 2.29565715789795 2.39571118354797 2.52341151237488 2.64757585525513 2.72911763191223 2.7609269618988 2.79961371421814 2.73453164100647 2.57651805877686 2.57371664047241 2.66244125366211 2.74759101867676 2.91205358505249 2.99215483665466 3.11267757415771 2.81076407432556 2.49755787849426 2.57400870323181 2.60251069068909 2.79003143310547 2.83450722694397 2.81051540374756 2.63381171226501 2.44573950767517 1.74716627597809 1.23046839237213 1.1162850856781 1.02472448348999 1.03701055049896 1.02591061592102 1.14750957489014
0.877246499061584 0.239314779639244 0.209785878658295 0.195924878120422 0.177385583519936 0.162329465150833 0.170718640089035 0.136702343821526 0.098698116838932 0.193537071347237 0.575123608112335 1.31935930252075 2.33307695388794 2.34713745117188 2.41129875183105 2.11688661575317 2.02558398246765 3.72770309448242 2.96448159217834 1.976118683815 1.59375476837158 1.70819222927094 1.68358290195465 1.67122101783752 1.72410798072815 1.71063220500946 1.60734474658966 1.56344830989838 1.69980406761169 2.09725761413574 2.14234495162964 2.10883855819702 1.91879677772522 1.66962265968323 1.47771775722504 1.63525700569153 1.67097544670105 1.60710656642914 1.59191906452179 1.68527913093567 1.618816614151 1.50554764270782 1.36578273773193 1.21404385566711 1.11129784584045 1.1844881772995 1.33131575584412 1.66372573375702 1.73818683624268 1.57585024833679 1.90073144435883 3.81401681900024 4.72954368591309 3.81148052215576 2.85745167732239 2.46641159057617 2.55957412719727 2.28111410140991 2.22559714317322 2.23403668403625 2.18733286857605 2.09387254714966 2.58528566360474 2.69910645484924 2.51029968261719 1.18861293792725 1.14107131958008 1.4499853849411 2.17776727676392 1.96049606800079 1.5943009853363 0.702285885810852 0.380521684885025 0.226567640900612 -0.0374543815851212 -0.358499974012375 -0.8471320271492 -1.24617671966553 -1.55677223205566 -1.68593001365662 0.105038426816463 1.04393291473389 1.31697988510132 1.3481467962265 1.46289014816284 1.27597188949585 1.14328801631927 0.695375502109528 0.377067267894745 0.414781302213669 0.508904159069061 0.874173581600189 1.0940957069397 1.10040104389191 0.95190691947937 5.27906656265259 6.54463243484497 6.49328660964966 5.08870267868042 2.54518127441406 1.70125961303711 1.38221895694733 1.04519474506378 0.950789153575897 0.799200892448425 0.640443801879883 0.495327860116959 0.0529002286493778 -0.98518043756485 -1.44381749629974 -1.42543816566467 -1.06937539577484 -0.00256815110333264 0.220750615000725 0.0119531033560634 -0.113427452743053 -0.275146991014481 -0.355831325054169 -0.495520323514938 1.24027788639069 -0.89938747882843 -0.938174366950989 -0.937981903553009 -0.98676723241806 -1.05486369132996 -1.00124895572662 -0.874982476234436 -0.618322372436523 -0.31040945649147 -0.0611296482384205 0.139990746974945 0.194598600268364 0.247027531266212 0.400687575340271 0.600158035755157 0.774928569793701 1.07769656181335 1.45380854606628 1.81979310512543 2.00725984573364 2.07236742973328 2.2602481842041 2.39529132843018 2.52471470832825 2.6780903339386 2.8241286277771 2.97047877311707 3.08907675743103 3.12277770042419 3.05322957038879 2.88823342323303 2.83189034461975 2.76288652420044 2.88967132568359 3.01729416847229 3.07895278930664 3.18147873878479 2.87449622154236 2.52740597724915 2.60823917388916 2.75873064994812 3.00263547897339 3.24066710472107 2.88252115249634 2.71929883956909 2.50611758232117 1.86442124843597 1.2978572845459 1.14302325248718 1.11859452724457 1.06211888790131 1.04186809062958 1.01302218437195
1.47224414348602 0.226265594363213 0.223836749792099 0.216243848204613 0.199929133057594 0.186015799641609 0.194725200533867 0.16265980899334 0.153161957859993 0.297042280435562 0.421046257019043 1.01879286766052 1.09938895702362 1.32461392879486 2.00850248336792 2.48668909072876 2.1862108707428 1.41618001461029 1.61291909217834 2.27187728881836 1.6281818151474 1.74114310741425 1.79779660701752 1.76288115978241 1.81193327903748 1.80057263374329 1.68557155132294 1.62942934036255 1.76402175426483 2.18676042556763 2.22785592079163 2.19850468635559 2.01100206375122 1.75452816486359 1.5482234954834 1.67947053909302 1.72136831283569 1.690833568573 1.58101963996887 1.71530473232269 1.66421020030975 1.56088638305664 1.45596587657928 1.31813061237335 1.20898008346558 1.29480040073395 1.4568806886673 1.81210148334503 1.87020003795624 1.63229584693909 2.09118509292603 4.84391212463379 6.92991924285889 5.31624126434326 3.41769480705261 2.61669039726257 2.73416185379028 2.4715461730957 2.27195596694946 2.27774167060852 2.23339366912842 2.43450307846069 3.06213784217834 3.10656905174255 2.85370278358459 1.66399109363556 1.96969223022461 1.87322199344635 1.0889835357666 0.99352902173996 1.20929658412933 0.897556841373444 0.459771156311035 0.332186788320541 0.0734041035175323 -0.185573324561119 -0.567375540733337 -0.980070412158966 -1.22090601921082 -1.32698321342468 0.403802901506424 2.25579428672791 2.86326885223389 2.76620960235596 2.58556962013245 2.55962085723877 2.22367715835571 1.57507622241974 1.22481310367584 0.951635837554932 0.845342934131622 0.973448753356934 1.2391871213913 1.21741855144501 1.46765899658203 6.41850805282593 7.94428110122681 8.04488182067871 6.3132472038269 3.59411191940308 1.77169930934906 1.44698393344879 1.20355153083801 1.13007247447968 1.0063728094101 0.838496088981628 0.711059272289276 0.283656567335129 -0.385129332542419 -0.767033696174622 -0.870200991630554 -0.673341035842896 -0.462384134531021 0.0540140904486179 0.607935190200806 0.528768360614777 0.240300536155701 0.0798179358243942 -0.104159340262413 -0.465324372053146 -0.625189125537872 -0.559800028800964 -0.492337942123413 -0.512545526027679 -0.559822559356689 -0.578800916671753 -0.495461970567703 -0.135360166430473 0.0482782945036888 0.215748474001884 0.228812411427498 0.247376471757889 0.299042314291 0.488315284252167 0.766845285892487 0.943825364112854 1.17813038825989 1.52458596229553 1.8933447599411 2.0598030090332 2.139240026474 2.33687520027161 2.50871849060059 2.67031264305115 2.84700703620911 3.01203441619873 3.18360948562622 3.33397126197815 3.40507340431213 3.32948660850525 3.2711193561554 3.19856405258179 3.07010221481323 3.06574249267578 3.16062021255493 3.18791079521179 3.28104948997498 2.95223236083984 2.76087975502014 2.63859367370605 2.91890478134155 3.27451753616333 3.51773142814636 3.48393774032593 2.80186676979065 2.57818102836609 1.90967917442322 1.32199776172638 1.21250760555267 1.14969611167908 1.08881342411041 1.06953871250153 1.04525530338287
2.29885911941528 0.272737920284271 0.242815881967545 0.241804540157318 0.228286936879158 0.211028918623924 0.205382734537125 0.194602638483047 0.810648381710052 0.138741046190262 0.203251913189888 0.513070106506348 1.18380379676819 1.80114209651947 2.24531269073486 2.08008718490601 2.13688063621521 1.6956934928894 1.42183542251587 2.90409064292908 1.71229660511017 1.75854134559631 1.87027680873871 1.8392653465271 1.89789867401123 1.88738322257996 1.7718026638031 1.72711050510406 1.85139751434326 2.29453158378601 2.3256847858429 2.30674123764038 2.12408852577209 1.8245108127594 1.62495315074921 1.56465494632721 1.72704482078552 1.75507366657257 1.67220366001129 1.76868760585785 1.7175714969635 1.62024438381195 1.55138349533081 1.45748138427734 1.35333251953125 1.41609072685242 1.56925690174103 1.91693687438965 1.96321141719818 1.68207287788391 1.47596883773804 2.52100658416748 3.6065821647644 3.78606796264648 3.92754745483398 2.76015090942383 2.93949174880981 2.65700435638428 2.32294392585754 2.32469177246094 2.27906131744385 2.50537586212158 3.22478890419006 3.75261902809143 3.67133355140686 3.11435055732727 1.09920120239258 0.737961113452911 0.681429505348206 0.49488952755928 0.504898428916931 1.15084135532379 0.654047608375549 0.353897452354431 0.198718845844269 -0.0849401503801346 -0.343578100204468 -0.660249531269073 -0.87489116191864 -0.963972568511963 2.32693934440613 4.01168251037598 4.73831415176392 4.57285070419312 4.03432989120483 4.01765823364258 3.62383675575256 2.93255424499512 2.04084706306458 1.59859490394592 1.23518896102905 1.06943678855896 1.32678401470184 1.2896671295166 1.4549525976181 5.39895009994507 8.09661865234375 9.3989953994751 9.45765495300293 7.10338735580444 2.02394008636475 1.581374168396 1.38086223602295 1.33291852474213 1.24548673629761 1.19163036346436 1.05517864227295 0.60621976852417 0.12389612942934 -0.20663420855999 -0.398640751838684 0.0753506049513817 -0.205437123775482 0.23931211233139 0.866448700428009 1.02840614318848 0.821144938468933 0.614185869693756 0.371939808130264 0.0612198188900948 -0.101660519838333 -0.050281748175621 -0.0321379415690899 -0.100572668015957 -0.13184517621994 -0.232613429427147 -0.170014604926109 0.126664891839027 0.290092796087265 0.304222077131271 0.366151213645935 0.328594237565994 0.410445541143417 0.618107557296753 0.861905336380005 1.05164873600006 1.37761473655701 1.65439450740814 2.00061535835266 2.17293167114258 2.26027059555054 2.50537157058716 2.69532823562622 2.85866641998291 3.02888154983521 3.20303797721863 3.38443946838379 3.54004549980164 3.62309265136719 3.7069034576416 3.64526009559631 3.46691131591797 3.33554792404175 3.29212951660156 3.33024096488953 3.32161450386047 3.39971947669983 3.0564980506897 2.8465461730957 2.73437738418579 3.02399206161499 3.43853998184204 3.77277827262878 3.74986791610718 3.12947583198547 2.64526343345642 1.95350968837738 1.38696134090424 1.2869576215744 1.1847060918808 1.11643397808075 1.09729266166687 1.0721800327301
0.579603731632233 0.437301188707352 0.281243056058884 0.268624931573868 0.259240508079529 0.24763648211956 0.228967264294624 0.223298028111458 0.17240272462368 0.146450772881508 0.128658786416054 0.226029455661774 0.5470951795578 0.721567690372467 1.60527896881104 2.28116989135742 2.21295261383057 2.16046404838562 1.86086571216583 4.76388120651245 2.75730681419373 2.03442478179932 1.88906180858612 1.93319666385651 1.9913763999939 1.99065768718719 1.88516283035278 1.83898937702179 1.95024251937866 2.39973402023315 2.41581797599792 2.37162351608276 2.18478655815125 1.92481160163879 1.75279092788696 1.65187835693359 1.77987217903137 1.81293094158173 1.73194849491119 1.83645713329315 1.77604866027832 1.67987501621246 1.62857472896576 1.5842809677124 1.51692807674408 1.58047878742218 1.71446418762207 2.04738640785217 2.07872104644775 1.76768982410431 1.50899231433868 1.29051518440247 1.89201462268829 2.21607995033264 1.97599589824677 2.78441762924194 3.15109658241272 2.85264801979065 2.37344813346863 2.36892366409302 2.31728291511536 2.67434287071228 3.50697755813599 4.63735818862915 4.2878475189209 3.67420411109924 1.20594453811646 0.544905185699463 0.502846121788025 0.552135407924652 0.531322240829468 0.735024631023407 0.833613574504852 0.393513649702072 0.297941923141479 -0.0599709860980511 -0.251345932483673 -0.396820336580276 -0.535690546035767 0.629811108112335 4.4743013381958 6.09246158599854 6.67954158782959 6.38495540618896 5.82392930984497 5.6217041015625 5.11897706985474 4.26417827606201 2.96896457672119 2.34233903884888 1.81443333625793 1.47808909416199 1.43520522117615 1.64446699619293 1.11984431743622 1.83574986457825 10.4653377532959 12.0550451278687 12.238676071167 9.32873821258545 3.31929850578308 1.75213444232941 1.60751378536224 1.66024601459503 1.66087901592255 1.75652384757996 1.61520051956177 1.10906076431274 0.597842693328857 0.129781618714333 -0.0679804608225822 -0.0728763788938522 0.14714902639389 0.454423427581787 0.982755959033966 1.21600043773651 1.23528861999512 1.11836361885071 0.946314871311188 0.59586489200592 0.478562146425247 0.389894962310791 0.359979093074799 0.283680856227875 0.18373404443264 0.086619034409523 0.1860241740942 0.419155180454254 0.509582161903381 0.544453620910645 0.558365404605865 0.573789656162262 0.640963733196259 0.80812281370163 1.01328873634338 1.33225882053375 1.50218105316162 1.7786328792572 2.13262367248535 2.31525206565857 2.42796921730042 2.66069889068604 2.82711935043335 3.02050018310547 3.17595911026001 3.32310509681702 3.49501371383667 3.68266868591309 3.87559485435486 3.96539187431335 3.90216445922852 3.72873950004578 3.59084963798523 3.53239107131958 3.54908275604248 3.52639293670654 3.57396864891052 3.20466279983521 2.95240211486816 2.971435546875 3.17921614646912 3.58094501495361 3.96443200111389 3.98618388175964 3.36309409141541 2.72682189941406 2.00330519676208 1.51153469085693 1.34803330898285 1.25347506999969 1.15435755252838 1.14378619194031 1.12178754806519
0.21054020524025 0.797250211238861 0.324274837970734 0.308178007602692 0.303579330444336 0.294162899255753 0.277779579162598 0.261107236146927 0.220151275396347 0.189153894782066 0.159795105457306 0.162872314453125 0.329074561595917 0.745458126068115 1.61894130706787 1.7941312789917 2.3958215713501 2.59030413627625 2.3052351474762 1.45071637630463 1.66525459289551 2.47574949264526 1.9154931306839 2.0054874420166 2.09003067016602 2.09764838218689 2.02770829200745 1.97345745563507 2.02050638198853 2.47131109237671 2.49727129936218 2.46289348602295 2.28212666511536 1.98910284042358 1.87951409816742 1.81952691078186 1.84570419788361 1.86926257610321 1.78711795806885 1.90742743015289 1.84345030784607 1.74234354496002 1.69608819484711 1.67303562164307 1.71469020843506 1.7675724029541 1.89517116546631 2.20180106163025 2.19927358627319 1.84872841835022 1.56614756584167 1.31887245178223 1.98390114307404 2.2526695728302 1.96812033653259 2.84880352020264 3.38622045516968 3.09102606773376 2.46898102760315 2.41577863693237 2.34729862213135 2.63700032234192 3.69720482826233 5.08093595504761 5.37039518356323 4.93658208847046 1.38096523284912 0.571579098701477 0.517359137535095 0.528177201747894 0.542218863964081 0.632880091667175 0.966666877269745 0.529621660709381 0.605596661567688 -0.0146626867353916 -0.245901554822922 -0.299133539199829 -0.328668296337128 2.42198586463928 6.63331413269043 8.01641368865967 8.5038366317749 8.08806896209717 7.47961807250977 7.06174659729004 6.49251127243042 5.34320592880249 4.01289129257202 3.11483287811279 2.34647035598755 1.86317276954651 1.62769973278046 1.44216549396515 1.21051800251007 2.36425232887268 16.4009456634521 17.6326656341553 17.0830707550049 12.2339572906494 4.98364973068237 1.96584868431091 1.98859429359436 2.15221285820007 2.23421621322632 2.28755354881287 2.1716480255127 1.65051436424255 1.08302128314972 0.44533559679985 0.225932657718658 0.223963335156441 0.455377101898193 0.713162124156952 1.08084011077881 1.32919073104858 1.4299818277359 1.37553334236145 1.30329871177673 1.02695858478546 0.856204807758331 0.725398242473602 0.681256651878357 0.723269104957581 0.643745124340057 0.532867968082428 0.705643653869629 0.835132658481598 0.827700793743134 0.824000298976898 0.912377655506134 0.893577635288239 1.02927386760712 1.13448107242584 1.38973784446716 1.57742762565613 1.59608292579651 1.82351398468018 2.24742722511292 2.45787763595581 2.59571599960327 2.71172189712524 3.03518104553223 3.21712398529053 3.36480021476746 3.51959490776062 3.69205975532532 3.9007740020752 4.11184120178223 4.21647024154663 4.15162420272827 3.98238325119019 3.85986852645874 3.82684326171875 3.81390333175659 3.75053334236145 3.78303194046021 3.37330412864685 3.1373462677002 3.31395125389099 3.5333411693573 3.84923648834229 4.2320990562439 4.20435762405396 3.5421085357666 2.90333819389343 2.19808554649353 1.64964294433594 1.4177508354187 1.28783273696899 1.18471693992615 1.17667198181152 1.14902687072754
0.254499316215515 0.351730048656464 0.374226987361908 0.333248764276505 0.330647110939026 0.332885175943375 0.330702602863312 0.294998407363892 0.263967841863632 0.226919338107109 0.18064883351326 0.16573791205883 0.354253709316254 0.769886493682861 1.66508066654205 1.79687976837158 1.55135643482208 1.81552577018738 2.63403582572937 1.68260455131531 2.48580956459045 3.22113442420959 1.98596966266632 2.03055238723755 2.17009878158569 2.20416522026062 2.09682679176331 2.02543210983276 1.98112201690674 2.42978954315186 2.59507393836975 2.63835406303406 2.40159845352173 2.09014773368835 1.97499442100525 1.91037213802338 1.89061915874481 1.93790197372437 1.87975800037384 1.95867013931274 1.97237300872803 1.83299314975739 1.75906658172607 1.74135446548462 2.35084390640259 1.89150142669678 2.03732633590698 2.31864738464355 2.29971837997437 1.94201362133026 1.66018235683441 1.43828666210175 2.12086653709412 2.34825015068054 2.02803993225098 3.10929751396179 3.70045185089111 3.33891010284424 2.65024137496948 2.45987582206726 2.52000331878662 2.79678797721863 6.63013219833374 7.74970865249634 6.99698829650879 6.53408098220825 2.20050597190857 0.57953542470932 0.428531736135483 0.435807764530182 0.53401654958725 0.689487993717194 0.754746913909912 0.548471331596375 0.264320433139801 0.200310200452805 -0.0832809135317802 -0.192057311534882 -0.175810471177101 4.16430759429932 8.7855110168457 10.0488052368164 10.2096242904663 9.55859375 8.97027587890625 8.18837547302246 7.5652174949646 6.26580667495728 4.90969324111938 3.78346085548401 2.90918111801147 2.25990772247314 2.00033402442932 1.63912785053253 1.56740820407867 1.56129312515259 7.9511399269104 12.9766092300415 14.618824005127 12.5599212646484 4.94216156005859 2.32552528381348 2.37448191642761 2.45468211174011 2.6067066192627 2.68776750564575 2.64173746109009 2.13019514083862 1.65129518508911 0.962694048881531 0.597105205059052 0.54249769449234 0.756466865539551 0.973166704177856 1.2234992980957 1.47762596607208 1.58693540096283 1.6052258014679 1.54547131061554 1.37474930286407 1.13883638381958 0.993708491325378 1.01542246341705 1.09189260005951 1.12369155883789 1.08384537696838 1.16448676586151 1.27956414222717 1.21401453018188 1.18299925327301 1.24694776535034 1.44505059719086 1.45395398139954 1.54934895038605 1.68123364448547 1.75143373012543 1.75480210781097 2.00951528549194 2.40684962272644 2.63116884231567 2.71390199661255 2.91541266441345 3.21956324577332 3.39354491233826 3.53400659561157 3.6896390914917 3.86871123313904 4.10053825378418 4.34109210968018 4.45639991760254 4.40282773971558 4.23436975479126 4.13329839706421 4.16849517822266 4.16855525970459 4.03516578674316 4.03402948379517 3.58193564414978 3.54613089561462 3.70747232437134 3.98287200927734 4.29321146011353 4.63833379745483 4.50824499130249 3.74515724182129 3.08466291427612 2.37674808502197 1.87186682224274 1.46316862106323 1.3238000869751 1.21652674674988 1.20398080348969 1.15598034858704
0.289595991373062 0.364594787359238 0.41805437207222 0.366309434175491 0.350633859634399 0.353903651237488 0.364689588546753 0.336255848407745 0.292762070894241 0.260798841714859 0.212434381246567 0.203903555870056 0.388850808143616 0.805369555950165 1.7416524887085 1.84778571128845 1.57842004299164 1.54002797603607 2.0337700843811 2.0254545211792 3.30197358131409 4.95920515060425 2.59570956230164 2.24393510818481 2.25988245010376 2.30174922943115 2.20702242851257 2.13305950164795 2.10624694824219 2.20046448707581 2.73229718208313 2.76243305206299 2.70650672912598 2.24464440345764 2.1081976890564 2.04951810836792 1.99844765663147 1.97313129901886 2.00430059432983 2.06804013252258 2.09562468528748 1.99926805496216 1.86800909042358 1.79708504676819 2.1138379573822 3.03283834457397 2.40728282928467 2.4091911315918 2.39594340324402 2.26421284675598 1.99150335788727 1.59211432933807 2.30371117591858 2.49685955047607 2.1559112071991 3.69846177101135 4.11717700958252 3.65337896347046 2.95501685142517 2.49421668052673 2.80419087409973 2.86635780334473 2.25068974494934 1.69720315933228 3.55675315856934 4.05922031402588 1.40157568454742 0.333550810813904 0.41509747505188 0.485116243362427 0.550305068492889 0.417185366153717 0.491590797901154 0.658995389938354 0.275712490081787 0.370628207921982 0.120947070419788 0.0328706465661526 0.26921546459198 6.03196668624878 11.1461172103882 12.7657604217529 12.7866611480713 11.6602563858032 10.8398580551147 9.63256454467773 8.76774215698242 7.11297655105591 5.70301198959351 4.39788436889648 3.36580872535706 2.57761430740356 2.24205279350281 2.04928302764893 2.56678771972656 1.98568105697632 1.58519053459167 1.46960234642029 1.50981020927429 3.8101544380188 3.71698403358459 2.5705726146698 2.67480874061584 2.6759467124939 2.71937417984009 2.87908792495728 2.87825751304626 2.53232383728027 2.05174875259399 1.44743657112122 1.04321444034576 0.945019841194153 1.05081427097321 1.20571315288544 1.70057272911072 1.69470405578613 1.8179042339325 1.87442374229431 1.84608733654022 1.64224660396576 1.4803466796875 1.38690114021301 1.35735356807709 1.3840970993042 1.41423547267914 1.45979380607605 1.58213210105896 1.72814750671387 1.60122013092041 1.51780390739441 1.68286180496216 1.87061440944672 1.9084484577179 1.90349340438843 1.93527865409851 1.94972825050354 1.99979043006897 2.31003284454346 2.63616561889648 2.79679608345032 2.97758746147156 3.09688091278076 3.39726233482361 3.5561535358429 3.68988990783691 3.84501171112061 4.0369553565979 4.29233455657959 4.56082582473755 4.69063329696655 4.625816822052 4.47930812835693 4.39569616317749 4.47953033447266 4.52766132354736 4.39858436584473 4.33519506454468 4.02410221099854 4.04806089401245 4.15373849868774 4.41222858428955 4.84155035018921 5.21039342880249 5.02446985244751 4.11396837234497 3.38234925270081 2.5601658821106 2.01563620567322 1.53042376041412 1.36361873149872 1.2509537935257 1.23217737674713 1.17296171188354
0.302495926618576 0.372596949338913 0.445513337850571 0.398776590824127 0.375090807676315 0.369385898113251 0.38036772608757 0.365118473768234 0.330280363559723 0.29829078912735 0.256822675466537 0.246526375412941 0.436957657337189 0.859546899795532 1.83695685863495 1.93310809135437 1.61780118942261 1.44182169437408 2.18162775039673 1.84984195232391 2.1387767791748 1.7499281167984 3.69010376930237 2.63094139099121 2.25959205627441 2.38382124900818 2.42087626457214 2.32042765617371 2.2405698299408 2.2858247756958 2.81331944465637 2.84715676307678 2.794109582901 2.57496190071106 2.31925201416016 2.23188304901123 2.15862226486206 2.16430401802063 2.21710467338562 2.25987005233765 2.35766792297363 2.44858121871948 2.05793714523315 1.83567070960999 2.06298637390137 3.55480265617371 4.6697735786438 4.15973329544067 4.51106595993042 2.45726799964905 2.08048391342163 1.76448702812195 2.52544903755188 2.6897988319397 2.32529425621033 4.21119070053101 4.68155670166016 4.1789927482605 3.23734188079834 2.52722716331482 2.90759038925171 3.05030369758606 2.41432929039001 1.80563533306122 0.795067548751831 0.371845453977585 0.430321156978607 0.335713624954224 0.438585191965103 0.546753704547882 0.553984999656677 0.774785697460175 0.994616568088531 1.1521703004837 0.752330303192139 0.366820693016052 0.219105929136276 0.0812315121293068 0.192778915166855 6.45328950881958 13.2968988418579 14.761773109436 14.3947629928589 13.8683767318726 12.946231842041 10.996976852417 10.1290254592896 8.08013439178467 6.60579967498779 5.03219985961914 3.83622336387634 2.96983766555786 2.70007634162903 2.38859581947327 2.369961977005 2.27647638320923 1.91557431221008 1.62267887592316 1.65847289562225 1.80767285823822 2.32821393013 2.76933240890503 2.9556450843811 2.96325540542603 2.94410586357117 3.04430437088013 3.05644750595093 2.85760545730591 2.51802754402161 2.02316498756409 1.3996045589447 1.2514340877533 1.28896391391754 2.26564884185791 1.54941809177399 1.83790159225464 1.97458744049072 2.00016570091248 2.01042938232422 1.88515949249268 1.73400795459747 1.66861808300018 1.65631401538849 1.61812126636505 1.67710852622986 1.74527490139008 1.82130134105682 2.00798368453979 1.95228743553162 1.88352727890015 2.00078678131104 2.14027643203735 2.16834545135498 2.15682864189148 2.15405344963074 2.16009378433228 2.19148015975952 2.52873277664185 2.79956340789795 2.98926210403442 3.17972350120544 3.32730722427368 3.62432074546814 3.74521374702454 3.86582517623901 4.02512073516846 4.22329044342041 4.4942831993103 4.77786493301392 4.92067909240723 4.85640096664429 4.72048807144165 4.64492273330688 4.75534057617188 4.84149122238159 4.74246072769165 4.85559606552124 4.72261667251587 4.64932155609131 4.70327663421631 4.92554998397827 5.48170328140259 5.95599126815796 5.65770578384399 4.59403800964355 3.73086643218994 2.90680360794067 2.15819668769836 1.63394200801849 1.40203666687012 1.28794026374817 1.26869416236877 1.27352797985077
0.313137948513031 0.383741825819016 0.504856407642365 0.435809344053268 0.399984896183014 0.388475388288498 0.390135139226913 0.392506390810013 0.376252889633179 0.347712606191635 0.292938649654388 0.304637789726257 0.42678114771843 0.932331562042236 1.93070530891418 2.02953124046326 1.65360343456268 1.35760223865509 1.4512140750885 1.93650197982788 2.48951148986816 1.76701402664185 2.21032357215881 3.24075651168823 2.43896627426147 2.44824361801147 2.49721717834473 2.93580269813538 2.36304187774658 2.34207534790039 2.90665602684021 2.97052454948425 2.92877578735352 2.6862416267395 2.47621035575867 2.38661813735962 2.33313798904419 2.41088438034058 2.48886346817017 2.64336156845093 2.79527425765991 2.71390962600708 2.3480064868927 1.84935522079468 2.10803318023682 3.77282071113586 1.91497921943665 2.03651452064514 2.38496160507202 2.48507881164551 2.13316249847412 1.91282260417938 2.74120235443115 2.91534066200256 2.71248126029968 4.35749340057373 5.42473602294922 5.45886421203613 4.58435487747192 3.15289044380188 2.74605083465576 2.99030518531799 3.05902981758118 2.30605340003967 1.10590255260468 0.43943265080452 0.39572548866272 0.48072475194931 0.450094521045685 0.684865057468414 0.910039067268372 1.10665619373322 1.57135725021362 1.78905439376831 1.56044054031372 1.03708934783936 0.765935659408569 0.486021965742111 0.298984408378601 5.07583808898926 13.2389936447144 15.5516490936279 15.3410606384277 15.8072099685669 15.1198863983154 13.6635570526123 10.8423862457275 8.93793678283691 7.51836061477661 5.72915315628052 4.24937629699707 3.28069186210632 3.035560131073 2.49381709098816 2.40222883224487 2.38554191589355 2.37684512138367 2.14663100242615 2.17133927345276 2.23913526535034 2.50323748588562 2.86904096603394 3.1083676815033 3.18070459365845 3.21139335632324 3.24530529975891 3.18633365631104 2.96286392211914 2.65093207359314 2.27725148200989 1.67686307430267 1.44676065444946 1.47964775562286 1.54177057743073 1.69609940052032 1.99019527435303 2.08034944534302 2.1364598274231 2.17586779594421 2.13541841506958 2.05504965782166 2.05081939697266 2.00737309455872 1.96064329147339 1.9400669336319 1.96869421005249 2.06479597091675 2.22579073905945 2.16180872917175 2.23353934288025 2.33883738517761 2.43563771247864 2.41913890838623 2.38221025466919 2.36729192733765 2.34536218643188 2.39282131195068 2.7138512134552 2.87253785133362 3.22424054145813 3.40723705291748 3.56965851783752 3.9114875793457 4.03511571884155 4.13494825363159 4.28229475021362 4.46528005599976 4.73560333251953 5.03007793426514 5.18059253692627 5.11627721786499 4.96866464614868 4.87501811981201 5.00758361816406 5.09797859191895 4.9811635017395 5.90840721130371 5.53879737854004 5.4436993598938 5.53933525085449 5.84804534912109 6.56670236587524 6.99921894073486 6.43177318572998 5.10293960571289 4.06178951263428 3.12787556648254 2.30051779747009 1.76651585102081 1.47221291065216 1.33206450939178 1.31283271312714 1.33535242080688
0.336222320795059 0.403369963169098 0.494056314229965 0.492707967758179 0.433828830718994 0.4235520362854 0.419200539588928 0.423341631889343 0.420445263385773 0.395903021097183 0.343452095985413 0.329879313707352 0.432086050510406 0.969149053096771 2.03698492050171 2.1314868927002 1.70623564720154 1.37617528438568 1.32836079597473 1.95506548881531 2.14826202392578 1.95932602882385 2.42994832992554 4.72611093521118 3.12735748291016 3.01627707481384 2.69325494766235 2.49607968330383 3.66075944900513 3.3883535861969 3.06810164451599 3.11552762985229 3.06811833381653 2.82962226867676 2.73086929321289 2.70158553123474 2.71834135055542 2.76274609565735 2.95799160003662 3.06912350654602 3.04487419128418 2.76682257652283 2.40994095802307 2.28398060798645 3.68550562858582 5.9103102684021 2.61499214172363 2.10746335983276 2.46924543380737 2.52666187286377 2.15554189682007 1.99063587188721 2.94618582725525 3.17101311683655 2.86139631271362 3.33967065811157 5.62506008148193 6.22366333007812 5.60992622375488 4.13178110122681 2.53283405303955 3.04233646392822 3.93392419815063 3.27453851699829 1.38403248786926 0.61492520570755 0.766704440116882 0.622933328151703 0.804724037647247 0.993941068649292 1.23870229721069 1.46655559539795 1.8824280500412 2.23936629295349 2.14880084991455 1.91748809814453 1.81323635578156 1.15742361545563 0.745594501495361 2.44983386993408 13.3231954574585 17.9769172668457 17.833028793335 18.3836288452148 17.4836978912354 16.142183303833 13.8262643814087 11.8361473083496 10.2218885421753 7.4665412902832 4.69158840179443 3.49315977096558 3.22646760940552 2.65973544120789 2.64233613014221 2.61769914627075 2.70449757575989 2.70943093299866 2.71331739425659 2.74104809761047 2.87917375564575 3.04518413543701 3.24865508079529 3.34246826171875 3.34335160255432 3.36823201179504 3.31576251983643 3.15789985656738 2.73010325431824 2.38812041282654 1.78099262714386 1.50259268283844 1.65426313877106 1.83733463287354 1.94342172145844 2.08989977836609 2.15168118476868 2.21545910835266 2.30945348739624 2.36845874786377 2.37991905212402 2.36311173439026 2.33033609390259 2.30492472648621 2.29925966262817 2.26429533958435 2.3360447883606 2.39412951469421 2.41243815422058 2.58644580841064 2.63870644569397 2.68501710891724 2.63180041313171 2.58823680877686 2.55902171134949 2.53921937942505 2.62651348114014 2.80669450759888 3.14864087104797 3.51826548576355 3.67963147163391 3.84770202636719 4.24734973907471 4.41140937805176 4.50691223144531 4.63942193984985 4.8197021484375 5.07346105575562 5.34071969985962 5.482177734375 5.39040613174438 5.2206826210022 5.12050294876099 5.19647550582886 5.30683422088623 5.97999572753906 7.11696100234985 6.52062797546387 6.42436075210571 6.51840877532959 7.01093530654907 7.80254983901978 9.16472816467285 8.89135646820068 5.78525352478027 4.51631641387939 3.19597363471985 2.45413708686829 1.89958369731903 1.58144891262054 1.38920426368713 1.39536249637604 1.38085746765137
0.35533481836319 0.419270187616348 0.481151819229126 0.629927515983582 0.471374243497849 0.470469683408737 0.466982066631317 0.459062129259109 0.455426245927811 0.438224524259567 0.399768143892288 0.378359854221344 0.437992095947266 0.826825082302094 1.87641167640686 2.23194694519043 2.02394676208496 1.40063726902008 1.33076620101929 1.42136204242706 1.8206433057785 2.58283352851868 2.77275490760803 2.25604701042175 2.95847344398499 3.43156266212463 3.0395302772522 2.53559803962708 2.4749116897583 2.60281205177307 3.08314371109009 3.16673898696899 3.13245749473572 3.36344170570374 3.43170785903931 3.24096751213074 3.30837249755859 3.3653359413147 3.41911053657532 3.29300808906555 3.09846115112305 2.98029255867004 2.689786195755 2.51011633872986 1.78433096408844 1.64373683929443 1.91120338439941 2.18709254264832 2.6022675037384 2.59867548942566 2.19956421852112 2.07538866996765 3.17388582229614 3.44642043113708 3.25805401802063 3.3402304649353 6.74092531204224 7.49922657012939 6.96489000320435 4.876877784729 2.62748336791992 3.18329071998596 2.86826181411743 2.16100287437439 1.49114429950714 1.61650443077087 1.72085392475128 1.04636490345001 1.26164782047272 1.33730351924896 1.5539413690567 1.82471466064453 1.98693442344666 2.33983325958252 2.34925103187561 2.2479202747345 2.14422535896301 1.87616610527039 1.38586711883545 4.85907554626465 19.5347080230713 26.6947002410889 21.1858062744141 20.7978801727295 19.8049602508545 20.1809825897217 16.3746223449707 14.2389440536499 12.5188112258911 9.57913303375244 6.82351922988892 3.95988845825195 3.22044467926025 2.83866405487061 2.87341070175171 2.91921591758728 2.9997878074646 2.96521854400635 2.94843888282776 3.0052216053009 3.17441177368164 3.31596970558167 3.39821100234985 3.44696664810181 3.41426777839661 3.48909568786621 3.53807353973389 3.44187235832214 2.87813973426819 2.51848936080933 1.94509065151215 1.64801216125488 1.9396071434021 2.25404071807861 2.2471604347229 2.19928956031799 2.2545154094696 2.28461360931396 2.47341585159302 2.56313467025757 2.64323592185974 2.65542030334473 2.60938453674316 2.58330655097961 2.57092928886414 2.59645962715149 2.54743432998657 2.58097171783447 2.753497838974 2.82220101356506 2.84102940559387 2.90302968025208 2.86488103866577 2.78320622444153 2.68510222434998 2.72790050506592 2.84737944602966 3.00979733467102 3.41771960258484 3.80278062820435 3.98763012886047 4.17282104492188 4.60627269744873 4.82356452941895 4.94406604766846 5.0963888168335 5.25759363174438 5.48443365097046 5.70344638824463 5.80074262619019 5.66009616851807 5.48666095733643 5.36579084396362 5.3487229347229 5.55035781860352 5.61404752731323 7.61398267745972 9.00448417663574 8.20766544342041 8.06468105316162 8.62628936767578 9.61508464813232 11.904335975647 11.6740369796753 9.60913753509521 5.76607608795166 3.58116841316223 2.63738203048706 1.99857151508331 1.64905822277069 1.50713920593262 1.44572579860687 1.44761598110199
0.357740014791489 0.6444011926651 0.495063126087189 1.05671536922455 0.49223980307579 0.495829194784164 0.504886031150818 0.502866268157959 0.4979487657547 0.48550409078598 0.450286149978638 0.397105425596237 0.485976666212082 0.670876443386078 1.32628631591797 2.30794334411621 2.39027547836304 1.62561619281769 1.35206341743469 1.44414675235748 1.58970546722412 2.07948017120361 2.79903674125671 2.62332129478455 3.32810688018799 4.27832937240601 4.1834716796875 2.68060421943665 2.53938412666321 2.71970629692078 3.15533900260925 3.19864654541016 3.13638663291931 2.87987613677979 2.98890852928162 3.51447176933289 3.57935523986816 3.58559060096741 3.47598385810852 3.32056951522827 3.5516881942749 3.41208648681641 3.11614155769348 2.64002895355225 2.60137367248535 1.76675188541412 1.99236738681793 2.22262072563171 2.64284610748291 2.68270540237427 2.27492094039917 1.97729289531708 2.84531188011169 3.39458513259888 3.60316634178162 4.35694742202759 9.50643444061279 9.1352424621582 8.12703323364258 5.96285390853882 2.75703430175781 2.34734129905701 2.09930753707886 1.69899713993073 1.43696165084839 3.20911026000977 2.29880905151367 1.39878690242767 1.64819836616516 1.72201108932495 1.89352202415466 2.10269737243652 2.12879848480225 2.38320636749268 2.40850734710693 2.35517358779907 2.24479174613953 2.03929448127747 1.75862562656403 1.30767667293549 0.230297580361366 13.3791456222534 20.8953037261963 20.2014751434326 20.0976467132568 25.5606498718262 19.5845355987549 17.0690288543701 15.6271314620972 11.529670715332 7.99062728881836 4.87446165084839 3.42571210861206 3.26654243469238 2.97665500640869 3.08178782463074 3.2072446346283 3.21290040016174 3.20878648757935 3.26510834693909 3.44277596473694 3.52512001991272 3.56748199462891 3.56255173683167 3.51910448074341 3.52885174751282 3.59629654884338 3.57560348510742 3.20799446105957 2.69653105735779 2.15647101402283 1.87164795398712 2.13392806053162 2.46298265457153 2.47275733947754 2.36519026756287 2.43123388290405 2.50625967979431 2.61332321166992 2.74986624717712 2.86006641387939 2.89585447311401 2.90507221221924 2.91386723518372 2.86422944068909 2.899165391922 2.86052370071411 2.87462973594666 3.11468505859375 3.14858651161194 3.13711261749268 3.19757032394409 3.14612650871277 2.9650616645813 2.70482873916626 2.75059056282043 2.94070649147034 3.21266961097717 3.65540075302124 4.07958078384399 4.28442430496216 4.50252389907837 4.94053506851196 5.18939161300659 5.3846640586853 5.52851343154907 5.67212677001953 5.88983631134033 6.06321573257446 6.08812952041626 5.97660398483276 5.90561532974243 5.75990390777588 5.61536455154419 5.79734373092651 5.83539485931396 9.38724613189697 10.8067932128906 9.40115451812744 8.76029109954834 9.47576332092285 11.3301086425781 15.2978868484497 15.9044418334961 12.3602485656738 8.93289375305176 6.31040525436401 3.77701663970947 2.15955519676208 1.76674854755402 1.53883147239685 1.47740709781647 1.55808579921722
0.405363529920578 0.431395649909973 0.504208624362946 1.8898561000824 0.54046368598938 0.524811208248138 0.539361596107483 0.543292701244354 0.56075918674469 0.539213895797729 0.505151927471161 0.451073944568634 0.508032560348511 0.687872707843781 1.25781273841858 2.51174807548523 2.54622340202332 1.98532938957214 1.50797760486603 1.49555373191833 1.63372087478638 2.09069418907166 2.28035163879395 2.58493304252625 3.73700714111328 4.34377336502075 6.3550238609314 2.82586073875427 2.7259693145752 2.9932816028595 3.26317977905273 3.29803013801575 3.20611453056335 2.90457510948181 3.17012166976929 3.31326699256897 3.81665515899658 3.9392876625061 3.9144880771637 3.98020267486572 3.86146426200867 3.82617497444153 3.4809787273407 2.82395458221436 2.08806109428406 1.84551632404327 2.05205345153809 2.29522085189819 2.74296069145203 2.76794481277466 2.36618304252625 2.04010319709778 2.33478426933289 3.61823034286499 3.82263588905334 5.2737398147583 3.02637124061584 5.96292161941528 5.88415670394897 5.46584224700928 3.02801966667175 2.36011910438538 2.10288071632385 1.7116025686264 1.26442575454712 1.78819108009338 3.44629907608032 1.7722156047821 1.93651032447815 2.03332376480103 2.10348415374756 2.20952200889587 2.2131724357605 2.42509388923645 2.4510064125061 2.39646816253662 2.29305028915405 2.09092450141907 1.83140802383423 1.5446572303772 0.604835569858551 -0.150455057621002 9.84554290771484 13.3700304031372 13.6278343200684 13.1678438186646 17.7792949676514 16.1061840057373 15.5668087005615 14.4316473007202 9.7347240447998 5.82474851608276 3.97500038146973 4.51450538635254 4.24463891983032 3.17112374305725 3.27734994888306 3.34639358520508 3.42207169532776 3.45301508903503 7.10411357879639 4.26383447647095 3.80505442619324 3.71432590484619 3.63561081886292 3.53243970870972 3.63599228858948 3.68197226524353 3.56137990951538 3.2345666885376 2.8178243637085 2.19870781898499 2.34474468231201 2.67103624343872 2.69998741149902 2.63898038864136 2.6167049407959 2.69211339950562 2.7594940662384 2.87723326683044 3.06475162506104 3.17477750778198 3.12919402122498 3.14852166175842 3.11552500724792 3.12571549415588 3.14683771133423 3.25509738922119 3.40239858627319 3.45629000663757 3.47355389595032 3.51096391677856 3.41708421707153 3.15864491462708 2.82444667816162 2.82923316955566 3.11206459999084 3.38392806053162 3.88858580589294 4.33839654922485 4.57801580429077 4.80577707290649 5.26237964630127 5.51110553741455 5.72993612289429 5.87766647338867 5.99396753311157 6.13080549240112 6.19998359680176 6.33098745346069 6.36686515808105 6.21473407745361 6.03310775756836 5.87913084030151 6.06153011322021 6.01703023910522 11.7431325912476 12.9565019607544 10.7191829681396 9.30507373809814 9.96136379241943 11.0248355865479 17.7238483428955 23.239501953125 15.9603977203369 11.0672988891602 8.06266021728516 5.28099632263184 2.98849320411682 1.90560972690582 1.54184222221375 1.50965511798859 2.28782558441162
0.426689118146896 0.478508710861206 0.533881902694702 0.513979196548462 1.23564910888672 0.571108937263489 0.591926634311676 0.604430675506592 0.609956622123718 0.600316405296326 0.57583874464035 0.56527316570282 0.648252964019775 0.88201230764389 1.43152320384979 2.7637243270874 2.74041748046875 2.12003993988037 1.61124002933502 1.534463763237 1.74017941951752 2.02340793609619 1.99856305122375 2.23408055305481 2.03264880180359 2.30362510681152 2.44447183609009 2.85576963424683 3.22207403182983 3.38424253463745 3.28180813789368 3.30224084854126 3.22584509849548 2.91499423980713 2.83798360824585 3.31426787376404 3.99533319473267 4.25830554962158 4.40092182159424 4.36496067047119 3.98618412017822 3.80656409263611 3.76328611373901 2.920161485672 2.09645104408264 1.86224842071533 2.12229037284851 2.36783409118652 2.8376030921936 2.86746287345886 2.45594644546509 2.11979675292969 2.51949834823608 3.89275169372559 3.95116925239563 2.32440567016602 1.8110214471817 1.92696523666382 3.44612216949463 2.4027144908905 2.54092168807983 2.40758371353149 2.13471341133118 1.88092184066772 1.58495366573334 1.2426221370697 2.64386391639709 1.94672954082489 2.0822536945343 2.17934441566467 2.19068646430969 2.24998807907104 2.25503468513489 2.47566676139832 2.49802017211914 2.44100093841553 2.33925461769104 2.14049506187439 1.87431526184082 1.75449204444885 1.13417732715607 0.204550430178642 -0.40094467997551 3.50091695785522 7.75692415237427 7.29187250137329 10.7137699127197 14.2585783004761 9.3816967010498 10.8272514343262 10.3750629425049 7.1926474571228 5.235520362854 6.55646896362305 5.6279239654541 3.20453929901123 3.26282000541687 3.43291640281677 3.46125483512878 3.44216227531433 3.27169299125671 6.01490068435669 5.44640302658081 4.52325677871704 3.75131034851074 3.67800664901733 3.7750997543335 3.80318903923035 3.74975419044495 3.48750925064087 3.17854857444763 2.61135029792786 2.57059812545776 2.92243337631226 2.96642637252808 2.94217848777771 2.97317457199097 2.9555549621582 2.98019933700562 3.07225823402405 3.22721719741821 3.38481283187866 3.45178818702698 3.37937879562378 3.33452415466309 3.31354355812073 3.34756946563721 3.54561710357666 3.71323847770691 3.77839398384094 3.79189705848694 3.82486867904663 3.65910291671753 3.46634912490845 3.17767572402954 3.09443998336792 3.26401543617249 3.55399250984192 4.09784746170044 4.59420728683472 4.85828685760498 5.15071821212769 5.46795463562012 5.79393482208252 6.0057692527771 6.10789680480957 6.20705890655518 6.30363512039185 6.50472116470337 6.60424852371216 6.64666414260864 6.49191188812256 6.32086181640625 6.17255830764771 6.37277221679688 6.23620700836182 13.8152799606323 16.341100692749 12.6546831130981 9.92510318756104 9.05434226989746 8.68357181549072 5.94481325149536 9.95428657531738 20.1164150238037 13.1169214248657 10.2264699935913 6.38519239425659 3.6683030128479 2.17957139015198 1.57534146308899 1.48714625835419 1.58661758899689
0.460319727659225 1.38061261177063 1.30779504776001 0.562608957290649 0.564425528049469 0.584848523139954 0.853710472583771 0.676666259765625 0.659052848815918 0.649503886699677 0.660354673862457 0.751510560512543 0.895787954330444 1.20312297344208 1.69830453395844 3.06823754310608 2.98560667037964 2.26949048042297 1.69842958450317 1.57669925689697 1.57109320163727 1.64511227607727 1.85659718513489 2.27100896835327 2.69071292877197 2.49283075332642 2.57425141334534 3.22227835655212 2.94498562812805 3.18119335174561 3.65648078918457 3.69228482246399 3.46677136421204 2.96484541893005 2.81687021255493 2.77427434921265 3.22903227806091 3.59307098388672 3.71820831298828 3.86203551292419 3.60832381248474 3.58243036270142 3.37241291999817 2.54303193092346 1.86177122592926 1.86362326145172 2.56685590744019 2.45769834518433 2.93762850761414 2.98681020736694 2.54119229316711 2.19870495796204 2.77118039131165 4.21241855621338 4.21746206283569 2.66187024116516 1.78238213062286 1.97825217247009 2.10922026634216 2.34778118133545 2.54917240142822 2.53379893302917 2.39706969261169 2.24450445175171 1.89146733283997 1.33467233181 1.64861714839935 1.95738589763641 2.11411833763123 2.21579170227051 2.23153042793274 2.29602670669556 2.30260276794434 2.52682518959045 2.54721140861511 2.48848795890808 2.38724398612976 2.18812870979309 1.9205265045166 2.01864433288574 1.74582350254059 0.661344170570374 -0.0168628990650177 -0.495524376630783 -0.499383479356766 3.51017141342163 8.65265369415283 8.88327312469482 8.00703239440918 5.00897359848022 4.89795637130737 6.06547880172729 6.40248823165894 10.991810798645 8.79064083099365 4.68353986740112 3.34491777420044 3.52784562110901 3.57526755332947 3.54527020454407 3.35959696769714 3.46869397163391 4.68050718307495 5.58185386657715 3.89770412445068 3.93741345405579 4.09273910522461 4.11852550506592 3.95185422897339 3.7024621963501 3.42478561401367 2.84135270118713 2.79867696762085 3.18312335014343 3.24158263206482 3.19869112968445 3.27215242385864 3.26289463043213 3.26818609237671 3.3120551109314 3.41999793052673 3.54428601264954 3.63118052482605 3.60804533958435 3.58126425743103 3.49941086769104 3.52177715301514 3.7398853302002 3.96525883674622 4.09481334686279 4.1011905670166 3.94663286209106 4.07938432693481 3.89406704902649 3.60912466049194 3.46966195106506 3.49187159538269 3.70138025283813 4.29462814331055 4.82248830795288 5.13527297973633 5.42568922042847 5.7724347114563 6.17457675933838 6.33995914459229 6.41476154327393 6.50736141204834 6.62055635452271 6.82684993743896 6.838951587677 6.901939868927 6.78747034072876 6.62458419799805 6.49948406219482 6.72974872589111 6.45082902908325 5.02915525436401 4.57531547546387 7.20859432220459 8.2009973526001 6.68432235717773 5.25317811965942 4.14091300964355 2.71992206573486 9.24779415130615 12.9480037689209 11.5406475067139 8.09752464294434 4.19982194900513 2.6148898601532 1.95664143562317 1.51256799697876 1.97502720355988
0.920630276203156 1.67124199867249 0.564169049263 0.589872241020203 0.622576475143433 0.618631839752197 0.663973867893219 0.848643600940704 0.716552913188934 0.695086359977722 0.736781120300293 0.89567631483078 1.07160913944244 1.53135645389557 2.02020525932312 3.47274422645569 3.31893444061279 2.45805406570435 1.83764064311981 1.67517876625061 1.63713181018829 1.65708601474762 1.89375579357147 1.949751496315 2.23658347129822 3.07926416397095 3.3656063079834 3.08145356178284 3.0802583694458 3.18997716903687 3.93917226791382 4.15588808059692 3.52414226531982 3.375727891922 2.8783552646637 2.75850963592529 2.5343542098999 2.69638323783875 3.04711771011353 3.10150671005249 3.27050805091858 3.51576471328735 3.40457963943481 2.74516344070435 1.86930811405182 1.88913869857788 2.13816976547241 2.53510141372681 3.05139994621277 3.08802700042725 2.63117957115173 2.25982713699341 2.99753165245056 4.62777996063232 4.8749623298645 3.73565030097961 2.2751305103302 2.22702431678772 2.34144401550293 2.46768498420715 2.57019591331482 2.59616708755493 2.56109404563904 2.45748662948608 2.09037113189697 1.4231573343277 1.71549260616302 1.99198842048645 2.14855813980103 2.25905251502991 2.27529215812683 2.34189796447754 2.35010766983032 2.5329315662384 2.60018444061279 2.60455441474915 2.49476337432861 2.40153789520264 2.11472678184509 2.10714650154114 2.0449526309967 1.20029389858246 0.379319787025452 -0.153238549828529 -1.03487539291382 0.160126537084579 3.67029619216919 4.3259801864624 7.03509759902954 2.92206907272339 2.09979915618896 2.50376415252686 2.9725604057312 3.58009004592896 7.18903064727783 4.86494779586792 3.40217757225037 3.62262988090515 3.67025899887085 3.67182183265686 3.6679630279541 3.73375177383423 4.64150667190552 3.76324796676636 3.97408437728882 4.15229654312134 4.33959722518921 4.33281230926514 4.12755918502808 3.86060070991516 3.62958717346191 3.09091520309448 2.99158644676208 3.42367339134216 3.51486039161682 3.57777976989746 3.5853283405304 3.58253073692322 3.58587431907654 3.62407827377319 3.66560864448547 3.72747731208801 3.79510235786438 3.7673065662384 3.7424328327179 3.66347241401672 3.67647624015808 3.90865659713745 4.1537914276123 4.32857751846313 4.27386999130249 4.36914968490601 4.42295455932617 4.34982490539551 4.13149070739746 3.92910003662109 3.77489280700684 3.87212634086609 4.46371030807495 5.04652166366577 5.42390918731689 5.58620309829712 6.14840078353882 6.50887823104858 6.68463611602783 6.73415088653564 6.84060478210449 6.98239612579346 7.2280011177063 7.16415357589722 7.15850019454956 7.08018589019775 6.9668083190918 6.86075639724731 7.12113475799561 6.79408740997314 5.78762102127075 4.78572034835815 4.06536769866943 3.04392910003662 2.66393613815308 2.45949673652649 2.29158306121826 2.56572604179382 2.69391965866089 6.23401737213135 7.87036848068237 7.12410163879395 4.94022274017334 2.93443560600281 2.41399192810059 1.81778085231781 1.59174108505249
0.79786479473114 0.498043835163116 0.544323444366455 0.602507770061493 0.651782751083374 0.704126000404358 0.760716676712036 0.79393345117569 0.782880425453186 0.772128403186798 0.775885343551636 0.980728507041931 1.19376218318939 1.81074666976929 2.40881276130676 4.04121971130371 3.71538186073303 2.69604253768921 1.97791910171509 1.80062699317932 1.77233588695526 1.76934349536896 1.93456065654755 1.99735772609711 2.06376600265503 2.77877187728882 3.12357807159424 3.18124461174011 3.126145362854 2.93437218666077 3.31468987464905 3.82043600082397 3.56452322006226 3.41247010231018 3.15344882011414 2.89604139328003 2.56918716430664 2.29846024513245 2.43400263786316 2.36579322814941 2.07233858108521 2.07284355163574 2.26200723648071 2.2968270778656 1.87802922725677 1.92213082313538 2.19255375862122 2.54229760169983 3.17821097373962 3.20666217803955 3.07751512527466 2.72145962715149 3.30036544799805 5.20449495315552 5.88083028793335 5.06429290771484 3.59093356132507 2.43576717376709 2.57571077346802 2.61289930343628 2.65354871749878 2.67828130722046 2.68905639648438 2.63363122940063 2.2991087436676 1.54254794120789 1.81507134437561 2.04457259178162 2.19455194473267 2.30377674102783 2.3191282749176 2.38887429237366 2.39242839813232 2.43889355659485 2.65406203269958 2.67508125305176 2.61185526847839 2.50317573547363 2.29195499420166 2.15053534507751 2.24375224113464 1.66144406795502 0.738694250583649 0.0408806577324867 -0.74627673625946 -1.11845886707306 -1.04595804214478 -0.166939705610275 5.49418640136719 3.65658259391785 2.63824772834778 2.43219828605652 2.63061881065369 2.62839603424072 2.69484925270081 3.13335204124451 3.42971038818359 3.72169828414917 3.77738380432129 3.7929265499115 3.77144575119019 3.86060070991516 3.6477210521698 3.76347351074219 4.06081628799438 4.32422780990601 4.5415244102478 4.49853610992432 4.24405336380005 3.91423177719116 3.65469312667847 3.1275315284729 2.95314812660217 3.41719889640808 3.76447677612305 3.84046506881714 3.88513779640198 3.89561557769775 3.91226983070374 3.95403623580933 3.95933699607849 3.9549024105072 3.96287488937378 3.91735410690308 3.88737082481384 3.80076503753662 3.83772206306458 4.11415863037109 4.36003351211548 4.48199224472046 4.58042573928833 4.66498756408691 4.73930931091309 4.69648504257202 4.54072427749634 4.3740119934082 4.18113851547241 4.18140411376953 4.72106552124023 5.27415418624878 5.58521938323975 5.98682832717896 6.52274894714355 6.86611318588257 7.05455780029297 7.11405515670776 7.20596981048584 7.3915581703186 7.7443528175354 7.72505760192871 7.60768604278564 7.43891572952271 7.35410928726196 7.28897190093994 7.60881614685059 7.43534421920776 6.89988470077515 5.90547275543213 5.71492433547974 4.49915027618408 2.86829829216003 2.92447757720947 2.51179528236389 2.68909764289856 2.79268646240234 2.7335901260376 3.06022167205811 4.0743613243103 4.45855093002319 3.09161138534546 2.74957251548767 2.14923048019409 1.61786580085754
0.458836704492569 0.508254170417786 0.558919727802277 0.615311980247498 0.707844436168671 0.785436570644379 0.848366141319275 0.896572589874268 0.865674555301666 0.859313905239105 0.837065458297729 0.861731231212616 1.26453280448914 2.06706809997559 2.7964653968811 4.74919462203979 4.22472476959229 3.0191810131073 2.14152646064758 1.99333846569061 1.86540865898132 1.91115748882294 2.01986718177795 2.0646026134491 2.10959982872009 2.68141198158264 3.23717522621155 3.28666090965271 3.01250696182251 2.53552198410034 2.48450756072998 3.34958004951477 3.52351045608521 3.44480109214783 3.33157181739807 3.14756202697754 2.74928617477417 2.33817744255066 1.98195493221283 1.86689853668213 1.94654417037964 2.07796001434326 1.97969543933868 1.89434766769409 1.89563512802124 1.97499692440033 2.29001379013062 2.60187649726868 2.96839332580566 3.32661271095276 3.34277677536011 2.83254218101501 3.67564702033997 5.88497829437256 6.87876605987549 6.70437955856323 5.01177644729614 3.2172908782959 2.73717069625854 2.78261017799377 2.81682443618774 2.81075382232666 2.83223533630371 2.80340528488159 2.48886632919312 1.63993620872498 1.87720322608948 2.09459233283997 2.24338150024414 2.35045623779297 2.36786270141602 2.36006498336792 2.4535174369812 2.45455551147461 2.7072057723999 2.73189425468445 2.67098045349121 2.5585789680481 2.34428191184998 2.19419717788696 2.33735966682434 2.00002503395081 0.979797661304474 0.215776801109314 -0.454288750886917 -0.88357812166214 -0.882491052150726 -0.131515130400658 0.706887304782867 3.96008229255676 2.12183523178101 2.4179151058197 2.68686175346375 2.8275420665741 2.9600510597229 3.30637216567993 3.54287719726562 3.84673142433167 3.9218955039978 3.95458436012268 3.942715883255 3.99064660072327 3.7604353427887 3.89981412887573 4.19944906234741 4.47534656524658 4.71051120758057 4.65794134140015 4.33856582641602 3.97043395042419 3.70345640182495 3.15008163452148 2.95947933197021 3.39611792564392 3.90400004386902 4.04727029800415 4.13360691070557 4.17457103729248 4.22005224227905 4.26351165771484 4.26046752929688 4.21959924697876 4.17131328582764 4.06983041763306 4.02199649810791 3.92526888847351 4.01433038711548 4.38973522186279 4.63665294647217 4.60279941558838 4.85107040405273 4.94874811172485 5.04834413528442 5.04369163513184 4.88441038131714 4.77508449554443 4.62556886672974 4.60322427749634 5.05870199203491 5.36106538772583 5.82418203353882 6.26122045516968 6.90820264816284 7.26664400100708 7.49278450012207 7.54644680023193 7.61867570877075 7.83259773254395 8.28381729125977 8.35063457489014 8.3082160949707 8.1215181350708 7.95343542098999 7.86066484451294 8.26610279083252 8.22275161743164 7.91013145446777 7.49927425384521 7.1549015045166 6.0138783454895 3.60829830169678 3.36216235160828 2.96615886688232 3.09163308143616 3.0804922580719 2.79718780517578 3.05629563331604 2.98072600364685 4.0786018371582 3.46410202980042 3.36793398857117 2.64908480644226 1.68309783935547
0.462912797927856 0.527324855327606 0.575995981693268 0.627259314060211 0.759186267852783 0.865682661533356 0.930319547653198 0.973405957221985 0.939290821552277 0.929761588573456 0.908993124961853 0.92943948507309 1.38815486431122 1.7957352399826 3.21500134468079 5.65802192687988 4.8660683631897 3.4319224357605 2.43683099746704 2.18507218360901 2.00351285934448 2.06394362449646 2.21557831764221 2.25661969184875 2.22149801254272 2.90716314315796 3.25561881065369 3.52628421783447 3.13113689422607 2.53919410705566 2.29129886627197 3.3733606338501 3.52238273620605 3.48747062683105 3.50464606285095 3.63361716270447 2.98280549049377 2.38281202316284 2.04674673080444 1.88634359836578 1.99802267551422 2.17186641693115 2.06429028511047 1.96831023693085 1.96903598308563 2.08364129066467 2.36567378044128 2.53247141838074 2.9052267074585 3.49661040306091 3.49286961555481 2.98784422874451 4.59426164627075 6.71827125549316 7.68646621704102 8.48198795318604 7.0439510345459 5.32850742340088 3.24632906913757 2.94779491424561 3.02962327003479 3.03601837158203 3.02835249900818 2.98603749275208 2.62129259109497 1.68363523483276 1.81033146381378 1.96006381511688 2.14325618743896 2.29750561714172 2.41136360168457 2.43113112449646 2.50759410858154 2.51583909988403 2.76697516441345 2.78370261192322 2.72574353218079 2.61519956588745 2.3968198299408 2.30902791023254 2.40682411193848 2.3446102142334 1.36412882804871 0.451198786497116 -0.197821661829948 -0.596599519252777 -0.588214337825775 -0.0753960087895393 0.80550229549408 1.57397592067719 2.14966177940369 2.5008716583252 2.82983613014221 3.03897333145142 3.2506697177887 3.57678127288818 3.7237753868103 4.02236890792847 4.19062376022339 4.16513299942017 4.16691637039185 4.19175910949707 3.96286630630493 4.0458869934082 4.34927654266357 4.61432266235352 4.85932064056396 4.89163827896118 4.68674898147583 4.07031345367432 3.79953169822693 3.24978566169739 3.06789994239807 3.46039938926697 4.01048135757446 4.18903779983521 4.30729484558105 4.38324594497681 4.45096683502197 4.50460624694824 4.50143718719482 4.44505977630615 4.35891056060791 4.2287745475769 4.17085456848145 4.07813882827759 4.17103385925293 4.48371171951294 4.74675607681274 4.90405511856079 5.14682769775391 5.23866271972656 5.35304927825928 5.36757230758667 5.21976327896118 5.13193035125732 5.0175633430481 5.04862594604492 5.34145355224609 5.66826105117798 6.15371417999268 6.61925077438354 7.32302474975586 7.72999238967896 7.9589409828186 8.0165319442749 8.08822250366211 8.32903861999512 8.86786651611328 9.01364803314209 9.07018184661865 8.9166145324707 8.65221500396729 8.57578945159912 8.74492073059082 9.08233547210693 9.05896091461182 8.94712066650391 8.82147026062012 7.4084939956665 4.44781589508057 3.93861627578735 3.38796877861023 3.39845609664917 3.44658207893372 3.46510982513428 3.27878022193909 3.2300922870636 2.87090516090393 2.8701286315918 2.74091124534607 2.72444701194763 1.91908431053162
0.474192768335342 0.523297429084778 0.591258227825165 0.685094714164734 0.785439610481262 0.879326820373535 0.97067928314209 0.999541938304901 1.01650166511536 1.028648853302 1.02201282978058 0.976486265659332 1.16210687160492 1.63271033763885 3.15885162353516 6.24622821807861 6.86615037918091 4.85757350921631 2.62543749809265 2.34397792816162 2.19887685775757 2.34200191497803 2.67829561233521 2.58605098724365 2.25840139389038 2.87551093101501 3.35358548164368 3.32490086555481 3.50135254859924 2.84387040138245 2.41934394836426 3.56037449836731 3.58539247512817 3.44784164428711 3.52285480499268 2.98384070396423 2.55221390724182 2.46109628677368 2.21512818336487 2.12404847145081 2.10769939422607 2.27972006797791 2.2048773765564 2.11523866653442 2.09606409072876 2.22497248649597 2.46310186386108 2.65699052810669 3.04357123374939 3.68816041946411 3.64273905754089 3.24448299407959 5.17331266403198 7.78128290176392 8.44677257537842 10.7487602233887 9.46449279785156 6.69300031661987 4.74124908447266 3.11024785041809 3.25469923019409 3.30301904678345 3.29446983337402 3.16097640991211 2.7215518951416 1.67529714107513 1.72725772857666 1.96788418292999 2.19213652610779 2.35331058502197 2.46976780891418 2.4898796081543 2.56653118133545 2.57377243041992 2.83945155143738 2.84627342224121 2.77857708930969 2.67286014556885 2.45468831062317 2.40464162826538 2.46255731582642 2.54111289978027 1.92233216762543 0.810719668865204 0.112602822482586 -0.274995565414429 -0.186423018574715 -0.0030057611875236 1.06113564968109 1.82679581642151 2.30570340156555 2.63486981391907 3.0506763458252 3.30589699745178 3.57583022117615 4.01332855224609 4.13241910934448 4.32955884933472 4.4918417930603 4.68892002105713 4.51731300354004 4.43004941940308 4.26900863647461 4.23956871032715 4.45599508285522 4.76872873306274 5.07609081268311 5.15988922119141 5.00806903839111 4.35820388793945 3.93917727470398 3.37142729759216 3.19833755493164 3.5850031375885 4.12447738647461 4.32318258285522 4.48566389083862 4.55341482162476 4.62678003311157 4.67745590209961 4.6645770072937 4.60696363449097 4.5217080116272 4.37968254089355 4.32723140716553 4.23657846450806 4.32544279098511 4.50081062316895 4.76651096343994 5.16244220733643 5.42620229721069 5.52500677108765 5.65735816955566 5.68102884292603 5.55344343185425 5.48058605194092 5.39694786071777 5.53913450241089 5.66121959686279 6.22161054611206 6.57170248031616 6.98970937728882 7.72072839736938 8.20474624633789 8.48509693145752 8.5404167175293 8.61987686157227 8.90109920501709 9.53366661071777 9.72010231018066 9.82459831237793 9.70499706268311 9.68939399719238 9.48470497131348 9.42419815063477 9.99907875061035 10.0541219711304 10.1771821975708 10.2768716812134 8.6988697052002 5.37578201293945 4.41239356994629 3.80318856239319 3.56134724617004 3.78205251693726 3.81001734733582 3.43443012237549 3.28007912635803 2.33780765533447 1.62614548206329 1.50071704387665 1.62781894207001 1.73966979980469
0.495169162750244 0.528641402721405 0.587978005409241 0.709079146385193 0.777299642562866 0.893685400485992 0.987513601779938 1.05392956733704 1.07915544509888 1.111443400383 1.10459220409393 1.06183815002441 1.00085532665253 1.3094996213913 3.10092782974243 5.46864128112793 8.42102432250977 6.38484525680542 3.39503049850464 2.5704071521759 2.49486970901489 2.27834677696228 3.20559692382812 2.90542364120483 2.61480808258057 2.03848361968994 2.93820071220398 2.9683575630188 3.06665086746216 2.46438241004944 2.7184841632843 3.84896683692932 3.79588556289673 3.46593999862671 2.93278455734253 2.82954859733582 2.5704140663147 2.40618515014648 2.20694422721863 1.9872567653656 2.15777134895325 2.37053346633911 2.35204219818115 2.2780339717865 2.22999572753906 2.45758485794067 2.71211123466492 2.91762495040894 3.17400503158569 3.87409138679504 3.83030676841736 3.49992346763611 5.53630924224854 7.35060596466064 7.67352819442749 10.9169425964355 7.58840179443359 7.41742324829102 5.92586660385132 3.48705887794495 3.46915102005005 3.52691721916199 3.47906970977783 3.31134486198425 2.82105016708374 1.89612424373627 1.76624572277069 2.01444983482361 2.24755477905273 2.41171550750732 2.52910232543945 2.5403037071228 2.62578201293945 2.63646650314331 2.96395897865295 3.21392178535461 3.25870800018311 2.75290632247925 2.54964923858643 2.51767325401306 2.51563906669617 2.61103987693787 2.31664490699768 1.51802432537079 0.84951388835907 0.265225321054459 0.339727401733398 0.700019121170044 1.38848102092743 2.05699920654297 2.58397626876831 2.83658671379089 3.39423298835754 3.68126678466797 3.95564460754395 4.47204923629761 4.63173341751099 4.97478151321411 5.15370798110962 5.26588344573975 4.9201226234436 4.73035621643066 4.57995462417603 4.56777620315552 4.69557046890259 5.04932880401611 5.26609897613525 5.31264781951904 5.1675386428833 4.67613220214844 4.18480777740479 3.65755200386047 3.34005093574524 3.71859383583069 4.26049089431763 4.45938348770142 4.66642951965332 4.73678731918335 4.7611403465271 4.82023048400879 4.85708808898926 4.76370811462402 4.68570280075073 4.53455305099487 4.46607208251953 4.37926626205444 4.46855401992798 4.56490516662598 4.93904638290405 5.37169361114502 5.66270065307617 5.79141902923584 5.94459247589111 5.99962615966797 5.8780083656311 5.83412218093872 5.76721382141113 5.81633281707764 6.19207096099854 6.75384283065796 7.01101064682007 7.16014623641968 8.10066509246826 8.62857246398926 9.04874897003174 9.14053153991699 9.26781845092773 9.57161617279053 10.0302171707153 10.4079160690308 10.5332336425781 10.6411447525024 10.593071937561 10.381498336792 10.337872505188 10.94664478302 10.986496925354 11.2184534072876 11.5190029144287 9.88648986816406 6.80490922927856 5.27396440505981 4.29779195785522 4.00275421142578 4.11918210983276 4.18949270248413 3.80371046066284 3.44690823554993 2.40082359313965 1.53163933753967 1.60856366157532 1.69044995307922 1.77528846263885
0.500175714492798 0.551629066467285 0.578672409057617 0.653542637825012 0.792304694652557 0.902101159095764 1.00252079963684 1.09490025043488 1.1319637298584 1.16195094585419 1.17365181446075 1.14441418647766 1.06566596031189 1.13470077514648 3.93117761611938 5.45225143432617 10.8429327011108 7.77540016174316 4.3895959854126 2.88287329673767 2.92782783508301 2.54482460021973 3.03656053543091 3.62103199958801 3.00596928596497 2.06145834922791 2.61388802528381 3.00655055046082 1.9838684797287 2.53458595275879 3.19204711914062 4.08359575271606 4.02692317962646 3.61423754692078 2.93235349655151 2.12732291221619 1.95907700061798 1.63549518585205 1.91245484352112 2.02699375152588 2.26008701324463 2.46916723251343 2.49629688262939 2.45201945304871 2.36962485313416 2.70220398902893 2.97364234924316 3.18772482872009 3.30515885353088 4.020432472229 3.98525309562683 3.84175634384155 4.63813304901123 5.72445774078369 6.42940902709961 5.68056058883667 7.69044637680054 8.21997356414795 8.03383541107178 4.56345844268799 3.58615016937256 3.68843746185303 3.61390328407288 3.43727159500122 2.92578887939453 2.27575898170471 1.81175565719604 2.0670108795166 2.3040406703949 2.47003269195557 2.58666658401489 2.60429859161377 2.69240713119507 3.13334846496582 3.52820134162903 3.65021777153015 3.62699699401855 3.47429203987122 2.98069667816162 2.72378873825073 2.55149388313293 2.64463400840759 2.60189175605774 2.14427256584167 1.58361542224884 0.948578715324402 0.901992559432983 1.43593144416809 2.06768155097961 2.33972263336182 2.81768441200256 3.25790476799011 3.84132695198059 4.15874624252319 4.4540867805481 4.98464584350586 5.26740598678589 5.54299259185791 5.83147192001343 5.74313640594482 5.23922443389893 5.04995393753052 5.06618928909302 5.20955371856689 5.33195352554321 5.53926515579224 5.5760703086853 5.47585916519165 5.34585046768188 5.05394744873047 4.74803829193115 4.36189079284668 3.70567846298218 3.88357734680176 4.43420219421387 4.61360216140747 4.82415246963501 4.89510822296143 4.94434642791748 4.985680103302 5.02309036254883 4.99655914306641 4.93065071105957 4.75456666946411 4.6088809967041 4.51472568511963 4.57369041442871 4.64936590194702 5.11262178421021 5.57179594039917 5.8790488243103 6.03258466720581 6.22701454162598 6.31241703033447 6.17522716522217 6.17503023147583 6.11778450012207 6.08020925521851 6.68559885025024 7.28782558441162 7.57972097396851 7.69208192825317 8.39046764373779 9.01995849609375 9.38897323608398 9.82521820068359 9.96121883392334 10.0316104888916 10.3379878997803 11.2321891784668 11.3008394241333 11.4249668121338 11.447322845459 11.2737302780151 11.3258142471313 12.0545425415039 12.0979290008545 12.4480133056641 12.8689889907837 11.1955261230469 7.60615968704224 6.09059858322144 4.82604074478149 4.47752857208252 4.49946451187134 4.56259059906006 4.19489431381226 3.80161547660828 2.59552407264709 1.88028526306152 1.84866440296173 1.83276987075806 1.86348867416382
0.513257503509521 0.572446167469025 0.589485228061676 0.666478037834167 0.798710942268372 0.908663332462311 1.01147758960724 1.11462569236755 1.19992589950562 1.22647213935852 1.22696590423584 1.21162378787994 1.16575658321381 1.5799275636673 0.87317568063736 3.69128727912903 10.5333261489868 8.9773645401001 5.02820253372192 3.37612915039062 3.50036573410034 2.58729147911072 2.00662636756897 3.14552593231201 3.34035301208496 2.26646709442139 1.3990226984024 2.2574245929718 1.53021311759949 1.50100791454315 2.32095670700073 4.1430492401123 4.21850299835205 3.92594766616821 3.17419815063477 2.16561555862427 1.60177946090698 1.54296815395355 1.93960654735565 2.07303929328918 2.43805551528931 2.59783720970154 2.65140819549561 2.60644674301147 2.56763410568237 2.93435621261597 3.22515606880188 3.52481269836426 3.63209104537964 4.17216348648071 4.12334012985229 4.45473766326904 4.18744325637817 5.33480834960938 6.49312829971313 5.28790760040283 2.38281202316284 2.66294741630554 5.90541791915894 5.76078844070435 3.69463920593262 3.83831572532654 3.84506273269653 3.57250022888184 3.04342913627625 2.452552318573 1.85724973678589 2.12248992919922 2.36507177352905 2.52977156639099 2.65111756324768 2.67035675048828 2.95888066291809 3.50424408912659 3.7180814743042 3.76715230941772 3.73116397857666 3.66216063499451 3.4234185218811 2.97868180274963 2.6705584526062 2.63805961608887 2.73162961006165 2.53598976135254 2.06436491012573 1.36898648738861 1.34813022613525 1.89432716369629 2.42253446578979 2.70025181770325 3.27958297729492 3.73833179473877 4.31576871871948 4.71074533462524 5.08262586593628 5.39559745788574 5.78275299072266 5.98408508300781 6.21951675415039 6.19274950027466 5.56915140151978 5.59550523757935 6.19356822967529 6.303955078125 6.24290752410889 6.21566343307495 6.14389419555664 5.85426664352417 5.64518451690674 5.28179979324341 4.96996021270752 4.68430280685425 4.10326623916626 4.07474136352539 4.63137626647949 4.78457975387573 4.92221164703369 5.08283042907715 5.11042547225952 5.15839004516602 5.19733667373657 5.16320943832397 5.09540510177612 4.99278974533081 4.81567764282227 4.73345518112183 4.67039585113525 4.82011556625366 5.29522037506104 5.78703498840332 6.11613798141479 6.2863826751709 6.47632360458374 6.57503700256348 6.47413396835327 6.37110805511475 6.49523067474365 6.4346923828125 7.18343877792358 7.84760761260986 8.2168664932251 8.35361671447754 9.06648921966553 9.71324253082275 10.0262765884399 10.4734869003296 10.6902093887329 10.800669670105 11.1884984970093 12.2162599563599 12.2193374633789 12.3640804290771 12.491584777832 12.2772569656372 12.4670867919922 13.2749891281128 13.5938415527344 14.1028356552124 14.5166759490967 12.6113052368164 8.37002658843994 6.86169052124023 5.3711371421814 5.03290748596191 4.97949647903442 4.98789167404175 4.57520771026611 4.15947103500366 2.83033180236816 2.26501727104187 2.06691122055054 1.98533809185028 1.96749234199524
0.525138258934021 0.582149088382721 0.606767773628235 0.676829218864441 0.784193336963654 0.910876929759979 1.02033591270447 1.13008642196655 1.25822877883911 1.29429697990417 1.28433358669281 1.28855633735657 1.22216320037842 1.11803770065308 1.0092808008194 0.781966686248779 3.52870655059814 8.07831001281738 5.24325323104858 3.5762255191803 4.75690841674805 2.64010858535767 2.0390157699585 2.27580976486206 3.22248244285583 2.14382863044739 1.16480302810669 1.14045584201813 1.36608350276947 1.49461948871613 2.65411305427551 4.67771816253662 4.77654361724854 4.34750509262085 3.48376369476318 2.42721199989319 1.66685581207275 1.56607234477997 1.99252796173096 2.14455056190491 2.63947176933289 2.67425084114075 2.74240326881409 2.73194003105164 2.835773229599 3.24031805992126 3.58320999145508 4.00251293182373 3.97572779655457 4.33703708648682 4.24755859375 4.50455904006958 3.95702362060547 5.75901699066162 6.70817232131958 4.93119239807129 1.68261957168579 2.07256531715393 2.51970052719116 3.68532872200012 3.80526041984558 3.99867820739746 4.01261901855469 3.78295207023621 3.446852684021 2.94303345680237 1.90362191200256 2.17782926559448 2.42500138282776 2.58862686157227 2.71315097808838 2.78631663322449 3.15704083442688 3.60968637466431 3.81949734687805 3.84065961837769 3.80726146697998 3.73563814163208 3.51979327201843 3.1607129573822 2.82320499420166 2.70756959915161 2.80486583709717 2.71407747268677 2.24220943450928 1.6391841173172 1.63706707954407 2.10707354545593 2.67142033576965 3.05558204650879 3.75489044189453 4.22336578369141 4.82245111465454 5.19992160797119 5.41208457946777 5.66393327713013 6.0529637336731 6.20197534561157 6.44901990890503 6.53498315811157 6.66263055801392 6.84769201278687 7.36820983886719 7.18002271652222 6.92708444595337 6.99359035491943 6.97590446472168 6.58311223983765 6.2671947479248 5.62068796157837 5.23306655883789 4.92137098312378 4.29542207717896 4.27779912948608 4.8283576965332 4.96606397628784 5.03639984130859 5.25316905975342 5.28243255615234 5.33830833435059 5.38019275665283 5.3381781578064 5.2688570022583 5.15937376022339 4.97805309295654 4.91531705856323 4.83112382888794 5.00053834915161 5.49251317977905 6.02949333190918 6.35059070587158 6.53734111785889 6.76006317138672 6.72707939147949 6.88895988464355 6.78055286407471 6.81184005737305 6.74350738525391 7.66686153411865 8.39602661132812 8.85140132904053 9.05348873138428 10.1356067657471 10.8062496185303 10.9524459838867 11.2878770828247 11.472204208374 11.6201410293579 12.1896848678589 13.3337917327881 13.2462387084961 13.4282760620117 13.7357664108276 13.4433946609497 13.7546501159668 14.731785774231 15.2279357910156 16.7384281158447 16.9146423339844 14.3560581207275 9.30649948120117 7.58688879013062 6.0881085395813 5.60212421417236 5.49285888671875 5.47803115844727 4.98218011856079 4.50901699066162 3.03920125961304 2.54065155982971 2.22730302810669 2.10437870025635 2.14504051208496
0.539508402347565 0.588178873062134 0.619210660457611 0.680940628051758 0.766074240207672 0.909610569477081 1.03723204135895 1.15802657604218 1.28433203697205 1.33108174800873 1.34134721755981 1.33078169822693 1.28064501285553 1.20213937759399 1.11412036418915 0.890562236309052 0.446463286876678 5.47763204574585 5.5115647315979 3.28026390075684 2.64732623100281 3.31051015853882 0.819680511951447 1.49189519882202 1.13829243183136 1.88828682899475 1.17899072170258 1.17460477352142 1.32350921630859 1.42844939231873 1.93302619457245 4.52130603790283 5.92705249786377 6.15343427658081 3.72208213806152 2.35723614692688 1.82228744029999 1.74734449386597 2.03705906867981 2.17979216575623 2.90113210678101 2.71960091590881 3.04591631889343 2.97083783149719 3.16082549095154 3.61802434921265 4.03162670135498 4.42667531967163 4.40780448913574 4.51451778411865 4.37891483306885 4.08744525909424 4.13004159927368 3.54337644577026 4.93187046051025 4.48168659210205 1.58833134174347 2.0158531665802 2.66153931617737 3.2308042049408 3.81816840171814 4.15688371658325 4.19986391067505 4.094642162323 3.88898658752441 3.31682825088501 2.3562605381012 2.45296096801758 2.55880069732666 2.65557980537415 2.78147101402283 2.96110582351685 3.30558490753174 3.68904972076416 3.89507293701172 3.92664766311646 3.88804984092712 3.81780481338501 3.59246587753296 3.2190089225769 2.87161874771118 2.76873397827148 2.88103199005127 2.80407285690308 2.52995109558105 1.91390109062195 1.87317597866058 2.29364490509033 2.94967818260193 3.46480107307434 4.16314554214478 4.66673803329468 5.27350616455078 5.46228742599487 5.54949378967285 5.85771989822388 6.25085544586182 6.40677785873413 6.65571975708008 6.75019264221191 6.9820032119751 7.26612758636475 7.84539556503296 7.97999238967896 7.6446361541748 7.91326761245728 7.88923597335815 7.40164613723755 7.01084613800049 6.42009592056274 5.60415649414062 5.20789384841919 4.53497552871704 4.33108949661255 4.9522705078125 5.15524196624756 5.27455902099609 5.4351601600647 5.46952152252197 5.53073883056641 5.57615518569946 5.52447319030762 5.45601749420166 5.33133745193481 5.14220428466797 5.07907342910767 5.0193510055542 5.20550870895386 5.70036935806274 6.25381565093994 6.60626983642578 6.8048996925354 6.66972780227661 7.06871223449707 7.1995005607605 7.09590864181519 7.16184520721436 7.08781290054321 8.17125988006592 8.93823909759521 9.34153175354004 9.51751613616943 11.0794744491577 11.8368101119995 11.8236379623413 12.0852556228638 12.2135276794434 12.4104909896851 13.356390953064 14.6589164733887 14.5801362991333 14.7591581344604 15.2554950714111 14.9723377227783 15.4571475982666 16.6800193786621 17.5834445953369 19.3191833496094 20.6816329956055 19.7071018218994 12.3601627349854 8.34312534332275 6.83265256881714 6.38272905349731 6.09705781936646 5.9818115234375 5.42168474197388 4.86495161056519 3.63658976554871 2.87389183044434 2.38456439971924 2.23037528991699 2.31021165847778
0.572541236877441 0.604874849319458 0.633615493774414 0.691872894763947 0.77131062746048 0.897908568382263 1.0676600933075 1.19666624069214 1.3249294757843 1.36516773700714 1.36584234237671 1.40978503227234 1.36749398708344 1.27686488628387 1.19743967056274 1.01549756526947 0.604567050933838 0.42980769276619 5.52938890457153 4.08481311798096 1.81170463562012 1.13961696624756 1.42881155014038 0.947223842144012 0.973624646663666 0.994189560413361 1.16216015815735 1.23396456241608 1.30094921588898 1.43260145187378 1.57677447795868 3.60673880577087 7.63632011413574 7.41363954544067 5.99519205093384 3.82127237319946 2.23692798614502 1.91240131855011 2.06280851364136 2.25041723251343 3.30293107032776 3.91674852371216 3.8703236579895 3.60363984107971 3.5651593208313 3.89087653160095 4.34769678115845 4.4231653213501 5.02589464187622 4.97905826568604 5.0807933807373 4.3148627281189 5.06919145584106 2.1727147102356 1.56216764450073 1.07845020294189 1.44226443767548 2.06212997436523 2.74447321891785 3.31805682182312 3.89242053031921 4.31309127807617 4.4070405960083 4.27489709854126 4.065598487854 3.46720600128174 2.59931755065918 2.64284563064575 2.71191120147705 2.73310494422913 2.90646243095398 3.13593506813049 3.45887327194214 3.79453611373901 3.98100590705872 4.00795984268188 3.97154068946838 3.90405917167664 3.66844868659973 3.28605008125305 2.92141532897949 2.81744241714478 2.94107365608215 2.87573528289795 2.64928150177002 2.17116093635559 2.19810128211975 2.60880875587463 3.26858377456665 3.84974074363708 4.51658964157104 4.96698236465454 5.30160045623779 5.53509664535522 5.73372220993042 6.0657639503479 6.4710521697998 6.63320541381836 6.89236450195312 6.99104690551758 7.23770093917847 7.5316333770752 8.25864601135254 8.88961410522461 8.83097362518311 8.94975280761719 8.75613880157471 8.22237586975098 7.86105394363403 7.217604637146 6.10635614395142 5.56953477859497 4.7938494682312 4.49172925949097 4.84754610061646 5.36344146728516 5.47703123092651 5.62598514556885 5.67240524291992 5.74205112457275 5.77969312667847 5.72447490692139 5.65226221084595 5.5151424407959 5.31513833999634 5.25181674957275 5.22798204421997 5.39572143554688 5.90623950958252 6.50863456726074 6.86045455932617 6.80212020874023 7.09690618515015 7.36375284194946 7.5252628326416 7.40100288391113 7.47867012023926 7.44677114486694 8.25527858734131 9.19223880767822 9.697434425354 10.5254936218262 12.3315715789795 13.124662399292 13.010085105896 13.3009481430054 13.3852891921997 13.7099742889404 14.7738542556763 16.1954002380371 16.1179275512695 16.3038845062256 17.0846538543701 16.7231044769287 17.5847415924072 19.2055549621582 20.170539855957 25.8501682281494 27.1868324279785 24.6560955047607 20.5195007324219 10.1622323989868 7.70421743392944 6.84744358062744 6.59825611114502 6.41398620605469 5.86318445205688 5.47544527053833 4.45873117446899 3.25480699539185 2.51838898658752 2.4622597694397 2.50729990005493
