NCOLS 172
NROWS 32
XLLCORNER 353712
YLLCORNER 6700944
CELLSIZE 16 
NODATA_value -3.4e+38 
2.58151340484619 1.89797306060791 1.60593688488007 1.34075653553009 0.871919333934784 0.759337246417999 0.871168971061707 0.84819620847702 0.823547601699829 0.677517533302307 0.24950884282589 -0.204860061407089 -0.771715223789215 -1.45470809936523 -2.01611065864563 -2.3863251209259 -2.69150471687317 -2.98485636711121 -3.17412805557251 -3.35186290740967 -3.45042538642883 -1.15089154243469 0.858670890331268 4.81277704238892 4.82116651535034 2.05860233306885 -1.16423523426056 -2.85168766975403 -2.86551022529602 -1.69822406768799 -1.89954829216003 -2.25095629692078 -2.51190590858459 -2.58514070510864 -2.67508602142334 -2.82900261878967 -3.03235054016113 -3.10064840316772 -3.07107090950012 -3.06358671188354 -3.00586295127869 -1.94738531112671 3.44296145439148 8.69240474700928 6.73287153244019 3.85582065582275 0.546460926532745 -0.996998906135559 -1.27456593513489 -1.10890221595764 2.33501243591309 5.24269819259644 7.1671462059021 7.76871061325073 6.51571559906006 6.53203582763672 5.4610743522644 4.2186598777771 2.44807696342468 1.63807225227356 1.14744257926941 1.00071275234222 0.799587428569794 0.472922444343567 0.0132275084033608 -0.440685272216797 -0.312968760728836 -0.19951143860817 0.00545015186071396 0.193652361631393 0.280961364507675 0.387950956821442 0.328288197517395 0.288909554481506 0.175626456737518 0.0616642981767654 -0.193036034703255 -0.408872365951538 -0.465534269809723 -0.443912982940674 -0.127928167581558 -0.41646671295166 -0.333060175180435 0.317779570817947 0.103779904544353 0.147795394062996 0.21337203681469 0.217443808913231 0.425640910863876 0.476247936487198 0.516046285629272 0.708399653434753 0.896729469299316 1.17312788963318 1.43198001384735 1.75455451011658 2.21777868270874 2.09659075737 1.98776686191559 2.12941193580627 2.6579761505127 2.93145608901978 2.80901789665222 2.6957631111145 2.73902630805969 2.71678781509399 2.60297107696533 2.58013248443604 2.53495025634766 2.45985341072083 2.44288206100464 2.54870915412903 2.53084540367126 2.52723264694214 2.51761317253113 2.43918800354004 2.45503425598145 2.43650078773499 2.45280814170837 2.44448733329773 2.45345997810364 2.43339037895203 2.39411354064941 2.37737560272217 2.31692934036255 2.32676076889038 2.38632392883301 2.52178907394409 2.62064218521118 2.66795206069946 3.68502235412598 3.92151951789856 3.9606568813324 3.30762505531311 3.03795385360718 2.57522344589233 2.50050783157349 2.23591327667236 2.19252395629883 2.16813850402832 2.26037621498108 2.32187843322754 2.37721347808838 2.5647280216217 2.53155755996704 2.54539489746094 2.61024594306946 2.59219026565552 2.47048664093018 2.39634370803833 2.30587434768677 2.18751859664917 2.1224639415741 2.11957478523254 2.07298159599304 2.03718280792236 2.01922702789307 2.04463696479797 2.07366704940796 2.09657335281372 2.15279984474182 2.18880462646484 2.20907664299011 2.21946954727173 2.2467885017395 2.29571056365967 2.32868552207947 2.45126271247864 2.59806895256042 2.8394513130188 2.96009874343872 3.02518343925476
2.33316588401794 1.91454803943634 1.77631950378418 1.43236613273621 0.892751634120941 0.922057926654816 0.903412044048309 0.924290478229523 0.88388991355896 0.655341506004333 0.314696162939072 -0.0633660927414894 -0.622986316680908 -1.30287826061249 -1.86296498775482 -2.23237252235413 -2.5230655670166 -2.78707480430603 -2.98673415184021 -3.17851901054382 -3.27294993400574 0.702431082725525 2.54183983802795 5.52184772491455 3.35709667205811 0.343723714351654 -2.68372201919556 -2.77038812637329 -0.227012768387794 -1.90300250053406 -1.41454589366913 -1.90271949768066 -2.31362557411194 -2.39073300361633 -2.53100562095642 -2.74402809143066 -2.97813630104065 -2.95856046676636 -2.96743369102478 -2.91735053062439 -2.83661770820618 -2.75157046318054 -0.330288022756577 3.46328806877136 5.8821702003479 1.13483440876007 -0.895440220832825 -1.04635787010193 -1.0691077709198 -0.145971730351448 6.16866111755371 9.66254806518555 11.1113395690918 8.80222988128662 8.22901153564453 6.74056243896484 6.16962862014771 4.48283576965332 2.3217933177948 2.4105396270752 2.80642318725586 3.12630200386047 2.623854637146 1.65159249305725 0.907002508640289 -0.207481846213341 -0.110704556107521 0.0433043614029884 0.250393569469452 0.379936426877975 0.510236799716949 0.444499284029007 0.386225640773773 0.251328885555267 0.125629261136055 0.0227219648659229 -0.166312158107758 -0.429126977920532 -0.433458477258682 -0.431691557168961 -0.40978741645813 -0.0555025860667229 -0.236964955925941 0.140050575137138 0.265680819749832 0.286831885576248 0.284579396247864 0.236048057675362 0.540115296840668 0.755365371704102 0.781040132045746 0.785347402095795 0.828376114368439 1.08780145645142 1.23268043994904 1.67736840248108 1.97344470024109 2.01628994941711 2.26364827156067 2.11934638023376 2.31081700325012 2.83928894996643 2.77611422538757 2.96173524856567 2.9411768913269 2.85300993919373 2.82960820198059 2.72828221321106 2.65353751182556 2.56997346878052 2.58997845649719 2.67713356018066 2.69324707984924 2.66988492012024 2.66145324707031 2.61899995803833 2.52585363388062 2.65848159790039 2.61707353591919 2.59659171104431 2.61629629135132 2.57413911819458 2.54499769210815 2.53235077857971 2.47237348556519 2.44278430938721 2.56691694259644 2.65254044532776 2.51573014259338 2.52117276191711 3.73795485496521 4.69577169418335 5.42496538162231 4.48981618881226 3.73641109466553 3.32076597213745 2.57043886184692 2.30716514587402 2.33350872993469 2.39668369293213 2.49084782600403 2.550776720047 2.71868085861206 2.69766211509705 2.72392296791077 2.83832263946533 2.85169434547424 2.74168539047241 2.49765014648438 2.41633892059326 2.28968286514282 2.21450304985046 2.17291712760925 2.17774748802185 2.18303370475769 2.15808725357056 2.15616250038147 2.15887713432312 2.17976069450378 2.24620342254639 2.28277373313904 2.30165028572083 2.30372953414917 2.34729933738708 2.39332938194275 2.41615700721741 2.55637907981873 2.71963000297546 2.9141571521759 2.99821066856384 3.01731443405151 3.08188438415527
2.0970151424408 1.97571384906769 1.76428198814392 1.66909742355347 1.00806069374084 0.95375519990921 0.977643668651581 0.967913269996643 0.826091170310974 0.603051483631134 0.401345133781433 0.113415248692036 -0.358294486999512 -1.14333009719849 -1.69320678710938 -2.00920295715332 -2.36878204345703 -2.67017436027527 -2.83383345603943 -3.02715277671814 -3.11543655395508 3.24825716018677 7.51988649368286 4.40039443969727 2.17406678199768 0.417286038398743 -2.58597636222839 -2.72186803817749 -2.60880947113037 2.11269998550415 1.25008809566498 -1.71801781654358 -2.0397310256958 -2.23259305953979 -2.4604115486145 -2.69313955307007 -2.79328536987305 -2.83056688308716 -2.83259415626526 -2.78778481483459 -2.68427801132202 -2.56906723976135 0.670598447322845 1.59008026123047 1.4968193769455 -0.785571157932281 -1.23018705844879 -1.05241286754608 -1.1028151512146 2.25849843025208 10.9572315216064 17.12135887146 15.1967315673828 10.8132886886597 8.70461845397949 7.43495655059814 6.35318422317505 4.40035581588745 3.08149933815002 3.81494903564453 5.01939296722412 4.92882204055786 3.59862160682678 2.26935052871704 0.84830629825592 0.0204285252839327 0.185682058334351 0.348853081464767 0.452211320400238 0.582338094711304 0.516131222248077 0.466127306222916 0.334190279245377 0.187762960791588 0.0670429244637489 -0.0605331249535084 -0.161325484514236 -0.351751118898392 -0.407570213079453 -0.408066749572754 -0.390841722488403 0.00557344267144799 0.223762452602386 0.342754602432251 0.401220142841339 0.367376118898392 0.310533344745636 0.303090065717697 0.484240472316742 0.961014807224274 1.06122827529907 0.900698482990265 0.807105720043182 1.01277351379395 0.846135854721069 1.15298676490784 1.64845335483551 1.8051689863205 2.13886976242065 2.34967017173767 2.30507898330688 2.67238569259644 2.50620818138123 2.91720724105835 3.08599400520325 3.14527177810669 3.09698820114136 2.87249898910522 2.7710292339325 2.86143445968628 2.80977416038513 2.76006770133972 2.80676126480103 2.83189845085144 2.81456995010376 2.83141899108887 2.85741543769836 2.90027713775635 2.89211440086365 2.83194828033447 2.790283203125 2.74011468887329 2.72968530654907 2.66376686096191 2.63429117202759 2.62865257263184 2.7215883731842 2.58199977874756 2.54575896263123 2.41961097717285 2.34309864044189 3.49210166931152 5.12237644195557 6.08927869796753 4.91752243041992 3.81430292129517 2.95772767066956 2.3655424118042 2.50276851654053 2.60445284843445 2.70432448387146 2.91316819190979 2.88414359092712 2.89175486564636 2.94694066047668 3.09507250785828 3.13279867172241 2.98493218421936 2.81727981567383 2.48391604423523 2.32911086082458 2.29823970794678 2.312171459198 2.26745510101318 2.24322724342346 2.25191617012024 2.29126787185669 2.33090567588806 2.40142035484314 2.41426753997803 2.4041895866394 2.41213798522949 2.45647931098938 2.50256419181824 2.52791881561279 2.65961718559265 2.83040690422058 3.04201912879944 3.12414574623108 3.13472199440002 3.19558787345886 3.29598259925842
2.0106315612793 1.86088013648987 1.59696686267853 1.90844440460205 1.05824184417725 1.04624450206757 1.02446138858795 0.905313074588776 0.754604816436768 0.63787454366684 0.507640719413757 0.292563289403915 -0.12351568043232 -0.768800973892212 -1.41662418842316 -1.79462254047394 -2.1081109046936 -2.47848200798035 -2.66467452049255 -2.85990881919861 -2.9744668006897 -3.06825137138367 3.68899512290955 1.06592106819153 1.99215173721313 0.530630648136139 -2.28511524200439 -2.45313549041748 -2.37406206130981 6.38055610656738 0.511110723018646 0.392646282911301 -1.83322286605835 -2.08979249000549 -2.35303592681885 -2.52172350883484 -2.64087247848511 -2.75863885879517 -2.67953181266785 -2.64452385902405 -2.52886533737183 -2.32369780540466 -1.93314218521118 0.912151575088501 -0.362085431814194 -1.03099453449249 -1.0145537853241 -1.05494892597198 -1.32383382320404 -1.37936532497406 -1.38582623004913 5.98904466629028 14.278697013855 10.9468221664429 9.02327537536621 7.17418909072876 6.8627028465271 4.89704608917236 4.36098337173462 6.17286205291748 9.293776512146 6.88452005386353 3.90053105354309 1.95275616645813 0.355292767286301 0.306947886943817 0.418543487787247 0.544887542724609 0.72028636932373 0.670004069805145 0.600701868534088 0.446743965148926 0.305605739355087 0.141185402870178 -0.022060751914978 -0.139685064554214 -0.195261478424072 -0.27772131562233 -0.388482004404068 -0.384223759174347 -0.227032080292702 0.255314141511917 0.411780506372452 0.550305008888245 0.408155202865601 0.395539104938507 0.394800215959549 0.338177502155304 0.25100377202034 0.602044880390167 1.07904350757599 0.932430982589722 0.911581814289093 0.876454532146454 0.907239437103271 0.946316659450531 1.11744463443756 1.68151831626892 1.99348318576813 1.98511862754822 2.34170484542847 2.49324107170105 2.30750441551208 2.7402937412262 2.98226404190063 3.31716227531433 3.11381816864014 2.99785017967224 3.28505992889404 3.0826199054718 2.90114641189575 2.96606063842773 3.08433270454407 3.05072283744812 3.04205083847046 3.10106682777405 3.11091804504395 3.06892728805542 3.14184141159058 3.09334468841553 2.95953035354614 2.91946768760681 2.87310194969177 2.8287091255188 2.74657368659973 2.79748630523682 2.66434860229492 2.65683150291443 2.51978778839111 2.38138580322266 2.24234175682068 2.22065830230713 2.99090480804443 5.61964559555054 6.15651607513428 4.50158071517944 3.21174025535583 2.55261468887329 2.66563725471497 2.74297881126404 2.83899784088135 3.01517510414124 3.08896088600159 3.16013336181641 3.19959020614624 3.22788453102112 3.2930908203125 3.14115715026855 2.93594145774841 2.62887787818909 2.45070767402649 2.46365094184875 2.4191427230835 2.4133460521698 2.37920331954956 2.40663623809814 2.42476773262024 2.49771189689636 2.50569033622742 2.5254008769989 2.57572054862976 2.58013820648193 2.62115049362183 2.64984607696533 2.7888286113739 2.96701145172119 3.18276596069336 3.2660710811615 3.27110767364502 3.37878751754761 3.48071265220642 3.87560415267944
1.99995028972626 1.74752914905548 1.67082738876343 1.69562804698944 1.13826954364777 1.09987998008728 0.97315388917923 0.822277784347534 0.733520805835724 0.687339186668396 0.631640255451202 0.447969526052475 0.0434941127896309 -0.458344161510468 -0.99626886844635 -1.4618661403656 -1.8119922876358 -2.22563242912292 -2.37106537818909 -2.46651935577393 -2.55797863006592 -2.85657906532288 0.441210895776749 -2.28683638572693 -2.11265993118286 1.63202655315399 2.0774519443512 -2.30144762992859 -2.22182607650757 2.06950306892395 3.99199485778809 -0.750613808631897 -1.69369208812714 -1.82772982120514 -2.06051063537598 -2.27100825309753 -2.36023306846619 -2.51489520072937 -2.51261901855469 -2.37871623039246 -2.21666622161865 -1.92864322662354 -1.59825909137726 -0.650934636592865 -0.985233724117279 -0.911486089229584 -0.998200178146362 -1.22833967208862 -1.30200350284576 -1.38209879398346 -1.31001365184784 -1.08959746360779 6.11127281188965 5.76175308227539 4.93743228912354 4.46330451965332 5.71852922439575 5.23346424102783 5.00134801864624 6.67712497711182 12.5533771514893 10.9493732452393 4.66343641281128 1.52427792549133 0.380087286233902 0.479636788368225 0.674729406833649 0.851756036281586 0.785160899162292 0.760050356388092 0.627340197563171 0.461952418088913 0.273027747869492 0.0770864859223366 -0.0918831378221512 -0.173995137214661 -0.229374200105667 -0.266658425331116 -0.366221308708191 -0.376822113990784 -0.364929914474487 0.474688053131104 0.67655748128891 0.671110332012177 0.526458203792572 0.45755672454834 0.486594766378403 0.384237229824066 0.270658671855927 0.321463495492935 0.715082883834839 1.02026689052582 1.11257815361023 1.04248094558716 0.967337429523468 1.03962433338165 1.08259522914886 1.18831551074982 1.89104771614075 1.79181361198425 2.04515433311462 2.35399031639099 2.15256690979004 2.2961585521698 2.56524610519409 3.00903391838074 2.89627146720886 3.40553021430969 3.38799262046814 3.20949196815491 2.75261950492859 3.34785223007202 3.37356376647949 3.3397274017334 3.36333131790161 3.43720126152039 3.37085890769958 3.37371778488159 3.23796701431274 3.26660752296448 3.14454960823059 3.08720278739929 3.00070548057556 2.9374668598175 2.85847234725952 2.83151006698608 2.74635529518127 2.63262486457825 2.5064549446106 2.33696627616882 2.26579308509827 2.10695695877075 2.13059997558594 2.44597887992859 4.88281583786011 5.09579372406006 3.79752659797668 2.90353417396545 2.96598553657532 3.02324199676514 3.19775176048279 3.18622303009033 3.34590029716492 3.30465579032898 3.33942914009094 3.39129209518433 3.34952688217163 3.1915967464447 3.00253748893738 2.7511248588562 2.63188862800598 2.57387971878052 2.58162689208984 2.57106304168701 2.573646068573 2.59291052818298 2.68713545799255 2.68541431427002 2.6861617565155 2.67981839179993 2.70056867599487 2.81224465370178 2.79293870925903 2.92106509208679 3.11399245262146 3.33093523979187 3.42872738838196 3.44305348396301 3.53105926513672 3.6183032989502 4.03523302078247 5.03920793533325
2.09328675270081 1.95504915714264 1.4522260427475 1.21137189865112 1.17183446884155 1.03723800182343 0.872288048267365 0.789493203163147 0.748000204563141 0.742206335067749 0.709925651550293 0.52807205915451 0.239277496933937 -0.185430154204369 -0.687681376934052 -1.18281877040863 -1.51305520534515 -1.85224962234497 -2.0832359790802 -2.23502254486084 -2.36741399765015 -2.60950183868408 0.402440369129181 -2.01935458183289 -2.19798827171326 -2.24328565597534 3.62454080581665 -0.579328536987305 -2.02319240570068 -1.96174907684326 -0.739555716514587 -0.887584269046783 -1.61554789543152 -1.69942474365234 -1.82251536846161 -1.95158326625824 -2.05679106712341 -2.1798882484436 -2.22848510742188 -2.0146119594574 -1.77944350242615 -1.53418695926666 -1.25661337375641 -0.961438119411469 -0.77673614025116 -0.751395761966705 -0.987034678459167 -0.998182594776154 -1.1947603225708 -1.15569579601288 -1.31349110603333 -1.11228847503662 3.73564648628235 6.12122344970703 2.53731846809387 0.867343008518219 -0.424327313899994 -0.89812296628952 -0.824597179889679 0.683646440505981 5.31375455856323 9.64396095275879 2.77395558357239 0.871147930622101 0.610781133174896 0.749040842056274 0.903906106948853 0.838481783866882 0.806768178939819 0.691796123981476 0.598351120948792 0.440003365278244 0.21847853064537 0.0259336102753878 -0.100111834704876 -0.197617307305336 -0.255691945552826 -0.316115915775299 -0.363968402147293 -0.361937761306763 -0.367861986160278 0.00053126405691728 0.756176650524139 0.793020308017731 0.785028696060181 0.61249190568924 0.460530817508698 0.425348728895187 0.376917690038681 0.435684263706207 0.603159487247467 0.729399740695953 1.25816905498505 1.24811851978302 1.25047421455383 1.13644695281982 1.16801857948303 1.25559437274933 1.60576450824738 1.9932998418808 1.94171214103699 2.10977244377136 2.23703932762146 2.17553615570068 2.2671685218811 2.3842785358429 2.23815178871155 3.34873795509338 3.56005787849426 3.02660870552063 2.57303214073181 2.65570139884949 3.05703186988831 3.52073073387146 3.91105914115906 3.62031245231628 3.76326465606689 3.85492634773254 3.54867172241211 3.24774241447449 3.32154631614685 3.17365336418152 3.1121551990509 3.00150895118713 2.97681951522827 2.86483311653137 2.72127556800842 2.63300538063049 2.56354284286499 2.45366072654724 2.36237502098083 2.3028290271759 2.28454804420471 2.29659509658813 2.40584206581116 4.00415468215942 4.06623554229736 3.26813912391663 3.31907939910889 3.47442650794983 3.44977998733521 3.4188859462738 3.45934057235718 3.45373964309692 3.50937032699585 3.45390272140503 3.30054521560669 3.13066148757935 2.99232029914856 2.82972455024719 2.77378678321838 2.77434968948364 2.76059556007385 2.76358103752136 2.80050611495972 2.89654755592346 2.8725700378418 2.8665509223938 2.87271189689636 2.89484190940857 2.92890977859497 2.92445707321167 3.13455772399902 3.29319763183594 3.49844789505005 3.60842776298523 3.5932879447937 3.72167563438416 3.81480312347412 4.26364946365356 5.33451271057129 6.36692190170288
2.49592113494873 1.92557537555695 1.20732891559601 1.24868750572205 1.09285819530487 0.924164533615112 0.845707654953003 0.810510337352753 0.812229812145233 0.7953000664711 0.728360235691071 0.616497576236725 0.492427051067352 0.129285871982574 -0.346154510974884 -0.873470723628998 -1.2419126033783 -1.55297136306763 -1.80167019367218 -1.88675892353058 -2.0385410785675 -2.25569701194763 -0.540656208992004 -1.82535099983215 -1.98417365550995 -2.18800973892212 -2.07651829719543 -0.853977501392365 -1.78704333305359 -1.78458666801453 -1.65972304344177 -1.51171338558197 -1.55419361591339 -1.63191843032837 -1.71071374416351 -1.72579348087311 -1.75532329082489 -1.82373631000519 -1.80540132522583 -1.66941785812378 -1.09593164920807 -1.16899335384369 -0.892703711986542 -0.661484777927399 -0.457882434129715 -0.547235190868378 -0.703627526760101 -0.960800290107727 -0.990244626998901 -1.21186196804047 -1.41806507110596 -1.41073775291443 -1.38714158535004 -1.0031703710556 -0.188916802406311 -0.446948200464249 -0.823827505111694 -0.768697142601013 -0.705040752887726 -0.498642683029175 -0.215482667088509 3.79032325744629 1.07115948200226 0.651750087738037 0.783474683761597 0.952605724334717 0.884179472923279 0.848933756351471 0.728865206241608 0.744788646697998 0.798257112503052 0.64918327331543 0.165044963359833 0.0190461128950119 -0.109812892973423 -0.203505307435989 -0.295083612203598 -0.359464973211288 -0.361119270324707 -0.361683130264282 -0.342873722314835 -0.177731394767761 0.530794858932495 0.944888174533844 0.874899744987488 0.676567137241364 0.505672931671143 0.439672738313675 0.487362623214722 0.478653907775879 0.625215709209442 0.808064043521881 0.967390477657318 1.43438363075256 1.43428707122803 1.37149560451508 1.30839693546295 1.42941415309906 1.50057590007782 1.92419075965881 2.19626069068909 1.98275971412659 2.23625802993774 2.38177132606506 2.31120753288269 2.30102372169495 2.07070422172546 2.56456184387207 3.17501878738403 2.83863377571106 2.61709761619568 2.51465678215027 2.52404999732971 2.89790916442871 3.62097144126892 3.88477253913879 4.5753960609436 4.50431680679321 3.95830154418945 3.44591856002808 3.3602306842804 3.36771011352539 3.20751667022705 3.10968804359436 3.02266025543213 2.8982560634613 2.82920813560486 2.80049085617065 2.733393907547 2.66312098503113 2.57456493377686 2.50798463821411 2.42506074905396 2.40809917449951 2.58742809295654 2.94582986831665 3.71208095550537 3.55128073692322 3.78485774993896 3.75620007514954 3.68734645843506 3.70384907722473 3.55836772918701 3.62258720397949 3.56546807289124 3.40410184860229 3.24162435531616 3.09286093711853 3.00790953636169 2.94343233108521 2.90521287918091 2.93892025947571 2.96401953697205 2.97714066505432 3.03033256530762 3.07911252975464 3.05707144737244 3.06433057785034 3.09342956542969 3.12392950057983 3.11397123336792 3.27195858955383 3.46993970870972 3.74725556373596 3.8045289516449 3.78257632255554 3.87684774398804 4.0590386390686 4.49250221252441 5.63535213470459 6.71803379058838 7.02218961715698
2.60084557533264 1.29286754131317 1.27271127700806 1.19663727283478 0.983693301677704 0.904896438121796 0.872422873973846 0.882720053195953 0.87555992603302 0.80990594625473 0.742291152477264 0.747893214225769 0.579051971435547 0.32989090681076 -0.0717319250106812 -0.540975093841553 -0.952346444129944 -1.27330553531647 -1.55473065376282 -1.69021165370941 -1.89312255382538 -2.00119042396545 -1.75127482414246 -1.55744326114655 -1.66884756088257 -1.79249906539917 -1.83900463581085 -1.69653141498566 -1.48616874217987 -1.38732981681824 -1.30088210105896 -1.24622714519501 -1.46226811408997 -1.55730628967285 -1.58852863311768 -1.562091588974 -1.55829215049744 -1.55916571617126 -1.60637390613556 -1.45276916027069 -1.11464238166809 -0.782932221889496 -0.443653136491776 -0.222596272826195 -0.0560867302119732 -0.0762153640389442 -0.448453634977341 -0.552729487419128 -0.875115931034088 -1.16720962524414 -1.3143595457077 -1.26467299461365 -0.979559600353241 -0.980290114879608 -0.895832717418671 -0.825883746147156 -0.699617922306061 -0.553855121135712 -0.314066499471664 -0.10972137004137 0.105453237891197 1.21337056159973 0.607003748416901 0.794649362564087 0.985755622386932 0.922642469406128 0.889983117580414 0.822608232498169 0.962846338748932 1.06101584434509 1.07405781745911 0.88902074098587 0.378381997346878 -0.00651835603639483 -0.10377861559391 -0.227565363049507 -0.317853778600693 -0.337305039167404 -0.35721030831337 -0.363124221563339 -0.357685685157776 -0.357325404882431 0.165164709091187 0.992775142192841 0.906511962413788 0.816497564315796 0.614407479763031 0.552227020263672 0.55899441242218 0.741709411144257 0.766476511955261 0.776266396045685 0.985347807407379 1.14113807678223 1.4439982175827 1.38295936584473 1.4958827495575 1.53093910217285 1.62619781494141 1.6450582742691 2.06666707992554 2.18930649757385 2.07441329956055 2.42279958724976 2.47520232200623 2.1249361038208 2.13229131698608 2.2252631187439 2.70330476760864 2.79393219947815 2.87044024467468 2.53405523300171 2.66629409790039 2.70079874992371 3.23980331420898 3.31898188591003 3.78521656990051 4.36426782608032 4.43749618530273 3.9078574180603 3.56837368011475 3.52752661705017 3.35013675689697 3.12656903266907 3.02313256263733 3.0076789855957 2.98722958564758 2.95300841331482 2.92373466491699 2.82970023155212 2.75308012962341 2.61227631568909 2.60304021835327 2.72753715515137 2.96908688545227 3.22148966789246 3.57013154029846 3.97547507286072 4.06214761734009 4.01943969726562 4.01750230789185 3.82858371734619 3.72425007820129 3.67651343345642 3.51801538467407 3.33973956108093 3.22291564941406 3.18940305709839 3.15563702583313 3.1170346736908 3.09084343910217 3.08132481575012 3.12553143501282 3.16448211669922 3.23294854164124 3.26103949546814 3.26657485961914 3.30668807029724 3.35605216026306 3.31663012504578 3.49739098548889 3.70768785476685 3.90157413482666 4.03482532501221 4.05649518966675 4.09257507324219 4.27357339859009 4.7641134262085 5.91923236846924 7.05300235748291 7.39637231826782 7.31091737747192
1.2518162727356 1.32125043869019 1.21249723434448 1.08624720573425 0.961863875389099 0.920131921768188 0.938210844993591 0.939543485641479 0.887405693531036 0.823215484619141 0.834555327892303 0.759928166866302 0.673950552940369 0.498760521411896 0.185990408062935 -0.285624921321869 -0.695623159408569 -0.996282398700714 -1.30961108207703 -1.51865530014038 -1.78964614868164 -1.72479605674744 -1.46913731098175 -1.34965407848358 -1.32745671272278 -1.33031928539276 -1.38177156448364 -1.35874843597412 -1.13279676437378 -1.00853478908539 -0.93009090423584 -0.934229075908661 -1.21775352954865 -1.42512583732605 -1.44375824928284 -1.37760925292969 -1.31643629074097 -1.28321099281311 -1.24273538589478 -1.07669699192047 -0.633077442646027 -0.420789808034897 -0.109755143523216 0.161317303776741 0.32824781537056 0.356385707855225 0.267167747020721 -0.127376541495323 -0.425342798233032 -0.550223052501678 -0.728679597377777 -0.642843008041382 -0.802651405334473 -0.81852513551712 -0.790778934955597 -0.69347470998764 -0.531540095806122 -0.268348693847656 0.0055388119071722 0.147870138287544 0.274929970502853 0.637388944625854 0.822729110717773 0.864911556243896 1.01706063747406 0.922146677970886 1.06978344917297 1.12875616550446 1.20999610424042 1.15325713157654 1.35451924800873 1.18709897994995 0.634453058242798 -0.0163408387452364 -0.144977524876595 -0.21487620472908 -0.279265344142914 -0.318000167608261 -0.345171451568604 -0.357022613286972 -0.356538742780685 -0.35481584072113 -0.264577269554138 0.750942170619965 1.19998860359192 0.822108507156372 0.856850504875183 0.812837421894073 0.841613054275513 0.951963305473328 0.978242158889771 0.967400252819061 0.909957528114319 1.13165152072906 1.33944642543793 1.50666975975037 1.5652664899826 1.69615399837494 1.6730250120163 1.77614414691925 1.91943264007568 1.97833621501923 2.12190246582031 2.11011481285095 2.30735492706299 2.0402295589447 2.13477039337158 2.2819721698761 2.47362112998962 2.56718373298645 2.54285216331482 2.67612528800964 2.667151927948 2.55405402183533 2.9437780380249 3.21724319458008 3.29916906356812 3.49300622940063 3.74862623214722 3.87315726280212 3.86837863922119 3.57609057426453 3.35703587532043 3.09302377700806 3.15613675117493 3.12849307060242 3.16043281555176 3.1534435749054 3.07218647003174 2.97575354576111 2.92960119247437 2.89397025108337 2.9235680103302 3.13179731369019 3.35238146781921 3.62833523750305 4.05347919464111 4.26546287536621 4.3083438873291 4.32790851593018 4.12872505187988 3.97284173965454 3.78303742408752 3.63080501556396 3.54069876670837 3.50079655647278 3.49785900115967 3.40996742248535 3.39350628852844 3.34180855751038 3.32119607925415 3.32349634170532 3.38193130493164 3.49241209030151 3.46304607391357 3.40542364120483 3.44545936584473 3.47475576400757 3.55262589454651 3.73793935775757 3.9780900478363 4.17182493209839 4.27722644805908 4.25717306137085 4.37550020217896 4.52671909332275 5.07146835327148 6.29766511917114 7.44842195510864 7.80566024780273 7.70833206176758 7.71356725692749
1.35291969776154 1.2712676525116 1.1175708770752 1.08201909065247 0.974288046360016 0.992683887481689 0.990180611610413 0.939105868339539 0.88741809129715 0.912713408470154 0.831678032875061 0.80507093667984 0.761811316013336 0.620096564292908 0.400894343852997 -0.00365852401591837 -0.423166394233704 -0.736982703208923 -0.988084316253662 -1.2499281167984 -1.53017091751099 -1.37007439136505 -1.23296105861664 -1.12793874740601 -1.04266858100891 -0.960842847824097 -0.911432206630707 -0.886131644248962 -0.78455251455307 -0.687372863292694 -0.630690038204193 -0.619856715202332 -0.792447090148926 -1.09160816669464 -1.25957906246185 -1.23797571659088 -1.07001137733459 -0.820083141326904 -0.634042620658875 -0.39074832201004 -0.220869854092598 0.139271408319473 0.403335571289062 0.547809183597565 0.848027884960175 0.711086511611938 0.699615299701691 0.346435368061066 0.133177623152733 -0.0645552426576614 -0.120160385966301 -0.356101661920547 -0.289986103773117 -0.515746414661407 -0.599147796630859 -0.47990682721138 -0.217888608574867 0.0697724595665932 0.192772448062897 0.344588905572891 0.683065414428711 0.863193511962891 0.913860440254211 1.05772542953491 1.28170692920685 1.35672032833099 1.1501190662384 1.48998522758484 1.27724659442902 1.33505666255951 1.46403813362122 1.41119134426117 0.992891073226929 -0.000301854568533599 -0.159836992621422 -0.194789469242096 -0.223897308111191 -0.288931846618652 -0.318192064762115 -0.345717549324036 -0.348231852054596 -0.354256182909012 -0.356664210557938 0.20615853369236 0.820756435394287 1.11828470230103 1.14715480804443 1.17909967899323 1.23073494434357 1.11409890651703 1.12826859951019 1.0359799861908 1.0812281370163 1.14281225204468 1.54324913024902 1.56805300712585 1.70705378055573 1.70471334457397 1.85414302349091 1.9875453710556 1.95866513252258 1.82502734661102 1.93488121032715 2.08787989616394 2.04394459724426 1.98352766036987 2.09378361701965 2.09214377403259 2.44605588912964 2.43464970588684 2.15868711471558 2.58901786804199 2.60023832321167 2.4169614315033 2.58237624168396 3.00839829444885 3.53122925758362 3.85363793373108 3.85280609130859 4.00958061218262 4.05124235153198 3.77973222732544 3.31276845932007 3.3758978843689 3.32045650482178 3.34260153770447 3.24697041511536 3.23071670532227 3.16157126426697 3.31846261024475 3.33470177650452 3.26547789573669 3.3533239364624 3.50380563735962 3.78989887237549 4.16776657104492 4.38115787506104 4.49881410598755 4.61020040512085 4.4192476272583 4.2536187171936 4.02401256561279 3.90085124969482 3.89217901229858 3.83593559265137 3.90666103363037 3.74471116065979 3.7241678237915 3.64969444274902 3.61430025100708 3.62242603302002 3.70660734176636 3.80664920806885 3.75627613067627 3.61319637298584 3.66170167922974 3.69770431518555 3.75215578079224 3.75491547584534 4.09112930297852 4.47097969055176 4.58047723770142 4.55292129516602 4.61243867874146 4.83236169815063 5.42470026016235 6.74194622039795 7.88302612304688 8.23911285400391 8.14053821563721 8.14007759094238 8.00904655456543
1.46543228626251 1.24500787258148 1.14211344718933 1.08064472675323 1.05353581905365 1.04854512214661 0.988871216773987 0.932973563671112 0.971912026405334 0.899059534072876 0.873339891433716 0.836411416530609 0.785703718662262 0.691733479499817 0.502311110496521 0.233820721507072 -0.15483720600605 -0.519903421401978 -0.745694518089294 -0.966252446174622 -1.11502480506897 -1.10050964355469 -0.995634734630585 -0.911264538764954 -0.822539091110229 -0.737836182117462 -0.605172693729401 -0.553652226924896 -0.511180877685547 -0.424616396427155 -0.354218572378159 -0.270892739295959 -0.324725121259689 -0.544041812419891 -0.805851638317108 -0.754189670085907 -0.645123839378357 -0.450465708971024 -0.147267267107964 0.0575743578374386 0.410921573638916 0.73834216594696 0.805751919746399 1.11761736869812 1.09702479839325 1.23666441440582 0.983574271202087 0.839331269264221 0.485499113798141 0.411161243915558 0.253447234630585 0.103729046881199 0.024207666516304 -0.143736630678177 -0.313907504081726 -0.0133026540279388 0.201926663517952 0.263760477304459 0.484443992376328 0.776760876178741 0.911845505237579 0.933028221130371 1.07194375991821 1.05977988243103 0.950015902519226 0.71161687374115 0.597639739513397 0.847980380058289 0.948451519012451 1.09010922908783 1.59842920303345 1.97001004219055 1.67615234851837 0.443992614746094 -0.105029441416264 -0.163160845637321 -0.179832831025124 -0.206999927759171 -0.289785712957382 -0.318715631961823 -0.336426794528961 -0.355434119701385 -0.36013662815094 -0.239791870117188 -0.025143276900053 0.557355642318726 1.24498069286346 1.545574426651 1.61831176280975 1.42895841598511 1.07365870475769 1.11906361579895 1.36302435398102 1.42358160018921 1.48975563049316 1.7672666311264 1.73206877708435 1.87615787982941 2.09206914901733 2.08210015296936 1.89271771907806 1.85985696315765 1.93622207641602 2.06900143623352 1.98498392105103 1.92824220657349 2.06272149085999 1.83461475372314 1.90890753269196 2.20857739448547 1.94745290279388 2.66481947898865 2.65612554550171 2.39820218086243 2.57449078559875 2.84891486167908 3.45549249649048 3.97400951385498 4.43653631210327 4.40034151077271 4.07018518447876 3.79908919334412 3.59863781929016 3.45259881019592 3.53586220741272 3.50578427314758 3.39555740356445 3.32385301589966 3.3303005695343 3.47211980819702 3.61858820915222 3.78719520568848 3.85254502296448 4.01404428482056 4.31262731552124 4.54142808914185 4.61724948883057 4.76619148254395 4.64875173568726 4.56306838989258 4.42367553710938 4.40988731384277 4.28510665893555 4.31713485717773 4.40745735168457 4.18022346496582 4.10578966140747 4.03419828414917 3.97949147224426 4.00610876083374 4.0890097618103 4.16871881484985 4.13209533691406 3.96622228622437 3.9097306728363 3.95032477378845 4.05656051635742 3.97382068634033 4.17429637908936 4.43575382232666 4.6349663734436 4.82536506652832 4.92525005340576 5.08027839660645 5.55718469619751 6.4389214515686 8.40366268157959 8.79967498779297 8.67409038543701 8.60955142974854 8.48859214782715 8.26448154449463
1.42284417152405 1.24849092960358 1.18305230140686 1.13634037971497 1.10205328464508 1.04612410068512 0.984285771846771 1.02342224121094 0.954816401004791 0.932976543903351 0.891741394996643 0.837211191654205 0.785857141017914 0.695949614048004 0.554778516292572 0.36899921298027 0.0885436981916428 -0.292806178331375 -0.522940993309021 -0.710105299949646 -0.790918290615082 -0.769342720508575 -0.767045080661774 -0.651971936225891 -0.600099384784698 -0.551472663879395 -0.463189035654068 -0.398232132196426 0.146123051643372 0.0868793129920959 0.9115070104599 0.376750111579895 0.0439374856650829 0.0293394364416599 -0.147461086511612 -0.218236893415451 -0.148912101984024 0.127278596162796 0.40105414390564 0.859353721141815 1.00878071784973 1.16282188892365 1.40471303462982 1.29765558242798 1.55732369422913 1.39239406585693 1.28258562088013 1.14085948467255 0.920781493186951 0.584922432899475 0.42756199836731 0.257879376411438 0.191109374165535 0.254326850175858 0.261901170015335 0.32748156785965 0.456403374671936 0.686265110969543 0.845075964927673 0.964959919452667 0.971818566322327 1.08578097820282 0.948448121547699 0.878328561782837 0.719093143939972 0.599884152412415 0.461406618356705 0.507633626461029 0.608573853969574 0.724383413791656 0.883721470832825 1.69704675674438 2.94849848747253 1.4135468006134 0.237934082746506 -0.0939694195985794 -0.129846766591072 -0.144668594002724 -0.197129458189011 -0.290093779563904 -0.317120105028152 -0.349635571241379 -0.370903640985489 -0.381218314170837 -0.406937390565872 -0.441252797842026 0.152762204408646 1.10056638717651 1.57408690452576 1.48446381092072 1.32188355922699 1.15412127971649 1.30304002761841 1.58968698978424 1.58797860145569 1.70535409450531 1.92886102199554 2.12528824806213 2.14006900787354 1.99345266819 1.97986090183258 2.01433157920837 2.06685161590576 2.00978446006775 1.94323337078094 1.86980819702148 1.91128098964691 1.85720860958099 1.85397613048553 1.71231341362 1.65388262271881 2.21939921379089 2.30710411071777 2.33003640174866 2.27832674980164 2.51161670684814 3.26628088951111 3.75108361244202 4.65072202682495 4.41904163360596 4.28822994232178 4.29611587524414 4.21769618988037 4.13824224472046 3.47223329544067 3.83566570281982 3.70335650444031 3.92339420318604 3.96433401107788 3.70554900169373 3.97163581848145 4.22361612319946 4.48160743713379 4.62896919250488 4.70389938354492 4.73618793487549 4.88504648208618 4.73485040664673 4.73721599578857 4.70576095581055 4.89547443389893 4.83948183059692 4.98429155349731 5.04743480682373 4.73976135253906 4.58642435073853 4.50167751312256 4.4893798828125 4.46896696090698 4.57122325897217 4.60551500320435 4.5628080368042 4.37898254394531 4.35498094558716 4.305739402771 4.3675742149353 4.31701564788818 4.50270986557007 4.78898191452026 4.97879600524902 5.11589574813843 5.09810876846313 5.12424659729004 5.41600275039673 6.006667137146 7.46275186538696 8.73486709594727 9.14329814910889 9.17809295654297 9.02616214752197 8.78749847412109 8.63483238220215
1.31300318241119 1.24613118171692 1.27548503875732 1.18896853923798 1.10907876491547 1.04100179672241 1.08178782463074 1.01019310951233 0.985601961612701 0.945132255554199 0.886556327342987 0.83280074596405 0.755820989608765 0.677613437175751 0.601547539234161 0.476373314857483 0.211557924747467 -0.10822719335556 -0.383535474538803 -0.517027676105499 -0.367412835359573 -0.369274914264679 -0.400176823139191 -0.395881712436676 -0.386887401342392 -0.376172482967377 -0.348030209541321 0.954617261886597 0.523266017436981 1.55172288417816 1.27244186401367 1.19687485694885 0.901190996170044 0.578843653202057 0.379842102527618 0.450504988431931 0.683139145374298 0.904726266860962 1.17774605751038 1.44474315643311 1.50222516059875 1.83022391796112 1.69263577461243 1.85837161540985 1.68225955963135 1.60936343669891 1.47821164131165 1.19536530971527 1.09142625331879 0.861757159233093 0.457490593194962 0.387734651565552 0.422207206487656 0.535975456237793 0.587902784347534 0.703250110149384 0.841719567775726 0.93991893529892 1.02301609516144 1.03415191173553 1.11234331130981 0.964931070804596 0.904771327972412 0.736499011516571 0.611419141292572 0.465977489948273 0.295712828636169 0.174045100808144 0.109314687550068 0.379056185483932 0.465908288955688 0.791851758956909 1.51923286914825 2.75319790840149 1.09975051879883 0.14847831428051 -0.0654327571392059 -0.10222602635622 -0.139724880456924 -0.216357454657555 -0.298169761896133 -0.335206180810928 -0.364238321781158 -0.387074619531631 -0.434296697378159 -0.487500965595245 -0.532540738582611 -0.321353405714035 1.10470879077911 1.34779036045074 1.43656527996063 1.40490210056305 1.60083246231079 1.63604485988617 1.80894196033478 1.76646780967712 2.05231428146362 2.20651769638062 2.02444887161255 2.05106401443481 2.15048265457153 2.23565983772278 2.08657503128052 1.96639168262482 1.87347149848938 1.81986749172211 1.82307159900665 2.03536248207092 1.7290164232254 1.67532217502594 1.60345900058746 1.58766722679138 1.82492172718048 2.07259011268616 2.11489677429199 2.42739343643188 2.66464114189148 3.15355372428894 4.19774675369263 3.6821460723877 3.9521586894989 4.59665489196777 5.08688163757324 4.27233266830444 3.54651498794556 5.05999898910522 5.57055473327637 6.08431196212769 4.27410507202148 4.71568918228149 4.96021223068237 4.49954843521118 5.1302490234375 5.12184762954712 4.95198249816895 5.04785442352295 4.83011245727539 4.78714942932129 4.81501865386963 5.04151153564453 5.20811176300049 5.22819757461548 5.74201488494873 5.48391103744507 5.2448787689209 5.11725950241089 5.17368459701538 5.06572723388672 5.17183256149292 5.14493656158447 5.09436798095703 4.88702440261841 4.82939052581787 4.76240110397339 4.80760431289673 4.73209524154663 4.88810157775879 5.20209217071533 5.37873935699463 5.5310435295105 5.5024037361145 5.55045080184937 5.83328723907471 6.48441696166992 8.06155204772949 9.43158435821533 9.79113006591797 9.66092014312744 9.51843738555908 9.37008476257324 9.2107458114624 8.99144077301025
1.30781948566437 1.28100740909576 1.33788979053497 1.21120309829712 1.10663831233978 1.14658010005951 1.07146763801575 1.03655731678009 0.990578830242157 0.935441672801971 0.875178933143616 0.792926430702209 0.725013434886932 0.714424014091492 0.794329941272736 0.882940351963043 0.690505802631378 0.444340467453003 0.0426922217011452 -0.00621840683743358 0.0997809767723083 0.0500408783555031 -0.070485532283783 -0.135535433888435 -0.226905271410942 -0.273823618888855 3.55745983123779 1.94214642047882 2.33414936065674 1.82824122905731 1.69352412223816 1.60148239135742 1.35615074634552 1.03804397583008 0.835785031318665 1.07737934589386 1.29283499717712 1.53257596492767 1.69022452831268 1.80200099945068 2.10523343086243 1.95197510719299 2.18022441864014 2.01008987426758 1.93188691139221 1.81220138072968 1.56089007854462 1.3593887090683 1.15485775470734 1.04979169368744 1.08035600185394 1.12661528587341 1.07514131069183 1.01527035236359 0.936901271343231 0.929238080978394 1.1403477191925 1.20537614822388 1.05695378780365 1.21761238574982 1.02318120002747 0.949987649917603 0.76520049571991 0.637956559658051 0.48427477478981 0.308131366968155 0.177231773734093 0.103408046066761 0.000968716340139508 -0.0660474002361298 -0.0736885666847229 0.286889851093292 0.384146451950073 1.29180550575256 2.08177375793457 0.694709599018097 0.183669418096542 -0.0557538829743862 -0.112410359084606 -0.154908180236816 -0.243593499064445 -0.302847504615784 -0.339683294296265 -0.392180621623993 -0.44528004527092 -0.503520667552948 -0.568039000034332 -0.615553557872772 -0.368672847747803 0.835010647773743 1.36681830883026 1.86309945583344 1.82142865657806 1.92168855667114 1.92651927471161 2.07048225402832 2.30471730232239 2.22244119644165 2.11903882026672 2.23108625411987 2.3866138458252 2.25614833831787 2.14678168296814 2.00533080101013 1.8515293598175 1.83111190795898 2.42153644561768 1.75897121429443 1.73285377025604 1.67780256271362 1.5884975194931 1.56009447574615 1.71434092521667 2.13167285919189 2.45368957519531 2.67036080360413 2.83818769454956 2.70877003669739 3.46636772155762 2.79225540161133 2.91779160499573 3.65203595161438 4.71083498001099 4.27518558502197 3.29816293716431 3.53322100639343 3.25736546516418 5.23002529144287 6.17060899734497 4.03255462646484 4.61956310272217 5.03036069869995 5.25020790100098 5.36857652664185 5.27808284759521 4.99323177337646 4.92634057998657 5.29020500183105 5.45000267028809 5.42662477493286 5.59393501281738 6.14061069488525 6.20874214172363 6.03245067596436 6.0018482208252 5.98646020889282 5.77246570587158 5.91697645187378 5.81421613693237 5.75465536117554 5.49197006225586 5.37780380249023 5.31685972213745 5.32032489776611 5.22719669342041 5.36078119277954 5.69978427886963 5.84209537506104 6.00803661346436 5.98619985580444 6.03293657302856 6.34323930740356 7.05761575698853 8.76593017578125 10.2456254959106 10.5630626678467 10.4243450164795 10.2151460647583 10.0425271987915 9.71939277648926 9.59560775756836 9.4447774887085
1.33615624904633 1.42996728420258 1.36100471019745 1.25147938728333 1.21447896957397 1.13255214691162 1.09008622169495 1.04053676128387 0.979704856872559 0.91549289226532 0.82958322763443 0.761398553848267 0.819968163967133 0.913590550422668 1.07127261161804 1.01414263248444 1.06036782264709 0.829714834690094 0.554307341575623 0.490324437618256 0.427174627780914 0.357283890247345 0.323500841856003 0.0912747010588646 -0.258513987064362 -0.377292186021805 -0.135066390037537 4.04690742492676 3.14327812194824 2.17554259300232 2.10924673080444 1.64436757564545 1.4347311258316 0.923795342445374 1.48702669143677 1.91617667675018 1.94318675994873 2.11490416526794 2.1958909034729 2.48264670372009 2.27252459526062 2.44257640838623 2.25346899032593 2.22691345214844 2.07489395141602 1.83263897895813 1.69346380233765 1.38638651371002 1.17322421073914 1.33607077598572 1.43872857093811 1.38329744338989 1.24689173698425 1.13510155677795 0.967308044433594 0.962201714515686 1.03151154518127 1.06119883060455 1.26605606079102 1.13318300247192 1.02359366416931 0.817311108112335 0.681065499782562 0.518888056278229 0.336837232112885 0.201103717088699 0.117155715823174 0.0566604360938072 0.0176029708236456 -0.0723122209310532 -0.0629186555743217 -0.0479402914643288 -0.0310389418154955 0.355570465326309 0.770228505134583 1.61350524425507 1.03554785251617 0.355626791715622 0.0282600056380033 -0.13353542983532 -0.180400371551514 -0.281876891851425 -0.322734355926514 -0.380554765462875 -0.448674470186234 -0.51028048992157 -0.570013165473938 -0.587512195110321 -0.55304354429245 -0.384851545095444 2.29082536697388 2.25869131088257 2.25531578063965 2.1500301361084 2.3365843296051 2.65209007263184 2.47847318649292 2.13772201538086 2.32071542739868 2.55243945121765 2.41433310508728 2.33134627342224 2.21562314033508 2.04806900024414 1.96664428710938 1.7134176492691 1.82503426074982 1.79027676582336 1.76832401752472 1.71785449981689 1.67483460903168 1.74857425689697 2.1578311920166 2.50686621665955 2.72647023200989 2.88711142539978 2.72228598594666 2.78024840354919 2.74365711212158 2.97115683555603 3.26183295249939 3.79893064498901 4.08656167984009 3.60052347183228 2.98880672454834 3.30858469009399 3.95979166030884 3.36980009078979 4.98067998886108 5.14086008071899 5.21461534500122 5.4675145149231 5.59139108657837 5.47212600708008 5.04039239883423 4.92747068405151 5.59236001968384 6.35343217849731 6.35145235061646 6.1403980255127 7.2537727355957 7.44671440124512 6.92393684387207 6.59728002548218 6.55841398239136 6.64791774749756 6.85967302322388 6.62169408798218 6.53562259674072 6.18775463104248 5.85529947280884 5.83866405487061 5.80498600006104 5.74598217010498 5.880539894104 6.27989721298218 6.3940167427063 6.57553768157959 6.55051946640015 6.60340881347656 6.95074510574341 7.71659660339355 9.57568073272705 11.1825180053711 11.4469394683838 11.3121480941772 11.0164918899536 10.8251075744629 10.5695362091064 10.4208583831787 10.1949710845947 9.79015064239502
1.46868407726288 1.50330293178558 1.35351300239563 1.29536128044128 1.20163571834564 1.1538108587265 1.09643650054932 1.03080224990845 0.958617389202118 0.868074834346771 0.815564572811127 0.921253263950348 1.02735900878906 1.21392416954041 1.17813181877136 1.27477037906647 1.14828646183014 1.0534782409668 0.951115310192108 0.851634740829468 0.774860143661499 0.625773787498474 0.537749469280243 0.31860014796257 -0.0638827160000801 -0.260862857103348 -0.290656536817551 -0.0543414615094662 2.63248157501221 2.95615744590759 2.0330376625061 1.10942077636719 1.32451117038727 2.86346435546875 2.90043592453003 2.41891384124756 2.3058648109436 2.42505073547363 2.76042366027832 2.55836820602417 2.75080060958862 2.4867787361145 2.42924642562866 2.28078818321228 2.03697609901428 1.89801204204559 1.60332357883453 1.32201635837555 1.42484498023987 1.476398229599 1.52650737762451 1.34961450099945 1.22208023071289 1.13017952442169 1.03528738021851 1.09136152267456 1.1207879781723 1.33591020107269 1.22823059558868 1.12155199050903 0.884021878242493 0.740064084529877 0.571621835231781 0.379396259784698 0.243193224072456 0.165564969182014 0.0928430929780006 0.0514902547001839 -0.0178542975336313 -0.0127435931935906 -0.00705071492120624 0.124653667211533 0.548373341560364 0.624326467514038 0.235947519540787 1.05304956436157 1.39306676387787 1.39855003356934 0.26178577542305 -0.0420624874532223 -0.164902672171593 -0.233721122145653 -0.334401190280914 -0.382969528436661 -0.451625734567642 -0.499886780977249 -0.513023138046265 -0.50606632232666 -0.504739344120026 -0.552964866161346 0.634071528911591 2.86230802536011 2.72965407371521 2.67062187194824 3.14351892471313 2.76446008682251 2.40228414535522 2.28470396995544 2.34270596504211 2.56648015975952 2.47149085998535 2.40646600723267 2.25974726676941 2.19322371482849 2.07430791854858 1.95826184749603 1.9147857427597 1.8418333530426 1.85675370693207 1.88459134101868 1.84305560588837 2.24999451637268 2.58625340461731 2.82099390029907 2.96706819534302 2.77974677085876 2.81389808654785 2.72229814529419 3.3197615146637 3.51917171478271 2.99022102355957 3.58848071098328 4.84783172607422 3.51080298423767 2.68768525123596 2.46612215042114 3.14841103553772 5.12415885925293 4.42011260986328 5.69693422317505 5.9410834312439 6.01699590682983 5.55900526046753 5.4050030708313 4.97754240036011 4.4245867729187 5.3534369468689 6.64867067337036 5.71705007553101 8.26259994506836 7.94759893417358 7.42824172973633 7.42083644866943 7.23618698120117 7.39157438278198 7.23160743713379 7.45647096633911 7.49830913543701 7.10665559768677 6.59915971755981 6.2894024848938 6.1469521522522 6.10037040710449 6.29504919052124 6.86752653121948 7.04104137420654 7.24592208862305 7.22817134857178 7.2846212387085 7.68173456192017 8.59411907196045 10.5602245330811 12.3243932723999 12.5159168243408 12.3449516296387 11.9361028671265 11.731273651123 11.6340141296387 11.3807849884033 11.0516862869263 10.6345167160034 9.80231094360352
1.63706469535828 1.51407694816589 1.3375678062439 1.35186839103699 1.25578761100769 1.16524350643158 1.089106798172 1.0095374584198 0.947718262672424 0.93944525718689 1.04305946826935 1.1552392244339 1.36949849128723 1.34640538692474 1.45124328136444 1.32111597061157 1.25625264644623 1.22917509078979 1.18081438541412 1.13152396678925 1.03439927101135 0.937013268470764 0.75657445192337 0.542539238929749 0.370648115873337 0.136702850461006 0.0696009173989296 0.0656949132680893 0.193417206406593 2.01143717765808 1.28426539897919 2.87968015670776 4.54554080963135 3.84570169448853 3.24203705787659 2.8421266078949 2.59614777565002 2.96380352973938 2.76360392570496 2.98048377037048 2.68567681312561 2.61569166183472 2.45195484161377 2.1915819644928 2.044588804245 1.74416124820709 1.46988987922668 1.59121370315552 1.59957039356232 1.67165040969849 1.56309258937836 1.33372533321381 1.19821274280548 1.21814680099487 1.22261357307434 1.21636068820953 1.42845177650452 1.28552412986755 1.25881290435791 0.998009443283081 0.838032722473145 0.668302655220032 0.4796402156353 0.331156581640244 0.241420239210129 0.169619426131248 0.11309939622879 0.0482550039887428 0.0232458598911762 0.0113970888778567 -0.0156960655003786 -0.031828735023737 0.303976774215698 0.404275566339493 0.0855044722557068 0.764308393001556 0.501529395580292 1.25305199623108 1.33295214176178 0.240595996379852 -0.0127143859863281 -0.152349412441254 -0.277290761470795 -0.417138636112213 -0.453157693147659 -0.448249995708466 -0.431045830249786 -0.42361968755722 -0.474780231714249 -0.48155415058136 -0.475082248449326 0.707337319850922 3.27698731422424 4.54288673400879 3.21356987953186 2.56525588035583 2.39916658401489 2.4935302734375 2.78379464149475 2.53245973587036 2.45895838737488 2.39561223983765 2.32910752296448 2.22560429573059 2.19397306442261 2.12936663627625 1.99256038665771 1.90066313743591 1.93655502796173 1.96059036254883 2.34060764312744 2.69385886192322 2.93356728553772 3.08959126472473 2.87856554985046 2.9015154838562 2.7446722984314 2.58589029312134 2.41085433959961 2.82358264923096 3.29049491882324 3.89147400856018 5.10760974884033 3.20150303840637 2.47102999687195 2.66740250587463 2.76136040687561 4.76806879043579 6.16332387924194 6.34167766571045 7.18945980072021 6.21912145614624 5.77574157714844 5.13389682769775 4.82190036773682 3.94877457618713 5.31364917755127 5.82031869888306 6.73379564285278 9.09394359588623 7.86975431442261 7.61523199081421 8.58699226379395 8.42559146881104 8.16072559356689 8.03848361968994 7.86526155471802 7.6303882598877 7.15570402145386 6.89296579360962 6.54416370391846 6.43778371810913 6.59705495834351 7.30439424514771 7.7022852897644 7.96363878250122 8.00906944274902 8.10910987854004 8.65789794921875 9.6570930480957 11.7391319274902 13.7042303085327 13.9300203323364 13.6113300323486 13.0716829299927 12.8193655014038 12.9348936080933 12.4970979690552 12.1638879776001 11.6031446456909 10.6334714889526 9.78413391113281
3.79762268066406 2.63626956939697 1.46694183349609 1.35311496257782 1.28254151344299 1.1704341173172 1.06876802444458 1.08305537700653 1.1359144449234 1.24263942241669 1.33574390411377 1.56840205192566 1.5315580368042 1.6415308713913 1.49705278873444 1.44195759296417 1.42682468891144 1.40542566776276 1.36411345005035 1.31356966495514 1.2783830165863 1.13540625572205 0.962891757488251 0.803329169750214 0.691240251064301 0.623207747936249 0.507668614387512 0.289073526859283 0.2964868247509 0.490996569395065 1.3961945772171 5.6955189704895 5.59428310394287 4.74385643005371 3.76923894882202 2.77703285217285 3.17227292060852 2.95577573776245 3.20173573493958 2.8708610534668 2.79164123535156 2.61570286750793 2.34266519546509 2.17655205726624 1.85865497589111 1.66063416004181 1.76723885536194 1.76983106136322 1.83040201663971 1.72183203697205 1.50760686397552 1.42074346542358 1.29815816879272 1.27618038654327 1.37600088119507 1.57296311855316 1.42296612262726 1.38072431087494 1.15825057029724 0.996157824993134 0.788101553916931 0.548020482063293 0.395501345396042 0.268239140510559 0.214367598295212 0.182564377784729 0.177705302834511 0.0903687253594398 0.0297466404736042 -0.00467274757102132 -0.00664075603708625 -0.0457575470209122 0.0747922733426094 -0.0501153543591499 0.0151651734486222 0.450386703014374 0.279783964157104 0.703338921070099 1.39377152919769 0.852847635746002 0.122384771704674 -0.0850517600774765 -0.232730388641357 -0.384519517421722 -0.424144595861435 -0.381374806165695 -0.334178388118744 -0.371007919311523 -0.363253712654114 -0.426344245672226 -0.422845721244812 -0.450312674045563 1.03333175182343 4.02108144760132 2.97759175300598 2.47707748413086 2.57948422431946 3.01679468154907 2.70828986167908 2.6618869304657 2.57996296882629 2.44313764572144 2.38763403892517 2.21731972694397 2.29715180397034 2.2797589302063 2.12981224060059 1.95523059368134 1.97939825057983 2.18218588829041 2.77758622169495 3.04275751113892 3.21491384506226 3.01728010177612 3.02371883392334 2.82263708114624 2.62448835372925 2.41813611984253 2.32943844795227 2.2013726234436 3.2771315574646 3.98953413963318 5.19151496887207 2.84266471862793 2.0464026927948 2.07387018203735 2.17575335502625 2.2827889919281 5.6146993637085 6.40644645690918 7.58090496063232 6.22690916061401 5.50851345062256 5.0987286567688 4.24142980575562 4.29866123199463 6.09824657440186 4.05185747146606 6.02757406234741 7.76632070541382 8.1226863861084 7.51006984710693 8.78073978424072 9.60949325561523 9.03971099853516 8.70732688903809 8.1745138168335 7.76015901565552 7.07393836975098 6.95322370529175 6.68595361709595 6.8636646270752 7.69677639007568 8.15694236755371 8.55508327484131 8.73679256439209 8.99044036865234 9.89172458648682 11.0952978134155 13.2440967559814 15.4344100952148 15.6603679656982 15.0914545059204 14.5400867462158 14.1112470626831 14.6058931350708 13.903130531311 13.4811067581177 12.777904510498 11.5991249084473 10.6822462081909 9.63978385925293
1.43633031845093 1.59188520908356 2.03369355201721 1.57505214214325 1.31424510478973 1.29828369617462 1.36676681041718 1.54299211502075 1.65643680095673 1.60396933555603 1.81810688972473 1.76229631900787 1.84957039356232 1.67762875556946 1.64123725891113 1.62008821964264 1.64580082893372 1.57783234119415 1.52075278759003 1.49422907829285 1.41554737091064 1.29717862606049 1.1889476776123 1.04508662223816 0.998192071914673 0.935115158557892 0.731666028499603 0.53965824842453 0.531889796257019 0.631839632987976 0.829541146755219 4.9024829864502 7.09071636199951 5.3265438079834 3.4533703327179 2.90140748023987 3.31360816955566 3.4356095790863 3.0746169090271 2.97691440582275 2.77936744689941 2.50498723983765 2.31937122344971 1.99307179450989 1.88902354240417 1.93733251094818 1.95290279388428 2.0057909488678 2.60357356071472 3.11252784729004 2.91289091110229 2.62482810020447 2.39835643768311 1.74670886993408 1.45640873908997 1.61720824241638 1.51724684238434 1.2578010559082 1.07257401943207 0.835633635520935 0.584533989429474 0.410731285810471 0.281903982162476 0.233903437852859 0.247291192412376 0.232744917273521 0.216709122061729 0.142933040857315 0.14884053170681 0.0148907490074635 -0.00499795703217387 -0.0404589660465717 0.217054128646851 -0.0702629163861275 0.311520516872406 0.442394077777863 0.106945738196373 0.306053459644318 0.921847105026245 1.4302134513855 0.64861673116684 0.0834277123212814 -0.18417677283287 -0.283000081777573 -0.322698712348938 -0.312612295150757 -0.266270130872726 -0.236033663153648 -0.276251494884491 -0.369676619768143 0.500186860561371 -0.484785854816437 -0.419312715530396 -0.224472403526306 2.48659825325012 2.66946029663086 3.25020670890808 2.78542971611023 3.07619881629944 2.84989786148071 2.79983448982239 2.46878433227539 2.25550365447998 2.48651146888733 2.77033233642578 2.53276824951172 2.47017908096313 2.0810694694519 1.94284105300903 2.33307528495789 2.89998579025269 3.30576276779175 3.12002968788147 3.13404965400696 2.9263973236084 2.71639657020569 2.49520230293274 2.37212371826172 2.11066222190857 1.96771728992462 3.40528011322021 4.08110284805298 4.48951387405396 2.36906218528748 2.12032246589661 2.19826102256775 2.28301286697388 2.28163766860962 2.74804544448853 5.42507076263428 6.91327047348022 5.9433479309082 5.38272953033447 4.3134937286377 3.6664662361145 4.28306245803833 5.78245401382446 3.32155704498291 4.59021520614624 5.98735380172729 7.28906297683716 8.17231369018555 8.37109375 9.38596343994141 9.32137584686279 8.7894344329834 8.61976623535156 7.81669473648071 7.09986686706543 6.55825853347778 7.00172567367554 8.00819396972656 8.4938497543335 8.94684600830078 9.27951049804688 9.76534080505371 10.9195775985718 12.6712760925293 15.0517253875732 17.5986919403076 17.8966617584229 17.0193214416504 16.3465690612793 16.1041812896729 16.6694946289062 15.6293420791626 15.189754486084 14.1702518463135 12.7580938339233 11.7246551513672 10.4979867935181 9.45653533935547
1.49736559391022 1.41978299617767 1.38004219532013 1.31547522544861 1.43931007385254 1.43296945095062 1.54361963272095 1.70251739025116 1.87940764427185 2.29432702064514 2.20390343666077 2.17620778083801 1.91914534568787 1.8662303686142 1.81279349327087 1.85731959342957 1.81675624847412 1.77791202068329 1.70729398727417 1.62464940547943 1.51200604438782 1.50054442882538 1.42042243480682 1.37988150119781 1.33714771270752 1.10361778736115 0.911201417446136 0.799181520938873 0.801011562347412 0.845209836959839 1.1843501329422 1.83449411392212 6.57908296585083 5.47883749008179 3.06413531303406 3.54922652244568 3.28803062438965 3.57792258262634 3.19786143302917 2.95970940589905 2.67867708206177 2.48141646385193 2.2410717010498 2.17952179908752 2.19952988624573 2.06745028495789 2.0085928440094 1.9991751909256 1.53091883659363 1.34583330154419 1.27229857444763 1.291783452034 1.42035520076752 1.51079130172729 1.79123854637146 1.57375347614288 1.54366183280945 1.2525053024292 0.904482424259186 0.613727867603302 0.436461687088013 0.32320111989975 0.245021760463715 0.251143604516983 0.265537917613983 0.259551793336868 0.233611360192299 0.172384783625603 0.119089812040329 0.13283509016037 0.0064494414255023 -0.0371950380504131 -0.065151073038578 0.0167396459728479 0.667218148708344 0.151699677109718 0.301272243261337 0.195644468069077 0.449082791805267 1.20709478855133 1.42790627479553 0.463957220315933 -0.0162764936685562 -0.209820345044136 -0.179716542363167 -0.202470615506172 -0.236572355031967 -0.156708404421806 -0.161946535110474 -0.434361398220062 -0.400284141302109 -0.366216003894806 -0.313543826341629 -0.381284981966019 2.71798300743103 4.2052788734436 2.88991236686707 2.67210125923157 2.93135023117065 3.05304408073425 2.84003090858459 2.3446798324585 2.11876440048218 2.14088582992554 2.49917984008789 2.84474277496338 2.69761824607849 2.37941360473633 2.42201280593872 2.80869388580322 3.11598610877991 3.32124352455139 3.20668005943298 3.00439691543579 2.80168318748474 2.57480621337891 2.46588277816772 2.16503524780273 1.98338162899017 1.79573726654053 2.80889749526978 4.15822887420654 4.14022207260132 2.09879779815674 2.24566674232483 2.39631986618042 2.48986387252808 2.79479646682739 3.05939722061157 7.80539655685425 6.78711891174316 5.66524171829224 4.48468494415283 3.98030591011047 3.48925304412842 3.81948161125183 4.82560062408447 3.50149416923523 4.5595498085022 4.56746816635132 4.11639070510864 5.786536693573 8.31844329833984 9.23006725311279 8.7970085144043 8.77608871459961 8.81335067749023 8.1121883392334 7.59124994277954 6.741623878479 7.14816188812256 8.54825687408447 9.14038753509521 9.49792194366455 10.0939025878906 11.1068172454834 12.7784109115601 16.5947246551514 19.9114742279053 20.4493236541748 19.6388187408447 18.6258277893066 18.7987861633301 19.3975582122803 17.8147449493408 17.3095512390137 15.8764133453369 14.1942014694214 13.0302286148071 11.5140905380249 10.3909759521484 8.94423007965088
1.44105303287506 1.39432883262634 1.43368864059448 1.88868367671967 1.87887072563171 2.03386402130127 1.93724179267883 2.06621122360229 2.07094526290894 2.4093930721283 2.62528800964355 2.30666041374207 2.25994801521301 2.16215491294861 2.17684507369995 2.06597018241882 2.01646733283997 1.9491673707962 1.86710917949677 1.71797490119934 1.71024739742279 1.67998433113098 1.69885396957397 1.65553855895996 1.56752467155457 1.30660080909729 1.16468679904938 1.12094461917877 1.3546530008316 1.54730904102325 1.671102643013 2.03992342948914 2.64129567146301 3.07605266571045 3.78442478179932 4.3082709312439 3.8329336643219 3.43770456314087 3.35235619544983 2.87199831008911 2.69951748847961 2.5544376373291 2.35171508789062 2.20227694511414 2.22734785079956 2.02807998657227 1.79227960109711 1.56223487854004 1.40212738513947 1.34622132778168 1.3809472322464 1.53988373279572 1.59016168117523 1.84764134883881 1.64395833015442 1.61261212825775 1.35421562194824 1.17615628242493 0.676734089851379 0.473670274019241 0.349225103855133 0.254610151052475 0.272662401199341 0.280675381422043 0.27325576543808 0.273559957742691 0.273202210664749 0.223967880010605 0.150165349245071 0.0889633297920227 0.0178256910294294 0.119089908897877 -0.0945684909820557 0.0841908007860184 0.322908520698547 -0.0393256060779095 0.230702579021454 0.139596596360207 0.334190279245377 0.541708946228027 1.17599546909332 1.23352038860321 0.315712541341782 -0.066275380551815 -0.0639683678746223 -0.0792858600616455 -0.0716558545827866 -0.0952244102954865 -0.0967056229710579 -0.383613646030426 -0.321516543626785 -0.304886728525162 -0.0515615753829479 -0.500169038772583 -0.419570356607437 2.98345851898193 2.90097308158875 2.52137303352356 2.3669695854187 2.74961280822754 2.51315927505493 2.28888702392578 2.03122878074646 1.86954987049103 1.81207811832428 2.32884073257446 2.53484082221985 2.50564885139465 2.92145800590515 3.24850034713745 3.42771983146667 3.13967037200928 3.14860463142395 2.97566699981689 2.640385389328 2.52665400505066 2.24965405464172 2.05070328712463 1.8469465970993 1.85983645915985 2.00124049186707 3.48794436454773 4.564377784729 2.25434803962708 2.43216347694397 2.62036800384521 3.01473236083984 3.23618984222412 3.33977341651917 5.00062894821167 7.14057350158691 4.57101964950562 3.66977119445801 3.39926958084106 3.17544150352478 3.04626774787903 3.66275262832642 3.01763415336609 3.48601961135864 3.70956087112427 3.53312492370605 3.45074772834778 6.43923044204712 8.97761249542236 8.80380535125732 8.56961441040039 8.95303249359131 9.10769367218018 7.5091438293457 7.24416494369507 8.32566356658936 8.76989269256592 8.91898632049561 9.40299510955811 10.249321937561 12.1056718826294 14.2562456130981 19.5473976135254 20.8865146636963 21.0020656585693 20.6666965484619 20.1888980865479 20.2029628753662 20.7787647247314 20.0595474243164 18.1146602630615 16.1693515777588 14.5417175292969 12.7396020889282 11.462963104248 9.80095195770264 8.50153636932373
1.40188300609589 1.46429884433746 2.20089030265808 2.56650900840759 2.65109419822693 2.63731074333191 2.61316156387329 2.54067015647888 2.95396327972412 2.92724847793579 2.83934688568115 2.57491135597229 2.51001906394958 2.55188655853271 2.43468022346497 2.37663745880127 2.25208258628845 2.15117073059082 2.01095509529114 1.96433246135712 1.96488916873932 1.94385302066803 1.9252016544342 1.97827327251434 1.87363398075104 1.72746908664703 1.62247955799103 1.77821028232574 2.01856708526611 2.2115330696106 2.36119198799133 2.65923428535461 3.3512499332428 4.00512075424194 8.13926219940186 7.11712026596069 4.71485948562622 3.79740142822266 3.31697750091553 3.13925194740295 2.91368651390076 2.88609147071838 2.58267521858215 2.68552708625793 2.55011320114136 2.01091122627258 1.69982349872589 1.53148221969604 1.47900056838989 1.50028204917908 1.65988314151764 1.76423895359039 2.02116370201111 1.8047182559967 1.72736644744873 1.39669036865234 1.23456799983978 0.974748611450195 0.576267719268799 0.365317106246948 0.415064513683319 0.27868527173996 0.286989808082581 0.288149803876877 0.295577615499496 0.286868393421173 0.270221799612045 0.247201323509216 0.203079640865326 0.123958125710487 0.0505835972726345 -0.019776364788413 -0.0379001833498478 0.388319075107574 -0.0367666855454445 0.170873329043388 0.28119096159935 0.0670068562030792 0.297041565179825 0.387208312749863 0.553337752819061 1.26875054836273 1.03902888298035 0.223219111561775 0.0697198584675789 0.121042117476463 0.0734075754880905 0.0211058892309666 -0.0478030927479267 -0.246317476034164 -0.259316742420197 -0.344073057174683 -0.298152357339859 -0.226297989487648 -0.62348747253418 -0.0402601473033428 0.448509693145752 1.2235951423645 2.0523316860199 2.28730535507202 2.3140766620636 2.27952265739441 1.90771591663361 1.75316488742828 1.56680929660797 1.82684695720673 2.49414157867432 3.01419353485107 3.38542747497559 3.57282042503357 3.2457549571991 3.2296097278595 3.04471778869629 2.82549691200256 2.61196351051331 2.28107023239136 2.13663506507874 1.97272074222565 2.06389927864075 2.06588625907898 2.00453329086304 2.38579225540161 4.21947860717773 3.75042963027954 2.6183750629425 2.70431280136108 3.40039730072021 3.70965218544006 3.52547359466553 3.75503420829773 5.94367790222168 3.94626545906067 3.43908429145813 3.21930122375488 3.0630054473877 3.01759886741638 3.0322425365448 2.88814377784729 2.81401538848877 2.94713068008423 2.45408749580383 2.03667187690735 3.08756399154663 4.41567134857178 6.35412883758545 7.20050764083862 6.81438589096069 7.88175344467163 7.53209543228149 8.98987865447998 9.46457481384277 9.47309875488281 9.57426643371582 10.9323701858521 12.4189605712891 14.8131923675537 17.7622718811035 22.0361213684082 22.6649627685547 21.8701496124268 21.0177154541016 22.7637519836426 23.2338371276855 20.5075988769531 20.9841175079346 18.7431449890137 16.6669883728027 14.2729892730713 12.7565298080444 10.7556114196777 9.35367965698242 8.17798805236816
1.3227630853653 1.21291399002075 1.78536736965179 2.90382480621338 3.44477081298828 3.27316498756409 3.33465433120728 3.70545673370361 3.7080442905426 3.47341728210449 3.00431156158447 2.864577293396 2.96408939361572 2.84989213943481 2.74745631217957 2.53871083259583 2.43556642532349 2.2321994304657 2.15877223014832 2.14509415626526 2.15145063400269 2.20286130905151 2.29686856269836 2.24568843841553 2.34740972518921 2.23356533050537 2.29944062232971 2.56353902816772 3.08922576904297 3.71480178833008 4.1335244178772 6.22677230834961 4.02113914489746 3.38280248641968 4.37051010131836 5.92251110076904 6.83955478668213 4.66258239746094 3.69646453857422 3.43110966682434 3.32049512863159 3.24962854385376 3.05345106124878 3.12218427658081 2.47635507583618 1.90506708621979 1.72339236736298 1.65515434741974 1.66259014606476 1.82937371730804 1.92754447460175 2.22044777870178 1.9871563911438 1.87913691997528 1.54673373699188 1.34951746463776 1.05523204803467 0.715301871299744 0.496103852987289 0.273997187614441 0.289682000875473 0.306267440319061 0.302236646413803 0.299233466386795 0.29411843419075 0.289422273635864 0.280315726995468 0.255901426076889 0.228251397609711 0.177792862057686 0.169849440455437 0.00264055514708161 -0.0267117470502853 0.400885313749313 -0.171522811055183 0.189071357250214 0.272256284952164 0.0155298132449389 0.267967641353607 0.407762408256531 0.345153242349625 0.656652212142944 0.953540563583374 0.764076590538025 0.263051122426987 0.239214703440666 0.24208228290081 0.114726513624191 0.0692272037267685 -0.122495472431183 -0.323858559131622 -0.455679655075073 -0.565502643585205 -0.442862540483475 0.40324205160141 0.569322466850281 0.680594503879547 0.896842122077942 1.37214231491089 1.78845536708832 1.87195241451263 2.12445878982544 1.86090421676636 1.59001266956329 1.83414447307587 2.54114270210266 3.08945369720459 3.50865364074707 3.66884636878967 3.38866376876831 3.38348722457886 3.16054320335388 2.91105484962463 2.65778684616089 2.55536413192749 2.21795439720154 2.19596171379089 2.28610873222351 2.25768399238586 2.1100127696991 2.12732243537903 2.27971506118774 2.58142685890198 3.65382528305054 3.11096358299255 3.38897180557251 3.63583469390869 3.96854376792908 3.92755794525146 3.82481837272644 5.14214420318604 3.48607850074768 3.25364255905151 3.13466310501099 3.07080554962158 3.05672979354858 2.93716168403625 2.82601261138916 2.6767213344574 2.41522455215454 2.18289399147034 2.34307432174683 3.23912930488586 3.23832058906555 4.4497766494751 6.35525465011597 7.14452028274536 9.36245632171631 10.1468162536621 10.5541324615479 10.0572109222412 9.5269775390625 10.1597270965576 12.704273223877 16.8467979431152 19.1248302459717 24.2891807556152 25.1720638275146 23.1337833404541 22.5129814147949 28.573709487915 25.9594173431396 22.5529518127441 22.5891704559326 20.8732051849365 19.9066028594971 16.3145046234131 14.5377140045166 11.870322227478 10.3370809555054 8.92885112762451 7.70495080947876
1.24581241607666 1.08391785621643 1.28074407577515 1.70193004608154 3.35567855834961 4.06988763809204 4.5601110458374 4.91857719421387 4.32203912734985 3.77302169799805 3.55620574951172 3.36599540710449 3.22344613075256 3.2178418636322 3.04107451438904 2.85549187660217 2.69491195678711 2.60062217712402 2.53883504867554 2.50377106666565 2.4841845035553 2.58892464637756 2.55248808860779 2.8042368888855 2.74387264251709 3.14170622825623 3.45261263847351 3.7618088722229 4.21131706237793 3.79020524024963 3.53919076919556 3.91978311538696 3.4573540687561 3.8756320476532 3.47671270370483 4.21114921569824 5.77351379394531 5.66585874557495 4.29674291610718 3.81750535964966 3.7398316860199 3.85493040084839 3.69192004203796 3.17879939079285 2.27948307991028 2.00292181968689 1.9017790555954 1.88160455226898 2.04882955551147 2.13445448875427 2.43340849876404 2.17971038818359 2.07459330558777 1.69233918190002 1.48138201236725 1.16885077953339 0.812027454376221 0.570765495300293 0.40769761800766 0.300572544336319 0.310593247413635 0.30774587392807 0.313595682382584 0.315894424915314 0.295314490795135 0.28850993514061 0.282367438077927 0.264577597379684 0.242015361785889 0.194534167647362 0.143241241574287 0.0553205758333206 0.00091887975577265 -0.0999780520796776 0.0108377858996391 0.527964890003204 0.139184460043907 -0.127201303839684 0.0411488078534603 0.168893173336983 0.335503906011581 0.300344944000244 0.414552599191666 0.724277138710022 0.588851630687714 0.411381512880325 0.313003122806549 0.231620773673058 0.149378716945648 -0.132340878248215 -0.383468061685562 -0.514162540435791 -0.613673388957977 -0.684266865253448 1.16154146194458 0.845624029636383 1.1274961233139 1.43536829948425 1.06857645511627 1.12270700931549 1.58008086681366 1.53101861476898 1.61963403224945 1.87905824184418 2.65880537033081 3.22574281692505 3.64604926109314 3.81456589698792 3.48951101303101 3.48830723762512 3.27414011955261 3.00510406494141 2.72365283966064 2.58868670463562 2.27976608276367 2.1206386089325 2.44781756401062 2.42081880569458 2.24145817756653 2.22189831733704 2.37735819816589 2.6438307762146 2.85276556015015 3.20311379432678 3.8667733669281 4.11691427230835 4.27870607376099 4.21242141723633 4.02659893035889 3.72757601737976 3.55903553962708 3.29470634460449 3.16954135894775 3.14521670341492 3.1181697845459 2.98144960403442 2.87990021705627 2.71562576293945 2.42568230628967 2.19571566581726 1.90575218200684 1.76332294940948 1.81822502613068 1.78521299362183 1.81947016716003 3.75055456161499 7.42686414718628 11.7351179122925 12.2609987258911 11.0677785873413 9.84087657928467 9.31212902069092 9.82570362091064 13.439769744873 20.9180068969727 28.1449165344238 28.8690223693848 26.4882717132568 20.6424369812012 21.4190731048584 28.9947090148926 26.5374946594238 25.3208026885986 22.6005439758301 21.1310615539551 19.5508041381836 17.3483943939209 13.3467512130737 11.4596166610718 9.79257774353027 8.28834533691406 7.16052579879761
1.15731525421143 1.31408321857452 1.52517914772034 1.74600994586945 2.31898522377014 5.1303391456604 6.28899335861206 5.39882040023804 4.87856769561768 4.67288303375244 4.23253726959229 4.10047721862793 3.76094913482666 3.53969240188599 3.37330842018127 3.16697907447815 3.07290530204773 3.07542371749878 3.02924227714539 2.92510509490967 3.02156925201416 3.00724864006042 3.23424124717712 3.17981147766113 3.89074993133545 4.75204515457153 4.6070032119751 4.80237340927124 4.40281867980957 4.09042024612427 4.51247644424438 3.82365083694458 4.15990543365479 3.5440034866333 3.50927710533142 3.35615015029907 4.52688503265381 5.29023361206055 4.62321615219116 4.42153596878052 4.11075210571289 4.26439046859741 3.71681451797485 3.08573579788208 2.40634179115295 2.24642038345337 2.15407824516296 2.35208082199097 2.41972184181213 2.7110071182251 2.44181513786316 2.27992248535156 1.8626766204834 1.62686121463776 1.26185715198517 0.882674992084503 0.635134518146515 0.458657085895538 0.328146278858185 0.342190146446228 0.335316926240921 0.333050489425659 0.329288959503174 0.310097306966782 0.303824752569199 0.29255947470665 0.274001628160477 0.261717289686203 0.250412136316299 0.217159911990166 0.163349583745003 0.0980988144874573 0.0641187131404877 -0.0425403788685799 0.0933092013001442 0.376525551080704 -0.0395002812147141 -0.132859244942665 0.0165850967168808 -0.0218011438846588 0.353585541248322 0.313838690519333 0.297085881233215 0.361302196979523 0.608216524124146 0.492777347564697 0.448267161846161 0.340389370918274 0.227975264191628 -0.0333658196032047 -0.333633780479431 -0.520522773265839 -0.68396008014679 -0.798889696598053 0.300557464361191 1.03572642803192 0.827400684356689 1.11440312862396 1.05023968219757 1.08646166324615 1.27933776378632 1.55637466907501 1.93392813205719 2.85511374473572 3.52234482765198 3.88836240768433 4.07968139648438 3.74475860595703 3.67933034896851 3.42445254325867 3.105544090271 2.80591773986816 2.64652371406555 2.28954243659973 2.12354111671448 2.13393211364746 2.57057738304138 2.38900542259216 2.34712362289429 2.45047307014465 2.79682588577271 3.01792645454407 3.32104349136353 3.96664905548096 4.58767318725586 4.85697031021118 4.78327465057373 4.67119550704956 4.27115201950073 3.90389537811279 3.5985255241394 3.23693108558655 3.18886995315552 3.18566703796387 3.04869771003723 2.95186710357666 2.78820300102234 2.47143054008484 2.23112511634827 1.95570206642151 1.78640806674957 1.72557973861694 1.74939966201782 1.83779644966125 1.94633662700653 2.20465159416199 2.57781529426575 6.72149658203125 9.34195423126221 9.56540966033936 8.83948707580566 7.53386116027832 7.83240652084351 19.5370655059814 30.02170753479 32.9868774414062 31.2433319091797 22.5284519195557 23.7319602966309 35.9852180480957 34.0156669616699 29.3298015594482 26.5459518432617 23.9333591461182 21.0054187774658 18.8063774108887 17.4244823455811 13.8030309677124 10.7596874237061 8.97873401641846 7.76892328262329 7.57848644256592
1.36915218830109 1.54657328128815 1.76984560489655 1.86061143875122 1.88554346561432 1.86534595489502 4.88840627670288 4.5205979347229 5.69053602218628 5.49525165557861 5.22407674789429 4.80496025085449 4.31505346298218 4.07477283477783 3.91200137138367 3.67974591255188 3.58355212211609 3.50292086601257 3.47430682182312 3.57995986938477 3.47031807899475 3.38110303878784 3.83152389526367 4.64997816085815 4.84696960449219 5.51182270050049 6.15842723846436 5.50845861434937 5.06018447875977 5.3870096206665 4.52610349655151 4.71187782287598 3.83907103538513 3.61647891998291 3.31144380569458 3.83291554450989 4.32854175567627 4.9875054359436 4.89764356613159 4.63132524490356 4.86090087890625 4.62643384933472 3.91705656051636 3.39827251434326 2.83293676376343 2.53494596481323 2.70475792884827 2.7506730556488 3.07035636901855 2.76474380493164 2.55521941184998 2.08459115028381 1.81191182136536 1.37778878211975 0.96213561296463 0.691412925720215 0.489002913236618 0.353652864694595 0.358149230480194 0.374987632036209 0.360577434301376 0.356265604496002 0.352905333042145 0.341770440340042 0.316131800413132 0.290832847356796 0.279178440570831 0.262002468109131 0.255398482084274 0.240778490900993 0.194535031914711 0.152238711714745 0.0772820636630058 -0.00794758927077055 0.426539182662964 0.0432207360863686 0.030513871461153 -0.0864848867058754 -0.0552824288606644 0.0441407673060894 0.139383494853973 0.297222882509232 0.36359715461731 0.484678387641907 0.504387080669403 0.587919235229492 0.576273739337921 0.460671871900558 0.285364151000977 0.0181587059050798 -0.294745326042175 -0.558234870433807 -0.763710081577301 -0.909441769123077 -0.994572341442108 0.0660312622785568 1.02543294429779 1.04635310173035 1.22500479221344 1.35821902751923 1.42376720905304 2.1121883392334 3.12250661849976 3.81270575523376 4.29737663269043 4.4001317024231 4.05452966690063 3.9762499332428 3.66984248161316 3.28892135620117 2.9588930606842 2.76875853538513 2.37028884887695 2.17511701583862 2.17884469032288 2.51009821891785 2.57823491096497 2.50414228439331 2.59404540061951 2.90741920471191 3.202064037323 3.5550549030304 4.18738222122192 4.78670692443848 5.24450588226318 5.40436172485352 5.27457046508789 4.94530057907104 4.44219875335693 3.90806150436401 3.54619932174683 3.30479407310486 3.25634264945984 3.11671948432922 3.03078317642212 2.87978911399841 2.56843113899231 2.3040759563446 2.00945663452148 1.83648824691772 1.76294493675232 1.79368364810944 1.8637033700943 2.00388026237488 2.30766153335571 2.62723302841187 2.59836101531982 2.72222399711609 3.83370399475098 4.8997597694397 3.55809497833252 2.59330749511719 1.7046924829483 8.55267906188965 12.3473596572876 16.7509956359863 20.7650508880615 14.1147603988647 9.8552131652832 20.660816192627 33.4935646057129 31.9949626922607 27.362756729126 23.6185455322266 21.2239398956299 19.2794857025146 15.7193231582642 13.7157363891602 10.2043581008911 8.16537094116211 7.90055322647095 7.384690284729
1.66503441333771 1.842982172966 1.92680144309998 1.96788918972015 1.8940178155899 1.71074628829956 2.4502694606781 3.16395401954651 4.36816692352295 5.44158363342285 5.73185110092163 5.43151330947876 4.86512279510498 4.85475587844849 4.80054807662964 4.56958627700806 4.50645112991333 4.18692827224731 3.87087845802307 3.44910383224487 3.3419303894043 3.98770046234131 4.55636787414551 5.47173976898193 6.24378252029419 6.51176881790161 6.81072473526001 6.40323972702026 6.55589866638184 5.47715139389038 5.47331571578979 4.31898641586304 3.95176649093628 3.35073208808899 3.4245879650116 4.34206438064575 5.5695595741272 5.46506881713867 5.19022655487061 5.53384494781494 5.23103618621826 4.52999782562256 4.16627836227417 3.98172378540039 3.53233957290649 3.41247344017029 3.38156485557556 3.52737092971802 3.20544338226318 2.91642761230469 2.37611269950867 2.01589751243591 1.53785812854767 1.04328882694244 0.759987592697144 0.540679574012756 0.383493602275848 0.374654352664948 0.38821092247963 0.407927542924881 0.370747625827789 0.36706468462944 0.371693462133408 0.374367892742157 0.351015120744705 0.32084196805954 0.290584743022919 0.271216124296188 0.268602132797241 0.250497996807098 0.215808406472206 0.197266280651093 0.107066363096237 0.0456392206251621 0.413161724805832 -0.0644989907741547 -0.00713825691491365 -0.0438623130321503 0.053826104849577 0.142164468765259 0.303378492593765 0.369593620300293 0.501062154769897 0.511777997016907 0.589379966259003 0.627509534358978 0.667613208293915 0.554071366786957 0.295012444257736 0.0718379467725754 -0.244470104575157 -0.527409911155701 -0.796281397342682 -0.962318122386932 -1.0605491399765 0.0449932254850864 1.2699863910675 1.46718990802765 1.53549087047577 1.35651755332947 2.17089486122131 3.53896880149841 4.22715854644775 4.82254886627197 4.94614219665527 4.44085884094238 4.28432369232178 4.00611305236816 3.53739023208618 3.14382076263428 2.91333818435669 2.47154259681702 2.3207643032074 2.64808678627014 2.86901426315308 2.80724954605103 2.65498113632202 2.76868081092834 3.10603499412537 3.34974050521851 3.79458427429199 4.49048948287964 5.11363458633423 5.53030872344971 5.74705266952515 5.82077789306641 5.49656343460083 4.97989273071289 4.37263917922974 3.92072439193726 3.58418154716492 3.44767045974731 3.26600360870361 3.15286779403687 2.98781728744507 2.65998387336731 2.40283942222595 2.09551644325256 1.92104685306549 1.8281661272049 1.85805988311768 1.93441987037659 2.09017634391785 2.49367713928223 2.96289491653442 2.96472191810608 2.82364654541016 2.81867170333862 2.79096651077271 2.74862766265869 2.41312670707703 1.94859218597412 0.428233951330185 -0.0686304420232773 6.85091495513916 12.6846551895142 14.7549781799316 11.1197748184204 9.57963943481445 11.2632598876953 22.6674098968506 30.3283367156982 28.1223735809326 25.1705341339111 21.7748394012451 18.0410938262939 15.3411350250244 12.52561378479 9.95467948913574 7.98821115493774 7.48683834075928 6.96796131134033
1.97533345222473 2.0456976890564 2.0808413028717 2.01027941703796 1.80881881713867 1.57544159889221 1.38056433200836 2.04788446426392 3.25310969352722 4.06925296783447 4.57980155944824 4.97679710388184 5.36478328704834 5.79681444168091 6.1010160446167 5.98694276809692 5.36738300323486 4.15210819244385 3.56682538986206 4.07508373260498 5.44486713409424 5.89596796035767 6.07353353500366 7.98881101608276 7.6122932434082 8.21131610870361 7.25209379196167 7.923180103302 6.76157855987549 6.59779930114746 5.09921312332153 4.55153131484985 3.69812297821045 2.88767409324646 2.75057649612427 3.18805718421936 5.89610528945923 6.69795417785645 6.28018951416016 5.63615417480469 5.12037372589111 5.35794687271118 5.05369901657104 4.8575177192688 4.34034252166748 4.33843564987183 4.62168645858765 3.96207094192505 3.46883249282837 2.79115533828735 2.32562685012817 1.73519444465637 1.15985882282257 0.832401990890503 0.601477444171906 0.418624520301819 0.402031809091568 0.404756128787994 0.470357865095139 0.39621976017952 0.377056181430817 0.473702847957611 0.380689203739166 0.369993716478348 0.368867516517639 0.357295989990234 0.335752665996552 0.298676818609238 0.290384262800217 0.268898248672485 0.249174997210503 0.222376137971878 0.157391607761383 0.100942440330982 0.0425688959658146 -0.0307260118424892 0.0829254314303398 0.0851351842284203 0.154778063297272 0.32048961520195 0.377321481704712 0.519827604293823 0.526897609233856 0.614273190498352 0.642916977405548 0.683603584766388 0.692578971385956 0.570376813411713 0.337817907333374 0.108739495277405 -0.183975949883461 -0.564162731170654 -0.836566865444183 -1.04543006420135 -1.1395651102066 0.312438100576401 2.02180814743042 2.05080270767212 1.73756504058838 2.04180359840393 3.39954829216003 4.91734409332275 5.60298156738281 5.61318778991699 5.07354497909546 4.78796720504761 4.37012624740601 3.81854295730591 3.40397953987122 3.10319805145264 2.52461981773376 2.4356427192688 3.15032744407654 3.50978446006775 3.20335817337036 2.76900243759155 2.97773861885071 3.33978629112244 3.63706660270691 4.09003686904907 4.86757183074951 5.56431198120117 5.93716287612915 6.15029907226562 6.17785310745239 5.89098262786865 5.51611089706421 4.86697769165039 4.35348415374756 3.9864194393158 3.76048851013184 3.51851892471313 3.34897351264954 3.14459538459778 2.78854203224182 2.51531291007996 2.19861435890198 2.03227353096008 1.92599904537201 1.96474814414978 2.05050277709961 2.20995855331421 2.6194863319397 3.18519592285156 3.39873957633972 3.2957239151001 3.17180705070496 3.00636601448059 2.93836045265198 2.64005565643311 2.36684036254883 1.27689492702484 0.13646237552166 -0.677117705345154 -1.12263834476471 4.93055772781372 9.59321880340576 8.88828754425049 7.6703314781189 7.47489976882935 13.4129028320312 27.1334381103516 33.2392311096191 26.2495574951172 20.977611541748 17.5510215759277 13.7647113800049 11.4832048416138 8.85397052764893 7.93685817718506 7.03281879425049 6.32834959030151
2.13785219192505 2.19339847564697 2.10697484016418 1.91720485687256 1.68334627151489 1.42215692996979 1.23150312900543 1.16393268108368 2.31213808059692 3.34452152252197 3.44928479194641 3.18564009666443 3.9870924949646 5.04107904434204 6.6906270980835 5.48704957962036 3.78829884529114 4.90081930160522 5.947509765625 6.83480787277222 7.71215200424194 8.27986335754395 10.9716339111328 10.2194995880127 10.0525922775269 8.49222087860107 8.23512172698975 8.31385612487793 7.86455154418945 6.12637853622437 5.4967827796936 4.31059694290161 3.31813168525696 2.59910345077515 2.03839564323425 1.58891236782074 4.49519681930542 8.27752685546875 6.26573514938354 5.22656726837158 6.25536966323853 7.01796531677246 6.42619180679321 5.9319748878479 5.51786327362061 5.51280164718628 5.17597341537476 4.86571168899536 3.68728470802307 2.82878375053406 2.07880330085754 1.35873317718506 0.944928526878357 0.668462514877319 0.471672683954239 0.420209616422653 0.560776054859161 0.624386787414551 0.562775015830994 0.387416124343872 0.383861064910889 0.390275001525879 0.406120419502258 0.381426811218262 0.370874971151352 0.361586660146713 0.359807252883911 0.350974917411804 0.339426130056381 0.309819310903549 0.279770731925964 0.23829410970211 0.186743065714836 0.157332852482796 0.0923268869519234 0.0343110822141171 0.197156131267548 0.152425140142441 0.336088895797729 0.399419814348221 0.542084395885468 0.551862299442291 0.635369122028351 0.661832571029663 0.708222448825836 0.706758260726929 0.631302714347839 0.588878452777863 0.383056819438934 0.140539035201073 -0.21505518257618 -0.541054248809814 -0.885988771915436 -1.09645009040833 -1.15228056907654 -0.0174737572669983 2.49910283088684 2.29261922836304 2.84646272659302 3.31364846229553 4.65467309951782 5.50338840484619 6.50895643234253 5.85549545288086 5.39020490646362 5.02082586288452 4.17484378814697 3.52294516563416 3.21552276611328 2.59744215011597 2.23026371002197 1.89782106876373 4.30888080596924 3.86054682731628 3.04842400550842 3.14073586463928 3.68752002716064 4.01170873641968 4.44403982162476 5.24873781204224 6.0868067741394 6.45503425598145 6.6589035987854 6.64468955993652 6.29923629760742 5.9195556640625 5.39669275283813 4.81913566589355 4.40960741043091 4.1276216506958 3.87130236625671 3.63459062576294 3.35923027992249 2.954745054245 2.65891742706299 2.3190929889679 2.15331149101257 2.04943108558655 2.10542678833008 2.17681097984314 2.35215973854065 2.7961733341217 3.39076828956604 3.69025659561157 3.72231149673462 3.66651964187622 3.47936987876892 3.32011818885803 3.08099770545959 2.84464240074158 2.10296869277954 0.872321009635925 -0.142994284629822 -0.985769629478455 -1.45508182048798 -1.58755743503571 0.858612954616547 0.81324303150177 1.57940518856049 2.9593460559845 6.12701034545898 16.2690334320068 31.150857925415 28.9181118011475 20.2226943969727 15.0448331832886 12.2063217163086 10.4517269134521 8.6688346862793 7.64883518218994 6.76396894454956 5.79953336715698
2.27843642234802 2.201340675354 1.98816895484924 1.73546123504639 1.4955141544342 1.30444061756134 1.19456267356873 1.07407033443451 0.896988093852997 2.53011703491211 3.13714361190796 2.30914855003357 2.33696031570435 2.80590057373047 3.59814071655273 4.25196838378906 5.91171169281006 5.28261995315552 7.43715047836304 8.41008949279785 7.84684419631958 13.4040184020996 15.7405424118042 13.2913665771484 10.3962068557739 9.97444725036621 9.95835399627686 8.70979976654053 8.31229019165039 6.64578819274902 5.22020816802979 4.09125804901123 3.07992434501648 2.05042481422424 1.33966493606567 0.625226855278015 1.65661835670471 7.1449670791626 5.27086782455444 4.78381013870239 5.60035848617554 7.16326332092285 8.07260227203369 8.54012489318848 7.89694547653198 7.5850191116333 5.44616174697876 4.52172660827637 3.95596361160278 2.84019470214844 1.82212340831757 1.23993968963623 0.807925701141357 0.537991106510162 0.421610772609711 0.637072801589966 0.757345199584961 0.766073822975159 0.438242971897125 0.404523223638535 0.402278989553452 0.39545276761055 0.394091308116913 0.392622411251068 0.378874361515045 0.371233642101288 0.369293868541718 0.36944243311882 0.361257165670395 0.343805253505707 0.323030918836594 0.285750806331635 0.229080691933632 0.192872419953346 0.142743498086929 0.111235871911049 0.156597599387169 0.21307547390461 0.43265488743782 0.577453136444092 0.575876653194427 0.672112107276917 0.693287074565887 0.737878859043121 0.738063633441925 0.648947656154633 0.607317864894867 0.548962295055389 0.426071137189865 0.137597739696503 -0.184978023171425 -0.549110651016235 -0.847435891628265 -1.00704061985016 -1.12840151786804 -1.15152132511139 1.25257897377014 3.55316853523254 3.92481708526611 5.6695442199707 7.02016019821167 7.42115354537964 6.98901462554932 6.29449415206909 5.71300840377808 4.67135095596313 3.84317588806152 3.28893351554871 2.6535177230835 2.37381625175476 1.93672919273376 1.38266468048096 3.92572069168091 3.5114734172821 3.27468943595886 3.62560701370239 4.41303157806396 4.99211645126343 5.77272129058838 6.68231248855591 7.04744005203247 7.29805755615234 7.18564510345459 6.80359649658203 6.36644840240479 5.82233810424805 5.2342700958252 4.80156183242798 4.45374155044556 4.27469730377197 4.03551292419434 3.6516809463501 3.18841052055359 2.84564781188965 2.46094179153442 2.3058454990387 2.19726848602295 2.25504684448242 2.3212583065033 2.51836538314819 2.99535584449768 3.62070107460022 3.96018409729004 4.03891086578369 4.0774507522583 3.95660662651062 3.77499222755432 3.53407859802246 3.37367343902588 2.76551938056946 1.82593834400177 0.621871292591095 -0.428573787212372 -1.07852399349213 -1.56734955310822 -1.71039998531342 -1.70235407352448 -0.597003281116486 -1.00124382972717 -0.46062496304512 0.950604915618896 3.83388686180115 15.1866016387939 24.230260848999 17.0224018096924 13.0883054733276 11.8151826858521 9.4242639541626 8.204270362854 7.34663105010986 6.11130619049072 4.89213705062866
2.28019165992737 2.07964468002319 1.84197890758514 1.55570340156555 1.37537479400635 1.27648222446442 1.15299570560455 0.913599371910095 0.837793469429016 0.771339118480682 1.60457730293274 2.11365509033203 1.68963479995728 2.27570366859436 2.84025263786316 3.47763729095459 3.44681119918823 1.84142231941223 3.50451588630676 6.22143650054932 2.59867191314697 6.2590160369873 16.8228340148926 14.7942905426025 12.5363731384277 11.9130401611328 10.7669048309326 9.99147987365723 7.83701848983765 7.02014207839966 5.08821487426758 3.85932397842407 2.56191086769104 1.46481013298035 0.762910604476929 -0.0728112533688545 -0.401421457529068 4.43613290786743 3.7867169380188 3.89326238632202 4.96669292449951 6.09493255615234 6.95217752456665 8.899658203125 11.9731464385986 8.71172523498535 5.53745126724243 4.30748128890991 3.46221971511841 2.01137351989746 2.88813972473145 3.29169821739197 1.82172775268555 0.976246476173401 0.735789239406586 1.0766327381134 1.08790528774261 0.764660894870758 0.423990249633789 0.40582674741745 0.442144811153412 0.490323960781097 0.399137675762177 0.391893088817596 0.395037859678268 0.391895860433578 0.381842166185379 0.379117369651794 0.376066476106644 0.357955515384674 0.33407324552536 0.332671910524368 0.302524954080582 0.254945695400238 0.209419533610344 0.211431458592415 0.257357776165009 0.421662867069244 0.491327553987503 0.619761049747467 0.703669428825378 0.732857406139374 0.769568264484406 0.774116992950439 0.676726996898651 0.6227006316185 0.558472394943237 0.508104383945465 0.353379786014557 0.148227319121361 -0.178726613521576 -0.507347941398621 -0.73483419418335 -0.908918797969818 -1.04576003551483 -1.08482372760773 0.467453688383102 4.34316873550415 7.18452501296997 9.19929122924805 9.27688312530518 8.47956943511963 7.63063526153564 6.67927265167236 6.09278154373169 4.53507518768311 3.62346911430359 2.81199908256531 2.438884973526 2.04044198989868 1.48079681396484 1.35477733612061 3.56835198402405 3.80744624137878 3.9176127910614 4.50779676437378 5.23189258575439 6.63713932037354 7.62476062774658 7.82735300064087 8.08811092376709 7.83378982543945 7.3777928352356 6.84356498718262 6.24800395965576 5.71294069290161 5.21571731567383 4.76098299026489 4.60318899154663 4.35347080230713 4.08856534957886 3.53668522834778 3.08374905586243 2.67883086204529 2.49188494682312 2.37037992477417 2.37189102172852 2.49053740501404 2.69597029685974 3.21030020713806 3.8436233997345 4.25600337982178 4.32364797592163 4.37569570541382 4.33745956420898 4.22907686233521 4.00398778915405 3.89367985725403 3.35758876800537 2.51308465003967 1.48378074169159 0.350731402635574 -0.491057097911835 -1.03287827968597 -1.47706282138824 -1.66840577125549 -1.62770688533783 -0.779171407222748 0.377095431089401 2.36519551277161 4.13617658615112 4.39092588424683 8.37197303771973 16.3176765441895 14.5797729492188 10.8381595611572 12.1746912002563 9.05375194549561 7.7796630859375 6.44760894775391 5.01775598526001 4.17039203643799
2.16016864776611 1.92002701759338 1.64416491985321 1.42416667938232 1.33709287643433 1.21582472324371 0.985377669334412 0.880245506763458 0.514365255832672 1.40441942214966 1.10205340385437 1.36879730224609 1.34333026409149 1.18758177757263 1.30588400363922 1.45248341560364 1.2542370557785 0.878134310245514 0.442190021276474 3.76590466499329 3.20201969146729 2.06582283973694 9.49578666687012 16.366418838501 14.7493324279785 13.4906463623047 12.063494682312 9.55660820007324 8.3424654006958 6.63262176513672 5.39714670181274 3.33095049858093 1.89490592479706 1.16389644145966 0.419134229421616 -0.25540018081665 -0.404637962579727 1.9302499294281 1.49324786663055 1.10633087158203 2.70936679840088 5.26394319534302 6.47100830078125 6.10468339920044 8.07364463806152 8.60528373718262 5.68885231018066 3.98973107337952 2.72939372062683 1.62374556064606 1.73186647891998 2.26728415489197 2.7722499370575 2.86513113975525 1.73683166503906 1.74261224269867 1.35449349880219 0.670791625976562 0.461479783058167 0.468226373195648 0.493313789367676 0.517214953899384 0.493754237890244 0.410443723201752 0.404673159122467 0.394142210483551 0.39602991938591 0.393050044775009 0.382608413696289 0.361099809408188 0.350389450788498 0.339286178350449 0.335759997367859 0.327713876962662 0.323749154806137 0.393932938575745 0.503698527812958 0.54998379945755 0.676977217197418 0.699389517307281 0.778404831886292 0.802779257297516 0.80368435382843 0.704071164131165 0.653146922588348 0.57546478509903 0.514902591705322 0.443364799022675 0.293894052505493 0.102109968662262 -0.145107105374336 -0.383497536182404 -0.587805211544037 -0.811852276325226 -0.937797248363495 -1.08068013191223 0.71164470911026 6.91559791564941 12.3635911941528 12.4240465164185 11.0998249053955 9.69075775146484 8.32638645172119 7.39058399200439 5.76665067672729 4.70133638381958 3.15579676628113 2.5955982208252 2.10517477989197 1.57412397861481 1.2469927072525 1.63144755363464 4.07442378997803 4.51688289642334 5.55541229248047 6.19215440750122 6.57910537719727 7.73156547546387 8.99949741363525 9.23589420318604 8.71818351745605 8.13467407226562 7.39978551864624 6.73865556716919 6.05921602249146 5.6467866897583 5.17304182052612 4.90896606445312 4.66991138458252 4.3704628944397 4.04679203033447 3.49741625785828 3.0174252986908 2.75361394882202 2.62196278572083 2.48841977119446 2.63273048400879 2.79541254043579 3.08377408981323 4.11117029190063 4.38593006134033 4.61807203292847 4.66655969619751 4.65585517883301 4.59036064147949 4.38570404052734 4.31112241744995 3.84141254425049 3.10153460502625 2.14840888977051 1.20752930641174 0.285816699266434 -0.365299850702286 -0.876691818237305 -1.26311075687408 -1.37645089626312 -1.33150732517242 -0.702431082725525 0.788336396217346 2.85307097434998 4.10000610351562 6.16666555404663 7.37806797027588 9.48722648620605 10.3054609298706 9.51660442352295 9.95617485046387 8.69052410125732 6.7510461807251 5.2979998588562 4.22650051116943 3.39473676681519
