NCOLS 174
NROWS 31
XLLCORNER 353904
YLLCORNER 6701328
CELLSIZE 16 
NODATA_value -3.4e+38 
2.84419107437134 0.711165428161621 0.489845395088196 -0.356966495513916 -0.918165385723114 -1.68091082572937 -2.1180944442749 -2.82622504234314 -2.7075092792511 -3.11009621620178 -2.92456603050232 14.5442676544189 2.76096320152283 0.658114492893219 2.5810227394104 2.83594679832458 10.9083251953125 17.4005794525146 3.24218535423279 2.81941032409668 5.56992053985596 3.72047996520996 2.00264286994934 4.64182090759277 10.1835432052612 9.11717224121094 18.3359127044678 15.3292970657349 28.1080989837646 37.9093589782715 33.1118469238281 24.2820167541504 22.1193504333496 21.8107147216797 17.5600757598877 14.3269100189209 6.50903415679932 6.6334433555603 5.19219970703125 2.3310763835907 2.14181852340698 2.32367706298828 2.2867739200592 9.25560855865479 2.02367281913757 2.33338165283203 3.32743048667908 15.0639266967773 14.5972385406494 38.5657653808594 6.61311960220337 3.44944286346436 11.6079044342041 20.3483448028564 10.7064361572266 21.2264080047607 6.65945243835449 8.79256725311279 5.44173717498779 2.68562793731689 3.04356503486633 1.5465499162674 1.80413103103638 1.743816614151 8.30837440490723 7.5112771987915 19.9823818206787 13.0214557647705 4.83082389831543 3.01203560829163 1.13465511798859 1.30727481842041 1.08820772171021 3.05702209472656 0.83396965265274 0.430468946695328 11.2306041717529 13.1028747558594 4.73771858215332 8.13728332519531 12.2326507568359 15.3368835449219 26.6615352630615 52.4087562561035 49.1690559387207 33.6189422607422 29.4819564819336 25.7008304595947 19.2126121520996 18.6382827758789 13.0390949249268 11.6618919372559 10.0128612518311 20.6933116912842 11.4669599533081 11.3289422988892 10.0099906921387 9.25647640228271 8.10799884796143 6.67081880569458 7.54171991348267 6.76132822036743 6.32337617874146 5.14837884902954 5.17443943023682 4.68208503723145 4.3471417427063 4.54878425598145 4.64184951782227 4.40625858306885 3.8130407333374 3.76462697982788 14.045389175415 6.77008104324341 6.95407629013062 6.69622755050659 6.818772315979 6.95719051361084 6.68249845504761 4.67620086669922 4.45782327651978 3.89270615577698 4.51073932647705 13.1638431549072 20.0642147064209 16.2266139984131 10.9845037460327 5.91581153869629 4.39848947525024 2.65559124946594 2.39371848106384 1.44103753566742 3.44377660751343 3.94641542434692 2.51652693748474 3.42776036262512 3.11539959907532 0.0354423187673092 0.320899456739426 0.773647308349609 1.85947620868683 2.53549647331238 3.08690905570984 1.99886655807495 0.632711172103882 0.661873698234558 0.850270569324493 1.02879929542542 0.338504880666733 2.71684718132019 6.30492830276489 2.54255986213684 -0.842559397220612 -0.424783021211624 8.98695659637451 5.90375089645386 39.2251434326172 19.1168994903564 12.1828584671021 11.2503623962402 8.27078247070312 7.26636743545532 4.97355604171753 29.7683715820312 10.383641242981 18.295539855957 13.3974742889404 7.29542446136475 7.88880062103271 9.55959510803223 8.65993499755859 8.24260425567627 5.45211410522461 6.52832317352295
7.29961919784546 1.25552642345428 0.481743186712265 -0.156476452946663 -0.805404186248779 -1.53281819820404 -2.16294622421265 -2.54189777374268 1.3480259180069 -3.33426713943481 -3.34298253059387 9.82227993011475 9.75541305541992 1.64900732040405 15.0086030960083 12.0560255050659 9.99429988861084 12.8976278305054 3.59494638442993 8.70540714263916 14.9423370361328 3.06993532180786 9.96541213989258 11.6420822143555 4.07614183425903 5.1938796043396 8.94336605072021 18.2857093811035 28.7459869384766 29.7015609741211 29.4656257629395 24.0698833465576 16.4471206665039 17.3616981506348 15.0086898803711 13.3513145446777 4.81110143661499 4.80372142791748 3.29499912261963 2.05553913116455 1.92063975334167 1.79821598529816 9.42156887054443 6.16116809844971 2.0308620929718 9.36473941802979 8.57036018371582 7.4022364616394 2.85882019996643 8.38836479187012 14.1953916549683 17.4532775878906 19.8779716491699 3.93639230728149 11.6980075836182 12.3351764678955 8.68002033233643 3.88396644592285 5.28618001937866 5.4935245513916 7.4508171081543 2.6629056930542 11.7250947952271 17.9237537384033 15.3735151290894 31.7674102783203 30.440465927124 2.83054757118225 1.65477252006531 1.29360365867615 1.46338999271393 14.6559448242188 6.85257911682129 0.859573721885681 0.463845908641815 1.95318579673767 25.2149448394775 21.9647598266602 35.3693351745605 15.1671857833862 10.7347297668457 9.55559253692627 49.9854507446289 47.2781181335449 40.771167755127 37.272533416748 28.9850196838379 25.1728343963623 20.3330345153809 16.8084716796875 14.3889312744141 10.7734203338623 8.83584117889404 15.6057825088501 16.8041286468506 10.9517488479614 10.3871603012085 9.16924858093262 8.53231906890869 7.51762437820435 6.21775674819946 7.02940988540649 6.78609085083008 5.93320751190186 4.830979347229 4.87332010269165 4.42359638214111 4.13652992248535 4.33397436141968 4.07854127883911 3.61729526519775 8.71649646759033 3.49185872077942 7.22319841384888 4.49167728424072 6.13188791275024 6.28589248657227 6.42699575424194 6.53929138183594 4.25170278549194 3.92015218734741 4.38558387756348 8.38481903076172 21.3910045623779 8.04425525665283 9.43747997283936 9.86912631988525 6.92512321472168 4.11824321746826 3.77181482315063 3.34978842735291 2.13766884803772 1.50753104686737 3.21562600135803 3.7391037940979 2.40060353279114 3.12112021446228 2.76586961746216 0.928182661533356 1.34231650829315 2.73700737953186 3.37341928482056 3.70242357254028 2.7987744808197 1.41581058502197 0.613385200500488 0.65600973367691 0.816580832004547 0.970998585224152 0.304116547107697 -1.71388423442841 -1.35800313949585 -1.81146228313446 -1.2273313999176 6.28383636474609 3.16457223892212 35.952320098877 22.2892093658447 13.0014734268188 9.72316074371338 8.90071868896484 7.86286306381226 6.53309869766235 4.75606632232666 17.7129936218262 6.99156093597412 13.5275716781616 10.7763471603394 6.12822341918945 6.00387382507324 8.24766540527344 7.73919010162354 7.10149621963501 5.15347671508789
11.7298707962036 2.51624584197998 0.668245196342468 0.00286641553975642 -0.426385521888733 -1.18062448501587 -1.81888139247894 0.757758557796478 -2.71469759941101 -3.47143268585205 -3.46736454963684 7.28744745254517 13.0366640090942 7.10782766342163 7.08445501327515 5.65162706375122 10.2450389862061 8.70843124389648 5.9492712020874 4.85639572143555 2.37809062004089 1.67382252216339 2.94539427757263 18.2135200500488 8.78311347961426 17.7600879669189 29.655143737793 27.5478343963623 34.7090950012207 26.4070224761963 20.435079574585 21.0538196563721 18.5047626495361 11.5079212188721 13.3220100402832 6.88000774383545 3.65996193885803 3.64917755126953 3.40390849113464 2.51311087608337 1.78340804576874 1.53267586231232 1.41322505474091 1.77983236312866 1.8488746881485 1.77482759952545 4.83510112762451 11.9961833953857 37.186653137207 17.4663524627686 12.9505081176758 10.7115840911865 5.73681974411011 6.42023372650146 23.6375503540039 7.60935688018799 5.5608549118042 4.08781576156616 11.035737991333 2.68501543998718 3.26187968254089 4.52389049530029 2.19706511497498 21.01611328125 13.479907989502 26.5255680084229 5.90171194076538 3.30879378318787 1.45244443416595 1.18847811222076 8.41483879089355 11.5767860412598 6.28390121459961 3.99561882019043 11.3231067657471 27.3532886505127 35.8125648498535 39.3581581115723 30.1406307220459 27.9396266937256 28.7146396636963 20.3457469940186 53.015495300293 38.6683120727539 33.7642669677734 32.1222038269043 29.8629207611084 20.5820198059082 21.1107883453369 19.193302154541 14.5604047775269 12.4227609634399 10.1143817901611 26.0723857879639 15.4172515869141 11.4627437591553 10.1081838607788 9.57956886291504 8.4501371383667 7.91261386871338 7.00688982009888 6.76520156860352 5.6323094367981 6.36720609664917 5.58797216415405 4.54922294616699 4.60426473617554 4.19131135940552 4.01138019561768 3.49957180023193 2.25651025772095 7.83165407180786 4.28883790969849 1.89645385742188 4.82049942016602 3.79194164276123 5.78812408447266 5.90874481201172 5.35772275924683 3.96091413497925 3.34515500068665 3.88955068588257 4.35234403610229 3.79804611206055 7.93124198913574 14.9810314178467 7.80336570739746 8.25178146362305 5.84812259674072 3.94698214530945 3.73724937438965 3.32428741455078 3.55276441574097 5.36298322677612 4.71277284622192 3.60088086128235 2.30638718605042 2.90215659141541 2.59990739822388 2.4114990234375 3.27761292457581 3.26235270500183 3.16991496086121 2.69667387008667 2.14643549919128 1.04455864429474 0.975538313388824 0.617823660373688 0.759882986545563 0.914179146289825 -1.29545068740845 9.50169372558594 -1.76663863658905 13.4835176467896 15.7506465911865 3.84295082092285 37.1637191772461 20.1713733673096 15.4874887466431 9.96628570556641 8.67470836639404 7.42631769180298 7.03757905960083 6.17011451721191 4.6604118347168 13.3057270050049 5.92597150802612 11.0459566116333 9.29343605041504 8.75926685333252 5.29196262359619 6.18957042694092 6.73182344436646 6.1645040512085
7.08258485794067 4.80442047119141 -0.449930667877197 -0.250694781541824 -0.45848947763443 -1.04450929164886 -1.61579072475433 -2.26037955284119 -2.55026817321777 -3.03044676780701 6.05976343154907 14.6376876831055 16.9175357818604 8.24677658081055 6.29590463638306 5.94385957717896 10.6206216812134 7.81846284866333 4.48476600646973 6.23442983627319 14.3952703475952 19.5678253173828 20.6704692840576 11.7785806655884 8.27577495574951 8.7785530090332 25.4648857116699 18.7304077148438 26.3395023345947 19.6849746704102 18.8393821716309 16.0295810699463 14.3964033126831 14.2846984863281 12.9814100265503 4.42040967941284 4.57621240615845 2.95469450950623 2.41783213615417 2.59011197090149 2.31491804122925 1.41272151470184 3.11816954612732 6.11819076538086 8.04976272583008 13.5804128646851 30.4838905334473 32.752628326416 22.7212734222412 24.7440376281738 16.9296455383301 8.00008201599121 6.13125324249268 12.7972049713135 5.56983327865601 7.24796676635742 5.1638445854187 3.38357210159302 3.03306651115417 3.54197144508362 5.57411575317383 3.05394291877747 3.96804618835449 18.0860424041748 11.1799364089966 5.2637996673584 4.69599103927612 3.73154711723328 2.44909691810608 1.84922289848328 19.8094539642334 7.24483728408813 9.5577449798584 17.9091281890869 16.1769523620605 27.4691848754883 37.3156852722168 27.5995807647705 22.5840396881104 22.6194915771484 19.6366500854492 20.6017723083496 49.3530807495117 39.4797210693359 30.9478168487549 27.0423717498779 26.8964881896973 21.3550357818604 18.7719478607178 16.7881603240967 15.9320888519287 14.2385301589966 19.4302215576172 18.0266971588135 16.4427013397217 10.4551858901978 9.06672382354736 9.37771224975586 8.88355827331543 7.83296728134155 7.46005201339722 7.11966419219971 6.34712886810303 5.30307531356812 5.99748516082764 5.27992057800293 4.29762363433838 4.36248016357422 3.98371124267578 3.21228933334351 3.16653537750244 6.24648380279541 3.90120220184326 2.84514284133911 1.80105936527252 3.55978465080261 3.57486844062805 5.46184587478638 5.59003877639771 4.6265172958374 2.85578799247742 14.7517929077148 24.2670745849609 16.6611709594727 13.3006820678711 22.7651538848877 10.3606081008911 7.05894565582275 7.32523345947266 6.30524444580078 5.16259098052979 5.79436683654785 6.86166477203369 6.90319395065308 4.90847587585449 3.64943838119507 3.45875716209412 2.2925500869751 2.86638116836548 3.07904982566833 3.01979947090149 0.0123575013130903 2.91775631904602 2.53337550163269 2.15143346786499 1.64122688770294 1.51733469963074 0.838419198989868 0.581521153450012 0.717014789581299 -0.35878524184227 6.98725414276123 8.63419342041016 13.6477909088135 7.99899053573608 4.35450887680054 35.0544776916504 20.9308986663818 13.9436082839966 12.5333604812622 11.185004234314 7.69155788421631 6.83472633361816 6.52684116363525 5.84837627410889 4.52160549163818 10.8403015136719 5.23833608627319 9.50623416900635 8.92730140686035 7.84172868728638 4.7662501335144 5.49761343002319 5.8811411857605
4.23777198791504 5.60057258605957 0.772534906864166 -0.992299020290375 -0.87986946105957 -1.08202159404755 -1.34653210639954 -2.12909340858459 -2.63202953338623 -2.86076188087463 -1.15095329284668 5.24883222579956 13.5805034637451 8.23297882080078 6.64759922027588 6.01542520523071 8.5895471572876 7.73604536056519 6.79200792312622 6.32180547714233 6.83769798278809 9.71594429016113 14.4990148544312 18.6899089813232 14.8367738723755 13.3007040023804 8.99580764770508 22.7155494689941 28.0832500457764 18.2678451538086 15.3874168395996 13.1765241622925 12.5810356140137 12.2707948684692 3.27488589286804 3.73684549331665 3.66551637649536 2.86782288551331 2.40657472610474 6.6091890335083 1.68274819850922 1.83869886398315 17.9524555206299 10.8692893981934 14.5747194290161 17.8476428985596 13.0998201370239 18.1000576019287 17.7375354766846 10.8891382217407 20.2520503997803 8.78911304473877 6.99455833435059 8.54183864593506 6.91642618179321 3.49637055397034 2.22507166862488 1.77767753601074 2.45847129821777 9.75913429260254 4.27840375900269 2.63341212272644 10.7927570343018 2.78495287895203 2.10493659973145 8.12383079528809 3.1769802570343 2.55282592773438 2.06572318077087 9.11013126373291 15.7481174468994 20.6190376281738 22.6050071716309 34.4272346496582 18.7274131774902 42.1780204772949 25.674690246582 24.8759269714355 25.4720497131348 23.6568183898926 23.3102378845215 32.614631652832 36.8460807800293 31.7867317199707 27.9429512023926 25.701135635376 19.9510803222656 19.7841815948486 20.0559635162354 17.0210609436035 14.3791351318359 14.2405099868774 13.0333223342896 12.9227085113525 9.97820854187012 11.1500329971313 9.28645896911621 8.40843200683594 8.74267768859863 8.44224262237549 7.99646282196045 7.04870319366455 6.67960262298584 5.97771644592285 5.01049566268921 5.66614723205566 5.0043478012085 4.07302665710449 4.14998817443848 3.8012216091156 3.06643390655518 2.77251100540161 3.34163355827332 2.57747793197632 2.13250732421875 1.72405171394348 2.8889844417572 3.3753662109375 5.16734790802002 4.33567810058594 3.83566951751709 33.8062858581543 11.7790994644165 12.6391429901123 6.56053972244263 29.214147567749 13.9177742004395 7.88711214065552 7.1068902015686 5.65009021759033 5.85785627365112 4.74327611923218 5.69300317764282 6.13442516326904 5.20499420166016 3.94338464736938 3.21262693405151 3.36119079589844 2.62504982948303 4.08716726303101 3.51652550697327 2.93817591667175 12.3686742782593 2.23420858383179 2.03684329986572 1.87777578830719 1.73380041122437 1.32240426540375 0.656795263290405 0.549370586872101 -0.563460826873779 5.47480392456055 -1.3866800069809 3.9531455039978 2.80391550064087 5.48550033569336 36.391731262207 19.5363101959229 14.4378833770752 10.5811996459961 9.62575626373291 9.62588691711426 6.86139249801636 6.23691892623901 5.98477411270142 5.48615503311157 4.3425030708313 9.27379989624023 8.68018913269043 4.71510934829712 7.95879459381104 6.90679550170898 4.09464597702026 4.90017461776733
5.40565776824951 2.51543927192688 1.70958769321442 0.0635800883173943 -0.186784043908119 -0.930338203907013 -1.13406956195831 -1.82725393772125 -2.389484167099 -2.81319260597229 -3.02328205108643 9.53663063049316 7.30886077880859 10.1067981719971 14.3302640914917 13.3417901992798 16.6364574432373 5.79489231109619 5.49248600006104 6.7910304069519 8.69666385650635 10.1684999465942 16.1486682891846 12.325740814209 17.1589088439941 12.4710092544556 37.3644866943359 35.1098251342773 16.2279167175293 15.1576299667358 12.1694688796997 11.0808544158936 11.3397598266602 5.0613112449646 2.68690919876099 2.61788535118103 2.79615998268127 2.3547511100769 1.92649579048157 1.80878043174744 1.82858908176422 13.2914934158325 17.2439022064209 7.88987970352173 9.494553565979 6.11473226547241 7.77784538269043 10.3135471343994 19.5834693908691 15.1667547225952 8.64663124084473 16.686450958252 38.1370658874512 3.89000916481018 5.12804555892944 2.13049983978271 1.60594415664673 1.90977346897125 6.24944639205933 6.10817098617554 2.96791219711304 2.44121551513672 2.24002146720886 2.33830046653748 2.45645499229431 1.71640992164612 4.76930856704712 3.2408721446991 15.8717479705811 27.3456764221191 41.9157829284668 32.3204460144043 18.4466247558594 27.5016269683838 16.6530208587646 12.1846990585327 20.2454299926758 26.0876483917236 21.748233795166 22.4162101745605 27.5820255279541 22.5025501251221 24.9614429473877 17.2650318145752 26.6933193206787 25.320592880249 21.7971267700195 18.5853328704834 17.7441234588623 17.3927230834961 13.8788051605225 21.1794528961182 17.2692813873291 12.7770309448242 11.3878002166748 9.13066959381104 8.6965274810791 8.55555725097656 7.83822345733643 7.56875371932983 7.92587900161743 7.50511455535889 6.61471843719482 6.29162502288818 5.64789152145386 4.75015497207642 5.37753105163574 4.76106071472168 3.87645244598389 3.95874643325806 3.63036441802979 3.04262232780457 2.62852787971497 1.69516849517822 2.10782384872437 1.99201738834381 1.65676152706146 2.66810154914856 3.19539499282837 4.09795522689819 4.2817234992981 15.0191373825073 18.7415237426758 11.0428924560547 15.7731027603149 16.7353935241699 16.4724559783936 9.7868537902832 8.19099044799805 6.20741748809814 5.09994506835938 5.33573198318481 4.35385131835938 4.79950571060181 4.82421970367432 3.93603324890137 3.49179601669312 3.19276809692383 3.85828232765198 2.86435079574585 2.82395815849304 2.58220934867859 2.24894785881042 6.68664693832397 1.95336723327637 1.86232376098633 1.64662802219391 1.43607151508331 1.04495918750763 0.524940967559814 -0.686899721622467 -0.76960676908493 -0.622776567935944 10.8133354187012 0.705505669116974 11.1250295639038 32.9353218078613 20.615701675415 13.5293502807617 10.934229850769 8.43766689300537 7.53028297424316 8.38071441650391 6.1478910446167 5.73610544204712 5.54794025421143 5.21275806427002 4.22199440002441 3.83443164825439 7.74925708770752 4.21764850616455 6.92433977127075 6.0793604850769 3.61241698265076
3.79627466201782 2.9671323299408 2.19155049324036 1.38180947303772 -1.26465368270874 -1.32732951641083 -1.2448183298111 -1.7626713514328 -2.19078373908997 -2.87210726737976 12.5430097579956 10.4511775970459 6.03447103500366 10.5537137985229 15.3880414962769 7.86342668533325 10.7428274154663 6.76186847686768 4.97818660736084 2.81816411018372 3.57543253898621 4.94903612136841 8.27339553833008 10.1213455200195 11.6197299957275 9.30930805206299 8.94139862060547 8.32816886901855 9.3900146484375 13.1143159866333 12.907172203064 11.7201509475708 4.22013473510742 5.1309232711792 4.03169536590576 2.14724326133728 1.51175272464752 1.59681820869446 1.83714461326599 8.2559757232666 8.53477668762207 2.86356830596924 8.92740631103516 8.33926868438721 5.6129322052002 4.16850519180298 6.17469549179077 19.496919631958 30.6376781463623 12.9368295669556 9.50513744354248 7.98664045333862 4.00325870513916 18.0370826721191 2.24643611907959 1.74035918712616 1.63600146770477 1.54883086681366 9.2707347869873 8.33947277069092 4.76533889770508 1.81229364871979 1.93834745883942 2.86109781265259 2.01185154914856 2.05459499359131 13.7698564529419 14.2909030914307 25.7535991668701 15.6256980895996 25.6410503387451 31.8982219696045 28.0932636260986 17.2504329681396 12.8346185684204 15.7127990722656 23.7994422912598 39.4542694091797 25.8736572265625 31.7785186767578 27.2030010223389 22.0432815551758 20.0474758148193 18.3796081542969 27.926212310791 21.4952335357666 21.358226776123 19.7955780029297 17.6985054016113 15.3570690155029 16.3290328979492 17.1521167755127 13.9734706878662 13.263916015625 11.6006946563721 10.426326751709 8.41490459442139 8.01005268096924 7.932053565979 7.1637749671936 7.1030125617981 7.46561574935913 7.06715106964111 6.2325439453125 5.94607782363892 5.35577869415283 4.51709079742432 5.1081166267395 4.53658819198608 3.69214773178101 3.77689957618713 3.47101330757141 2.92099928855896 5.40614604949951 0.551243841648102 1.94272065162659 1.96660649776459 1.34269440174103 2.52794170379639 3.02853870391846 3.9029438495636 3.98919177055359 10.2221117019653 13.3359956741333 10.5051364898682 12.5668506622314 12.798487663269 11.8114004135132 5.85003662109375 7.02384757995605 5.46892499923706 4.83605480194092 4.84272336959839 4.24329233169556 3.96579265594482 3.99500131607056 4.06517791748047 4.29986190795898 3.35824370384216 3.2523512840271 2.38727736473083 2.71778845787048 2.46164536476135 2.00719046592712 4.77253150939941 1.70587432384491 1.57392179965973 1.34629487991333 1.15983593463898 -0.308623135089874 -0.720993041992188 -1.22712171077728 -1.19489073753357 6.33842182159424 -1.83998799324036 5.26594877243042 33.270938873291 18.6478118896484 14.4142532348633 10.3476848602295 8.74798011779785 7.68064880371094 6.3603515625 7.49188613891602 5.68326807022095 5.40618991851807 5.25867366790771 4.98800134658813 4.05753421783447 3.66257286071777 6.79851865768433 3.6422815322876 6.09646415710449 5.45193529129028
4.06512117385864 4.55409002304077 3.76029181480408 1.71831798553467 -0.096600316464901 16.1037921905518 -0.856774210929871 -1.49342036247253 -2.02372694015503 0.428438097238541 11.0597105026245 7.98963451385498 6.78175687789917 17.8066215515137 14.333872795105 8.5718936920166 13.9071207046509 10.173433303833 6.20196151733398 4.26293468475342 6.82835817337036 9.93634796142578 15.463812828064 6.17646837234497 8.59594345092773 9.49800872802734 6.78595542907715 7.13251495361328 15.9085178375244 20.433256149292 10.4184036254883 4.25860500335693 4.21405935287476 4.0648980140686 3.3002815246582 2.56510877609253 1.89881908893585 9.01737785339355 14.0514497756958 1.64329326152802 2.72552156448364 5.28233051300049 3.38141465187073 5.92421913146973 3.286301612854 4.67776966094971 13.5432167053223 15.5424938201904 24.3193264007568 11.171347618103 10.6172542572021 5.90324354171753 3.05663728713989 1.91008603572845 9.10191345214844 1.88010716438293 13.4078903198242 10.9896650314331 18.8712348937988 7.88107109069824 7.15353155136108 5.89578008651733 5.32848262786865 11.1337394714355 2.02174043655396 22.1476669311523 16.3039493560791 20.7621822357178 27.7248859405518 37.2480621337891 32.8525238037109 28.6722106933594 22.4508094787598 21.5639228820801 14.1522769927979 20.4914417266846 13.3321399688721 37.9735565185547 25.4316425323486 22.272029876709 21.0469722747803 20.1171607971191 19.4250030517578 17.9784240722656 16.1955490112305 16.3131561279297 17.9867610931396 17.2889575958252 17.2642211914062 15.6491870880127 14.9112615585327 14.6027240753174 12.9464521408081 12.7022657394409 12.154351234436 10.6166830062866 9.61039161682129 7.79979801177979 7.4251766204834 7.39290523529053 7.13561964035034 6.68556976318359 7.05841302871704 6.68486452102661 5.9104208946228 5.64073848724365 5.09057378768921 4.30437135696411 4.86753797531128 4.32882213592529 3.5228579044342 3.61382794380188 3.32681846618652 3.24489045143127 2.35674285888672 27.5968837738037 1.98125720024109 1.88748872280121 1.13919413089752 2.40836501121521 2.8873929977417 15.8969411849976 16.3133869171143 11.6526575088501 16.0311870574951 9.92091464996338 10.1004638671875 9.18163681030273 7.01352548599243 6.36146402359009 5.35469722747803 4.35566473007202 4.17104339599609 4.4503173828125 4.13430786132812 3.70416116714478 3.64927291870117 3.46293377876282 3.23199987411499 3.08432197570801 3.10645270347595 2.22603058815002 2.58904552459717 2.49650311470032 1.71807873249054 3.70950937271118 1.47033107280731 1.30590009689331 1.17307543754578 -0.949767827987671 -1.16176247596741 -1.379838347435 3.14401197433472 14.3727426528931 1.19847762584686 15.0673637390137 17.3495807647705 13.9218683242798 13.1122055053711 11.1797113418579 8.45929622650146 7.43409395217896 6.74180269241333 5.78760528564453 6.98529481887817 5.40344333648682 5.13475370407104 4.93739938735962 4.68909978866577 3.80789422988892 3.65633964538574 5.99166679382324 3.19936728477478 5.50140380859375
11.6774826049805 3.82842612266541 2.05591702461243 1.15875065326691 0.441896557807922 13.2229270935059 8.14425945281982 5.65116786956787 8.65350532531738 -2.04681777954102 6.16215324401855 10.1404762268066 4.32787322998047 6.31208610534668 8.76658248901367 7.89183759689331 22.5293922424316 8.56008434295654 7.14806652069092 7.06652545928955 15.7410669326782 15.5786628723145 19.4169139862061 20.8309288024902 13.0902070999146 8.73484802246094 15.3720350265503 13.6622657775879 11.759539604187 5.77586030960083 6.23896408081055 4.14369487762451 2.4891517162323 2.77335715293884 2.80963492393494 1.88417959213257 9.95181465148926 1.94732344150543 1.19356429576874 2.76050066947937 16.7620449066162 15.8427667617798 20.5027294158936 16.9848613739014 5.029700756073 12.7537469863892 18.7129154205322 26.902904510498 12.710301399231 10.5022678375244 7.05729961395264 4.08805084228516 3.19304203987122 1.99625337123871 17.4557838439941 6.51170110702515 8.95680999755859 9.6369047164917 7.48283624649048 14.9033355712891 10.8625373840332 3.72506427764893 1.82088363170624 1.58449649810791 8.64284133911133 26.4493370056152 20.4425506591797 24.6936836242676 14.7829542160034 15.8023977279663 24.6664714813232 24.100944519043 20.5973644256592 20.3385753631592 18.5479927062988 12.5458974838257 14.0493307113647 31.6654930114746 24.1620941162109 19.5489253997803 18.5695629119873 18.5922756195068 18.047046661377 17.429594039917 16.2794723510742 14.6344327926636 14.4990043640137 14.2707290649414 15.2999467849731 15.2127590179443 14.1233110427856 13.4600620269775 13.1793622970581 11.7537031173706 11.5944747924805 11.1921968460083 9.78553295135498 8.90763473510742 8.13209629058838 6.26778888702393 6.67835807800293 6.70292091369629 6.32695531845093 6.69323444366455 6.33705139160156 5.61987257003784 5.35839509963989 4.84908962249756 4.10855531692505 4.64760875701904 4.1428656578064 3.74989366531372 3.45947265625 3.37503433227539 3.11297512054443 2.06155443191528 17.5667858123779 1.91280996799469 1.82753837108612 1.02850186824799 2.29864263534546 2.75453782081604 8.10596466064453 8.34088325500488 8.02980995178223 11.293065071106 10.2121448516846 7.66449165344238 6.84966039657593 4.14951753616333 5.6800594329834 4.91070175170898 15.0925016403198 13.5806589126587 4.30698680877686 4.01017093658447 3.59652876853943 3.29017472267151 2.89968514442444 2.85819530487061 2.87547445297241 2.90828204154968 2.8061420917511 2.01928782463074 2.35327625274658 2.10893321037292 2.95197176933289 2.52191686630249 -0.73432320356369 -1.37107944488525 -1.593998670578 1.32701086997986 19.6929397583008 21.24245262146 15.6810836791992 -1.53264164924622 25.9113426208496 24.2633495330811 13.3685159683228 10.2486600875854 9.25092029571533 8.30586528778076 6.65876913070679 6.20518589019775 5.52155017852783 6.55427217483521 5.06303548812866 4.81706094741821 4.57814836502075 4.35625171661377 4.17845392227173 2.66450071334839 5.39202260971069 2.98953056335449
3.1047830581665 1.19758820533752 0.378465950489044 0.429512679576874 0.40964150428772 -1.20356047153473 -0.769236087799072 -1.33246266841888 -0.190301939845085 -1.59691870212555 23.5520935058594 10.2023763656616 5.84188890457153 8.43889236450195 12.5766363143921 6.53928995132446 11.0559959411621 12.7621278762817 7.74356937408447 9.06160640716553 9.90531730651855 12.0584363937378 10.0238018035889 15.10471534729 15.8550882339478 7.7005786895752 8.15905952453613 5.68895864486694 8.75217056274414 5.54612398147583 3.72453927993774 4.00588655471802 3.46655917167664 11.3608846664429 15.5828828811646 2.6426317691803 1.71680355072021 2.15415644645691 15.4000329971313 23.930814743042 31.6738662719727 20.3958721160889 12.9116916656494 9.10381031036377 9.70787525177002 20.7878322601318 22.1143321990967 27.8517417907715 14.6973571777344 6.56130218505859 6.54639196395874 4.5537805557251 2.56092500686646 2.53729939460754 3.44706916809082 8.69349956512451 5.97039937973022 5.24273490905762 5.20869922637939 17.7090435028076 7.34042596817017 6.00883293151855 2.54736995697021 12.7420139312744 14.9362802505493 23.1485824584961 13.7510585784912 14.7159996032715 13.3931646347046 31.1104774475098 28.9395065307617 19.0621471405029 21.0158252716064 18.9635696411133 17.4208889007568 15.9328870773315 27.5249824523926 28.4190807342529 19.4315071105957 19.4233436584473 15.8024759292603 16.2408485412598 16.5634727478027 16.2638263702393 15.6866598129272 14.7854146957397 13.3018217086792 13.1776494979858 12.9219532012939 13.6431884765625 13.5589237213135 12.868185043335 12.2345037460327 11.9590444564819 10.809009552002 10.6764297485352 10.3671922683716 8.06423854827881 8.53247928619385 7.2359938621521 11.3554658889771 6.27046775817871 6.31149959564209 5.99732637405396 6.36109495162964 6.02317428588867 5.35153198242188 5.10471153259277 4.63039827346802 3.92862510681152 4.44047355651855 4.14364624023438 3.8731095790863 3.13673567771912 3.23372578620911 2.97171950340271 5.77355575561523 5.47869396209717 1.83806920051575 1.75626540184021 0.900539755821228 2.19679594039917 2.6343469619751 5.38498306274414 5.57427024841309 6.48044538497925 5.87308120727539 8.68350219726562 5.182861328125 5.90506744384766 4.10231971740723 7.16898202896118 5.38624000549316 7.76266050338745 6.9025502204895 4.1633448600769 3.87290191650391 3.48650598526001 3.1908221244812 2.53319025039673 2.5207142829895 2.39389491081238 2.60214686393738 2.6306893825531 1.89144194126129 2.20411229133606 1.95316827297211 1.11689579486847 -0.819185137748718 -1.01937627792358 12.8211603164673 29.891565322876 32.5719757080078 15.9180107116699 22.7313404083252 14.0004405975342 23.4122886657715 21.6167049407959 17.1787281036377 10.5024127960205 9.53667640686035 7.58781862258911 7.20589637756348 5.99371194839478 5.7297248840332 5.133864402771 6.06503248214722 4.68840074539185 4.4819073677063 4.29951238632202 3.90951204299927 2.74952912330627 13.1091108322144 4.94513273239136
3.63293242454529 0.747261762619019 0.0481877215206623 -0.238871082663536 4.2792181968689 -0.458720028400421 6.15448427200317 -1.318443775177 -1.43465459346771 -1.44456088542938 -1.85876142978668 5.47389650344849 7.73826265335083 16.0910968780518 17.5860233306885 17.6362285614014 6.98310375213623 6.91874074935913 7.1668963432312 8.93800735473633 5.96367168426514 5.83976411819458 7.52006483078003 7.34246826171875 5.30614185333252 5.83494997024536 3.28330540657043 3.14626479148865 3.35345435142517 3.03011989593506 3.92719674110413 3.0652334690094 4.36880445480347 18.5246715545654 4.23442888259888 4.70127868652344 2.581463098526 2.26665353775024 2.04637384414673 1.8082332611084 14.6257972717285 6.91022872924805 10.2431497573853 5.37746620178223 6.35450792312622 8.21790599822998 17.3531818389893 13.4674959182739 10.3263244628906 7.31298017501831 7.8665657043457 3.8884425163269 2.64730262756348 2.15498065948486 2.50116395950317 2.62802267074585 4.76173067092896 7.10573530197144 10.0802116394043 19.216968536377 6.69401884078979 7.58280324935913 13.0953798294067 28.5179195404053 34.0457458496094 37.6326675415039 21.6364994049072 39.9409408569336 22.296703338623 39.1244926452637 14.688756942749 20.0832386016846 18.474100112915 16.9677562713623 15.3198766708374 15.4660806655884 14.1842393875122 16.5404930114746 16.9987964630127 14.5676412582397 16.1347541809082 15.0891208648682 14.4994211196899 14.7853441238403 14.6740694046021 14.1475744247437 13.5007429122925 12.1364107131958 12.0897989273071 11.7494421005249 12.2729635238647 12.1725301742554 11.7458992004395 11.2933921813965 10.9272994995117 10.0272121429443 8.26726818084717 9.52938938140869 11.316258430481 7.21996784210205 11.8995304107666 6.20556926727295 5.90880060195923 5.9684886932373 5.70010662078857 6.05996608734131 5.73748588562012 5.11093044281006 4.87549638748169 4.43279314041138 3.76522088050842 4.24745941162109 4.15280103683472 3.71851754188538 3.02062058448792 3.10674357414246 2.67774748802185 1.82122945785522 17.2761154174805 2.08878993988037 0.957823574542999 0.613274455070496 1.83675932884216 2.52190232276917 4.06143999099731 4.183669090271 3.93711972236633 3.12692809104919 6.39122343063354 4.59684181213379 4.43953275680542 14.1019153594971 5.95257997512817 4.50267887115479 5.22446966171265 4.63139152526855 4.02647638320923 3.74866390228271 3.38326597213745 3.09575009346008 2.55958533287048 2.26060605049133 2.13268423080444 2.44140577316284 2.46179604530334 1.78911650180817 2.05508947372437 1.79888331890106 -0.342803031206131 15.734001159668 -1.04720377922058 25.3964748382568 20.0359992980957 23.7299633026123 16.7069263458252 16.9740543365479 12.8108644485474 26.7180938720703 16.0130996704102 13.1970300674438 10.5688390731812 8.13869857788086 6.44957304000854 6.28176641464233 5.33198928833008 5.15038967132568 4.69338989257812 5.57095146179199 4.32100963592529 4.11371278762817 1.75563895702362 3.83209180831909 18.4528064727783 6.24301671981812
2.85851430892944 0.638988673686981 -0.525305509567261 -0.895856499671936 -0.564958870410919 -0.102887071669102 0.221908852458 -1.43185794353485 -1.11065089702606 -1.52462983131409 -1.7704815864563 2.36416554450989 -0.39309960603714 1.80679976940155 5.20119047164917 5.05650758743286 9.18469333648682 6.83470296859741 6.78294038772583 5.86522674560547 7.45984983444214 5.86967468261719 4.54479694366455 9.09016513824463 3.94542026519775 7.95401763916016 4.35319089889526 3.43566703796387 4.31545257568359 2.89918875694275 18.2620697021484 15.3428297042847 2.5324969291687 3.84856224060059 2.82698607444763 2.16526389122009 2.50180768966675 5.20376634597778 4.47964859008789 4.00424480438232 15.1747760772705 8.51344680786133 6.09004068374634 4.2533745765686 8.83092498779297 31.4549522399902 27.5199928283691 13.435152053833 8.93344306945801 3.39742732048035 2.91600513458252 2.98660469055176 2.32940149307251 2.56582188606262 1.99312365055084 1.97507452964783 1.70532405376434 16.3145160675049 8.95237159729004 11.8415307998657 13.3484678268433 10.0844593048096 36.6045341491699 39.3418159484863 32.2527847290039 25.7521800994873 32.2591819763184 24.2874622344971 27.2710819244385 14.59215259552 25.7544479370117 21.5987987518311 15.0438632965088 13.9166316986084 14.9208822250366 13.7712001800537 13.9204244613647 12.7938671112061 12.5198163986206 13.021372795105 12.3580770492554 11.7860794067383 12.9880056381226 13.0647621154785 13.2939653396606 13.3165969848633 12.8311891555786 12.3563098907471 11.1044101715088 11.1519479751587 10.7825765609741 11.1360492706299 11.0195579528809 10.8152179718018 10.540283203125 10.0621147155762 7.57241010665894 20.0658931732178 8.80483818054199 8.62835884094238 6.55310916900635 7.09368276596069 5.86547994613647 5.58298826217651 5.65402126312256 5.42866706848145 5.78833913803101 5.48089647293091 4.88936996459961 4.66537046432495 4.2454514503479 4.14847993850708 3.53205108642578 3.99998784065247 3.58014583587646 2.89813494682312 2.99810552597046 2.29300618171692 1.65179014205933 9.70481967926025 2.46141338348389 0.708214581012726 2.50522089004517 6.17278575897217 1.97791874408722 3.24573493003845 3.70142102241516 3.31549715995789 20.7317943572998 5.02911376953125 4.37349891662598 13.8472776412964 7.17908239364624 5.15065383911133 4.34790945053101 4.29914808273315 4.07664966583252 3.90052437782288 3.62889814376831 3.15327739715576 2.54159545898438 2.40068864822388 2.08380079269409 1.91474962234497 2.30350112915039 2.3158164024353 1.64752697944641 1.93151330947876 1.70655059814453 9.7712984085083 9.93864822387695 28.2943515777588 15.4628953933716 17.3667011260986 19.8668479919434 14.9642791748047 13.8755226135254 11.7980537414551 17.3921775817871 12.8118772506714 11.6254873275757 9.699462890625 7.10406255722046 5.61337232589722 5.5446457862854 4.76729822158813 4.66364097595215 4.31777286529541 5.15746545791626 4.01542377471924 2.54125905036926 33.211368560791 3.56114029884338 9.58708763122559
1.87242233753204 0.118028186261654 -0.582031071186066 -0.921182930469513 -1.09680545330048 -1.37268531322479 -0.652768313884735 -1.10010206699371 1.47235131263733 7.00729656219482 -1.95166981220245 -1.84952819347382 -0.388100802898407 1.53999722003937 1.52183902263641 4.78006935119629 4.73924112319946 6.00710916519165 4.95687675476074 3.99268412590027 4.67696380615234 5.68587875366211 4.98396158218384 3.28132963180542 3.55073094367981 2.71624827384949 2.86505675315857 1.91495096683502 3.48491096496582 13.1261796951294 6.99614000320435 4.2248969078064 2.12086129188538 2.02826571464539 2.79818916320801 1.94480383396149 1.48698198795319 1.74898409843445 1.64446175098419 3.48942446708679 1.94172406196594 3.39545822143555 4.19240188598633 5.84795236587524 12.5519189834595 15.0816078186035 17.7814521789551 6.30990791320801 3.07280969619751 3.66276025772095 3.19135689735413 11.8443365097046 2.58771133422852 3.39483261108398 4.65590763092041 14.3846015930176 10.6659727096558 19.5192775726318 16.3829326629639 10.1080121994019 21.6024990081787 29.6293754577637 31.1503963470459 29.99951171875 23.3681983947754 28.0951919555664 20.1247882843018 17.9785594940186 19.6533374786377 21.2439880371094 20.6584224700928 18.4007453918457 14.8476886749268 12.9902315139771 12.4162282943726 13.3398551940918 12.4930934906006 12.708324432373 11.6644554138184 11.3597145080566 11.0022678375244 11.2296876907349 10.6555213928223 11.6033573150635 11.8689470291138 12.0550909042358 12.175178527832 11.7513093948364 11.4029750823975 10.3174114227295 10.3624172210693 9.94280242919922 10.2218675613403 10.0670013427734 9.94221973419189 9.47237777709961 9.47441005706787 23.5484466552734 10.361255645752 8.22342300415039 6.96298933029175 17.8178806304932 6.70389652252197 5.55878829956055 5.29094123840332 5.37464189529419 5.18507719039917 5.53708410263062 5.24496173858643 4.68790102005005 4.58216619491577 4.36869525909424 3.98365569114685 3.39070582389832 3.84821939468384 3.45016980171204 2.79186749458313 2.8038489818573 12.6244134902954 15.2498531341553 6.45892238616943 3.28830170631409 9.42732238769531 0.607992589473724 3.20422005653381 1.90366566181183 2.27115774154663 3.40457248687744 7.61338138580322 8.28344058990479 14.0585327148438 9.16436386108398 7.08071279525757 4.79714059829712 4.66575336456299 4.20411682128906 4.15945339202881 3.94542980194092 3.78042149543762 3.51901650428772 3.06033158302307 2.46153807640076 2.25296807289124 1.95720052719116 1.74403631687164 2.15510368347168 2.14959263801575 1.56610810756683 1.83104372024536 1.61511337757111 4.35885620117188 13.4033946990967 19.1528663635254 13.9099178314209 15.1965799331665 15.5115184783936 12.0952272415161 11.1712675094604 10.1228151321411 13.2269687652588 9.84196186065674 9.88400936126709 8.24652481079102 6.27772235870361 5.09257745742798 4.96412086486816 4.32170915603638 4.24884414672852 3.98647546768188 4.80966758728027 3.03442120552063 1.08761143684387 18.20920753479 3.36412525177002
1.39192640781403 -0.425163418054581 -0.453369051218033 -0.865444481372833 -0.954828083515167 -1.33565616607666 8.40197944641113 -1.2710063457489 6.91185474395752 -1.61087369918823 -1.62029302120209 4.6270923614502 -1.37247729301453 -0.874477684497833 -0.265108525753021 -0.27445325255394 2.49494457244873 3.81371879577637 3.60827732086182 4.82423686981201 3.58164072036743 4.49605131149292 5.63514471054077 2.81951880455017 2.86204075813293 2.22138357162476 2.78610277175903 1.06132459640503 1.69066679477692 1.84416162967682 0.299992769956589 0.15425506234169 0.916041493415833 0.912576913833618 4.24687671661377 2.21251559257507 2.17799544334412 1.36529219150543 2.67422080039978 1.37762951850891 5.30711603164673 1.92262375354767 5.55752038955688 7.35819101333618 6.31724119186401 10.0951061248779 8.0450496673584 4.90495347976685 3.55137729644775 2.3219690322876 7.8115496635437 2.66152119636536 1.95772552490234 1.73572564125061 11.5934228897095 16.7052307128906 9.5709924697876 13.9675922393799 33.3425521850586 34.1061782836914 8.5981388092041 32.3036994934082 21.9855346679688 29.5097274780273 21.4934597015381 14.9122886657715 19.9879531860352 26.4983940124512 28.6892509460449 17.9373397827148 16.4650402069092 14.5595035552979 14.2710447311401 13.1499948501587 11.7603149414062 11.2242631912231 12.088906288147 11.4825382232666 11.6154375076294 10.6493282318115 10.466667175293 10.188892364502 10.2741203308105 9.69551181793213 10.6324491500854 10.871000289917 11.0751619338989 11.2640972137451 10.8647842407227 10.5896396636963 9.62326908111572 9.66024589538574 9.41906833648682 9.47593307495117 8.58492088317871 9.28414726257324 8.98601531982422 8.94541263580322 12.291296005249 7.08480167388916 7.25623893737793 18.3403358459473 8.06352615356445 6.34498834609985 5.28115701675415 5.02910470962524 5.12148857116699 4.96166706085205 5.31107091903687 5.19745588302612 4.91382837295532 4.40358686447144 4.19374370574951 3.82805609703064 3.2773859500885 3.70316910743713 3.32350659370422 2.58001565933228 2.70385646820068 5.70280647277832 7.80805015563965 4.84788990020752 2.40424370765686 0.52182924747467 6.21292686462402 2.11314392089844 1.67550134658813 2.03709745407104 3.14534330368042 6.28001117706299 9.7188606262207 7.49227857589722 4.74435806274414 4.74174213409424 4.04001331329346 4.26712369918823 4.06807470321655 4.02690362930298 3.8211133480072 3.67035984992981 3.41460943222046 2.64675664901733 2.05868864059448 2.13122153282166 1.84896063804626 1.51620006561279 2.02558326721191 2.04744052886963 1.48927748203278 1.74087607860565 1.53247964382172 9.02689743041992 8.34646320343018 13.0205507278442 10.9912261962891 12.3023729324341 12.5456895828247 11.3743906021118 9.33378314971924 8.61227989196777 10.6351957321167 9.64165210723877 8.5958423614502 7.13868808746338 5.58566284179688 4.66547966003418 4.4998779296875 3.94172763824463 3.91559529304504 3.73415946960449 1.23955297470093 4.54309034347534 14.654899597168 12.363844871521
2.06548118591309 0.62231981754303 -0.73663729429245 -0.819115817546844 -1.37891185283661 -1.27131223678589 -1.66368854045868 -0.29776406288147 -1.4466038942337 1.17897701263428 -0.656737208366394 -1.62841844558716 3.70913362503052 6.2118444442749 1.89445376396179 10.984917640686 3.63148307800293 1.97917211055756 3.25803637504578 2.65293860435486 3.98542881011963 11.6410179138184 3.66494035720825 3.39782547950745 2.63898396492004 2.42343878746033 4.51728773117065 1.7572900056839 0.273145526647568 0.597368538379669 0.514527440071106 2.15423178672791 -0.111218996345997 0.175129488110542 0.602517545223236 1.62954521179199 1.73010897636414 1.58835566043854 5.98014402389526 15.4225692749023 24.2662944793701 9.99254608154297 2.44170880317688 17.9492244720459 17.2688426971436 16.5694408416748 6.93263530731201 4.23894929885864 4.03620481491089 3.38443827629089 10.3900499343872 7.79481506347656 2.33196496963501 9.53924560546875 16.9580554962158 32.0321083068848 20.6007251739502 23.9151172637939 34.847583770752 32.5141525268555 25.4577255249023 33.9669303894043 23.3844795227051 18.4089374542236 22.1274375915527 17.5733661651611 31.7125396728516 20.4991302490234 18.2006969451904 16.9403762817383 15.5137634277344 13.5001163482666 12.8523187637329 11.8612689971924 11.8881530761719 10.7758159637451 10.2944803237915 11.0512228012085 10.606912612915 10.7160959243774 9.79946708679199 9.67634582519531 9.45929527282715 9.44647407531738 9.01300811767578 9.85160636901855 10.086163520813 10.3306245803833 10.4701642990112 10.0779933929443 9.86601066589355 9.65007781982422 8.8162727355957 7.92678594589233 8.62887763977051 8.58002376556396 8.49770736694336 8.43195629119873 8.45694255828857 8.24619674682617 7.0749888420105 7.00772905349731 7.3018946647644 6.50660753250122 6.01479578018188 5.01921510696411 4.78127431869507 4.88712930679321 4.75591516494751 4.65278148651123 4.989821434021 4.72162437438965 4.23458814620972 4.03803300857544 3.69874429702759 3.158527135849 3.5073139667511 3.1121551990509 2.27941393852234 2.61794495582581 2.25560307502747 5.21574831008911 1.50904774665833 9.7275857925415 9.70006465911865 0.578665673732758 1.02948749065399 1.61289751529694 1.79687070846558 8.52793502807617 4.26261377334595 6.71424198150635 5.0483136177063 4.0871958732605 4.17163848876953 3.92108511924744 3.92626643180847 3.93619585037231 3.90202617645264 3.70210886001587 3.46310472488403 2.72490262985229 2.09867572784424 1.94300746917725 1.98424029350281 1.6940770149231 1.41953277587891 1.9329332113266 1.95392501354218 1.42189598083496 1.66200935840607 1.46156919002533 4.54900312423706 6.69310092926025 9.86293125152588 8.49506950378418 8.48484325408936 9.49047470092773 9.69137954711914 8.12038707733154 7.490553855896 6.99541425704956 8.20828533172607 7.58756828308105 6.27500820159912 5.03375291824341 4.31230211257935 4.14645957946777 3.67150664329529 3.640949010849 1.34599125385284 0.833866357803345 2.10514450073242 5.82297086715698
1.96186137199402 0.561338365077972 -0.198165938258171 -1.25542294979095 -1.38880455493927 -1.47320973873138 -1.50280570983887 -2.12557935714722 -2.98497867584229 -1.63115966320038 -1.22428035736084 7.69248867034912 6.78107881546021 3.5219578742981 -0.540785610675812 8.97764205932617 9.98628425598145 15.7561531066895 11.7747144699097 2.85648155212402 6.99516582489014 3.88323140144348 3.17737221717834 2.63425016403198 3.1254346370697 2.45076823234558 14.0209255218506 1.97181117534637 1.66052901744843 0.0165164321660995 0.596583664417267 1.1061977148056 -0.215617850422859 -0.529759526252747 -0.367912650108337 0.313668787479401 0.982695937156677 0.918895781040192 2.88308525085449 1.37529706954956 1.62761521339417 10.8852224349976 9.78811931610107 19.5778064727783 15.7509860992432 13.4388675689697 11.4853372573853 6.70558023452759 3.02924466133118 17.3757057189941 9.68687057495117 34.373836517334 2.88191294670105 1.90549969673157 4.29033374786377 23.4657592773438 21.0813083648682 26.5444622039795 40.5317001342773 33.4448318481445 26.8732624053955 18.4118137359619 21.2653732299805 16.6528606414795 20.1220397949219 20.4766597747803 20.6835861206055 17.3063564300537 14.3611249923706 15.6389102935791 13.9986219406128 13.6926298141479 11.3265438079834 11.5950031280518 10.5933675765991 10.8530921936035 9.95179176330566 9.54146671295166 10.2053117752075 9.85258960723877 9.920334815979 9.05623149871826 8.97914218902588 8.83826446533203 8.79658317565918 8.48806190490723 9.23946285247803 9.4402322769165 9.66054534912109 9.77103042602539 9.57689380645752 9.21292972564697 9.07776832580566 8.31923770904541 14.2676038742065 7.64452362060547 8.02011775970459 8.03287601470947 7.94472026824951 7.93388557434082 7.362220287323 7.63004684448242 7.03707075119019 7.20787239074707 6.1913890838623 5.71518707275391 4.78488445281982 4.57058000564575 4.66933250427246 4.4376745223999 4.46814489364624 4.80163526535034 4.54360485076904 4.08182191848755 3.89084196090698 3.56618928909302 2.66457104682922 3.00891518592834 2.61484432220459 6.94182395935059 2.53310537338257 5.49658012390137 3.92127847671509 1.4150824546814 6.0736780166626 7.85759162902832 1.12627017498016 -0.0536983944475651 1.3886604309082 9.46789932250977 4.36708450317383 3.31701445579529 5.3957781791687 4.89317607879639 3.78086686134338 3.87744164466858 3.80068826675415 3.73205757141113 3.81843304634094 3.78386545181274 3.5902624130249 2.90380024909973 2.40646243095398 1.97312414646149 1.77020573616028 1.86746060848236 1.62732303142548 1.35158002376556 1.8430460691452 1.86073327064514 1.35785055160522 1.58864080905914 1.39212501049042 3.55843639373779 3.51501893997192 7.93212604522705 7.18777275085449 7.38222360610962 8.25548458099365 8.42778873443604 7.17504405975342 6.62204027175903 6.26880598068237 7.10811233520508 6.75566148757935 5.5876669883728 4.56812906265259 4.01242256164551 3.87395811080933 2.47280859947205 1.41866147518158 15.5092725753784 8.80445957183838 4.90086221694946
0.541164636611938 0.338341802358627 0.546828508377075 -1.03073823451996 0.532798051834106 1.7440357208252 -1.72539067268372 -1.85499954223633 -2.34221220016479 7.08688259124756 11.7220945358276 14.4873600006104 1.81367230415344 7.63537359237671 0.0716133862733841 3.26194834709167 3.38323378562927 6.3374137878418 4.98379945755005 9.64288330078125 17.5388088226318 5.4806981086731 3.60438823699951 2.97339844703674 9.78554344177246 2.68378901481628 2.43042230606079 2.2211229801178 1.79569685459137 1.49652504920959 7.99855756759644 0.00809106044471264 -0.0706571340560913 -0.227782815694809 12.8763732910156 14.9770755767822 8.15374183654785 8.85566425323486 4.57818555831909 1.50930845737457 1.27841317653656 11.0758647918701 25.9293632507324 16.4413414001465 16.3946571350098 6.50193786621094 7.6878809928894 4.54461812973022 3.43085861206055 9.03827095031738 4.99282789230347 17.9663906097412 19.0954532623291 32.6744613647461 36.5532150268555 35.8781967163086 26.2950534820557 31.0356979370117 26.5660781860352 28.7346439361572 25.7197113037109 19.2860927581787 17.7017726898193 21.7555618286133 16.4031600952148 15.490758895874 16.7807140350342 15.1791667938232 14.1450529098511 12.4893989562988 13.8897609710693 12.4594411849976 12.2969007492065 10.1664218902588 10.512134552002 9.75051498413086 10.0568294525146 9.29292869567871 8.89284133911133 9.47759819030762 9.18996047973633 9.22038269042969 8.46937274932861 8.41333389282227 8.33412265777588 8.2725076675415 7.9781322479248 8.73690986633301 8.890061378479 8.98021030426025 8.97048282623291 9.07106590270996 8.67652893066406 8.56074905395508 7.86852121353149 7.84983253479004 7.20914649963379 7.05704832077026 7.60261631011963 7.50671672821045 7.61693811416626 6.94172286987305 6.72776794433594 6.65803718566895 6.6684398651123 5.90675592422485 5.46508932113647 4.57858467102051 4.37202501296997 4.46482563018799 4.37668514251709 4.29849433898926 4.62903165817261 4.3799147605896 3.93406867980957 3.20056247711182 3.06547212600708 2.49070024490356 2.94635224342346 12.6604318618774 3.19205045700073 2.43377923965454 2.76459264755249 2.92452573776245 5.76268243789673 1.41361784934998 6.97924375534058 8.20210647583008 12.9040670394897 9.55592632293701 4.7253475189209 3.13783288002014 3.21615242958069 3.38332676887512 4.28436517715454 3.51001954078674 3.75319480895996 3.65551972389221 3.61218738555908 3.69746255874634 3.35380935668945 2.87087988853455 2.12462687492371 2.20934963226318 1.8047331571579 1.69596099853516 1.77556300163269 1.55416619777679 1.26674425601959 1.76156604290009 1.7811518907547 1.30046510696411 1.52116906642914 1.48877930641174 2.27524662017822 2.72123312950134 4.48951816558838 6.08517932891846 6.52120351791382 7.29560470581055 7.44630098342896 6.4306583404541 5.92722463607788 5.65849781036377 6.24176406860352 6.09624624252319 5.04520750045776 4.30950689315796 3.98188185691833 3.25177574157715 12.9862928390503 14.1135015487671 13.5799446105957 21.61669921875
1.13819420337677 0.00621305080130696 0.064813956618309 -0.626244366168976 2.48006725311279 -1.35380077362061 -1.43832325935364 2.94220566749573 11.5122785568237 19.5133571624756 9.63717079162598 0.231861680746078 0.0486541166901588 -0.759041130542755 2.88378024101257 10.1174621582031 0.278312563896179 1.92556476593018 5.31979608535767 10.6099500656128 3.90807271003723 4.91411972045898 2.57149910926819 3.28864908218384 1.77593219280243 2.33824849128723 1.8770045042038 15.1819381713867 2.15615510940552 1.737095952034 1.32372117042542 0.61236959695816 1.86636757850647 12.0975894927979 -0.260828793048859 5.83139753341675 9.82462882995605 5.92489242553711 1.42431712150574 3.60091543197632 19.5293998718262 30.5605583190918 17.4251117706299 19.4888572692871 8.31451320648193 11.696174621582 3.48540449142456 1.69186055660248 2.49237251281738 10.0031433105469 13.3579540252686 25.0639419555664 11.587025642395 8.96035766601562 17.76904296875 23.3193035125732 31.8045120239258 23.128267288208 17.0070381164551 20.6943550109863 19.4810848236084 23.0567226409912 21.5847473144531 21.6987037658691 16.7700729370117 12.471962928772 13.0319671630859 12.4333753585815 13.1451148986816 12.5859527587891 11.2452249526978 12.4637136459351 11.3496589660645 11.17236328125 9.22433185577393 9.69573497772217 9.10698318481445 9.37332534790039 8.71456432342529 8.33383274078369 8.84335422515869 8.60092735290527 8.62529754638672 7.97379970550537 7.93146419525146 7.74364042282104 7.83745622634888 7.70989274978638 7.66183662414551 8.21288776397705 8.37621402740479 8.55476665496826 8.58229732513428 8.20709133148193 8.10978507995605 7.45632266998291 7.43130016326904 6.93127059936523 8.91008472442627 7.21431589126587 7.08779239654541 7.24464178085327 6.59840106964111 6.42193555831909 6.34334421157837 6.36633396148682 5.65635108947754 5.23050785064697 4.9932222366333 4.28514575958252 4.11019563674927 4.20643424987793 4.14464235305786 4.46600198745728 4.21574783325195 3.34949398040771 4.63351249694824 2.93630814552307 3.26201772689819 9.50455570220947 5.68603277206421 2.2491295337677 2.22196650505066 1.71754419803619 1.95492899417877 0.171421945095062 1.3501785993576 3.40475296974182 7.44649028778076 6.60111856460571 4.80708169937134 3.25305962562561 3.03964781761169 3.11631274223328 3.28161096572876 3.98206734657288 3.84533715248108 3.1654965877533 3.23044061660767 3.33763074874878 3.362468957901 2.60513472557068 2.21373748779297 1.94428217411041 2.09374117851257 1.73127567768097 1.61674630641937 1.6953843832016 1.4841513633728 1.18857538700104 1.68693649768829 1.70512390136719 1.6661376953125 1.21869111061096 1.4259420633316 1.81039798259735 2.37700486183167 3.95261001586914 5.28290557861328 5.83374929428101 6.53798723220825 6.67706203460693 5.82442283630371 5.36794185638428 5.14057779312134 5.53678894042969 5.61809349060059 4.66255617141724 3.8972384929657 3.69273591041565 2.57510423660278 4.94753074645996 10.0348491668701 4.86778116226196
2.97261762619019 0.351273328065872 -0.276595264673233 -0.365100592374802 -0.651336371898651 -1.21927750110626 -1.47966551780701 -1.5239235162735 -1.77025830745697 4.35556697845459 4.71823167800903 2.66947746276855 -0.167877674102783 17.2368297576904 21.6794662475586 16.4860229492188 8.19429397583008 8.59893417358398 10.8646240234375 4.50222158432007 9.93007564544678 3.9472439289093 16.2217559814453 12.2834873199463 2.5165479183197 8.4749174118042 2.16211032867432 7.38595867156982 6.3913779258728 1.81315422058105 1.64298105239868 1.6447548866272 1.38920915126801 7.52534341812134 9.23471641540527 19.6761093139648 13.2829074859619 12.1932344436646 13.2843933105469 18.4181175231934 26.398042678833 15.7625179290771 24.1789436340332 25.632719039917 10.4577569961548 7.49093580245972 4.51470375061035 1.75240516662598 17.140172958374 19.184362411499 8.5731372833252 11.240517616272 18.6548252105713 19.324031829834 20.5094757080078 35.5576667785645 32.4599075317383 23.8901329040527 17.3901901245117 16.5338668823242 19.508861541748 23.4455871582031 19.226053237915 17.6211261749268 16.2333831787109 13.9685068130493 12.8052577972412 11.5884866714478 11.3379249572754 11.6522207260132 11.3329362869263 10.3062028884888 11.4028253555298 10.4152679443359 10.2473821640015 8.56334495544434 9.05974102020264 8.55609703063965 8.78543663024902 8.20056533813477 7.82200002670288 8.28268241882324 8.09253025054932 8.12407684326172 7.91973495483398 7.40246200561523 7.41578769683838 7.48710298538208 7.43729591369629 7.39827442169189 7.8788104057312 7.96109056472778 8.14715576171875 8.16722774505615 7.81453561782837 7.70949554443359 7.09063053131104 7.07125568389893 6.55655860900879 6.78244352340698 6.86134672164917 6.73590755462646 6.91607475280762 6.29862689971924 6.13658905029297 6.07663726806641 6.10145616531372 5.42243909835815 5.31126976013184 4.90563917160034 4.11957550048828 3.96049046516418 4.0497670173645 3.99749302864075 4.04515218734741 3.63296890258789 3.27925229072571 4.60845851898193 2.89791345596313 3.49586057662964 4.60739803314209 3.45212125778198 2.05960416793823 1.58159494400024 11.4032878875732 0.58106529712677 3.63181018829346 19.6871242523193 17.8126316070557 5.78946208953857 4.39151287078857 3.2308886051178 2.41023921966553 2.94563627243042 3.01202821731567 2.51291155815125 3.1502091884613 3.58720970153809 2.96918034553528 3.04735207557678 2.45066094398499 2.86440086364746 2.43063998222351 2.04992318153381 1.88279151916504 1.99299108982086 1.64652156829834 1.5405079126358 1.61559224128723 1.41943621635437 1.39009606838226 1.05415499210358 1.58269798755646 1.59983623027802 1.17397546768188 1.3765230178833 1.19899713993073 2.0988552570343 3.54331183433533 4.66642570495605 5.28069877624512 5.9088830947876 6.03416538238525 5.30595445632935 4.84804391860962 4.69399213790894 5.05522394180298 5.12500095367432 4.30965995788574 3.67102193832397 2.58829689025879 2.50517678260803 2.20197772979736 4.68290948867798
2.17654609680176 -0.128880396485329 0.120116949081421 -0.558923840522766 -0.669111669063568 -1.42800259590149 -1.55047917366028 -1.67968058586121 -1.54614639282227 13.7580137252808 3.47958064079285 11.1541814804077 12.2514905929565 22.5050716400146 6.60253381729126 6.18289089202881 10.8667297363281 3.79272961616516 6.98807811737061 9.654541015625 7.73077583312988 4.77782678604126 3.99400186538696 3.58393454551697 2.36713433265686 5.21042203903198 6.16042709350586 4.82478141784668 6.07907819747925 2.33780741691589 6.81427192687988 15.9981250762939 14.4916229248047 12.9876070022583 21.5895156860352 22.9726905822754 23.9071578979492 27.2000389099121 28.1911773681641 28.6947154998779 32.0562934875488 22.3221225738525 21.6441974639893 19.7225551605225 8.20014762878418 12.9799165725708 9.6332311630249 3.84363627433777 27.1388187408447 23.2452220916748 20.6608028411865 22.6399593353271 15.8903522491455 17.701171875 13.1845645904541 21.2576847076416 17.4046955108643 18.8384304046631 19.1159133911133 24.5136337280273 14.4354438781738 17.1817092895508 16.09250831604 16.2197322845459 15.4468994140625 14.729775428772 11.9260730743408 11.0276021957397 10.542088508606 10.4490842819214 10.5077524185181 10.3027830123901 9.46909618377686 10.4623956680298 9.651291847229 9.53814315795898 8.10985088348389 8.53302097320557 8.08664035797119 8.26962471008301 7.73333263397217 7.50542736053467 7.80364513397217 7.57768678665161 7.48492908477783 7.5790867805481 7.14776849746704 7.18053102493286 7.24240446090698 7.15711069107056 7.07462453842163 7.50669813156128 7.57658338546753 7.77922105789185 7.7789511680603 7.40947008132935 7.32859086990356 6.75751876831055 6.73270463943481 6.22748994827271 6.45896911621094 6.54740953445435 6.42348384857178 6.62476873397827 6.04294109344482 5.89158153533936 5.82260322570801 5.83888244628906 5.72811365127563 5.09471750259399 4.70579433441162 3.965327501297 3.81516742706299 3.40186190605164 3.27740907669067 6.77451610565186 3.60070633888245 3.08281064033508 2.86934018135071 2.66982126235962 2.30507969856262 2.59734559059143 1.66421127319336 4.86720943450928 3.40011310577393 0.528004229068756 -0.020659152418375 13.2188339233398 10.1489753723145 9.11649131774902 4.90488576889038 3.27699780464172 2.36837601661682 1.88095188140869 1.94869935512543 1.5356137752533 1.66526198387146 2.78341960906982 3.36265397071838 2.79596376419067 2.87487506866455 2.30773448944092 2.66096878051758 2.30230331420898 1.91464221477509 1.79298174381256 1.90160524845123 1.57368206977844 1.46910202503204 1.54576551914215 1.51586067676544 1.33622145652771 1.00335359573364 1.52456367015839 1.54088175296783 1.13191545009613 1.32623291015625 1.15532207489014 1.87253391742706 3.20536780357361 4.17750453948975 4.8248085975647 5.39747667312622 5.5042142868042 4.83319616317749 4.47055292129517 4.34426689147949 4.58570003509521 4.75373554229736 4.02560138702393 3.90880870819092 2.07578301429749 1.95565378665924 1.02174806594849
3.48421359062195 3.41595053672791 10.302360534668 -0.590063393115997 -0.911572098731995 4.54808902740479 5.99244594573975 -1.27614974975586 4.38476896286011 7.21521759033203 6.05120515823364 7.04432058334351 22.1141662597656 12.1724061965942 16.4862174987793 14.373007774353 13.3640508651733 10.3302698135376 12.4226388931274 10.1621322631836 8.60766696929932 21.568883895874 27.6982536315918 3.43085408210754 2.21157360076904 14.3956327438354 12.5787935256958 6.03012847900391 3.53999161720276 9.86155128479004 19.3452854156494 18.56467628479 14.6305561065674 17.1085090637207 28.1321697235107 19.1561546325684 19.8221912384033 21.4288673400879 17.6471881866455 21.2077255249023 24.1722011566162 17.9230976104736 18.4150009155273 8.5997200012207 16.0597038269043 22.5367908477783 9.90343952178955 21.2846031188965 29.5128402709961 23.1056709289551 18.4202194213867 25.5993843078613 20.1119346618652 32.3339958190918 12.2798290252686 11.9234056472778 16.1774787902832 21.7117118835449 21.6594581604004 37.9930267333984 21.6084117889404 33.6568260192871 15.3595514297485 14.3764400482178 14.4230422973633 13.6402683258057 13.2914714813232 10.9281177520752 9.80950260162354 9.67808818817139 9.60919094085693 9.55634593963623 9.47467517852783 8.77501106262207 9.69755554199219 9.04463005065918 8.98590087890625 7.73739719390869 8.06613922119141 7.6455192565918 7.79527711868286 7.58237314224243 7.10285711288452 6.772780418396 7.22221422195435 7.18723440170288 7.30545806884766 6.91233110427856 6.91224908828735 6.94176197052002 6.84832000732422 6.75642490386963 7.14246606826782 7.19251871109009 7.37654447555542 7.3862771987915 7.04017925262451 6.98104667663574 6.44996500015259 6.42913484573364 5.93236255645752 6.16793251037598 6.25963354110718 6.12709426879883 6.36312294006348 6.24848747253418 5.6939845085144 5.57701539993286 5.45772123336792 5.49148845672607 4.89705753326416 4.51315689086914 3.81449961662292 3.17437958717346 3.27876996994019 3.12671303749084 3.69513297080994 9.48014259338379 2.98664379119873 2.79633665084839 6.7666482925415 4.48098087310791 6.23099136352539 0.844432294368744 2.66206955909729 6.28098630905151 12.0773944854736 12.6613473892212 6.68061828613281 6.75649118423462 6.05698728561401 4.22003412246704 2.63868856430054 2.31166744232178 1.6504887342453 1.4007750749588 1.19071006774902 1.61199915409088 2.51756381988525 3.17942547798157 2.636075258255 2.69976925849915 2.15919733047485 2.39009141921997 2.09907531738281 1.81462490558624 1.71782433986664 1.81790149211884 1.5008362531662 1.41158366203308 1.37898635864258 1.45695149898529 1.28598880767822 0.952942371368408 1.46888816356659 1.48448407649994 1.0929468870163 1.27990078926086 1.11112010478973 1.69646096229553 2.92031335830688 3.77044749259949 4.42550086975098 4.92410373687744 4.98030996322632 4.50276231765747 4.10489845275879 4.06820392608643 4.26850843429565 4.44694519042969 4.28908634185791 2.24955344200134 1.87545430660248 1.61133944988251
3.57694745063782 1.13480448722839 0.585121750831604 -0.163626745343208 -0.768967568874359 -0.996867477893829 1.84693598747253 7.65984582901001 12.6804332733154 -0.822854042053223 7.1712908744812 12.9705982208252 33.5619316101074 18.7056217193604 23.2231979370117 5.05246257781982 6.62069702148438 5.45732975006104 4.85941791534424 16.7529811859131 12.4914884567261 33.1651878356934 7.79476404190063 6.5284218788147 2.61528468132019 16.1900978088379 3.48867750167847 3.04439520835876 5.18770980834961 3.48524332046509 8.5869140625 10.9768390655518 14.9856748580933 15.824933052063 15.1691379547119 18.7858772277832 18.8279323577881 27.5880718231201 17.6785545349121 23.6285991668701 19.1252002716064 18.9719429016113 18.7108993530273 17.8161544799805 20.1950626373291 16.1818809509277 20.4965629577637 22.1823329925537 20.0975494384766 28.062557220459 27.1044006347656 30.7425403594971 18.6436901092529 16.5876579284668 11.3458299636841 11.2310628890991 20.3037738800049 15.051097869873 26.8240375518799 28.7219696044922 23.1012725830078 18.9829864501953 19.4546756744385 13.7737045288086 12.9516372680664 12.892502784729 12.3983459472656 12.181734085083 10.0506792068481 8.70022010803223 8.94845962524414 8.93360328674316 8.88064670562744 8.78524017333984 8.23351001739502 9.1112117767334 8.56096649169922 8.50083637237549 7.18831014633179 7.62745952606201 7.45214748382568 7.06251049041748 7.16423225402832 6.74169063568115 6.47995758056641 6.94844245910645 6.93962097167969 7.00338363647461 6.61664581298828 6.59347724914551 6.62754917144775 6.53436613082886 6.43828248977661 6.77608633041382 6.82933950424194 7.02818775177002 7.03339290618896 6.70227813720703 6.65118265151978 6.15641212463379 6.13183212280273 5.69919919967651 5.89491510391235 6.00325345993042 5.89410400390625 5.81150388717651 6.00126457214355 5.46292161941528 5.3056526184082 5.23344898223877 5.26935434341431 4.71013116836548 4.23741769790649 3.62515234947205 2.8106837272644 2.71599793434143 2.87515950202942 7.41084051132202 3.35408616065979 13.9437494277954 7.80653810501099 3.25553321838379 2.06207895278931 3.00862741470337 0.675465106964111 2.23832654953003 3.22150945663452 6.04764032363892 6.39984560012817 4.48085165023804 5.06446361541748 4.45084571838379 3.77292656898499 2.33898615837097 2.10920596122742 1.39096176624298 1.19933784008026 1.04110014438629 1.20579421520233 2.27283000946045 2.98877358436584 2.45564126968384 2.56769752502441 1.67732763290405 2.04904389381409 1.74656820297241 1.68723487854004 1.5817084312439 1.74203848838806 1.7024689912796 1.40924525260925 1.32322180271149 1.39511215686798 1.23869705200195 0.909179747104645 1.41559839248657 1.43080723285675 1.05600941181183 1.23615193367004 1.07316589355469 1.53536856174469 2.66119837760925 3.40193319320679 4.03439617156982 4.52894115447998 4.66721677780151 4.25300264358521 4.04471921920776 3.73256230354309 3.95390939712524 3.36556053161621 4.03131771087646 21.5080051422119 1.61959409713745
2.85696053504944 2.50739693641663 20.4655895233154 8.2675666809082 1.26076996326447 8.51328945159912 2.34547352790833 5.53193998336792 8.49697113037109 2.37030410766602 12.8227519989014 25.8117084503174 27.5057353973389 27.3411560058594 12.6375284194946 10.9353923797607 19.2922611236572 6.03543615341187 12.3668003082275 27.0645141601562 30.6363277435303 28.5384731292725 18.4422397613525 19.203706741333 13.6712732315063 9.57470607757568 4.46595430374146 3.23261785507202 5.31350183486938 2.43800163269043 5.90598726272583 11.4876661300659 17.0301418304443 26.807315826416 23.0983428955078 22.5828666687012 16.9068012237549 15.4883108139038 16.8798122406006 17.1454372406006 16.0927257537842 14.6521596908569 11.4674243927002 15.1536388397217 16.7612342834473 25.0629405975342 12.7960147857666 15.3392286300659 12.7587871551514 14.6451044082642 20.7993144989014 16.6595458984375 17.8269329071045 15.8455791473389 14.6360635757446 19.2574520111084 31.7481861114502 21.0999011993408 31.8848724365234 18.1145706176758 18.5566501617432 17.4636249542236 16.7982749938965 14.1266222000122 12.4292545318604 11.872444152832 11.6656179428101 11.3190097808838 11.1929712295532 9.28513431549072 8.17340755462646 8.41967868804932 8.41631698608398 8.31305027008057 8.25015258789062 7.85138034820557 8.58994674682617 8.09800434112549 8.03592395782471 7.83962917327881 6.86858606338501 7.04248714447021 6.69552087783813 6.81096649169922 6.48398590087891 6.24659061431885 6.61610078811646 6.58567714691162 6.64291667938232 6.29715013504028 6.25422477722168 6.29904079437256 6.22577381134033 6.14202737808228 6.4511890411377 6.49760246276855 6.70601606369019 6.69859218597412 6.37387275695801 6.34369277954102 5.9002799987793 5.86175155639648 5.74129581451416 5.64605283737183 5.54685115814209 5.6555323600769 5.55877685546875 5.75601387023926 5.23823547363281 5.09099388122559 5.02017736434937 5.04964351654053 4.49107646942139 4.14597415924072 3.50127959251404 21.1349468231201 24.4598426818848 20.7621269226074 4.06347513198853 2.92932844161987 3.80151748657227 7.50512790679932 2.15425610542297 1.50599813461304 2.08057761192322 11.7627468109131 1.86619365215302 2.47037482261658 4.11260509490967 4.25058507919312 3.40644431114197 4.06528091430664 3.6420886516571 3.2562050819397 1.85334169864655 1.73892140388489 1.22311246395111 1.07354950904846 0.944689333438873 1.04850840568542 2.06496405601501 2.79879689216614 2.35072994232178 2.43887543678284 8.49494361877441 1.97793328762054 4.22011041641235 1.61394214630127 1.37475097179413 1.25399506092072 1.5749226808548 1.29142796993256 1.22697365283966 1.3030161857605 0.899365961551666 0.860584676265717 1.35991024971008 1.38320469856262 1.01556408405304 1.18698024749756 1.02506041526794 1.3789370059967 2.42531704902649 3.07803082466125 3.79107785224915 4.24044132232666 4.35415267944336 4.20893716812134 3.79865050315857 3.50949382781982 3.67240405082703 3.51173281669617 2.18367147445679 2.52485609054565
2.83038377761841 6.12827491760254 1.13161885738373 0.322546720504761 1.79915523529053 -0.0291050020605326 4.25503826141357 13.7934684753418 -0.755505442619324 5.63778448104858 25.3869380950928 27.8627586364746 25.1601715087891 23.3165168762207 13.2874412536621 12.9299631118774 10.4140377044678 15.7078733444214 12.7956104278564 24.0896739959717 26.2295475006104 12.8252935409546 15.7154998779297 8.78319358825684 7.02066993713379 3.74172306060791 11.6840543746948 7.74225568771362 8.19172763824463 7.24738311767578 39.6985130310059 27.0846881866455 25.4736328125 32.975715637207 21.7395839691162 12.5724754333496 13.7921886444092 15.0380544662476 12.1795082092285 14.7846355438232 13.3282995223999 14.9222860336304 13.226450920105 11.5225143432617 11.2356081008911 13.351921081543 16.5593681335449 9.75506019592285 9.59375381469727 9.81688785552979 13.2680711746216 18.1415767669678 35.5498924255371 15.595573425293 14.9920320510864 22.7415332794189 18.6062145233154 27.3378639221191 19.8996315002441 18.7518329620361 14.9729347229004 14.9057846069336 15.6332883834839 14.9435625076294 12.8738765716553 11.3782072067261 10.9230680465698 10.6484804153442 10.4361772537231 10.359167098999 8.69798564910889 7.82015895843506 7.9748592376709 7.95558834075928 7.83501672744751 7.76320791244507 7.53019857406616 8.1053352355957 7.86853981018066 7.47888612747192 7.41676807403564 6.53130149841309 6.68921279907227 6.39619541168213 6.49335765838623 6.15846490859985 5.88142919540405 6.23580026626587 6.23924541473389 6.29515790939331 5.9749608039856 5.94355058670044 6.0035457611084 5.95195865631104 5.85772752761841 6.15527725219727 6.18555688858032 6.38752365112305 6.38580560684204 6.08095359802246 6.07262659072876 5.96231079101562 5.54405736923218 5.50598907470703 5.29803419113159 5.3164496421814 5.4281964302063 5.33182144165039 5.5302529335022 5.03008270263672 4.87808513641357 4.80692577362061 4.84097146987915 4.33173370361328 3.98536419868469 3.36052060127258 10.3653030395508 12.1207866668701 10.5287742614746 2.56315231323242 2.18211507797241 2.42948031425476 2.66907906532288 7.09498310089111 7.30506324768066 7.48674631118774 5.97731685638428 1.61092746257782 1.98371613025665 3.06964015960693 3.1900577545166 2.7343921661377 2.62552332878113 3.08355569839478 2.96648049354553 1.74791300296783 1.4851131439209 1.07946121692657 0.914206802845001 0.907648682594299 0.97334760427475 1.96631002426147 2.68739104270935 2.23424053192139 2.32341575622559 4.18709468841553 7.92796897888184 3.69230890274048 1.69583117961884 3.37747764587402 3.08001494407654 1.47227382659912 1.2047256231308 1.14174127578735 0.778153836727142 0.765982210636139 0.332498639822006 1.15606415271759 1.32732784748077 0.975658595561981 1.14209592342377 0.977919459342957 1.22818684577942 2.23543572425842 2.92215991020203 2.86090350151062 3.4610435962677 3.87574672698975 3.95977234840393 3.58825039863586 3.30224990844727 3.2985999584198 3.31062650680542 11.4644231796265
3.15703582763672 2.33747267723083 2.21306657791138 6.65343713760376 17.3633804321289 0.0988870561122894 -0.317218780517578 1.27549779415131 4.76706743240356 17.3713874816895 17.7314033508301 30.9653415679932 26.0837173461914 18.8955478668213 10.2946643829346 12.4905118942261 11.8931102752686 10.0262870788574 19.6744747161865 20.859432220459 12.1726865768433 16.0125923156738 10.2375297546387 8.59759140014648 6.35432720184326 5.30847406387329 2.97345495223999 4.94652318954468 11.0038394927979 11.3262233734131 18.5471611022949 20.5525360107422 23.6729965209961 22.2537746429443 15.1584424972534 13.3671274185181 9.6008243560791 7.43098926544189 10.9745397567749 10.9365863800049 11.0145292282104 10.8924150466919 12.5126323699951 10.4274101257324 15.7151489257812 10.7972612380981 18.777925491333 20.723705291748 29.5541114807129 38.8245811462402 31.8913383483887 27.2075290679932 27.3594512939453 18.1788196563721 15.4521961212158 23.6991882324219 23.9215984344482 26.8228130340576 20.3072776794434 15.7551975250244 13.2656898498535 13.1433248519897 13.3604793548584 14.0530633926392 13.4960689544678 11.8657131195068 10.5541038513184 10.1226453781128 9.81171607971191 9.75159740447998 9.71538829803467 8.35059452056885 8.02232646942139 7.37484407424927 7.33275032043457 7.36650276184082 7.3046932220459 7.16900777816772 6.76004362106323 7.43923091888428 7.08536863327026 7.03212547302246 6.23038196563721 6.31756544113159 6.03608512878418 6.12134218215942 5.82693433761597 5.56930828094482 5.91830825805664 5.93629026412964 5.98294162750244 5.68966150283813 5.66550922393799 5.72532176971436 5.68023252487183 5.58971500396729 5.84800291061401 5.88913297653198 6.09748649597168 6.1099066734314 6.00335311889648 5.72677612304688 5.72542238235474 5.32440710067749 5.28075647354126 4.85878849029541 5.09423398971558 5.20625400543213 5.12843179702759 5.31242990493774 4.82335758209229 4.68389749526978 4.60694217681885 4.65371561050415 4.1585431098938 3.80649757385254 3.1688175201416 5.92609024047852 7.34837055206299 6.45808792114258 15.5461931228638 4.92899465560913 0.46928271651268 6.84911727905273 3.5943238735199 3.66202449798584 3.78981161117554 3.90183544158936 2.41746854782104 1.29907333850861 2.46426153182983 2.59133529663086 2.36185383796692 2.27329850196838 2.70905876159668 2.77514982223511 1.49656343460083 1.31919527053833 1.01979625225067 0.822290122509003 0.809273719787598 0.881495177745819 1.80813038349152 2.57991528511047 2.15692710876465 2.22871017456055 2.77998685836792 3.89765048027039 2.41744184494019 1.17071008682251 1.20217990875244 1.35346591472626 1.34779524803162 0.833326637744904 0.771118462085724 2.88039135932922 0.72185081243515 2.16250777244568 4.59560489654541 1.2761127948761 0.934780240058899 1.09083664417267 0.931191802024841 1.17146015167236 1.17159247398376 2.67886233329773 2.62124681472778 3.26105070114136 3.65466046333313 3.72960329055786 3.40408611297607 3.13179159164429 3.12023282051086 2.33011889457703
2.65948581695557 1.81571733951569 7.8196005821228 2.11950349807739 0.992617607116699 0.664473354816437 -0.352788507938385 15.3280611038208 27.2474002838135 18.919340133667 16.8507785797119 30.6635932922363 22.3108539581299 22.3569927215576 14.2887897491455 9.35608386993408 16.5139274597168 9.89829540252686 24.0845546722412 14.1121654510498 10.11891746521 10.8920984268188 12.4172525405884 2.97304725646973 5.71349620819092 11.5602979660034 4.33308935165405 19.2211227416992 11.5470504760742 10.9463958740234 12.6406650543213 20.8033351898193 18.9226322174072 15.8880453109741 16.6978168487549 10.4592180252075 8.51257419586182 5.80844449996948 6.34578800201416 8.02181816101074 14.2015933990479 22.1080303192139 9.97116184234619 10.6201725006104 10.4705247879028 10.4111289978027 9.81621170043945 13.2243995666504 17.4634799957275 24.9507694244385 27.2787094116211 16.8077392578125 19.1212482452393 13.0371103286743 16.1868286132812 31.9899139404297 22.5888767242432 19.546781539917 16.7527694702148 15.5877647399902 12.6601972579956 11.4524593353271 11.5404405593872 12.1281795501709 12.7982082366943 12.3040838241577 10.9859037399292 9.82551383972168 9.45484161376953 9.20634269714355 9.19798946380615 9.19153690338135 8.91448783874512 7.58827972412109 6.60869693756104 6.94612312316895 6.93405246734619 6.76775455474854 6.84754133224487 6.40059232711792 7.04225301742554 6.73459815979004 6.62855195999146 5.88543844223022 5.96503305435181 5.70224714279175 5.79055786132812 5.53044939041138 5.28896379470825 5.630934715271 5.64445829391479 5.68846940994263 5.42030000686646 5.39118719100952 5.4616641998291 5.3680567741394 5.33187913894653 5.57198047637939 5.61138963699341 5.60664033889771 5.74913740158081 5.75595140457153 5.48979568481445 5.49730014801025 5.11216497421265 5.09570026397705 4.65437889099121 4.88439989089966 5.00149869918823 4.92588901519775 5.11044836044312 4.62901830673218 4.48997831344604 4.42055559158325 4.46724605560303 3.96252393722534 3.58364510536194 2.96393322944641 3.74083709716797 5.02050638198853 4.66449069976807 7.6944375038147 3.75891447067261 13.4925003051758 3.30048418045044 2.70078611373901 2.46730160713196 2.49571752548218 2.98304438591003 2.2698814868927 0.932251334190369 1.31869804859161 1.88799583911896 1.98891830444336 2.06731247901917 2.38159561157227 2.55921745300293 1.83368110656738 1.19490802288055 0.833449602127075 0.765386641025543 0.775445699691772 0.804994463920593 1.43588006496429 2.45863509178162 2.08668494224548 2.121248960495 2.21022582054138 2.53199315071106 1.84136652946472 2.51105737686157 4.10041379928589 1.2315366268158 1.00052809715271 0.62177586555481 4.51278972625732 0.285625636577606 11.0677261352539 9.3528356552124 2.00131034851074 1.22091317176819 0.897001624107361 1.05448162555695 1.04165542125702 0.603782534599304 1.05529057979584 1.97150266170502 2.47996234893799 3.09216165542603 3.4631814956665 3.54035353660583 3.22399878501892 2.97517609596252 2.95990777015686
2.13683295249939 1.63259410858154 1.3020761013031 1.21310651302338 1.53099608421326 7.07024335861206 -0.00937396660447121 -0.405202209949493 9.31096649169922 17.5030918121338 22.3414077758789 26.067834854126 19.3814792633057 17.058837890625 13.4562177658081 11.4882640838623 25.2384128570557 12.3564786911011 25.9767036437988 15.0476036071777 11.0635080337524 9.79037952423096 7.38841772079468 7.89828968048096 27.539608001709 8.98672676086426 8.31754875183105 13.9005966186523 10.9464101791382 11.5266542434692 17.7389812469482 17.6095409393311 17.752010345459 18.6076698303223 15.3217430114746 9.25550556182861 5.52511358261108 5.9131441116333 5.69749355316162 10.0354223251343 7.77139520645142 10.8867130279541 9.47246932983398 27.1129989624023 29.9826965332031 13.7657699584961 21.5944805145264 31.0160083770752 21.544116973877 15.5961446762085 14.52024269104 15.1726179122925 12.8001365661621 16.9815444946289 25.1684551239014 23.1477756500244 15.2158441543579 14.2073755264282 12.9280004501343 13.7387142181396 12.5818939208984 11.1308317184448 10.4355688095093 10.3392658233643 11.1183204650879 11.7364206314087 11.2826671600342 10.2169952392578 9.21993160247803 8.94000053405762 8.64620876312256 8.55557155609131 8.42954349517822 8.41060924530029 7.18808746337891 5.37139511108398 6.58456993103027 6.57300662994385 6.45832395553589 6.54508972167969 6.06882619857788 6.6546835899353 6.34995269775391 6.26161050796509 5.58236837387085 5.63579940795898 5.40750455856323 5.49021816253662 5.25528144836426 5.04095983505249 5.34572839736938 5.37165451049805 5.40435981750488 5.15845060348511 5.12664222717285 5.04374599456787 5.12640857696533 5.10010528564453 5.01321983337402 5.2970814704895 5.27228689193726 5.50385522842407 5.51871585845947 5.25961208343506 5.27937126159668 4.90842199325562 4.88886022567749 4.46980714797974 4.67973709106445 4.80259037017822 4.7331371307373 4.90502834320068 4.44464683532715 4.31342887878418 4.22908163070679 4.26774740219116 3.76830792427063 3.40509033203125 2.82264852523804 2.75736021995544 3.795494556427 3.97717571258545 5.05828666687012 13.8829641342163 6.73803472518921 2.13892507553101 2.26146864891052 1.77979612350464 1.84484934806824 2.38959145545959 2.17252087593079 0.859805226325989 1.19469547271729 1.68494296073914 1.78926038742065 1.82277417182922 2.14132261276245 2.33489084243774 1.69096505641937 1.12207531929016 0.805654108524323 0.71868771314621 0.731622457504272 0.759603559970856 1.38064813613892 2.341064453125 2.2864077091217 1.9251434803009 2.04480385780334 1.56044161319733 1.41431534290314 8.27537250518799 1.15280568599701 1.18422830104828 6.32219314575195 0.0980214625597 4.58265209197998 26.2301845550537 5.82932138442993 5.15210437774658 1.44562840461731 1.18897044658661 0.777463018894196 0.514729082584381 0.909706175327301 0.59227329492569 1.01461803913116 1.87347960472107 2.3490424156189 2.94204187393188 3.2860279083252 3.35460090637207 3.06607246398926 2.8244526386261
2.76664257049561 2.75044536590576 13.361647605896 0.824656903743744 27.7797985076904 2.33244347572327 0.190726757049561 -0.16462467610836 10.2091875076294 8.08607959747314 14.0649719238281 13.9115333557129 21.7298812866211 12.0512809753418 13.7472114562988 10.5880661010742 18.6350193023682 19.5157794952393 11.685489654541 14.173996925354 10.6292123794556 7.16123485565186 5.94556617736816 4.65820550918579 5.16725492477417 16.1478614807129 4.56248331069946 4.65800428390503 4.27179479598999 8.91067600250244 14.8192939758301 15.2674837112427 16.6920890808105 15.262149810791 11.4812688827515 8.25419044494629 5.27213668823242 4.52488708496094 4.93237113952637 4.87461376190186 5.68103790283203 13.2633447647095 9.40232944488525 30.7164440155029 18.6888599395752 12.661563873291 24.5468883514404 19.6534519195557 23.5427112579346 12.2838153839111 10.4884471893311 27.4543476104736 28.7204170227051 24.0554847717285 8.7910623550415 8.80090045928955 11.8441543579102 12.3709726333618 10.8881368637085 16.3051319122314 11.723051071167 10.7048225402832 10.1188659667969 9.60652923583984 9.3738842010498 10.2550888061523 10.8250131607056 10.4101314544678 9.55894947052002 9.27304649353027 8.45339012145996 8.18148517608643 8.02316284179688 7.98386764526367 7.96299314498901 6.81373453140259 5.38266611099243 6.25930452346802 6.25963449478149 6.18043661117554 6.25151824951172 5.78605031967163 6.28635692596436 6.01091384887695 5.91629600524902 5.29781627655029 5.34992218017578 5.13816833496094 5.22475385665894 5.01619243621826 4.78374719619751 5.07338237762451 5.10221195220947 5.14058065414429 5.06209087371826 4.82976388931274 4.81041765213013 4.88612079620361 4.84061193466187 4.78082180023193 5.07873868942261 5.03781509399414 5.27304983139038 5.28583574295044 5.03585910797119 5.06245565414429 4.70534181594849 4.6861572265625 4.27625560760498 4.48303699493408 4.60154390335083 4.54436588287354 4.70584440231323 4.27594375610352 4.13348817825317 4.05083894729614 4.08658170700073 3.60350108146667 3.27865743637085 2.48414826393127 2.05596375465393 2.30665397644043 3.3823230266571 3.78050661087036 7.03874254226685 4.59248018264771 1.82424533367157 1.91918635368347 1.55077981948853 1.45429158210754 1.61828422546387 1.88665747642517 0.788952350616455 1.07763028144836 1.51559245586395 1.56646418571472 1.68873369693756 1.98891794681549 2.20663499832153 2.12466216087341 1.0483466386795 0.761815547943115 0.663967430591583 0.717784106731415 0.742533266544342 1.33293783664703 1.42525899410248 2.20344281196594 1.84585905075073 1.97324514389038 1.55563342571259 6.45365476608276 4.41310501098633 3.92239809036255 1.06017422676086 4.78782558441162 28.5962390899658 3.61747074127197 13.5461339950562 3.75979232788086 3.42961525917053 1.2264062166214 0.605710089206696 0.620599508285522 0.685616612434387 0.377906769514084 0.342905282974243 0.980090737342834 1.78591871261597 2.22473931312561 2.79139637947083 3.12137889862061 3.18645429611206 2.91597247123718
3.83370208740234 2.38801312446594 2.05585312843323 1.39853477478027 15.3757963180542 8.7258882522583 9.66829681396484 10.7400598526001 27.5126304626465 22.4485397338867 18.6974697113037 24.3120269775391 11.5665063858032 14.7268352508545 11.4704322814941 9.66851139068604 25.3881969451904 13.493932723999 11.8402557373047 10.0920610427856 9.62776184082031 9.00485610961914 7.49400091171265 21.0704975128174 4.49136018753052 4.8117208480835 5.90469408035278 4.3827919960022 19.0033512115479 22.2585563659668 24.1610660552979 21.3255920410156 13.221755027771 12.9125747680664 9.14727401733398 7.23549842834473 7.00084018707275 4.95080757141113 10.4605598449707 4.29664659500122 32.4890213012695 26.0962390899658 27.4838466644287 26.3440933227539 18.0026950836182 11.5509395599365 14.9348735809326 11.8146991729736 17.2431335449219 19.5091590881348 25.2852191925049 33.9841842651367 11.0659809112549 9.16324615478516 15.3880233764648 7.65307140350342 11.6669034957886 11.3491973876953 25.9564800262451 32.8443946838379 12.4662132263184 10.5446395874023 9.79855728149414 9.29441261291504 8.94266223907471 8.60453510284424 9.51021385192871 10.0517454147339 9.67336559295654 8.72422409057617 8.75637531280518 8.02042102813721 7.75443315505981 7.61519908905029 7.57374143600464 7.5452733039856 6.47564172744751 5.07672214508057 5.9663667678833 5.94183969497681 5.90101194381714 5.9623498916626 5.62501573562622 5.94531393051147 5.68959856033325 5.60748100280762 5.05352640151978 5.08799982070923 4.90354824066162 4.97441720962524 4.76716327667236 4.68975067138672 4.82200527191162 4.75483369827271 4.77337884902954 4.81284523010254 4.61191654205322 4.56335163116455 4.61977672576904 4.62372970581055 4.56149339675903 4.86149263381958 4.81359624862671 5.04635286331177 5.06330108642578 4.82501316070557 4.84379577636719 4.48804807662964 4.47841501235962 4.09167814254761 4.28567171096802 4.40399217605591 4.36472606658936 4.53193187713623 4.1093487739563 3.96702432632446 3.89192676544189 3.93023252487183 3.36001014709473 2.77924752235413 0.959551692008972 0.81868976354599 2.13378429412842 3.00321292877197 3.0779402256012 4.72304916381836 3.93238735198975 1.61591041088104 1.74105632305145 1.42121136188507 1.2158350944519 1.52237224578857 1.67632734775543 0.712609171867371 0.995942294597626 1.37056457996368 1.43360733985901 1.55081987380981 1.83594381809235 1.62224268913269 2.01596736907959 0.983188569545746 0.711932420730591 0.646466314792633 0.697308838367462 0.715830206871033 0.702008605003357 1.35328507423401 1.60393142700195 1.62802481651306 1.90440034866333 1.49624645709991 1.29847037792206 1.12561404705048 2.5923957824707 6.93643474578857 4.12490797042847 15.1889581680298 2.9265124797821 9.40084362030029 2.98823022842407 2.56531858444214 2.26920986175537 0.943074524402618 0.519140183925629 0.41873162984848 0.357996076345444 0.392984330654144 0.944018065929413 1.69894766807556 2.11104035377502 2.66040134429932 2.97796845436096 3.04072403907776
3.05355715751648 2.37418389320374 14.0896797180176 1.61507546901703 9.02860069274902 11.4331464767456 7.25564241409302 1.61744093894958 10.4423017501831 15.9779958724976 26.9336719512939 19.7745761871338 10.1160411834717 8.71412181854248 9.66523361206055 17.8990516662598 20.9160823822021 16.0739250183105 11.4150438308716 12.0240659713745 8.0568962097168 8.84755897521973 7.52674055099487 6.8930459022522 6.51943826675415 11.5724363327026 9.05049896240234 16.3856391906738 21.0127696990967 15.7639741897583 21.5521697998047 21.6450328826904 10.7668952941895 11.9899787902832 7.21217393875122 5.80960464477539 5.55450582504272 12.5035533905029 4.60614061355591 8.64319229125977 33.1508140563965 24.5385398864746 29.3908290863037 18.5288219451904 8.4098072052002 12.4091157913208 22.1953182220459 22.0202217102051 11.3854942321777 16.9827632904053 17.8028202056885 10.2993907928467 9.42996501922607 8.62100124359131 8.70512866973877 13.0843420028687 35.3657836914062 7.41315603256226 9.41060066223145 11.5040616989136 17.1753273010254 11.3915529251099 9.55271148681641 9.02964115142822 8.630051612854 8.27416801452637 8.07668113708496 8.86949920654297 9.3810453414917 9.06855201721191 8.79132652282715 8.29459285736084 7.62175512313843 7.35606527328491 7.23310613632202 7.1944465637207 7.16363573074341 6.15579795837402 4.77047157287598 5.65916967391968 5.63322734832764 5.62742567062378 5.68595314025879 5.56797552108765 5.62664461135864 5.39800024032593 5.32948303222656 4.82591342926025 4.84444284439087 4.66396999359131 4.73057699203491 4.65608739852905 4.47582149505615 4.35040616989136 4.49972915649414 4.55181217193604 4.5848331451416 4.37997484207153 4.33218288421631 4.41615056991577 4.41662931442261 4.34893560409546 4.64930152893066 4.58357715606689 4.83345365524292 4.85268688201904 4.60968160629272 4.62638473510742 4.30151414871216 4.29035758972168 3.92428517341614 4.09855890274048 4.2424259185791 4.20925807952881 4.36737060546875 3.94728112220764 3.81868648529053 3.74887466430664 3.22843050956726 1.26922821998596 0.85342264175415 1.07281541824341 1.40279757976532 2.03597855567932 2.74805474281311 2.5276985168457 3.56404232978821 3.34739065170288 2.46723985671997 1.54720294475555 1.28982448577881 1.17059195041656 1.36817765235901 1.47426009178162 0.97148984670639 0.921011745929718 1.2380223274231 1.29425227642059 1.43082332611084 1.69528639316559 1.50092053413391 1.8982344865799 1.00402462482452 0.878714084625244 0.626891255378723 0.672380983829498 0.684319496154785 0.654006361961365 0.680885493755341 1.53796470165253 1.41831624507904 1.84262716770172 1.4110506772995 10.4142389297485 1.14579343795776 3.06786370277405 3.21180295944214 3.30651473999023 10.549506187439 2.43532729148865 7.17328596115112 2.45891284942627 2.19633150100708 1.99812710285187 0.8482666015625 0.507049858570099 0.406178802251816 0.348078519105911 0.340466290712357 0.913098156452179 1.62568795681 2.00298738479614 2.54746437072754 2.84718108177185
3.78811049461365 2.38906717300415 10.0912733078003 3.36647510528564 23.8247299194336 21.019344329834 10.3129844665527 9.33608245849609 13.2282810211182 18.8612289428711 20.293119430542 19.5567493438721 12.4315948486328 8.46239948272705 18.289379119873 18.7085876464844 15.2127599716187 15.7712631225586 11.4840269088745 13.6682653427124 8.55824089050293 6.9569411277771 6.56265640258789 11.1414756774902 6.31293392181396 5.81921577453613 9.52352523803711 9.09734916687012 21.7939891815186 21.7287330627441 22.6192226409912 18.3319034576416 15.4328155517578 11.9780054092407 6.60586547851562 5.77185773849487 9.78499221801758 4.94738054275513 5.84262132644653 21.0748844146729 13.4002056121826 20.5061454772949 23.3010540008545 19.5865421295166 11.915843963623 40.473331451416 28.5371532440186 19.1641998291016 19.279203414917 30.0531024932861 9.62756729125977 9.17048454284668 9.92446708679199 10.8334636688232 35.983455657959 7.54328298568726 7.66477632522583 19.5196094512939 7.13838243484497 14.3413524627686 11.4781475067139 11.0207834243774 10.47633934021 8.73260498046875 8.37967491149902 8.10313415527344 7.69237184524536 7.61421060562134 7.47642278671265 8.05009651184082 8.54794502258301 8.29910182952881 7.88109064102173 7.24986219406128 6.98251390457153 6.88022994995117 6.83807039260864 6.80018138885498 5.84686279296875 5.57281017303467 5.36359548568726 5.33801174163818 5.22250509262085 5.26099109649658 5.30875539779663 5.32918739318848 5.13209342956543 5.06686687469482 4.47238492965698 4.59709930419922 4.5195369720459 4.38016319274902 4.44023036956787 4.25708913803101 4.16276550292969 4.28983783721924 4.34813976287842 4.3687424659729 4.18708801269531 4.1331901550293 4.21379995346069 4.21546602249146 4.14974021911621 4.43194580078125 4.35973024368286 4.61121225357056 4.63486194610596 4.41526985168457 4.44458150863647 4.14725399017334 4.10635471343994 3.75915765762329 3.94346117973328 4.08999729156494 3.97401261329651 3.9377658367157 3.62359285354614 3.33225154876709 3.01218938827515 1.1465095281601 0.792290568351746 0.654730260372162 0.999650537967682 1.25904273986816 1.93336975574493 2.57812643051147 2.30874681472778 2.85870146751404 2.90911626815796 2.1198456287384 1.42653918266296 1.22758305072784 1.07739222049713 1.24704444408417 1.31976211071014 0.911214292049408 0.842345118522644 1.12599241733551 1.17594861984253 1.32025933265686 1.56484234333038 1.44710993766785 1.77768301963806 0.92667818069458 0.8141850233078 0.5807244181633 0.524958431720734 0.501639664173126 0.140557587146759 0.637311458587646 5.05884313583374 1.40663182735443 0.865911841392517 0.811551749706268 1.20899879932404 11.1240644454956 2.37439608573914 2.27692532539368 2.67476630210876 7.9459023475647 3.1329071521759 5.74490404129028 5.20065307617188 1.91300737857819 1.74379277229309 0.726952493190765 0.494133204221725 0.394285827875137 0.343725651502609 0.332766056060791 0.864381432533264 1.55022799968719 1.91864717006683 2.43449711799622
