NCOLS 174
NROWS 32
XLLCORNER 353808
YLLCORNER 6700224
CELLSIZE 16 
NODATA_value -3.4e+38 
6.02019691467285 2.26365637779236 2.27231740951538 2.57488989830017 2.55714106559753 2.06509470939636 2.17158675193787 2.01428556442261 2.0966329574585 1.52315700054169 1.56050515174866 1.81732845306396 2.69851493835449 3.34766745567322 5.07649850845337 2.33241629600525 2.53675556182861 2.65958571434021 2.77588748931885 2.78323721885681 2.90469646453857 3.02125787734985 3.09379482269287 3.2413854598999 3.44778752326965 3.66733741760254 3.65049266815186 3.90517663955688 4.31062126159668 5.11433935165405 5.3889627456665 5.92411375045776 6.23446130752563 7.06558465957642 7.94234323501587 7.91429567337036 9.26272773742676 10.6890964508057 12.5157089233398 11.766716003418 12.258544921875 14.0757141113281 17.3941402435303 23.9308433532715 48.2965545654297 4.99395179748535 3.08896231651306 4.3759446144104 1.12612462043762 4.30671453475952 6.49275875091553 4.69211483001709 9.8269157409668 16.8157749176025 13.4196920394897 21.5275115966797 25.6283168792725 20.5942974090576 4.50129461288452 7.71049928665161 2.17825317382812 2.26880359649658 2.13304138183594 25.7593669891357 3.18728089332581 7.0788688659668 10.125036239624 4.59057378768921 4.6119704246521 4.9834303855896 4.64166831970215 4.13059234619141 5.3077974319458 5.46473073959351 5.77707672119141 11.097559928894 11.4060373306274 33.5962905883789 4.46308994293213 7.02213001251221 27.0355033874512 4.6690502166748 5.93982839584351 6.78682327270508 6.77556085586548 21.2873878479004 31.2835369110107 53.9559555053711 30.6085968017578 13.1056299209595 4.64366149902344 2.94041538238525 11.9449119567871 4.76754951477051 5.55088472366333 6.96322536468506 27.7092208862305 6.6353759765625 7.66038703918457 9.45736885070801 14.9303779602051 17.1656684875488 21.164363861084 38.2964401245117 13.2819128036499 17.8308258056641 18.7925395965576 15.8443555831909 9.17011070251465 8.96466636657715 0.803372919559479 1.21310663223267 11.4707479476929 11.2079763412476 19.9520568847656 6.39196300506592 42.8006820678711 14.1504526138306 -0.392787396907806 9.91008472442627 6.9191689491272 -0.55046284198761 3.76874852180481 18.4895114898682 -0.981808602809906 0.188639938831329 7.09651613235474 9.40763187408447 14.3944139480591 19.4041786193848 24.4648723602295 58.2695693969727 4.46932411193848 5.70578765869141 11.5520353317261 9.10498523712158 11.9192924499512 7.0964183807373 17.9796009063721 7.22957038879395 20.2496147155762 1.0627681016922 24.1939964294434 1.97461760044098 27.1021461486816 2.26283383369446 4.59670877456665 -5.08126306533813 -4.75649356842041 -3.11446762084961 -0.0943558663129807 4.76860523223877 8.40780925750732 31.6764335632324 29.5583534240723 19.5946788787842 1.39982867240906 6.31550216674805 12.4589500427246 18.9082088470459 14.5826606750488 24.109733581543 14.9711055755615 2.10798931121826 7.90993118286133 -0.102486990392208 0.105637140572071 0.299881458282471 0.649247646331787 1.0588082075119 1.21667122840881 5.64152002334595 1.95129585266113 2.7566123008728
4.6241626739502 4.37161540985107 1.59922540187836 1.81778788566589 1.84028828144073 1.96208465099335 1.40571904182434 1.43313407897949 1.61887419223785 1.75821220874786 1.93842828273773 2.31618881225586 1.89193964004517 2.01364469528198 2.26370000839233 2.45074987411499 2.47406506538391 2.58402180671692 2.68610095977783 2.76083374023438 2.88906693458557 3.01888656616211 38.961254119873 0.703268766403198 1.38950395584106 1.99652421474457 3.39317917823792 4.30793237686157 4.42024946212769 4.43670082092285 4.8575119972229 5.376380443573 5.72670555114746 6.29995346069336 7.20476293563843 7.87510204315186 7.47180604934692 8.61103630065918 9.4913444519043 10.5104379653931 10.9161005020142 15.3946561813354 19.6464366912842 26.7392520904541 35.163028717041 9.41105365753174 10.7673063278198 9.8944845199585 4.62260246276855 8.96724510192871 5.94764852523804 9.6533088684082 10.7484045028687 15.2103977203369 24.166576385498 21.7274398803711 10.8634557723999 15.5915155410767 3.77484440803528 1.9272712469101 3.69833946228027 2.12084531784058 7.3643684387207 4.36148357391357 21.8833179473877 3.73208260536194 4.13318347930908 4.02700519561768 17.0389633178711 3.35211491584778 3.63624310493469 5.24927854537964 5.08766794204712 5.66918087005615 22.4317493438721 7.92120361328125 23.8586616516113 5.06214714050293 8.861891746521 12.2211008071899 4.82960367202759 5.64939212799072 12.3108739852905 13.6153421401978 14.6540412902832 21.327600479126 35.6894607543945 46.6485824584961 27.8883152008057 15.7729806900024 13.8639259338379 2.250079870224 3.50310134887695 4.99068450927734 11.3090972900391 22.2719497680664 14.7381887435913 2.65853548049927 5.73272752761841 8.33196830749512 12.0154266357422 13.3279962539673 19.7665195465088 17.8798179626465 31.3891658782959 13.8698616027832 34.430061340332 16.0506267547607 4.53370046615601 26.7261905670166 0.851547718048096 3.91498947143555 6.27936840057373 7.25668478012085 18.3547801971436 7.80936717987061 29.985595703125 3.77956795692444 22.9354457855225 4.37211513519287 3.12552165985107 0.58171933889389 10.1278057098389 -0.610419511795044 -0.165751740336418 -0.0621094033122063 4.98558712005615 7.41380882263184 19.9844856262207 9.4639310836792 11.2437324523926 9.5759973526001 10.4251432418823 4.5738787651062 17.2907962799072 5.31802177429199 10.3535575866699 17.8009548187256 10.946551322937 16.2389030456543 5.9453067779541 25.0084056854248 22.3290615081787 0.959999084472656 2.0350182056427 2.54925227165222 -0.421589195728302 -3.79894590377808 -2.84684538841248 -2.35056328773499 -1.77988815307617 -2.62004947662354 2.68366622924805 -1.19106638431549 20.623929977417 17.4558734893799 23.257740020752 7.64570188522339 11.54625415802 13.2159242630005 20.5495529174805 18.309326171875 5.90418434143066 14.1867179870605 0.174231201410294 0.186707898974419 0.492682546377182 0.776119291782379 1.68531942367554 1.51967823505402 1.77560794353485 1.98657953739166 15.4411535263062 2.36961460113525
4.96742248535156 2.78185176849365 1.61004686355591 1.13533782958984 1.21550321578979 1.45468974113464 1.51286399364471 1.65511655807495 2.48836612701416 1.57817220687866 1.72860777378082 1.86248159408569 1.95039308071136 2.02050948143005 2.24483013153076 2.38428664207458 2.46768951416016 2.58796715736389 2.70887804031372 11.763786315918 37.6567001342773 2.68691778182983 2.49876689910889 2.09067535400391 2.54546141624451 2.83986759185791 3.58331441879272 3.78738355636597 3.99381375312805 4.27658271789551 4.64332962036133 4.95893096923828 5.49789667129517 5.25297069549561 6.614914894104 7.05960750579834 7.69216394424438 7.32495450973511 8.86400985717773 10.1766986846924 11.9090566635132 12.1609058380127 12.7514696121216 17.6268882751465 33.8753662109375 3.64760947227478 3.93547487258911 5.93206548690796 7.65128135681152 8.85025310516357 9.80259609222412 10.2268438339233 12.2136716842651 15.6522493362427 21.2256412506104 27.9841957092285 24.2033748626709 20.4404277801514 2.01527976989746 14.7149085998535 2.02998948097229 3.06380224227905 6.03443622589111 7.88877868652344 11.2156295776367 2.75341105461121 5.24907064437866 9.59204483032227 4.76479434967041 3.17919182777405 2.99458146095276 6.03437280654907 6.77041625976562 31.4395313262939 4.50130271911621 31.9491577148438 4.27456283569336 4.47291135787964 14.6754293441772 7.55278205871582 8.35778045654297 10.8739175796509 13.8240308761597 14.3247566223145 17.2254524230957 18.1670436859131 25.418119430542 30.7955589294434 47.1859283447266 14.4399995803833 11.9776477813721 1.9302031993866 1.66967833042145 21.880651473999 7.20395565032959 1.88393425941467 17.3204860687256 1.32651805877686 2.30464768409729 6.28141736984253 7.80131530761719 21.530065536499 6.17662715911865 8.64743614196777 12.8143510818481 18.4186153411865 19.6730346679688 11.6281404495239 17.6002635955811 1.51617431640625 7.70378112792969 4.15127658843994 5.68699169158936 8.18048667907715 34.5577201843262 4.63436126708984 18.3840427398682 4.83969116210938 28.4364070892334 10.7422113418579 -1.0632141828537 19.5348033905029 2.0449640750885 -1.29550230503082 -0.908169567584991 -0.735170781612396 3.42381620407104 14.80006980896 6.66400527954102 57.0490036010742 3.82752060890198 13.2338047027588 10.8596668243408 9.28096961975098 10.6505689620972 6.87975263595581 8.95517730712891 7.99003934860229 9.50863170623779 11.3510475158691 30.908863067627 7.64018821716309 16.4720230102539 2.04533219337463 14.6182050704956 -3.54637908935547 16.3353271484375 -2.75569343566895 8.73011684417725 -2.76148700714111 -1.73100256919861 -1.83024334907532 -1.4705650806427 -0.0972830206155777 5.25455141067505 19.3596210479736 17.4393177032471 14.4911756515503 11.6168851852417 17.4693870544434 17.3670082092285 17.707763671875 22.5202617645264 11.9035882949829 0.418761909008026 0.471435546875 0.852809727191925 1.10324323177338 2.39369630813599 7.564781665802 29.1039543151855 1.44406914710999 2.63552570343018 3.3187210559845
3.67960405349731 2.41934394836426 1.20264160633087 1.240354180336 1.32694125175476 1.37938380241394 1.46037340164185 1.67075192928314 1.71368181705475 1.79595220088959 1.7530175447464 1.7924063205719 1.88136851787567 2.07109236717224 2.23152017593384 2.36852645874023 6.76223516464233 10.9986276626587 14.8666706085205 33.4647026062012 27.7013854980469 0.404948323965073 1.02187263965607 3.45487332344055 2.91112112998962 3.17275547981262 3.38792848587036 3.63930535316467 3.69582390785217 4.00613737106323 3.98636841773987 5.03266000747681 5.4375147819519 5.86935806274414 5.56005716323853 6.15690660476685 6.77612352371216 7.56636381149292 7.73872661590576 7.29175662994385 7.65126991271973 9.41628837585449 12.2012357711792 16.8816738128662 17.1266117095947 9.79602909088135 7.16027784347534 7.23500204086304 7.23749494552612 7.98386812210083 8.83568954467773 10.6064338684082 12.1518993377686 14.7205352783203 19.0393524169922 32.8349456787109 25.8245410919189 6.38290023803711 16.9261245727539 2.43408799171448 2.43232297897339 3.94732689857483 2.11768960952759 5.93408584594727 3.31865167617798 23.6331043243408 2.67966389656067 2.88559532165527 3.71659445762634 3.99244213104248 19.8134002685547 4.08828401565552 8.28005886077881 12.3792457580566 14.3894147872925 12.8790168762207 7.51273965835571 9.08936786651611 7.46830415725708 8.75980091094971 10.0962190628052 12.7175703048706 13.9046535491943 14.3997974395752 14.7247123718262 19.8686351776123 22.1114902496338 38.1446266174316 30.8032512664795 45.6207656860352 19.9067287445068 6.34420490264893 1.50582277774811 5.62225246429443 32.2430000305176 13.6233282089233 -0.249249473214149 1.12823581695557 3.89934873580933 4.92867755889893 5.88001775741577 6.56810569763184 7.63508892059326 8.84406757354736 10.8910722732544 39.9393272399902 16.3834953308105 12.1113510131836 2.06120371818542 14.35813331604 4.895667552948 7.08888959884644 12.824010848999 15.7610912322998 13.904688835144 17.5043659210205 46.0975532531738 14.2374038696289 14.0242671966553 29.1622924804688 12.4832906723022 -1.39668130874634 -1.2469630241394 -0.969408690929413 -0.861480593681335 -0.00863324571400881 2.28639483451843 2.87635135650635 9.13011360168457 47.3236618041992 12.1944065093994 17.5358505249023 5.31853485107422 6.78842639923096 9.08242034912109 4.74312448501587 13.9592876434326 4.95362520217896 5.99533224105835 15.6631107330322 8.62031936645508 14.2516899108887 -2.53303933143616 15.9015092849731 -3.50797867774963 -1.65404045581818 10.8889608383179 4.45975112915039 -2.47439575195312 -2.1829936504364 8.70707511901855 0.0399747788906097 1.37128126621246 3.46417188644409 3.22375226020813 7.32059335708618 16.4526901245117 16.0756587982178 32.660041809082 10.9059276580811 29.578556060791 6.52353382110596 12.5798015594482 6.46441650390625 4.99292230606079 4.39081382751465 1.11768114566803 1.02489876747131 7.51529407501221 10.5138568878174 2.21290564537048 2.8514449596405 6.62098026275635 3.89937043190002
3.28624963760376 2.9034161567688 1.17982423305511 1.17713069915771 1.35454285144806 1.39814043045044 1.54450976848602 1.61670207977295 1.6905232667923 1.75660705566406 1.76962172985077 1.7710440158844 1.95734798908234 4.31313133239746 5.67416477203369 6.87652683258057 8.61433887481689 16.1910724639893 20.423038482666 35.5436706542969 3.75461363792419 1.16314554214478 19.3319549560547 1.33749604225159 9.78728294372559 2.50092506408691 3.08876609802246 3.74062991142273 3.9873788356781 4.27896451950073 4.58034038543701 4.29953384399414 4.58845615386963 4.89907693862915 5.33925437927246 5.6633563041687 5.25930452346802 5.57752466201782 5.39837408065796 6.24496221542358 7.36442899703979 7.40851259231567 5.21186017990112 5.52637100219727 5.86692571640015 5.87720918655396 6.04709482192993 6.49462509155273 7.47817182540894 8.20546245574951 9.09340572357178 11.4984741210938 13.12952709198 15.8751268386841 20.2117309570312 44.636157989502 7.60144853591919 8.70576858520508 11.9122486114502 1.71061706542969 9.03976631164551 2.94881939888 2.91741347312927 4.06542348861694 7.61203145980835 20.6155204772949 6.33390665054321 3.45313262939453 3.66420912742615 4.94682312011719 4.08211708068848 6.59076881408691 5.56890344619751 13.7192687988281 6.62238121032715 7.21444129943848 9.03899765014648 20.1555690765381 8.41701030731201 8.7714147567749 8.93218994140625 11.1843786239624 13.742733001709 15.8678255081177 16.8650341033936 18.3185920715332 18.7452030181885 27.2252140045166 34.2649230957031 31.0260696411133 43.1134490966797 8.23578071594238 13.6442823410034 17.5115737915039 17.9851913452148 21.2664337158203 0.0711013004183769 12.8622932434082 0.720456063747406 2.32871913909912 3.16677594184875 6.19324588775635 7.80518102645874 8.91791248321533 9.15906143188477 53.2303733825684 1.81530499458313 3.43942356109619 5.18489837646484 13.5556440353394 8.94854640960693 7.60911417007446 13.3841485977173 15.661717414856 10.356390953064 36.6576805114746 10.6546239852905 25.3439044952393 10.4376630783081 21.5099391937256 3.64366888999939 -1.02540493011475 -0.283751040697098 7.38100671768188 9.02226829528809 -1.1466828584671 1.83386695384979 2.60432434082031 4.63448047637939 11.0652151107788 37.5124816894531 10.4410562515259 3.227374792099 7.11405658721924 16.4021530151367 4.41949319839478 13.0068655014038 12.6626262664795 8.12807464599609 8.61350917816162 5.0370717048645 -3.16456389427185 17.9584503173828 7.81540632247925 -3.42828559875488 -2.74703645706177 3.34228134155273 0.608874797821045 3.25404906272888 -1.02858686447144 4.78559446334839 -0.361888617277145 1.01925504207611 3.41810059547424 9.89348030090332 10.0936193466187 15.0488510131836 21.0671215057373 25.0793571472168 34.6913375854492 26.9690418243408 39.0426063537598 15.3838758468628 0.740465462207794 0.859633386135101 0.922543406486511 1.07135462760925 1.86212611198425 14.7130193710327 2.86677098274231 3.18430590629578 12.1717252731323 12.3337697982788 5.53963708877563
3.44371104240417 2.26426672935486 1.35358214378357 1.37906849384308 1.31962609291077 1.34134364128113 1.49445962905884 1.5835794210434 1.67188787460327 1.73996126651764 3.01047134399414 3.582848072052 4.16991090774536 4.7842264175415 8.29598236083984 10.01646900177 12.620979309082 13.5246000289917 17.4780883789062 18.3159618377686 13.3754549026489 26.135534286499 18.4208545684814 1.24975967407227 12.5571756362915 2.64025044441223 3.40589904785156 3.23205804824829 3.44127440452576 3.69298315048218 3.58110880851746 3.91401696205139 4.10386800765991 3.93487572669983 4.21591758728027 3.70930171012878 4.0130672454834 4.56518268585205 4.69043350219727 4.4104175567627 4.64253330230713 4.87606811523438 4.84736204147339 4.93941068649292 5.25231027603149 5.93440246582031 6.24038505554199 6.7030930519104 8.12084579467773 8.91206073760986 9.85387134552002 10.6162614822388 14.14772605896 18.1854553222656 24.7981338500977 25.7649402618408 37.9007377624512 10.1529684066772 27.5636901855469 16.3783187866211 2.06153059005737 2.15730571746826 3.29893851280212 3.41056489944458 7.63024997711182 31.9556293487549 3.02865147590637 10.5186748504639 3.39667248725891 5.91360807418823 15.7787322998047 17.8564777374268 5.00982284545898 13.3616018295288 5.79549074172974 8.34997272491455 9.43500804901123 11.6756315231323 12.382378578186 10.3948631286621 11.7306098937988 17.3823070526123 11.7651786804199 12.9476547241211 13.3253650665283 15.0499811172485 18.6304130554199 26.9172916412354 34.2764854431152 41.9013366699219 24.4409828186035 16.890438079834 16.0093669891357 17.1003856658936 36.9362373352051 0.250284671783447 10.8735342025757 2.05788159370422 2.57763147354126 2.58658814430237 3.03292655944824 4.66947269439697 10.7699346542358 16.1888885498047 21.5276222229004 12.4361295700073 23.1818866729736 11.8316774368286 14.7711267471313 15.1858577728271 10.3473386764526 22.1531276702881 14.9066791534424 25.2134227752686 47.6064414978027 7.62167024612427 9.7698802947998 21.1613368988037 10.7111186981201 10.5260219573975 4.31553268432617 16.5235996246338 6.31557559967041 8.65149974822998 -1.91228008270264 -0.628644108772278 0.57764333486557 3.17969179153442 9.09708309173584 9.50221157073975 11.6605949401855 9.4776668548584 6.24167203903198 16.9855136871338 20.3086776733398 12.5544033050537 6.30727863311768 11.1912431716919 12.6419324874878 3.33045816421509 4.84656238555908 0.00354395643807948 0.979223787784576 3.39863920211792 -2.22860264778137 9.84088611602783 -1.7817999124527 -1.67414593696594 -1.55236458778381 -0.646839141845703 0.379849880933762 0.638923048973083 1.53061068058014 3.45225524902344 5.43245792388916 13.17578125 15.8874111175537 14.976598739624 18.3748416900635 23.217113494873 31.1212062835693 35.7287635803223 32.3789749145508 23.7921047210693 24.587646484375 5.04817199707031 2.6844789981842 11.7790155410767 11.1294736862183 4.23209571838379 4.52372646331787 5.15714073181152 5.47330665588379 5.84856748580933
2.05562019348145 1.95497989654541 1.7938050031662 1.78663992881775 1.34642541408539 1.41390562057495 1.50935435295105 2.40989184379578 2.57509326934814 2.76918458938599 3.33941388130188 5.64469957351685 6.2752857208252 7.05425262451172 6.25076484680176 8.10473251342773 9.03671741485596 7.41757106781006 8.36993598937988 12.2653732299805 15.3979015350342 15.6147327423096 10.905647277832 3.12202668190002 22.1922054290771 1.1298063993454 2.94999670982361 2.67536449432373 2.84265899658203 3.02893018722534 2.95149159431458 3.20069694519043 3.06052470207214 3.1943690776825 3.24253821372986 3.5593843460083 3.76300024986267 3.95591711997986 3.97223329544067 4.01981782913208 4.14557647705078 4.34186553955078 4.79177522659302 5.06913232803345 5.39437580108643 6.40348720550537 6.80839347839355 7.27562141418457 7.18202686309814 8.21516609191895 9.41513729095459 11.0389280319214 11.8211889266968 12.4478197097778 15.8626575469971 21.3854503631592 16.49924659729 19.8815574645996 27.6694030761719 5.41101264953613 2.32974195480347 9.55505847930908 6.66282606124878 10.3948774337769 15.1551284790039 4.93656206130981 9.69548988342285 4.74346446990967 5.95345115661621 10.0706062316895 20.7958335876465 24.1240882873535 5.68751096725464 6.08387804031372 6.57008028030396 7.95186376571655 8.29464626312256 8.87481689453125 9.57077789306641 10.252142906189 15.7264604568481 10.5817890167236 11.6488904953003 12.0515079498291 15.0319738388062 11.7624130249023 14.0005350112915 13.0570869445801 20.6533985137939 31.5539588928223 45.1898002624512 16.6276226043701 16.9940528869629 33.9537353515625 4.63902044296265 0.77828586101532 2.32091569900513 13.6505498886108 2.509202003479 13.8145275115967 3.72604250907898 6.68216180801392 5.7353835105896 8.26883506774902 28.9703025817871 4.71834468841553 5.88179779052734 15.8298387527466 7.89293813705444 10.878758430481 14.5173254013062 22.5074634552002 27.5797748565674 35.3560256958008 47.3943023681641 16.1975364685059 7.47626113891602 9.05244255065918 8.57293510437012 29.8908805847168 10.4320087432861 5.31482410430908 8.87157344818115 -1.16261506080627 -0.48519167304039 0.395360946655273 1.36126565933228 3.04423856735229 4.37993383407593 8.07357120513916 25.6208095550537 29.1811809539795 4.5547981262207 11.0416040420532 12.8012742996216 32.7604789733887 12.876579284668 14.8580865859985 2.13924407958984 4.95181131362915 15.1569881439209 -1.02494359016418 -1.87308835983276 -1.34250938892365 3.15735268592834 -2.33562707901001 0.387418806552887 -1.98355388641357 -1.33248937129974 -0.94244658946991 -0.240411311388016 0.0179192163050175 2.3297598361969 5.53182601928711 9.18252182006836 10.5768089294434 12.4476203918457 14.604471206665 17.3648624420166 16.2678527832031 15.551121711731 14.5993518829346 10.9897165298462 15.1522617340088 8.83372116088867 3.15957593917847 3.5417799949646 3.73208236694336 4.38306522369385 4.583984375 4.84694194793701 5.19876956939697 5.88353776931763 6.22722148895264
1.76221466064453 2.05269956588745 1.33357381820679 1.77290117740631 1.86439847946167 1.96516501903534 2.17090511322021 2.33617258071899 3.86322975158691 4.52372980117798 5.08130645751953 3.91832041740417 4.45880031585693 4.96927833557129 4.90298366546631 6.02267169952393 7.72228574752808 8.55589199066162 9.74955463409424 7.01378440856934 13.1879663467407 9.6706600189209 14.8817739486694 19.6294345855713 26.8160266876221 4.20357847213745 0.770195245742798 16.0183696746826 1.81379890441895 2.51388788223267 2.59660983085632 2.67422771453857 2.91376781463623 3.09395718574524 3.28394460678101 3.32971358299255 3.49074053764343 3.58829879760742 3.8545937538147 4.0284481048584 4.22612333297729 4.45862627029419 5.18187236785889 5.4805269241333 5.82123756408691 5.71025705337524 6.29747915267944 6.66994953155518 7.19488334655762 7.57380151748657 7.94686555862427 8.80261707305908 9.64358615875244 10.1762056350708 11.5646562576294 13.2775497436523 13.840256690979 17.3056316375732 15.1652002334595 6.32318544387817 20.2033596038818 5.21411991119385 3.17755746841431 3.17336893081665 14.3324184417725 3.48218011856079 3.97289943695068 7.18112897872925 8.68159866333008 14.503565788269 33.8519592285156 13.8570365905762 5.25969076156616 5.61706256866455 6.45105409622192 7.66345930099487 8.84303760528564 8.64677238464355 9.54059028625488 14.5433206558228 10.8294792175293 10.7965202331543 25.9351596832275 8.98073101043701 9.73017120361328 10.2010231018066 11.2145977020264 12.7827415466309 16.4828433990479 27.4923973083496 33.7385215759277 39.4582290649414 23.9203071594238 23.7791633605957 17.5931034088135 13.030481338501 8.61569786071777 9.87701225280762 13.0440979003906 11.2709579467773 4.01115417480469 4.20226621627808 6.38629865646362 14.8354797363281 28.4953002929688 6.13515138626099 8.66291427612305 9.70986938476562 18.1941299438477 11.1044473648071 18.1444816589355 20.7880191802979 25.1671504974365 32.2938613891602 33.5366134643555 36.7854194641113 13.3950757980347 10.4133911132812 25.2264728546143 19.0946865081787 1.07069790363312 2.84892153739929 5.20402908325195 2.73547053337097 -0.00970684736967087 0.458042025566101 1.78279078006744 2.30680346488953 7.93301010131836 17.924732208252 22.7019138336182 9.54121971130371 12.2130098342896 10.6720666885376 12.2490158081055 14.0481586456299 22.2724075317383 14.6533727645874 9.96651554107666 19.993860244751 25.7983379364014 0.0807673931121826 15.127947807312 -1.83661377429962 -2.16431260108948 3.01018762588501 -1.76738703250885 -1.26060271263123 -0.781381189823151 -0.832993984222412 -0.66926509141922 -0.151195243000984 1.23073136806488 7.61880540847778 9.12562656402588 10.4633045196533 9.77553558349609 9.38071346282959 9.16312122344971 6.23882389068604 7.76024103164673 5.24672031402588 3.87996959686279 3.34745073318481 3.44336366653442 4.04453706741333 4.15349769592285 4.24836874008179 4.37231492996216 4.91341018676758 5.17077970504761 5.47628355026245 5.63545513153076 5.96144580841064
1.7999324798584 1.70690357685089 1.7269024848938 1.69079172611237 1.78194332122803 2.99834823608398 3.29294729232788 3.50575184822083 2.67713379859924 3.19484043121338 3.51316070556641 3.43775010108948 3.73444581031799 4.93750953674316 5.65777063369751 6.90460920333862 4.64361143112183 5.12768030166626 7.88924789428711 8.81186866760254 9.9876823425293 8.94553375244141 41.6515769958496 0.348477393388748 14.6679544448853 4.55296325683594 6.13445472717285 22.1014919281006 1.32150435447693 2.30814552307129 2.48881244659424 2.64879870414734 2.65394139289856 2.79138565063477 2.98771739006042 3.1975359916687 3.45004725456238 3.65418004989624 4.16695404052734 4.3638277053833 4.58582735061646 4.82408571243286 4.74630880355835 5.1181788444519 5.4376802444458 5.80490350723267 5.95232963562012 6.03786754608154 6.52316284179688 6.24211931228638 7.25665473937988 7.99371099472046 8.78978061676025 7.58703660964966 8.73543071746826 8.83786773681641 6.06007194519043 9.03146171569824 9.97223472595215 11.7319402694702 12.9968481063843 22.1158809661865 3.37857389450073 3.67103958129883 9.2299976348877 4.71621417999268 4.71817207336426 8.29091262817383 11.9236631393433 15.9975061416626 22.0597667694092 25.3003349304199 6.72588300704956 26.7443046569824 6.50035190582275 7.56203031539917 7.7302417755127 20.6963729858398 7.49741172790527 8.45276260375977 20.8559284210205 8.33911418914795 8.62714290618896 8.74519443511963 9.13630771636963 10.0962982177734 10.3764448165894 10.8962087631226 14.7438440322876 23.7837295532227 30.6016006469727 23.3875503540039 15.9898920059204 10.5900421142578 12.2008829116821 7.68351936340332 5.52096271514893 9.91766452789307 17.1893043518066 4.95850610733032 5.73496198654175 6.06468534469604 10.867226600647 16.385082244873 28.9801139831543 6.80548620223999 10.2465343475342 25.8247299194336 10.9704103469849 11.2868223190308 12.451114654541 18.8469543457031 22.2832050323486 26.9976673126221 32.6632690429688 27.8368377685547 19.698335647583 38.7270889282227 14.5419015884399 14.2582187652588 0.380573451519012 0.446961432695389 2.25481843948364 0.424824655056 0.591574370861053 1.0685863494873 3.06703901290894 3.8019757270813 5.23633337020874 10.6054601669312 15.788161277771 9.18399143218994 28.1133041381836 11.4397468566895 13.891224861145 5.99082088470459 13.7979412078857 12.2895069122314 15.168906211853 23.1387119293213 12.6624622344971 15.5718641281128 7.89561223983765 0.370180159807205 -2.24461674690247 -2.34294056892395 -1.34633326530457 -1.33399641513824 -0.748872935771942 2.99039626121521 -1.36914908885956 -0.504779994487762 1.98101043701172 27.8236083984375 3.07034373283386 6.04484462738037 3.63371849060059 4.07803297042847 2.74963784217834 2.84474968910217 3.16100120544434 3.29078149795532 3.67451810836792 3.79941534996033 4.04733753204346 4.14744901657104 4.56527090072632 4.63889122009277 4.73987245559692 4.74271821975708 4.96708965301514 5.25480127334595 5.41242361068726 5.69274997711182
1.61063873767853 2.5217752456665 2.59154295921326 2.65646624565125 2.76657843589783 1.91298508644104 2.06252026557922 2.26241254806519 2.52973794937134 2.85762214660645 3.72161030769348 4.04173755645752 4.37333393096924 2.75447177886963 3.22781848907471 5.98284387588501 6.53884029388428 6.94748640060425 5.88187074661255 13.9424362182617 17.4271831512451 23.1293773651123 3.48181104660034 3.56044602394104 6.10087823867798 7.28414249420166 9.70158767700195 36.1879196166992 0.735941410064697 0.749456882476807 2.2737021446228 2.38695073127747 2.52019619941711 2.70950984954834 2.97365212440491 3.44340586662292 3.65495562553406 3.92816615104675 3.90796279907227 4.11597728729248 4.32232046127319 4.53782415390015 4.7776083946228 4.92117118835449 4.92171669006348 5.24274158477783 4.71993064880371 5.70447158813477 6.06311416625977 6.54800128936768 5.3459620475769 5.84890937805176 5.93606758117676 4.88892650604248 5.87390804290771 6.66707897186279 7.66561698913574 8.32813167572021 8.35757827758789 9.32888889312744 11.6292247772217 12.4295063018799 5.80792427062988 25.3831958770752 4.23654222488403 4.43237018585205 6.63627815246582 7.67765522003174 7.88427448272705 7.13395309448242 11.3082914352417 13.5215167999268 18.9251155853271 11.7067537307739 24.7977046966553 6.41737604141235 6.62228536605835 12.2604999542236 6.41613864898682 6.64021110534668 7.40554428100586 8.34838199615479 8.87862968444824 14.3781957626343 8.30074119567871 8.52658939361572 10.7324619293213 12.063928604126 8.50553035736084 12.1148252487183 15.4031963348389 21.2556953430176 18.4549579620361 16.6445255279541 14.9671316146851 8.43189430236816 9.69870567321777 16.9532375335693 13.5884733200073 11.2664794921875 8.82213020324707 13.0680046081543 13.0317430496216 13.3568563461304 8.24006843566895 8.41029453277588 10.903223991394 22.1313591003418 11.7461681365967 11.5821084976196 15.595290184021 17.1713371276855 19.3680438995361 19.4913902282715 24.6057968139648 40.1384544372559 17.5816345214844 24.5280342102051 20.4597511291504 18.7729568481445 4.58893442153931 0.0663189142942429 1.0294440984726 1.34882783889771 1.87013483047485 2.3493447303772 3.666179895401 4.2949743270874 6.75385189056396 16.3484516143799 35.6833152770996 8.10775279998779 31.1946830749512 13.5760545730591 10.5042695999146 6.70733594894409 6.99144554138184 8.30391693115234 9.66598987579346 10.3848361968994 12.9686918258667 19.3710079193115 1.56326627731323 -2.4324517250061 -2.33341431617737 -2.62148928642273 -2.60585522651672 -2.82580614089966 -2.71793007850647 -1.23223650455475 -0.999363958835602 -0.722579300403595 0.588112056255341 -0.0467447340488434 2.31292319297791 1.9864627122879 2.48310375213623 2.79228496551514 2.93786215782166 3.08138346672058 3.16641211509705 3.6338746547699 3.90709805488586 4.32045125961304 4.4306697845459 4.54684066772461 4.49930191040039 4.57221078872681 4.63589382171631 4.69740295410156 4.86834812164307 4.87288999557495 4.97296476364136 5.39146995544434
2.43125295639038 1.65155673027039 1.66569900512695 1.71049284934998 1.75988173484802 1.79392993450165 1.89793086051941 22.6063861846924 1.21730995178223 3.30569863319397 2.13546967506409 2.36307621002197 4.10391330718994 4.43054962158203 4.88406753540039 4.29452276229858 9.01397800445557 9.74606323242188 11.1293830871582 3.06683897972107 3.20043206214905 4.68089914321899 5.00728797912598 5.10052013397217 10.7418384552002 13.2368907928467 17.7674217224121 42.9181442260742 0.298179656267166 0.61073237657547 2.17014336585999 2.32159304618835 2.72217011451721 2.90937995910645 3.15464091300964 3.25540995597839 3.43947124481201 3.66261291503906 3.8924503326416 3.98557472229004 3.88905906677246 4.09387350082397 4.31153869628906 3.72093892097473 4.66574811935425 4.92858934402466 5.21375799179077 4.25270128250122 4.41760635375977 4.50551557540894 4.09779500961304 4.38589811325073 4.85579061508179 5.24247980117798 5.6897087097168 5.96840000152588 6.42574405670166 7.38264989852905 7.44799089431763 4.61131477355957 7.36816692352295 9.18094539642334 12.828387260437 12.0797691345215 5.20349264144897 5.55884218215942 5.65763664245605 5.80405378341675 6.14996337890625 6.59672069549561 7.01464605331421 11.7112436294556 17.2688045501709 13.9518136978149 19.8375263214111 15.9494457244873 21.8874835968018 6.3081169128418 6.58155584335327 6.69594526290894 7.76675128936768 10.1751594543457 16.0303440093994 15.7256641387939 12.9313669204712 6.10411787033081 5.22035598754883 5.99473810195923 6.51922035217285 8.50924587249756 12.8989820480347 12.533088684082 28.5003261566162 4.50455141067505 9.48161697387695 7.83123397827148 6.33525037765503 22.2416534423828 6.38192749023438 6.56224489212036 7.55507802963257 7.14788436889648 7.32630062103271 20.0559349060059 7.02297639846802 9.06480121612549 10.7993965148926 11.815315246582 21.1958198547363 11.9950084686279 18.6686668395996 14.1026983261108 15.6347379684448 15.6257162094116 29.1868648529053 22.7750911712646 26.9818687438965 31.8379745483398 22.0695037841797 16.7377948760986 10.351095199585 2.18883681297302 1.68802404403687 1.85471272468567 2.54894018173218 3.22373151779175 4.41352701187134 6.28452301025391 14.2674207687378 30.7358379364014 17.0035953521729 51.1533851623535 9.74497890472412 8.83730030059814 11.8870697021484 6.90086269378662 6.23690557479858 7.55634498596191 15.9395637512207 18.1591033935547 7.52166938781738 5.26834583282471 5.86865472793579 4.71246671676636 9.72400188446045 -2.42634201049805 -2.09822463989258 -3.22307085990906 -2.9449679851532 -0.6346076130867 1.09471893310547 11.9034328460693 45.4634284973145 -0.571176290512085 1.36441779136658 1.95351147651672 2.71361136436462 2.80349063873291 2.95042109489441 3.09245920181274 3.32390809059143 3.83193421363831 4.26723480224609 4.23897409439087 4.34994459152222 4.46461772918701 4.48408460617065 4.60406494140625 4.40994310379028 4.34230041503906 4.63203287124634 4.84188938140869 5.10101652145386 5.27637195587158
1.59413909912109 1.58079183101654 1.6049245595932 2.03361916542053 5.67077016830444 7.38787078857422 10.948634147644 1.84961783885956 1.94212794303894 3.17156648635864 3.4487829208374 3.72294640541077 3.00241327285767 5.67092084884644 6.33355474472046 7.1708812713623 2.83697175979614 2.8273138999939 3.84509491920471 4.09552669525146 4.36793518066406 7.50036239624023 8.21273803710938 9.00251007080078 13.9440660476685 17.1562328338623 22.6773586273193 18.4857444763184 1.87258446216583 2.12758922576904 2.2580349445343 2.42603397369385 2.5721435546875 2.7669792175293 2.82306218147278 3.10029864311218 3.33465433120728 3.22130942344666 3.47197222709656 2.87514328956604 3.71473503112793 3.93302226066589 4.12933301925659 4.32414770126343 3.52833676338196 3.46082258224487 3.54097700119019 3.49213814735413 3.67002248764038 3.89140343666077 4.13983678817749 4.43256282806396 4.64269304275513 4.59610414505005 4.98589372634888 5.14096164703369 4.39386081695557 5.51096153259277 6.19789218902588 7.00885486602783 6.25654745101929 4.82141971588135 5.11391544342041 5.24855756759644 5.39299774169922 5.51813220977783 5.66642045974731 5.77391719818115 6.03966522216797 6.2836709022522 8.12727355957031 9.36367893218994 10.7436456680298 14.1258687973022 15.9440059661865 33.7232093811035 19.7812252044678 5.29199504852295 6.55211782455444 9.33664703369141 7.89657926559448 9.44766807556152 9.67818164825439 14.81325340271 12.5553979873657 13.7158184051514 4.47458791732788 12.2515954971313 8.65596199035645 3.77802968025208 35.3476257324219 6.79326009750366 25.4714641571045 5.66663360595703 20.904260635376 8.09951400756836 14.2890586853027 17.6213817596436 6.81248044967651 15.9513597488403 6.60490131378174 7.5962495803833 7.42881298065186 16.7332706451416 7.80918788909912 9.94132041931152 16.5023822784424 12.3853225708008 40.5644683837891 7.80813789367676 30.0128974914551 13.058557510376 8.81241893768311 15.3856534957886 12.3486919403076 20.5056304931641 23.1966133117676 22.3503437042236 32.5497093200684 21.5806255340576 18.2226638793945 5.84939384460449 2.54996752738953 2.57135653495789 2.77417778968811 3.36206150054932 4.07582187652588 8.70304393768311 12.922797203064 24.8233833312988 33.5247421264648 43.6697540283203 29.811616897583 11.9278602600098 5.48301029205322 7.35888385772705 8.27594375610352 13.174017906189 18.9766044616699 16.1140384674072 10.5711259841919 5.74470472335815 10.34543800354 7.07958316802979 10.0053873062134 9.02083396911621 -4.18657636642456 -3.71714043617249 -4.18620204925537 9.92278003692627 15.9171962738037 23.1011333465576 -0.463118463754654 5.50685501098633 1.48929059505463 2.39119172096252 2.71750497817993 2.8118748664856 2.98019886016846 3.2419810295105 3.6590211391449 3.8962984085083 4.15884256362915 4.14716482162476 4.11683654785156 4.26354742050171 4.22413206100464 4.41713762283325 4.46626710891724 4.5278377532959 4.59705495834351 4.29506397247314 4.12174844741821 4.23725461959839
1.85620558261871 3.55104231834412 4.07216930389404 4.62959146499634 1.67216551303864 2.2345724105835 2.37762832641602 2.59974241256714 2.82902264595032 2.28898143768311 4.18802118301392 4.54180288314819 5.01339626312256 1.92121493816376 2.12742018699646 3.05478930473328 3.4954719543457 3.75043416023254 5.76156616210938 6.18652200698853 6.69987010955811 9.2888298034668 10.2557668685913 11.5416049957275 9.17356491088867 2.39857602119446 1.92577064037323 1.9460666179657 2.00333952903748 2.06302857398987 2.15054774284363 2.24210572242737 2.41972875595093 2.63108658790588 2.47012662887573 2.76562070846558 2.30239772796631 3.05688905715942 3.26388549804688 3.43911981582642 2.86499071121216 2.70736217498779 2.83941769599915 2.89876985549927 2.99465703964233 3.14375734329224 3.13048458099365 3.33749651908875 3.54830050468445 3.73648691177368 3.58786535263062 3.85909962654114 4.05535554885864 4.12806129455566 4.18754005432129 4.42581844329834 4.86094856262207 4.53003358840942 4.55926418304443 4.83396434783936 4.94994354248047 5.0533504486084 5.12190008163452 5.28185081481934 5.42644453048706 5.55878686904907 5.49867677688599 5.85753393173218 6.05236959457397 6.32807064056396 7.31457042694092 8.93843460083008 11.2135782241821 15.9865560531616 20.5270080566406 38.5173568725586 5.55288219451904 6.13577556610107 10.5561695098877 5.47985553741455 6.63759803771973 8.37436008453369 7.785973072052 20.0681037902832 6.88643503189087 5.35112476348877 5.71618223190308 9.73628425598145 6.29130220413208 4.47694683074951 5.05656051635742 7.35401725769043 5.67927551269531 12.8915138244629 28.6125793457031 6.19937038421631 7.42173862457275 11.4031944274902 31.1554489135742 7.03240156173706 29.4797496795654 6.93518161773682 7.13243532180786 8.86801052093506 10.1003952026367 19.5219554901123 23.7442493438721 28.9705924987793 45.2192420959473 7.85377216339111 30.9404525756836 5.01595544815063 5.11439085006714 5.60819625854492 7.68560409545898 15.5676698684692 18.1295890808105 17.251802444458 19.2156524658203 29.9857349395752 14.6538648605347 14.1877841949463 13.7302465438843 18.1203441619873 3.25909018516541 3.74506711959839 4.78366994857788 7.76396560668945 16.6221904754639 20.3684120178223 26.3956565856934 35.4001960754395 26.9081134796143 17.0883293151855 15.5913982391357 7.73467016220093 8.69246673583984 9.62019157409668 15.6340885162354 18.8165435791016 11.8836441040039 14.8171348571777 8.61239814758301 13.0218734741211 12.4143314361572 1.87963759899139 -4.24106073379517 -3.82987451553345 -1.4422013759613 -2.20526123046875 -0.461313128471375 -0.426439464092255 0.613062143325806 12.3792600631714 0.921861529350281 2.16120505332947 1.57407820224762 1.87646412849426 2.90782785415649 2.86194348335266 2.99798774719238 3.19688773155212 3.5044367313385 3.80496001243591 3.90824508666992 4.15168952941895 4.38608169555664 4.41821432113647 4.04367780685425 3.74835991859436 3.65843558311462 3.71807360649109 3.90789461135864 3.84980630874634
3.12806630134583 1.29956245422363 2.03782653808594 2.10876321792603 2.21170520782471 1.65489649772644 1.75807917118073 3.06211161613464 3.39349055290222 3.78596234321594 1.46439671516418 1.57734394073486 2.30490946769714 2.53181099891663 2.78187489509583 4.56818151473999 5.0352578163147 5.54129981994629 7.02745914459229 7.51172733306885 8.16602611541748 6.85938358306885 3.2138843536377 3.23280930519104 3.47594308853149 2.58572363853455 1.91338574886322 1.92377531528473 1.92745316028595 1.99658453464508 2.06485080718994 1.89871561527252 2.04199624061584 1.62470626831055 2.34287714958191 2.60219788551331 2.79423546791077 2.32098984718323 2.15093493461609 2.28256869316101 2.52889466285706 2.61453652381897 2.71314406394958 2.61959099769592 2.77559018135071 3.07766222953796 3.14224410057068 3.20545792579651 3.42853760719299 3.73055458068848 3.83885669708252 3.92151856422424 4.00610828399658 4.07631683349609 4.17998933792114 4.26815938949585 4.49024963378906 4.58516645431519 4.68916845321655 4.81318330764771 4.97697782516479 5.05532264709473 5.144127368927 5.16381072998047 5.54767990112305 5.67511367797852 5.7634859085083 5.71506834030151 5.87575626373291 6.13424825668335 8.57100105285645 10.2457284927368 12.1609315872192 14.908540725708 20.4737987518311 17.7522163391113 9.83072853088379 27.0412120819092 4.04331874847412 11.9501256942749 3.6430971622467 7.03063058853149 7.85763263702393 18.390552520752 5.77330207824707 7.69737911224365 4.24578952789307 9.63830375671387 4.73194313049316 4.98949909210205 11.7283296585083 5.04245328903198 12.2951889038086 5.98853540420532 27.0570087432861 6.56077146530151 9.39144325256348 7.21234512329102 15.1626319885254 29.0273132324219 14.6925621032715 9.20434856414795 12.2038297653198 13.5979309082031 16.1837158203125 19.4208068847656 25.1370334625244 44.2878227233887 13.3214054107666 14.1607656478882 33.2540817260742 8.31907272338867 2.44053411483765 2.33068060874939 5.3521933555603 7.56384563446045 15.7552051544189 13.567271232605 19.3886623382568 8.41124820709229 20.0499687194824 10.598180770874 13.8275527954102 11.4910144805908 4.26032447814941 4.27909374237061 4.86543369293213 4.82131719589233 15.5604562759399 17.9869804382324 19.6947402954102 27.5793323516846 51.5683403015137 12.5984802246094 8.55657005310059 13.5563611984253 7.39535331726074 8.46194648742676 10.4030055999756 8.33285617828369 14.1178817749023 11.3419313430786 12.2019348144531 11.095440864563 9.09340381622314 4.17790651321411 -4.09399795532227 -3.06162691116333 -2.67829442024231 -1.74888837337494 1.23859894275665 2.80628323554993 21.3912982940674 -0.619143903255463 0.0931201055645943 0.331736087799072 1.80693387985229 2.38937067985535 2.57511711120605 2.88890027999878 2.99371671676636 3.15940713882446 3.3962185382843 3.33282470703125 3.32249331474304 3.56782412528992 3.42901110649109 3.51727414131165 3.52091693878174 3.59908318519592 3.4637086391449 3.47546076774597 3.44855785369873 3.46450304985046
1.83762693405151 1.88548195362091 1.36753046512604 2.4247715473175 2.66281199455261 2.80117607116699 2.85927128791809 1.02905166149139 1.60655248165131 1.82181406021118 2.00961017608643 2.15630650520325 3.53833818435669 3.80089998245239 4.10922479629517 5.50589513778687 6.01838731765747 6.66261911392212 5.51790571212769 2.48219180107117 2.58905529975891 2.85825133323669 3.09044051170349 3.17295050621033 3.53609609603882 2.67798209190369 1.87385332584381 1.87907159328461 1.64099931716919 1.6980060338974 1.21649122238159 1.81226444244385 1.92378520965576 2.07781481742859 1.67533147335052 1.53580498695374 1.6128476858139 2.08043670654297 2.19670486450195 2.28859400749207 2.18884205818176 2.35273694992065 2.43128395080566 2.27028465270996 2.97768402099609 3.1819384098053 3.47082471847534 3.57172417640686 3.64897966384888 3.73236727714539 3.79009437561035 3.86817026138306 3.95755290985107 4.18627691268921 4.28353929519653 4.3873987197876 4.50836420059204 4.61052703857422 4.6833381652832 4.77841234207153 4.82821226119995 17.7378768920898 23.819881439209 4.21732187271118 5.38652658462524 5.52348709106445 5.62838983535767 5.61991930007935 6.03393077850342 6.85687637329102 6.74828100204468 8.46207904815674 7.70864248275757 5.6843843460083 9.10151481628418 11.2914657592773 14.2380075454712 10.1202964782715 12.6536855697632 6.30093622207642 21.2999744415283 5.07644319534302 20.0190238952637 14.4683780670166 4.18012666702271 4.48768091201782 4.83001804351807 5.31389284133911 6.39180469512939 12.4560508728027 5.41633367538452 5.66311645507812 5.88565826416016 6.26340007781982 6.51366996765137 6.81008243560791 7.82531642913818 11.1355724334717 10.4867544174194 9.15179252624512 11.2051582336426 16.0127754211426 14.4170608520508 15.8951740264893 21.0374984741211 25.6024436950684 31.7921485900879 26.3204727172852 24.6741313934326 37.0258598327637 21.3929462432861 32.0460662841797 2.02561950683594 4.77588176727295 5.43895626068115 9.04272365570068 9.3447961807251 34.3398742675781 7.62152338027954 7.98892021179199 6.52773237228394 23.9744472503662 20.9139289855957 41.9397277832031 10.5949335098267 15.8442621231079 5.08960008621216 11.3496141433716 55.3310012817383 4.72241067886353 9.7040319442749 29.7463130950928 36.1872787475586 34.072624206543 5.7007908821106 5.68356275558472 5.95273780822754 7.16400003433228 8.26017665863037 8.17846488952637 9.43568801879883 9.73055076599121 9.25796794891357 6.16916799545288 13.9359035491943 -0.533198356628418 -3.1580855846405 -2.13128566741943 -0.950363576412201 18.7126522064209 -0.462168723344803 10.1098012924194 -0.293859452009201 -0.111525073647499 -0.214925870299339 0.0900263860821724 0.304781407117844 1.79395973682404 2.17073535919189 2.49866986274719 2.74105262756348 2.79842400550842 2.85330367088318 2.81435704231262 3.26088833808899 2.87922716140747 3.38589668273926 2.94597887992859 3.01349949836731 2.87877988815308 3.09397411346436 3.24480843544006 3.08548450469971 3.12179279327393
2.07338309288025 2.13139200210571 2.26215505599976 1.11495721340179 1.31554818153381 1.46198284626007 1.48758661746979 1.51450431346893 2.5523145198822 2.7298948764801 3.08454012870789 3.32919120788574 4.35828113555908 4.64279174804688 4.97609376907349 4.38460063934326 2.13304400444031 2.95495843887329 2.90276217460632 2.50358724594116 2.53593039512634 2.69239830970764 2.92390584945679 3.13724136352539 3.5956289768219 2.6060631275177 1.78088986873627 1.12582969665527 1.60182893276215 1.63899350166321 1.69177889823914 1.26593291759491 1.02715396881104 1.12486040592194 1.54967355728149 1.69320380687714 1.76971542835236 1.65750789642334 1.85948991775513 1.97053575515747 1.87183105945587 2.0002613067627 2.1011016368866 2.35500264167786 3.06563997268677 3.35849833488464 3.46921324729919 3.52783894538879 3.60050582885742 3.67924213409424 3.8839054107666 3.97168779373169 4.06266307830811 4.14792633056641 4.31961345672607 4.43077993392944 4.51859569549561 4.55270290374756 4.80695772171021 24.9407768249512 5.24972248077393 5.86392974853516 35.6172142028809 3.94381976127625 4.00588893890381 4.35644960403442 5.32133722305298 5.1431040763855 5.25626993179321 4.47836494445801 4.21168947219849 4.70032548904419 5.73847055435181 6.85561656951904 6.3571982383728 7.0509877204895 4.97087621688843 6.32991886138916 7.18763113021851 9.23295116424561 31.7426204681396 5.01582813262939 20.8654899597168 15.238564491272 4.47561359405518 4.80319499969482 5.2016282081604 13.7349033355713 4.99121809005737 5.33564329147339 5.7982702255249 6.23270273208618 21.0114612579346 5.98961067199707 6.59790277481079 43.9483451843262 6.02762603759766 6.67733144760132 11.5119733810425 7.20511436462402 18.5429344177246 9.92532825469971 14.805305480957 16.8622035980225 18.3742160797119 20.3416690826416 23.0093650817871 24.5311279296875 28.7051391601562 27.7404689788818 37.3589553833008 35.053279876709 5.11365079879761 4.89984846115112 10.7386779785156 3.20958614349365 9.52306652069092 11.8957624435425 29.6212844848633 6.18141746520996 12.1533460617065 16.1326293945312 22.6424655914307 23.1913967132568 43.8918838500977 4.84326267242432 6.29914331436157 51.8563270568848 4.30675792694092 4.18336963653564 4.61124563217163 23.7872848510742 32.9462547302246 39.8541374206543 29.7617588043213 5.90730476379395 5.52028799057007 6.16884851455688 6.39380931854248 7.20821523666382 4.67864418029785 18.2283515930176 -3.66291093826294 -2.85005331039429 1.40064668655396 10.1045370101929 -2.71545481681824 7.33553409576416 10.60471534729 0.500579714775085 0.639357507228851 -0.740137755870819 -0.493645161390305 -0.323791086673737 -0.191351056098938 -0.0531725808978081 0.296185195446014 0.689074039459229 0.465871691703796 0.644491672515869 0.809419691562653 0.953082323074341 2.45002889633179 2.43843555450439 2.58702111244202 2.80791330337524 2.46194648742676 2.44978928565979 2.51486301422119 2.68086957931519 2.74964022636414 2.81759333610535 2.76744389533997 2.87385988235474
0.671981036663055 0.683128535747528 1.07541048526764 1.21921813488007 1.36154282093048 2.28105926513672 2.33139991760254 2.39557266235352 3.20331144332886 3.44608616828918 3.75272560119629 4.02671718597412 3.55966877937317 1.65953147411346 1.85262703895569 1.90352237224579 2.09307098388672 2.48840928077698 3.15727925300598 2.56439280509949 2.58642077445984 2.63689780235291 2.81525111198425 3.08301186561584 3.15188336372375 3.19042658805847 2.59198093414307 1.57061350345612 1.13883125782013 0.893909931182861 0.917044639587402 1.23310470581055 1.2883665561676 1.36323487758636 1.17378497123718 1.30118179321289 1.41421163082123 1.41965889930725 1.59080457687378 1.61433029174805 1.61175179481506 1.67776429653168 1.76629066467285 2.13282227516174 2.77789235115051 3.11922669410706 3.42137742042542 3.61737275123596 3.7021279335022 3.78860306739807 3.8578040599823 4.0019645690918 4.0853099822998 4.19611263275146 4.28387832641602 4.57770824432373 7.60062599182129 9.45995330810547 12.821702003479 13.0124807357788 15.7560453414917 16.7960433959961 5.86184215545654 3.45522403717041 4.16623449325562 6.64365863800049 13.7966318130493 3.23447179794312 3.92801523208618 3.80215382575989 3.84820890426636 3.55671095848083 4.32620143890381 4.19821739196777 4.63988018035889 4.98619174957275 5.75797271728516 8.9828577041626 10.8828926086426 14.811149597168 37.6123695373535 4.39358997344971 14.1551313400269 27.8750381469727 4.40448904037476 7.55915689468384 4.70957279205322 15.6167345046997 5.3392448425293 5.50614023208618 5.78558015823364 11.7912178039551 16.0904979705811 7.45845890045166 15.3099346160889 25.4561996459961 5.52984094619751 5.41502904891968 5.81733131408691 7.29458713531494 13.9236555099487 7.7384352684021 30.8687915802002 10.6630220413208 16.1836910247803 18.0246181488037 19.9103088378906 22.2273483276367 20.6168098449707 16.3642177581787 19.3000240325928 25.095630645752 25.7826290130615 27.9173164367676 5.12004375457764 7.39246273040771 8.30911731719971 10.771915435791 18.5971031188965 5.98214626312256 10.4835815429688 16.464319229126 21.3672771453857 28.7211666107178 36.672550201416 19.3244647979736 6.05935716629028 22.3696460723877 3.83370351791382 4.21371126174927 6.33987140655518 7.40563154220581 23.8249244689941 33.4436416625977 29.7659034729004 22.5861778259277 22.2350463867188 7.11865568161011 9.0736083984375 10.3384437561035 13.5627765655518 13.3783874511719 -0.324245929718018 15.8419694900513 20.9232635498047 23.0285587310791 -1.80448961257935 1.53032159805298 1.36668395996094 23.0167770385742 -1.71761274337769 -0.46076500415802 -0.569600999355316 -0.31597164273262 -0.097449779510498 0.013525553047657 0.282623320817947 1.36451029777527 1.42725026607513 0.815095365047455 0.564936637878418 0.775851845741272 1.00747501850128 1.78100883960724 2.28816771507263 1.92216145992279 2.19568991661072 2.47340798377991 2.60679459571838 2.52633452415466 2.27873754501343 2.68506288528442 2.62687206268311 2.91107964515686
0.980178892612457 1.03671658039093 1.86081099510193 1.98390805721283 2.14714288711548 2.8397388458252 2.89179515838623 3.03232645988464 2.6671347618103 1.00739073753357 1.07430744171143 1.21919572353363 1.31894659996033 1.79898655414581 1.66205167770386 1.89445197582245 2.06890749931335 2.38540744781494 3.17168784141541 2.6247227191925 2.68842124938965 2.69510054588318 2.73762345314026 2.86626315116882 3.05150604248047 3.47316646575928 3.27178812026978 1.28779280185699 1.14090311527252 1.15315353870392 1.17130625247955 0.903941690921783 0.942319571971893 1.00381946563721 0.97931295633316 1.0857321023941 1.18605220317841 1.2830126285553 1.32913947105408 1.33005321025848 1.51449918746948 1.58584690093994 1.6547589302063 1.62109172344208 2.86796450614929 3.19205355644226 3.46525835990906 3.5416202545166 3.69880986213684 3.79657697677612 3.88725614547729 3.98565793037415 4.28933954238892 4.88237285614014 5.24013042449951 5.74034023284912 6.90857887268066 7.84294414520264 9.29203987121582 10.2622833251953 18.9341812133789 6.12838983535767 3.91778230667114 3.26190161705017 11.8507556915283 5.09286260604858 3.16455793380737 16.6016616821289 2.64682054519653 4.21037435531616 3.40774297714233 3.22482681274414 3.63773965835571 4.38483619689941 6.12853240966797 6.70722675323486 7.02809429168701 9.74554252624512 12.0649662017822 35.2911720275879 4.19097471237183 10.1713619232178 14.7579069137573 25.8519859313965 4.90247821807861 10.1174535751343 5.01081562042236 5.17762184143066 9.09946918487549 5.65894031524658 5.80660200119019 10.6451778411865 6.24477767944336 10.5160312652588 26.8713130950928 24.087984085083 4.4887547492981 9.97748947143555 3.84307360649109 5.63844776153564 7.61961221694946 9.8814525604248 8.30062580108643 12.3960285186768 22.119930267334 13.1696004867554 7.83186388015747 22.2210273742676 10.5744123458862 10.3993330001831 11.0374870300293 9.20524597167969 13.8559370040894 5.97145175933838 25.6037273406982 3.69305109977722 7.18782043457031 4.74655055999756 18.9727039337158 6.70950651168823 7.25591611862183 12.6813650131226 15.6267671585083 19.9994792938232 27.3594818115234 36.0127716064453 15.1858921051025 20.5213871002197 5.72180414199829 20.8773193359375 4.20929098129272 5.33990383148193 7.1252818107605 9.21920394897461 20.8405075073242 29.5822772979736 19.221363067627 21.0015277862549 17.5252342224121 6.49643611907959 16.2939319610596 11.8026342391968 -0.998069405555725 10.1681385040283 13.1476678848267 2.70620775222778 7.0847487449646 9.03608798980713 12.2959823608398 2.89555978775024 -1.21769368648529 -0.822003424167633 -0.617706596851349 -0.424714922904968 -0.188059121370316 0.00545071205124259 0.122697710990906 0.996728539466858 1.86050355434418 1.61444175243378 1.53508329391479 1.06132984161377 0.886502146720886 1.72228121757507 1.77929973602295 1.80886483192444 2.00351190567017 2.05717992782593 2.17659401893616 2.32465887069702 2.52281665802002 2.5990047454834 2.68796467781067 2.81762313842773
1.6558495759964 1.70934736728668 2.31871151924133 2.48149442672729 2.68210053443909 2.38104200363159 0.815372109413147 0.939657390117645 1.03218698501587 1.10053658485413 1.15348434448242 1.26524746417999 1.40847313404083 1.53435742855072 1.81554079055786 1.84936153888702 2.02866721153259 2.33599400520325 2.89941024780273 2.57346391677856 2.66893744468689 2.71721768379211 2.72460436820984 2.8932523727417 3.08674073219299 3.38916182518005 3.56559824943542 1.58399534225464 0.865974724292755 0.866586983203888 0.858515918254852 0.78460431098938 0.810960412025452 0.903342664241791 0.962341606616974 1.03159856796265 0.896950304508209 1.14765012264252 1.22637939453125 1.33083832263947 1.3574446439743 1.25952112674713 1.28052604198456 1.5183641910553 1.69052696228027 2.93750190734863 3.37512183189392 3.51755285263062 3.25700402259827 3.29536104202271 3.81602478027344 4.11901617050171 4.17025327682495 4.96871089935303 5.3135199546814 5.91709661483765 6.2540488243103 7.31652402877808 8.98759651184082 11.8107395172119 6.7204213142395 40.3319664001465 2.19521236419678 39.0931205749512 2.33249950408936 2.50372672080994 10.4884023666382 9.88243389129639 2.800626039505 26.1185092926025 10.2154569625854 2.3413622379303 3.87667369842529 4.39723491668701 6.27873563766479 7.4547324180603 10.258264541626 11.9766225814819 16.2308807373047 15.5971422195435 5.22144603729248 9.00969791412354 12.8144693374634 9.65153121948242 21.638484954834 5.07521295547485 5.11748743057251 5.25278234481812 5.09078407287598 5.36296129226685 5.81690788269043 10.7732000350952 11.1640758514404 16.5002746582031 29.9629878997803 15.4482021331787 14.0773267745972 4.6111798286438 3.21993827819824 3.51204252243042 5.2316780090332 5.78623294830322 4.22447824478149 4.45660495758057 6.5321741104126 11.2962665557861 7.96215200424194 24.3169288635254 33.3212966918945 3.28906893730164 3.86955642700195 17.9316158294678 9.62929725646973 13.4603042602539 12.6205387115479 8.14028644561768 13.8602743148804 4.46675634384155 5.99851512908936 7.00108003616333 7.27278757095337 8.42544937133789 12.2041988372803 14.763689994812 20.1334190368652 13.1699371337891 12.3133058547974 19.0182342529297 26.3547515869141 9.9634313583374 12.2188510894775 5.47173595428467 8.70731830596924 12.8903722763062 14.0339088439941 15.3890609741211 21.8070125579834 22.85791015625 10.9590520858765 12.0230913162231 14.6213912963867 15.6358127593994 -0.554310858249664 6.60520076751709 6.16956377029419 6.88334274291992 4.12827301025391 4.31219387054443 54.7094345092773 -2.93213748931885 -2.39127159118652 -0.922311961650848 -0.698251008987427 -0.481169670820236 -0.288214892148972 -0.0637923404574394 0.0360325239598751 0.470518678426743 0.566239356994629 1.39671111106873 1.76537621021271 1.721435546875 1.75417268276215 1.9143944978714 1.92944395542145 2.03486967086792 2.15442085266113 2.31860041618347 2.37759804725647 2.42145109176636 2.47801184654236 2.47317147254944 2.78617334365845 5.90009307861328
2.0814642906189 2.13803148269653 1.86984515190125 0.534524619579315 0.701293170452118 0.837937772274017 0.991808831691742 1.31511473655701 1.86649465560913 1.14904499053955 1.15706014633179 1.32637917995453 1.45304489135742 1.62852680683136 1.75076806545258 1.87411952018738 1.90671753883362 2.28018689155579 2.53030705451965 2.51460909843445 2.69101929664612 2.77813529968262 2.80593299865723 2.90005326271057 3.06790471076965 3.3804988861084 3.52318143844604 2.13575291633606 0.934833347797394 0.979381024837494 0.82575386762619 0.831139266490936 0.849571585655212 0.66539865732193 0.861523807048798 0.921736717224121 0.989742517471313 0.987696290016174 0.808842718601227 0.955030381679535 1.16280579566956 1.28085017204285 1.33000862598419 1.41929149627686 1.71075427532196 1.87762296199799 3.00415325164795 2.81055736541748 2.87649965286255 3.15341138839722 3.56003475189209 3.93303751945496 4.2494421005249 4.34551239013672 4.74251651763916 5.1396598815918 5.44392108917236 3.9699912071228 12.5613050460815 15.5569620132446 20.8226795196533 14.3921279907227 19.9983654022217 9.66400527954102 36.1826667785645 1.83253216743469 3.63047623634338 33.1592674255371 1.96824276447296 16.3820896148682 2.51161003112793 3.63353157043457 3.75343751907349 11.7670431137085 10.6142501831055 4.04445838928223 5.83037281036377 4.79549312591553 5.78654956817627 6.68155956268311 10.0427742004395 7.07131624221802 10.6214923858643 12.3865413665771 25.850736618042 4.69362831115723 4.86413669586182 6.90894365310669 15.210823059082 7.12297821044922 9.11025524139404 12.0549411773682 15.3153142929077 20.4357967376709 25.2114639282227 34.059757232666 8.93277454376221 8.07315731048584 2.13325452804565 2.07067275047302 10.5995473861694 2.04068779945374 2.90779232978821 7.44761800765991 4.00950908660889 13.7589311599731 19.1239604949951 26.4240856170654 8.53375053405762 29.9368572235107 3.39537739753723 3.90087699890137 4.02830076217651 8.52869129180908 12.8672323226929 26.2689476013184 3.47914028167725 14.6101627349854 3.50460147857666 11.7060432434082 24.8925476074219 3.65131258964539 5.93295860290527 8.70086193084717 10.3471031188965 12.3200597763062 10.5027055740356 15.0478572845459 11.3446092605591 37.2454986572266 4.58245134353638 4.77504777908325 8.54721450805664 9.01430702209473 11.518123626709 9.80065155029297 15.328537940979 16.1330261230469 19.346809387207 14.9778461456299 20.4130420684814 31.8854351043701 0.939746797084808 0.829867243766785 4.62086629867554 22.0578899383545 27.5300445556641 41.7868194580078 8.01268768310547 29.8947887420654 -2.04805135726929 -1.64708995819092 -0.860381543636322 -0.597515046596527 -0.405131846666336 -0.256001502275467 0.459758102893829 1.4292414188385 1.53964507579803 1.65568780899048 1.83529257774353 1.87954461574554 1.9880508184433 2.07162976264954 2.19266033172607 2.22902250289917 2.26953768730164 2.31674385070801 2.32993865013123 2.6409375667572 3.72987937927246 3.19319224357605 3.23802971839905 4.58781051635742
0.399245411157608 0.298599451780319 0.350569099187851 0.523749232292175 0.720362901687622 0.865356266498566 1.01472818851471 1.14667391777039 1.72139477729797 1.21343863010406 1.24961602687836 1.40236234664917 1.53700506687164 1.64749014377594 1.79847621917725 1.91226804256439 2.04717206954956 2.5002281665802 2.30935430526733 2.50824689865112 2.64033126831055 2.75367116928101 2.79710364341736 2.77623796463013 2.88890218734741 3.1627733707428 3.06989097595215 2.76199507713318 1.51439201831818 1.18851459026337 1.02396857738495 0.751770853996277 0.768813788890839 0.787871360778809 0.766803979873657 0.557707607746124 0.68080747127533 0.737509429454803 0.797916114330292 1.02244544029236 1.06890165805817 1.27044188976288 1.48442554473877 1.96967947483063 2.06772089004517 2.1542649269104 2.24722361564636 2.66705846786499 2.84360384941101 3.02337265014648 3.50122427940369 3.40908527374268 3.58462333679199 3.56436252593994 3.05232787132263 7.21258926391602 8.139404296875 9.42570018768311 7.54508209228516 8.56121444702148 3.80779457092285 10.009090423584 12.9250955581665 18.0922374725342 9.11371421813965 21.1468467712402 7.17460536956787 17.703275680542 2.18534135818481 8.70247077941895 7.37334585189819 3.47305846214294 3.94102764129639 7.45638656616211 15.4222173690796 4.10930442810059 4.79506015777588 4.92656087875366 5.61208534240723 6.75516748428345 8.91605949401855 10.9542570114136 11.0077524185181 14.750714302063 38.1111030578613 4.45800828933716 5.10284519195557 6.70221996307373 12.6420001983643 8.31119155883789 10.402193069458 13.9148435592651 20.6170272827148 21.1796169281006 33.4878692626953 22.8050422668457 27.5130500793457 13.3453207015991 1.90382397174835 1.91972422599792 2.07327008247375 13.2170600891113 1.90476071834564 2.09307193756104 2.79767274856567 3.46993184089661 10.6054277420044 17.5080165863037 23.4632759094238 30.88720703125 3.37124705314636 3.52551174163818 5.20686054229736 10.9538412094116 15.9882726669312 28.2656383514404 15.4497375488281 7.05520439147949 2.6246337890625 3.32614135742188 2.69517827033997 3.43078088760376 3.45022439956665 6.4262809753418 6.87752246856689 6.33327007293701 11.6257152557373 15.4016523361206 21.8213787078857 23.1473388671875 6.48880529403687 7.29204368591309 5.49963808059692 6.21022605895996 7.32392978668213 6.58015966415405 7.03943157196045 9.26376819610596 14.3968181610107 18.7252750396729 25.6208381652832 23.6926193237305 12.692852973938 12.7580308914185 18.8221817016602 19.2530078887939 33.5351753234863 31.1241264343262 -2.4452748298645 10.1944532394409 -1.24655020236969 -1.0656498670578 -0.821792781352997 -0.631886959075928 0.84031730890274 0.950896203517914 1.40765142440796 1.5817996263504 1.68956744670868 1.85717821121216 1.98777163028717 2.13704800605774 2.18106245994568 2.1833758354187 2.18116092681885 2.18511080741882 2.0969295501709 2.67153668403625 2.87363839149475 46.4930076599121 30.0753936767578 0.405933707952499 3.36608004570007 0.376193791627884
0.3182712495327 0.43648162484169 0.328279554843903 0.485976159572601 0.705321669578552 0.873881220817566 1.00918757915497 1.14331722259521 1.86482977867126 1.22326457500458 1.28228974342346 1.41481554508209 1.59492123126984 1.71713757514954 1.85159659385681 1.97723293304443 2.22724390029907 2.30410718917847 2.29486036300659 2.28647089004517 2.46219849586487 2.61218690872192 2.639888048172 2.5655574798584 2.51420903205872 2.63592410087585 2.90279746055603 2.64575862884521 2.23365092277527 1.86682212352753 1.35590815544128 0.688767194747925 0.465865314006805 0.548269748687744 0.570364594459534 0.589838683605194 0.618925034999847 0.859352946281433 0.93311208486557 1.19649386405945 1.43340134620667 1.51976895332336 1.71272313594818 1.99736285209656 2.08857345581055 2.23535227775574 2.39005708694458 2.3154239654541 2.4281702041626 3.14405655860901 3.23552584648132 2.7675507068634 4.80120897293091 5.26744556427002 5.78774499893188 4.92982292175293 5.38022565841675 2.41104245185852 5.52328062057495 6.23861217498779 7.18800067901611 4.99967622756958 5.92631912231445 6.95107698440552 9.76531219482422 30.217700958252 2.16127634048462 2.24879360198975 29.926399230957 1.99358630180359 6.05833339691162 3.64131927490234 3.75230121612549 3.94961190223694 8.40766620635986 4.20248222351074 5.01759767532349 5.06908655166626 6.5573992729187 7.79587411880493 9.91217803955078 33.0000419616699 6.6530876159668 17.6975193023682 15.5318412780762 8.83967685699463 7.34090423583984 9.74192810058594 9.44439125061035 11.8957366943359 12.0420913696289 14.2039766311646 17.4166736602783 20.6487922668457 36.8745498657227 21.3824424743652 28.2601928710938 11.8738689422607 15.7383670806885 4.22154808044434 1.4313098192215 1.62677574157715 1.68592810630798 1.94565212726593 2.73293161392212 5.7322096824646 10.9889097213745 15.8873729705811 22.3855037689209 11.2978658676147 8.56165599822998 4.03714752197266 8.55673599243164 13.0873823165894 20.6052722930908 37.6332130432129 20.1207065582275 1.5677547454834 1.6417008638382 2.23011350631714 13.0158929824829 3.35728716850281 4.36294031143188 6.13509750366211 7.91966342926025 9.86825656890869 10.5681886672974 5.43399286270142 5.94089841842651 4.78492593765259 5.25399160385132 5.72826766967773 3.96432685852051 3.82580780982971 4.44316625595093 6.76047086715698 8.717848777771 11.3445682525635 8.07029724121094 11.6562356948853 12.8598260879517 17.6469993591309 12.3402633666992 13.7371168136597 19.4539737701416 19.3643474578857 31.7052841186523 11.1962671279907 18.6129112243652 -1.60501050949097 -1.06158053874969 -0.980753600597382 -0.811025738716125 0.946802973747253 1.2740660905838 1.41033065319061 1.61669063568115 1.7978892326355 1.97850501537323 2.05166339874268 2.10357928276062 2.14433407783508 2.62392115592957 3.80702638626099 2.05496978759766 2.16631627082825 14.7905721664429 21.9819087982178 27.6750602722168 38.106071472168 41.309024810791 10.2077169418335 0.333820253610611 0.392923057079315
0.352093935012817 0.351003110408783 0.375368863344193 0.469995439052582 0.681252360343933 0.870644629001617 1.00635409355164 1.16254138946533 1.27275967597961 1.71710073947906 1.30796110630035 1.45075011253357 1.5918505191803 1.68880093097687 1.77694225311279 2.01504683494568 2.07773923873901 2.07901549339294 2.19793295860291 2.349534034729 2.3466465473175 2.29833626747131 2.46228265762329 2.38624334335327 2.23560523986816 2.17117309570312 2.24011659622192 2.40525054931641 2.45201516151428 2.15663766860962 1.591188788414 0.854680120944977 0.531046688556671 0.36701163649559 0.731614410877228 0.754490256309509 0.857384383678436 34.8083534240723 0.304558515548706 1.31876194477081 1.482754945755 1.62571966648102 1.73883497714996 1.66871047019958 1.71914947032928 1.83684468269348 1.98593199253082 1.90988993644714 2.01127767562866 3.51825976371765 3.74029016494751 3.998615026474 3.53214478492737 3.79449033737183 1.96332502365112 3.68558573722839 3.97574710845947 4.3757266998291 3.25559759140015 3.57922410964966 3.94816565513611 4.54252672195435 7.83249378204346 10.2701225280762 14.5006113052368 29.6363677978516 1.862300157547 5.51380062103271 6.47837400436401 23.7110195159912 2.45818996429443 4.31723308563232 8.19415664672852 3.785649061203 10.9995985031128 4.60448026657104 5.28272771835327 5.9738507270813 7.46219635009766 10.1699123382568 15.3049554824829 20.8211555480957 6.06766128540039 7.03444147109985 7.96512937545776 17.0010757446289 9.10005855560303 9.98120021820068 11.5323810577393 25.6271514892578 11.495285987854 12.6006889343262 19.1392650604248 20.7272186279297 25.2944011688232 36.7912559509277 19.8437385559082 20.4648895263672 15.3543081283569 7.48411464691162 1.15654730796814 1.57608675956726 6.84135007858276 1.64190697669983 2.94773936271667 5.67010354995728 6.57028722763062 14.6324939727783 3.39704871177673 17.6297874450684 5.95596647262573 6.99789428710938 13.0345964431763 19.3843574523926 33.7578163146973 17.6882152557373 31.2790508270264 4.91622495651245 0.791801035404205 1.48322570323944 1.47105610370636 24.0960388183594 2.33317112922668 5.81886911392212 4.31520795822144 4.83939027786255 3.94649982452393 4.36423540115356 4.80138254165649 3.44401049613953 3.81860041618347 3.83194136619568 5.0503249168396 5.62218809127808 6.34512710571289 3.99872016906738 8.52593803405762 9.57864952087402 10.6101007461548 9.01688385009766 9.99212074279785 12.9893970489502 14.3596982955933 16.1297740936279 7.44517135620117 11.8822240829468 11.9563541412354 23.7229385375977 -0.918986201286316 0.660542368888855 3.98275828361511 -0.86742490530014 0.815499484539032 1.12360024452209 1.27510559558868 1.54999089241028 1.7338445186615 1.92391669750214 1.9991500377655 2.03489351272583 1.97053170204163 2.36151838302612 3.21478366851807 9.14292049407959 12.8746538162231 14.4425716400146 17.0309524536133 22.3080577850342 28.0947971343994 38.6717300415039 34.9397315979004 16.9608592987061 15.0945491790771 0.447256982326508
0.335651457309723 0.377074867486954 0.416768908500671 0.489635199308395 0.656352698802948 0.860386490821838 1.01995122432709 1.16521728038788 1.2745646238327 1.3791435956955 1.41208958625793 1.5624303817749 1.72701907157898 1.74481880664825 1.79524481296539 1.91937077045441 1.87616169452667 1.98800551891327 2.0950140953064 2.24085426330566 2.33666753768921 3.25626564025879 2.05868482589722 2.23490595817566 2.19596385955811 2.02013349533081 1.94158124923706 1.9901088476181 2.14485192298889 2.23448300361633 1.96240627765656 1.20563733577728 0.705222189426422 0.792353212833405 9.08041000366211 11.7238740921021 16.3121337890625 28.3245544433594 7.67961931228638 0.257985770702362 1.36217856407166 1.43839514255524 1.41736316680908 1.39237475395203 1.2347776889801 1.25909554958344 2.63198661804199 2.85328030586243 3.05915832519531 2.7540602684021 2.89224076271057 1.69544422626495 2.74007940292358 2.89805960655212 3.07247686386108 2.29931259155273 2.39330577850342 2.56849193572998 2.91846680641174 3.80493593215942 4.44108295440674 5.28472566604614 7.17106103897095 38.9471206665039 1.43950188159943 20.1951007843018 2.11364150047302 2.41779375076294 12.2562131881714 22.3798408508301 2.46105432510376 3.1662061214447 18.7144546508789 14.7870092391968 3.56756925582886 3.99513840675354 5.22882795333862 6.08383846282959 5.9801778793335 6.33655977249146 40.7177772521973 4.95178174972534 7.07419490814209 8.08963775634766 14.140721321106 13.7377185821533 11.9635324478149 15.4420394897461 22.2113819122314 13.7872762680054 24.7304763793945 12.5841274261475 17.2068538665771 16.6873607635498 22.0372428894043 25.540943145752 23.671688079834 33.0966529846191 12.8524255752563 9.09811592102051 1.08015096187592 5.52099561691284 1.19205594062805 1.53000402450562 2.67008185386658 2.91945099830627 6.83799457550049 4.3655309677124 5.73791027069092 6.21387815475464 8.93618011474609 11.3429832458496 15.6806774139404 19.490177154541 38.4007873535156 25.018949508667 3.86536836624146 19.3589553833008 0.0169391948729753 0.0174469873309135 0.48646804690361 0.97749924659729 2.90932655334473 2.59376358985901 2.89119720458984 3.29300451278687 2.09771180152893 2.43713855743408 2.97577047348022 4.14488792419434 4.65970802307129 5.17608976364136 3.42500281333923 7.12385368347168 7.58041429519653 8.06736278533936 6.68692493438721 7.21387958526611 9.37523174285889 10.3685817718506 11.4571762084961 5.77716827392578 8.0384635925293 8.62288475036621 9.89642715454102 10.1245212554932 14.0900402069092 11.3751335144043 7.06316900253296 7.65205574035645 5.30222129821777 2.32696723937988 0.854442715644836 1.15122032165527 1.39354038238525 1.44823861122131 1.56296098232269 1.69904565811157 1.77998375892639 1.88526284694672 6.71669435501099 9.8283519744873 10.8011302947998 11.8372192382812 13.5634078979492 14.9047250747681 17.2146396636963 20.3472137451172 25.8628273010254 34.109977722168 31.8178062438965 34.4526252746582 23.5498027801514 1.2798455953598
0.379233926534653 0.438643157482147 0.474930733442307 0.556416511535645 0.662234961986542 0.842246830463409 1.01687359809875 1.16269171237946 1.27509224414825 1.36128282546997 1.44888377189636 1.71612870693207 4.05170392990112 1.56820130348206 2.04773354530334 1.74840104579926 1.80230569839478 1.90656244754791 1.9965056180954 2.11437654495239 2.48089623451233 2.6417510509491 2.79267239570618 2.42328476905823 2.01833248138428 2.15895652770996 1.7653728723526 1.69781911373138 1.77575945854187 1.88442516326904 1.86263287067413 5.44379711151123 6.0434250831604 6.95123958587646 42.5093421936035 -0.187384217977524 22.8350410461426 -0.273697018623352 8.24414348602295 -0.235052213072777 1.16857886314392 1.06633925437927 1.96334779262543 2.06613183021545 2.14049911499023 2.22311973571777 2.02376937866211 2.19951105117798 1.44094228744507 2.15963768959045 2.2748544216156 2.39247918128967 1.85355985164642 1.91479182243347 1.99453544616699 2.09226679801941 2.26934576034546 2.44310688972473 2.84780859947205 3.55145764350891 9.80283260345459 13.0431079864502 18.7818660736084 17.6694755554199 1.54487025737762 8.87065505981445 5.72593259811401 7.43436193466187 12.7164831161499 5.79715347290039 10.5139236450195 12.2478542327881 16.1193008422852 22.5775985717773 7.51136779785156 3.76723408699036 5.20813798904419 10.3041772842407 14.4700880050659 33.000846862793 5.7652006149292 6.86577081680298 7.81481552124023 19.6672115325928 8.56783294677734 10.7947788238525 12.0407543182373 14.3007326126099 16.7041893005371 21.0957660675049 23.1021575927734 12.9501266479492 14.3315057754517 20.1214561462402 24.3890571594238 29.1995105743408 43.4293670654297 20.1262226104736 14.9668502807617 9.36172866821289 2.93803715705872 0.889744639396667 9.22046279907227 1.05184864997864 5.97449111938477 2.09685301780701 4.6741304397583 6.94845914840698 7.68981981277466 8.4487190246582 10.6284151077271 12.7876291275024 32.4192504882812 14.1602544784546 33.4635276794434 21.8704738616943 18.2056083679199 -0.936394691467285 -0.374715566635132 -0.354907959699631 -0.521380543708801 -0.248739644885063 -0.752020657062531 -0.325529485940933 1.36218059062958 1.58300459384918 2.28017997741699 2.74650526046753 3.41199851036072 5.52660083770752 6.05010080337524 6.49793243408203 6.94685888290405 5.81193876266479 5.87515926361084 7.23127794265747 7.78847217559814 8.4825439453125 4.23772001266479 6.07242774963379 6.62026071548462 7.48058652877808 6.74455261230469 7.22574520111084 5.90144491195679 4.45387744903564 5.16399955749512 4.74270534515381 5.46750116348267 6.51624393463135 6.37317371368408 3.8035991191864 1.19785356521606 0.975123763084412 1.09212708473206 1.39814043045044 1.48829710483551 5.11118650436401 7.58653831481934 8.19562911987305 8.8550500869751 10.0483894348145 11.0345144271851 12.1990690231323 13.1951303482056 14.7437314987183 16.604621887207 19.3211345672607 21.7131214141846 33.2897033691406 11.5222320556641 28.6647205352783 17.9554748535156 23.1811408996582
0.433899760246277 0.50361579656601 0.57231205701828 0.653016328811646 0.700173556804657 0.826297521591187 0.967811286449432 1.12394630908966 1.24194943904877 1.32379186153412 1.48183798789978 2.89480876922607 1.64067316055298 1.63829624652863 1.70823311805725 1.74255311489105 1.75578105449677 1.8310421705246 1.91005122661591 2.11816120147705 2.38840174674988 2.82442474365234 2.29633593559265 2.28774380683899 2.92581582069397 2.11010670661926 1.87629234790802 1.54965150356293 4.22198009490967 4.51127243041992 4.85774946212769 13.1278696060181 16.5021133422852 22.4227294921875 38.9571380615234 26.2254123687744 -1.01547479629517 8.10936832427979 8.10503101348877 -1.14013814926147 -0.437876760959625 1.64798283576965 1.56283247470856 1.65076732635498 1.11250126361847 1.48247408866882 1.53422880172729 1.65494334697723 1.80268430709839 1.46841776371002 1.54690766334534 1.61393058300018 1.6754754781723 1.75438451766968 1.87200748920441 2.03909587860107 2.21101880073547 4.96767282485962 5.87331676483154 7.27762699127197 8.5366325378418 11.5734300613403 16.8229637145996 15.7529602050781 2.24795770645142 4.49963283538818 4.80359220504761 22.1282844543457 6.86180782318115 3.49257183074951 7.09092664718628 8.37242317199707 10.6502180099487 14.199462890625 5.61605072021484 6.91322946548462 8.11388301849365 10.1511287689209 30.0092239379883 5.84633111953735 6.95580911636353 7.07298183441162 9.81142234802246 9.45802783966064 9.90895462036133 10.9636840820312 12.2624797821045 13.5526924133301 17.4991912841797 21.7176933288574 17.2728824615479 15.993260383606 16.8344554901123 19.1578121185303 24.2620315551758 30.163761138916 32.1852607727051 33.5016021728516 13.0758056640625 23.6300201416016 0.851125001907349 0.882765591144562 0.944993615150452 2.33653569221497 1.33144080638885 1.73381173610687 4.131019115448 5.85488414764404 6.27793455123901 11.0260725021362 8.34517383575439 8.71289157867432 13.4345827102661 29.8556003570557 25.2129936218262 11.4826335906982 17.6335544586182 -1.68702435493469 4.09748506546021 -1.41571378707886 -1.52285969257355 -0.791328608989716 -0.343747198581696 1.32788217067719 1.51824641227722 1.85403800010681 3.99615788459778 4.40769147872925 4.89565706253052 4.23213577270508 4.32968997955322 4.75716304779053 5.96391344070435 6.4338641166687 6.89650678634644 3.44220304489136 4.8473334312439 5.17490100860596 5.59280824661255 4.6174840927124 5.0895209312439 4.62874174118042 3.83990430831909 4.10472869873047 3.76501655578613 3.84006547927856 4.37706565856934 4.61974048614502 4.20610523223877 4.84427785873413 5.51756048202515 4.64557409286499 2.26254677772522 1.06890320777893 3.54077887535095 5.69272232055664 6.32571077346802 6.90484666824341 7.75739479064941 8.53051567077637 9.17112255096436 9.89267921447754 10.8661661148071 12.3185634613037 13.5196619033813 14.8549861907959 13.7632551193237 13.2202110290527 17.9240207672119 38.9135894775391 8.41794681549072 15.04714012146 15.8360042572021 18.7416934967041
0.448450714349747 0.553297460079193 0.573274731636047 0.651294648647308 0.73203057050705 0.809239327907562 0.898974061012268 1.04796373844147 1.19049632549286 1.30894565582275 1.52255511283875 2.1682653427124 2.24784970283508 1.61175000667572 1.67783355712891 1.72950494289398 1.76209723949432 1.79195547103882 1.90583837032318 2.05323147773743 2.22787976264954 2.59758400917053 2.40754365921021 2.40929412841797 2.74422311782837 3.66564965248108 3.73836708068848 3.84262800216675 7.95392751693726 8.93426418304443 10.3010721206665 11.8710689544678 17.9122848510742 22.3341960906982 29.7949352264404 36.9423446655273 6.08949565887451 24.2048397064209 -1.36987459659576 -1.15463709831238 -0.699715971946716 -0.254965960979462 1.1569916009903 1.25806510448456 1.31964063644409 1.15170300006866 1.18954908847809 1.20727849006653 1.30710422992706 1.36836957931519 1.50465393066406 1.54817032814026 1.59551179409027 1.59648406505585 3.41763377189636 3.82578945159912 4.28484201431274 4.25084066390991 5.08531951904297 6.32813310623169 3.02666306495667 4.47331953048706 6.83157825469971 3.1468071937561 20.7496719360352 15.3612003326416 2.26241421699524 37.0705490112305 2.89374732971191 49.8480606079102 2.43112349510193 4.52319049835205 4.68184947967529 5.2022385597229 5.70327758789062 7.49170446395874 40.1179962158203 4.54915857315063 5.10333585739136 6.58601570129395 7.1792254447937 9.31673240661621 7.78975868225098 9.6695556640625 10.2711095809937 11.1009902954102 11.9759340286255 12.9521064758301 14.9862871170044 17.7944755554199 26.753589630127 16.0228157043457 16.238166809082 16.9441585540771 21.7206954956055 23.1269664764404 32.4308395385742 29.4106369018555 35.0256958007812 13.212197303772 4.83611965179443 1.19333410263062 3.40051770210266 0.707327365875244 1.0714099407196 1.18589735031128 4.14490461349487 6.43719959259033 34.0054740905762 4.07390832901001 7.40639495849609 9.3087272644043 10.5458354949951 11.5559682846069 15.8768100738525 19.8831901550293 2.33423352241516 5.5443000793457 -2.16115045547485 1.35319125652313 -1.22404801845551 -1.32974898815155 4.64816999435425 1.01143956184387 3.27813529968262 3.63707304000854 2.97018456459045 2.8618700504303 3.86370158195496 4.37175703048706 4.9608907699585 5.48817682266235 2.73910331726074 3.96301651000977 4.24531602859497 4.52930879592896 3.62826991081238 3.90531015396118 3.47744607925415 2.92879390716553 3.15337777137756 3.08270215988159 3.11037135124207 3.41029262542725 3.60504770278931 3.22403025627136 3.5055034160614 3.94885110855103 3.80438661575317 3.87748241424561 4.35348033905029 4.89309597015381 5.06264114379883 5.23359870910645 5.43046045303345 5.92379856109619 6.61550092697144 7.16242790222168 7.79247570037842 8.414231300354 9.52432155609131 10.2272939682007 11.0848846435547 10.4349737167358 8.8843879699707 9.82875442504883 12.4411630630493 15.7597208023071 21.3003444671631 8.72663402557373 7.51917266845703 9.44389915466309 12.7818727493286 8.29022216796875
0.487593561410904 0.538879871368408 0.621287763118744 0.691205024719238 0.769265294075012 0.828232824802399 0.9245845079422 1.04462325572968 1.16844713687897 1.2771247625351 1.395228266716 2.52731919288635 1.53944480419159 1.60117042064667 1.66299283504486 1.7163587808609 1.75455296039581 1.80720031261444 1.95488798618317 2.08070373535156 2.215656042099 2.37585997581482 3.42407035827637 3.48089790344238 3.52456307411194 6.16232347488403 6.5107536315918 6.9131760597229 6.99479007720947 10.6218748092651 11.9990577697754 13.7905673980713 15.7019138336182 19.8181819915771 26.6245136260986 40.1995620727539 11.5975875854492 11.7989044189453 4.69737100601196 -0.651972770690918 12.5006666183472 -0.715325713157654 -0.227605402469635 1.02370727062225 1.07400047779083 1.18453598022461 1.21442997455597 1.33514523506165 1.34413588047028 1.38344728946686 1.29565536975861 2.36626434326172 2.58757352828979 2.83285427093506 2.63901448249817 3.02523136138916 3.51045656204224 1.96411454677582 2.12559819221497 2.22145843505859 2.32433485984802 4.70442914962769 8.7020959854126 11.4635763168335 16.2492504119873 13.4549684524536 18.0703258514404 20.076208114624 49.8679008483887 39.2623901367188 1.4528489112854 4.51547384262085 4.95902395248413 9.71590137481689 35.9357719421387 29.3514404296875 3.4472336769104 4.49974632263184 6.16396236419678 6.91120910644531 7.32979345321655 7.69041442871094 9.23071479797363 9.60188579559326 10.525918006897 11.3150644302368 12.0915689468384 12.984601020813 14.5019464492798 15.2759799957275 27.5766868591309 14.6170768737793 20.0283794403076 16.0491352081299 18.5582847595215 20.4317493438721 29.7541446685791 43.377254486084 20.6262264251709 14.4941692352295 15.074857711792 18.6971054077148 17.2901744842529 0.699327051639557 0.959666728973389 3.55003070831299 3.54419350624084 7.17803001403809 6.79182577133179 6.46539449691772 8.60397148132324 10.1018047332764 14.8219861984253 15.5033464431763 21.9126014709473 25.2614879608154 8.20194816589355 -1.95374190807343 -2.42530536651611 -1.85964679718018 0.83818119764328 0.890223264694214 1.19878280162811 0.657855749130249 0.244000941514969 2.67992234230042 3.06485223770142 3.44297337532043 1.33614861965179 2.44148468971252 2.90381526947021 3.3660135269165 3.68902683258057 2.91743159294128 3.12168550491333 2.80537724494934 2.41790914535522 2.55346703529358 2.46373629570007 2.35253357887268 2.54302668571472 2.74483442306519 2.54879474639893 2.65583610534668 2.92112827301025 2.93493151664734 2.7726104259491 3.23430609703064 4.57709455490112 4.7164511680603 4.84375 5.15885877609253 5.61323690414429 5.80453872680664 5.99440097808838 6.18403720855713 6.4583740234375 7.44875383377075 8.04541683197021 8.74250316619873 8.21201419830322 6.65010070800781 7.24117755889893 7.81639432907104 8.48093128204346 28.7023582458496 10.8081026077271 3.08117985725403 7.18731212615967 3.62588477134705 6.50664043426514 5.83511114120483 6.34732389450073 6.9243540763855
0.494529038667679 0.561361074447632 0.650155484676361 0.747871220111847 0.821213841438293 0.868393063545227 0.937605619430542 1.0245349407196 1.13401365280151 1.25191485881805 1.37097203731537 1.51893579959869 1.53202199935913 1.58753216266632 1.64838218688965 1.74528360366821 1.82986032962799 1.86284554004669 3.04827499389648 3.1402735710144 3.21678757667542 3.29272532463074 5.28954362869263 5.50722742080688 5.73016309738159 5.64600849151611 8.02271556854248 8.50110530853271 9.10405254364014 9.25546360015869 10.2127704620361 11.7060241699219 11.724196434021 14.9724769592285 20.4493923187256 47.1165542602539 7.1459493637085 -0.204812079668045 6.16997814178467 23.0255794525146 2.21305751800537 -0.730939745903015 -0.397607713937759 0.998363494873047 1.07901060581207 1.11188173294067 1.27748203277588 1.13348698616028 1.67920434474945 1.76678597927094 1.91785800457001 1.73486757278442 1.9218088388443 2.13062596321106 1.40523183345795 1.83594906330109 1.92161381244659 2.0276141166687 2.50673961639404 4.46756649017334 5.33103132247925 6.44520568847656 6.63068628311157 9.99067401885986 11.4704055786133 30.3831443786621 20.717737197876 33.1701965332031 58.2572059631348 16.7274360656738 1.37876534461975 1.96708655357361 13.1912803649902 37.7394638061523 9.18630504608154 3.70700192451477 5.85476732254028 6.57602739334106 6.74592447280884 6.91874074935913 30.6277084350586 6.98816299438477 9.27217197418213 9.86730289459229 10.4500570297241 11.0670881271362 11.6817855834961 12.0629415512085 13.0736532211304 13.9991550445557 27.6541996002197 14.4499168395996 15.6009159088135 15.8068227767944 15.7006177902222 28.690450668335 18.8986320495605 35.7164268493652 24.4695777893066 10.4797439575195 16.5160312652588 22.0141048431396 14.0329236984253 2.65510368347168 3.61249446868896 4.19377040863037 9.44766616821289 4.08941793441772 4.90075397491455 7.30537748336792 11.7753429412842 15.953652381897 21.0476608276367 28.4437599182129 25.8067817687988 30.275074005127 4.28011131286621 -0.0707092881202698 0.215707257390022 5.21483516693115 2.56942176818848 -0.663571119308472 0.0835289433598518 29.9036388397217 -0.35288205742836 -1.40279626846313 1.49485945701599 1.8148455619812 2.1347188949585 1.58806192874908 1.98306441307068 2.39957547187805 2.28872275352478 2.0200982093811 2.13350892066956 2.07537460327148 1.96768152713776 2.07153558731079 2.19766998291016 2.03035569190979 2.02386426925659 2.19686913490295 2.23072361946106 2.04174852371216 2.9239444732666 4.13202667236328 4.28128576278687 4.44075202941895 4.72349786758423 5.09088611602783 5.2641716003418 5.4567346572876 5.62812662124634 6.29863786697388 6.51398086547852 6.74181747436523 6.99089765548706 6.48342514038086 5.0044150352478 5.67208433151245 6.18107938766479 6.64226055145264 8.67346000671387 16.0761547088623 20.6666011810303 4.74516248703003 19.9894618988037 2.74321508407593 3.17614126205444 3.18629145622253 3.46173214912415 5.85415029525757 6.37757301330566 7.01909303665161
0.436753392219543 0.591626584529877 0.684456706047058 0.787865340709686 0.834916174411774 0.886701762676239 0.926529347896576 1.00772595405579 1.08858466148376 1.19983100891113 1.32309567928314 1.46855175495148 1.56972599029541 1.60608899593353 1.70808374881744 2.82968235015869 2.89362049102783 2.93690156936646 2.69233989715576 4.58943128585815 4.76202011108398 4.95207118988037 4.98453664779663 6.77888584136963 7.08327054977417 7.38944244384766 7.23312759399414 7.68815517425537 8.12081146240234 57.3584251403809 -1.63591706752777 2.16775512695312 -1.98525011539459 18.3082962036133 25.2215805053711 27.6410083770752 56.3970336914062 -1.35297763347626 11.1237049102783 10.9986400604248 14.8863849639893 -0.951931893825531 -0.760560274124146 -0.224996358156204 40.2184219360352 7.64159917831421 -0.407320916652679 1.45996129512787 1.2380256652832 1.32525980472565 1.3938695192337 1.16703820228577 1.60588717460632 1.66093492507935 1.72582638263702 1.81917583942413 2.49130511283875 3.06615424156189 3.6691951751709 4.12122774124146 6.73260927200317 7.47480297088623 10.1873092651367 16.3657932281494 18.5891666412354 23.5866298675537 29.3479633331299 52.152214050293 33.5144157409668 1.26563084125519 1.29044771194458 2.66329216957092 2.65476202964783 3.1751127243042 4.04251146316528 5.6439151763916 6.07498121261597 6.44258451461792 6.74022579193115 11.4874639511108 7.98868846893311 8.75854778289795 9.30098724365234 9.62699604034424 9.78397846221924 12.3213176727295 9.83580303192139 11.5154962539673 13.1424226760864 14.0886077880859 14.2872581481934 19.4057941436768 14.7199878692627 14.2459144592285 14.0486993789673 11.7658815383911 12.9722938537598 23.2665729522705 14.074275970459 11.4224863052368 12.634838104248 15.0155792236328 10.3896169662476 4.28535509109497 7.10023498535156 21.6193733215332 5.16606855392456 3.88963031768799 6.197105884552 14.1131353378296 11.3785276412964 14.5272836685181 17.2851848602295 22.6080532073975 28.814395904541 17.0334529876709 17.1044158935547 0.341008991003036 3.40753316879272 11.1939678192139 8.18068504333496 6.32299137115479 8.29855155944824 3.22856116294861 -1.09690463542938 -0.771253049373627 -0.709066331386566 1.061314702034 1.07613265514374 1.11331045627594 1.38173007965088 1.5424929857254 1.54546809196472 1.65455329418182 1.74470436573029 1.84647345542908 1.71752548217773 1.65904688835144 1.7648788690567 1.78872787952423 1.64050590991974 2.63930916786194 3.73192572593689 3.84680986404419 3.96890234947205 4.21257781982422 4.59129333496094 4.73561525344849 4.90051698684692 5.04299163818359 5.6499285697937 5.8559889793396 6.07286834716797 5.648033618927 4.26461458206177 4.66005945205688 4.79655504226685 4.95513677597046 5.16995716094971 4.58106279373169 6.4020094871521 25.2539577484131 5.01857233047485 11.4282875061035 19.927318572998 12.7319641113281 11.2355098724365 8.05588436126709 6.14010620117188 17.3538284301758 4.09427165985107 4.5972728729248 4.75673294067383 6.00623655319214
0.333680987358093 0.583422005176544 0.715123653411865 0.782540738582611 0.855728209018707 0.885137856006622 0.918594002723694 0.964034497737885 1.02053380012512 1.14050340652466 1.26345694065094 1.39927339553833 2.60722208023071 2.66736388206482 2.73511552810669 3.98021507263184 4.09461832046509 4.21638536453247 4.33612680435181 4.39417314529419 5.7853946685791 6.0384349822998 6.30605745315552 6.18559980392456 6.4696741104126 6.75906324386597 23.299503326416 28.3840713500977 36.1757545471191 52.8012809753418 27.2997608184814 -2.18783187866211 -1.47712898254395 38.7711753845215 19.7974758148193 7.57724380493164 0.280902326107025 7.77983522415161 3.76499056816101 5.63339710235596 7.86671686172485 -0.867355465888977 -0.80678915977478 -0.131300672888756 23.160213470459 1.00831007957458 1.01011395454407 1.0540497303009 1.01936793327332 1.05863678455353 1.17875802516937 1.51890063285828 1.5845707654953 1.67775726318359 1.74745762348175 2.27326703071594 2.47211575508118 4.79240274429321 5.37702417373657 6.89948463439941 11.3348865509033 12.4889125823975 13.9079561233521 16.0340118408203 18.4195117950439 26.1019821166992 32.1901206970215 51.9137840270996 46.19482421875 0.507492423057556 1.74573349952698 2.94400715827942 3.72382140159607 4.89166069030762 5.08465433120728 5.37145280838013 6.11074161529541 6.48848152160645 7.14498996734619 20.4831829071045 6.78873252868652 8.32898998260498 8.77876091003418 9.15202903747559 22.7765884399414 8.68899250030518 9.87669086456299 8.96727180480957 11.1342210769653 12.7298049926758 12.7049179077148 13.8717203140259 12.1665000915527 11.1348075866699 18.2697353363037 9.59324741363525 10.0185403823853 8.81421661376953 19.1587009429932 19.1237945556641 3.36931490898132 7.85956764221191 7.59895277023315 7.86636924743652 12.2791500091553 16.0640316009521 5.50290536880493 6.61935567855835 8.24467945098877 10.5118322372437 14.5322723388672 18.8385791778564 16.9360008239746 17.3173713684082 13.0295000076294 16.9530162811279 13.6518697738647 22.5769557952881 5.44276237487793 5.69145107269287 9.29129409790039 9.59802341461182 2.23819184303284 5.51196813583374 -1.59452939033508 28.3079605102539 -1.81895136833191 -1.55846917629242 0.866537988185883 0.918038308620453 1.13790905475616 1.36679100990295 1.36799669265747 1.32140040397644 1.39604568481445 1.48237979412079 1.51349103450775 1.38361620903015 2.41333508491516 3.39415454864502 3.48730182647705 3.59265971183777 3.78736042976379 4.12615919113159 4.26449918746948 4.39142560958862 4.51109838485718 5.06764698028564 5.23548698425293 5.41854858398438 5.06348037719727 3.83050942420959 4.20610332489014 4.35444307327271 4.50576972961426 3.37794709205627 3.55984306335449 4.50710439682007 5.85079431533813 7.54196262359619 10.8710269927979 10.5567207336426 15.3673992156982 9.10179138183594 10.7830429077148 21.429817199707 4.71931648254395 7.61806106567383 3.79812479019165 13.944995880127 4.03326797485352 5.38897228240967 30.8198852539062 3.98728251457214
-1.55055725574493 0.508669674396515 0.695554137229919 0.807730495929718 0.86129903793335 0.884591221809387 0.939253091812134 0.969001591205597 0.989970564842224 2.11587071418762 2.24645638465881 2.39537620544434 3.53401851654053 3.72271108627319 3.80662059783936 3.91078925132751 4.99199056625366 5.13754749298096 5.28118991851807 5.43416929244995 5.40476655960083 5.63920974731445 5.83600187301636 14.7516145706177 16.597957611084 18.948902130127 20.2998638153076 25.5072822570801 31.8550605773926 51.1205520629883 19.8474273681641 0.0238266699016094 0.199166238307953 8.41634273529053 27.8875217437744 38.6424446105957 34.4035911560059 -1.29553985595703 -0.583782255649567 5.45875692367554 4.99788427352905 -0.737483561038971 -0.583669304847717 -0.381809651851654 -0.193859323859215 0.908090353012085 0.95357620716095 1.05625247955322 1.28765630722046 1.08172130584717 1.09917342662811 1.50907802581787 2.0107102394104 2.12925815582275 3.4189338684082 3.73323440551758 4.69291877746582 8.32381629943848 9.18190765380859 10.0303039550781 11.1704006195068 12.2947845458984 15.4991092681885 17.6813297271729 20.4429550170898 30.1357975006104 36.6637420654297 39.0140571594238 22.5685367584229 10.4549999237061 2.27582812309265 3.99651050567627 4.99247026443481 5.4803409576416 6.12953424453735 24.6550579071045 6.05148601531982 6.11586380004883 21.2614765167236 6.0977668762207 8.08996868133545 8.52077388763428 9.99280548095703 29.3906860351562 7.3765811920166 8.31586074829102 8.86863040924072 8.03078746795654 8.73953342437744 10.2335538864136 9.6457347869873 11.8221702575684 15.7760496139526 17.8251876831055 8.17490863800049 9.04835796356201 35.9852104187012 10.8674345016479 23.3427963256836 17.4492034912109 15.7325305938721 9.3414134979248 14.7187166213989 4.91330909729004 7.09233617782593 7.6063666343689 7.27591991424561 7.57711124420166 9.68366813659668 13.8753519058228 12.8158893585205 30.7085590362549 10.3483657836914 8.19279766082764 7.28822755813599 9.81970977783203 14.0457849502563 5.7297477722168 28.2763957977295 0.131064876914024 3.30762648582458 2.14610934257507 2.50725746154785 3.78730344772339 11.1964330673218 9.71549987792969 -1.2436830997467 6.77900552749634 -1.35600757598877 0.860274612903595 0.897766470909119 1.09162473678589 1.20774078369141 1.13377547264099 1.10058426856995 2.21836638450623 3.12128210067749 3.2012095451355 3.28484392166138 3.44945430755615 3.7529559135437 3.85909056663513 3.97529435157776 4.05729675292969 4.55120325088501 4.70004510879517 4.85355091094971 4.5507640838623 3.43531227111816 3.79908680915833 3.92734932899475 4.0598292350769 2.94475698471069 3.05871915817261 3.65760445594788 4.10787057876587 4.46302223205566 6.34112548828125 6.88178968429565 7.50184059143066 7.11238050460815 12.0916013717651 12.3494453430176 5.4980320930481 8.91381168365479 31.839786529541 3.44940614700317 4.21093320846558 5.24422836303711 10.110463142395 6.63797235488892 8.72233772277832 14.8092584609985 4.47162771224976
