NCOLS 171
NROWS 32
XLLCORNER 353888
YLLCORNER 6700528
CELLSIZE 16 
NODATA_value -3.4e+38 
1.9133243560791 3.49700784683228 4.44309568405151 4.91569328308105 5.3277850151062 5.83378410339355 6.02473020553589 6.25272846221924 6.42225122451782 6.51286792755127 6.32240533828735 5.91643714904785 5.46743535995483 5.5803074836731 5.71023035049438 5.76699495315552 5.71088027954102 5.52748155593872 5.57295179367065 5.52901029586792 5.47960138320923 5.33314275741577 5.29609394073486 5.44815015792847 5.57585906982422 5.74621248245239 6.00388860702515 6.11638593673706 6.26991701126099 6.28785085678101 6.28621196746826 6.217698097229 6.25041913986206 6.27898216247559 6.14091205596924 5.93626880645752 5.71697378158569 5.52634286880493 5.59496688842773 5.93452644348145 5.92668390274048 5.53171062469482 4.85065841674805 4.39363813400269 3.96840882301331 3.71704411506653 4.15099716186523 4.45694255828857 4.46821784973145 4.34754514694214 4.25212049484253 4.1602783203125 3.98499989509583 4.06559467315674 4.04125738143921 3.8212366104126 3.45475625991821 3.23897647857666 3.05007839202881 2.83185720443726 2.69851899147034 2.48901677131653 2.35839462280273 2.44001507759094 2.45939135551453 2.43400597572327 2.37843084335327 2.26092505455017 2.01747274398804 1.84710037708282 1.84391820430756 1.81576263904572 1.85798943042755 2.04189324378967 2.09281992912292 2.08992218971252 2.39868521690369 2.06877994537354 3.361163854599 2.91597867012024 1.46143913269043 0.794245481491089 0.913460373878479 -0.107930518686771 -0.61477392911911 -0.631876170635223 -0.576134383678436 -0.989404797554016 -0.839254081249237 -0.391145199537277 -1.37476253509521 -1.45253825187683 -1.50169694423676 -1.26656150817871 -1.13306260108948 -1.5577939748764 -1.40566456317902 -1.42064774036407 -1.56778490543365 -1.56918680667877 -1.56638097763062 -1.56376647949219 -1.2925169467926 -1.48037350177765 -1.53520727157593 -1.52545952796936 -1.51981019973755 -1.51875555515289 -1.45329368114471 -1.4842027425766 -1.29838788509369 -0.899216175079346 -0.813038468360901 -0.67288476228714 0.511649549007416 1.4325612783432 1.77658414840698 3.06851029396057 2.3481125831604 0.00437132082879543 -0.0605564340949059 0.000792301958426833 -0.421114563941956 -0.895678997039795 -0.984813690185547 -1.07033967971802 -1.21780669689178 -1.30233716964722 -1.31634604930878 -1.26475870609283 -1.1916937828064 -1.14696836471558 -1.13788402080536 -1.23289048671722 -1.4892383813858 -1.76134657859802 -1.89147233963013 -1.9702957868576 -2.05106163024902 -2.28281044960022 -2.72547292709351 -3.67657804489136 -3.89983105659485 -3.89015626907349 -3.75914978981018 -3.63756108283997 -3.60968446731567 -3.63507127761841 -3.50738263130188 -2.95348930358887 -2.23270201683044 -1.51728713512421 -1.11172223091125 -0.792513847351074 -0.520235955715179 -0.37992849946022 -0.277925759553909 -0.275887817144394 -0.434085100889206 -0.498001247644424 -0.493672996759415 -0.533310770988464 -0.443107098340988 -0.279351353645325 0.0391622632741928 0.245105504989624 0.271557867527008 0.257946610450745 0.203569009900093 0.147043481469154 0.101203821599483
1.69291961193085 3.25028729438782 4.18543481826782 4.6773099899292 5.0707631111145 5.54637718200684 5.63121652603149 5.78130054473877 6.05279970169067 6.30087757110596 6.07904243469238 5.64236068725586 5.23225927352905 5.37564325332642 5.49449491500854 5.53394269943237 5.4817943572998 5.32830953598022 5.3910813331604 5.32975816726685 5.25859832763672 5.09621429443359 5.02117347717285 5.17085886001587 5.27854108810425 5.39976978302002 5.63529968261719 5.7491192817688 5.89221000671387 5.95399856567383 6.02150774002075 6.01691150665283 6.06493186950684 6.12155914306641 6.07763004302979 5.85032987594604 5.60846138000488 5.40056753158569 5.35877513885498 5.6644926071167 5.65710878372192 5.26573419570923 4.6290340423584 4.20448589324951 3.79123330116272 3.61026549339294 4.03734159469604 4.3541088104248 4.29246091842651 4.21064567565918 4.13170766830444 4.02930736541748 3.86649489402771 3.96722078323364 3.96265912055969 3.7620313167572 3.38272953033447 3.16914796829224 2.98070740699768 2.7783191204071 2.62892389297485 2.43761706352234 2.3124635219574 2.37446546554565 2.39895033836365 2.38821768760681 2.32729268074036 2.21008610725403 1.97147238254547 1.77841877937317 1.68694257736206 1.64109492301941 1.74078345298767 1.8836841583252 1.89999234676361 1.86411094665527 2.27660775184631 2.42953014373779 3.12367343902588 4.12239027023315 2.34480547904968 0.691236257553101 0.116953164339066 -0.480865895748138 -0.826333701610565 -0.667374908924103 -0.615690529346466 -0.580669164657593 -0.912108361721039 -0.628120005130768 -0.854680120944977 -0.952027082443237 -0.858080804347992 -1.15657639503479 -0.763528943061829 -1.34161376953125 -1.57060921192169 -1.50465202331543 -1.59628021717072 -1.62337815761566 -1.62955284118652 -1.6152366399765 -1.57815766334534 -1.58380651473999 -1.57217085361481 -1.5679030418396 -1.56579625606537 -1.55486738681793 -1.11853361129761 -0.951057493686676 -0.841145634651184 -0.774414300918579 -0.726078569889069 -0.718193173408508 0.118282318115234 1.02718448638916 1.29953134059906 2.24534678459167 1.72679996490479 0.904911160469055 1.10935723781586 0.659330010414124 0.0519913844764233 -0.649987578392029 -1.01259744167328 -1.18386542797089 -1.36031568050385 -1.44766962528229 -1.17454600334167 -0.996710896492004 -1.11644434928894 -1.14608943462372 -1.21277844905853 -0.987670481204987 -0.378496259450912 1.80423986911774 0.035271093249321 -1.55517983436584 -2.25427675247192 -2.53639602661133 -3.13711953163147 -1.56470775604248 -4.09306621551514 -4.15366506576538 -4.08253574371338 -3.94287776947021 -3.89470791816711 -3.86322712898254 -3.69547724723816 -3.2698872089386 -2.47496557235718 -1.65678203105927 -1.21437048912048 -0.931100964546204 -0.668515563011169 -0.521429836750031 -0.392133057117462 -0.464675486087799 -0.633995294570923 -0.778052568435669 -0.822147190570831 -0.794348955154419 -0.615828275680542 -0.43241485953331 -0.115331225097179 0.118909351527691 0.143613874912262 0.16958874464035 0.154201462864876 0.103776909410954 0.0700995028018951
1.47933757305145 2.98652839660645 3.89522385597229 4.36484241485596 4.6333589553833 5.07440423965454 5.34699153900146 5.59477806091309 5.77949571609497 5.87166738510132 5.75302410125732 5.34111261367798 4.98097562789917 5.10768795013428 5.22535085678101 5.27372074127197 5.23895692825317 5.11576318740845 5.19728660583496 5.12352323532104 5.04659080505371 4.86848497390747 4.79991817474365 4.94598531723022 4.99682807922363 5.05148601531982 5.25731039047241 5.40048265457153 5.53118324279785 5.61607646942139 5.74010038375854 5.80276250839233 5.85904788970947 5.95640230178833 5.89115762710571 5.69467878341675 5.54812526702881 5.32418823242188 5.178955078125 5.44285726547241 5.42248821258545 5.02934169769287 4.43628263473511 4.03470516204834 3.65019726753235 3.54580879211426 3.96527123451233 4.22931146621704 4.14251565933228 4.07846879959106 4.00219678878784 3.91549611091614 3.767746925354 3.85476016998291 3.85061120986938 3.67727637290955 3.339191198349 3.1398458480835 2.94775319099426 2.73016810417175 2.55898308753967 2.3800003528595 2.27774000167847 2.31408524513245 2.35210728645325 2.35687923431396 2.27500462532043 2.15768504142761 1.92228186130524 1.73888778686523 1.52827394008636 1.45937073230743 1.47294640541077 1.52814209461212 1.67163050174713 1.61792361736298 1.9652613401413 2.61777305603027 3.02885055541992 3.35236024856567 3.73493957519531 1.77095460891724 -0.184423580765724 -0.605889320373535 -0.963680028915405 -0.925041437149048 -0.923634767532349 -0.703501462936401 -0.478839755058289 -0.835077226161957 -0.805676996707916 -1.00230312347412 -1.11413657665253 -1.31876313686371 -0.785634219646454 -1.53025412559509 -1.66934418678284 -1.66623544692993 -1.67799842357635 -1.70291793346405 -1.70956754684448 -1.67412066459656 -1.64061141014099 -1.63000679016113 -1.61566913127899 -1.60765504837036 -1.60094082355499 -1.58997631072998 -1.33228194713593 -1.13795793056488 -0.976991176605225 -0.855007886886597 -0.683969974517822 -0.727596521377563 -0.00855139642953873 0.730481922626495 1.03277933597565 1.84071719646454 1.52445805072784 1.42138493061066 1.29609417915344 0.585361003875732 -0.0382080711424351 -0.664889097213745 -0.963730752468109 -1.33591365814209 -1.1728937625885 -0.670229554176331 -0.794996678829193 -1.01764583587646 -0.687767028808594 -0.147422477602959 -0.554853558540344 -0.670871496200562 1.26369428634644 2.50849056243896 2.73774933815002 0.030380679294467 -1.40042889118195 -2.68263220787048 -3.3301146030426 4.32405185699463 2.81379532814026 -3.44922542572021 -4.23171806335449 -4.16858530044556 -4.080726146698 -3.28461408615112 -0.0742304548621178 -3.38403487205505 -2.80942368507385 -1.90743136405945 -1.34659898281097 -1.08718419075012 -0.867771983146667 -0.695922791957855 -0.541189789772034 -0.665880918502808 -0.814392328262329 -0.918842673301697 -0.981595396995544 -0.970126032829285 -0.780777156352997 -0.579024255275726 -0.236407205462456 -0.0191216226667166 0.0547923408448696 0.0769011974334717 0.0813646465539932 0.0657674297690392 0.0239797756075859
1.32600224018097 2.75981831550598 3.60489797592163 4.01120138168335 4.27751302719116 4.82770347595215 4.96854686737061 5.10822534561157 5.23385715484619 5.29826688766479 5.1641788482666 4.93149709701538 4.69742774963379 4.81812334060669 4.94606399536133 5.0194845199585 5.00897455215454 4.90213871002197 4.98744487762451 4.92207956314087 4.86202812194824 4.68403291702271 4.63235425949097 4.75081729888916 4.74703693389893 4.7079815864563 4.91091871261597 5.04146289825439 5.14022970199585 5.2168288230896 5.36512994766235 5.52099895477295 5.64203977584839 5.78839921951294 5.75193119049072 5.47014617919922 5.29422378540039 5.15448808670044 5.05977916717529 5.29001379013062 5.23474788665771 4.84340381622314 4.26416826248169 3.87424349784851 3.54844212532043 3.46134209632874 3.86178159713745 4.05757188796997 4.02776002883911 3.97216367721558 3.88332176208496 3.78217911720276 3.67309260368347 3.75532484054565 3.74811053276062 3.5735924243927 3.26123237609863 3.08088779449463 2.90863251686096 2.70294117927551 2.53460144996643 2.34520602226257 2.22908234596252 2.26884937286377 2.3186821937561 2.30310392379761 2.22867393493652 2.11545825004578 1.88154077529907 1.69763803482056 1.39277958869934 1.29178631305695 1.25804364681244 1.28354287147522 1.34166514873505 1.22764670848846 1.65006804466248 2.58421730995178 3.49878025054932 3.427161693573 3.43837738037109 3.00430274009705 1.72949314117432 -0.692697703838348 -1.13159644603729 -1.16769647598267 -1.11469650268555 -1.20691847801208 -1.14051556587219 -0.9217569231987 -0.982490122318268 -1.13146495819092 -1.14404582977295 -1.27443969249725 -1.39513874053955 -1.71135306358337 -1.74531733989716 -1.7419068813324 -1.73235833644867 -1.75567042827606 -1.80404472351074 -1.75554692745209 -1.69441843032837 -1.67104136943817 -1.55169904232025 -1.37990951538086 -1.42429280281067 -1.59741306304932 -1.41512322425842 -1.29535686969757 -1.11015844345093 -0.897527277469635 -0.748873949050903 -0.728897273540497 -0.0874322056770325 0.335729241371155 0.684779703617096 1.49562871456146 1.2648069858551 0.965000808238983 1.01935279369354 0.598220884799957 -0.104233123362064 -0.753982067108154 -1.05043363571167 -0.786515176296234 -0.71318519115448 -0.839233636856079 -0.740037143230438 -0.41901096701622 0.0541770458221436 -0.263739049434662 -0.517290830612183 -0.0128953969106078 1.09913623332977 2.16087317466736 1.97775602340698 0.817299664020538 0.77086329460144 -0.311863362789154 5.61118793487549 4.1614727973938 5.91039133071899 3.24580836296082 2.20435261726379 3.50981736183167 5.37453842163086 6.34235382080078 5.55936431884766 2.44473385810852 -2.97581124305725 -2.32829689979553 -1.61222422122955 -1.26753616333008 -1.06613743305206 -0.841390311717987 -0.734247863292694 -0.883027911186218 -0.973174929618835 -1.09569668769836 -1.21040725708008 -1.20482647418976 -1.12836849689484 -0.974299967288971 -0.534838855266571 -0.209998026490211 -0.0253565665334463 0.00532958190888166 0.00227430765517056 0.0130401384085417 0.0612257942557335
1.21313309669495 2.58526253700256 3.40497064590454 3.77670979499817 3.9780912399292 4.4160852432251 4.47150802612305 4.53652811050415 4.66637659072876 4.53182363510132 4.43953609466553 4.35735893249512 4.35488843917847 4.5151834487915 4.67571258544922 4.77520275115967 4.78721475601196 4.69638347625732 4.78752994537354 4.74106073379517 4.69462537765503 4.53084325790405 4.51933813095093 4.59812498092651 4.54002571105957 4.46216201782227 4.62076473236084 4.71101713180542 4.8175482749939 4.85954761505127 4.97294139862061 5.11350440979004 5.25252866744995 5.5313720703125 5.57130193710327 5.30015230178833 5.10565137863159 4.94967269897461 4.71252584457397 5.03813743591309 5.14774417877197 4.7637767791748 4.15554761886597 3.76597237586975 3.46517014503479 3.37828874588013 3.72498416900635 3.91663193702698 3.90649199485779 3.86658263206482 3.78737807273865 3.66504192352295 3.57154011726379 3.66710782051086 3.65760564804077 3.48349046707153 3.17785620689392 3.01683211326599 2.84699249267578 2.64844012260437 2.51124334335327 2.49736499786377 2.21060919761658 2.24223279953003 2.28920841217041 2.24251413345337 2.17983984947205 2.0736391544342 1.84098947048187 1.66024339199066 1.34682559967041 1.16460394859314 1.09688651561737 1.0370956659317 0.967788219451904 1.07274210453033 1.47333633899689 2.19712662696838 2.99353456497192 3.64058327674866 3.32480096817017 2.67057394981384 1.32106590270996 0.088696762919426 -0.752329409122467 -1.26957583427429 -1.33013677597046 -1.38336098194122 -1.38598930835724 -1.33521592617035 -1.26276576519012 -1.24598526954651 -1.288294672966 -1.35065460205078 -1.64479851722717 -1.77668213844299 -1.78480398654938 -1.7892872095108 -1.78634202480316 -1.81934821605682 -1.87303936481476 -1.79847824573517 -1.73716008663177 -1.70748054981232 -1.36620235443115 -1.03457927703857 -0.963840007781982 -1.01572024822235 -1.22938191890717 -1.35803115367889 -1.23842430114746 -1.01242232322693 -0.903026521205902 -0.794394195079803 -0.165496543049812 0.161753818392754 0.443514585494995 1.19060957431793 1.06000447273254 0.645900189876556 0.672039330005646 0.364235430955887 -0.130439311265945 -0.215573415160179 -0.385531038045883 -0.701698541641235 -0.803396165370941 -0.713840782642365 -0.515228271484375 -0.492123514413834 -0.183649495244026 -0.398758232593536 -0.675542712211609 -0.396554440259933 0.749575018882751 1.69681942462921 2.21810173988342 1.83322536945343 0.770658433437347 3.24567198753357 5.22910594940186 7.01370239257812 6.72889471054077 7.23770141601562 7.80447626113892 7.34436416625977 10.2229375839233 11.4471426010132 11.639331817627 11.116602897644 7.4510293006897 -2.40902209281921 -1.82250702381134 -1.45562815666199 -1.24338686466217 -0.967737317085266 -0.938263177871704 -1.08655750751495 -1.20780575275421 -1.36874747276306 -1.50487208366394 -1.66689705848694 -1.83106017112732 -1.63316380977631 -1.24199104309082 -0.810480713844299 -0.370360255241394 -0.095110148191452 0.0876995623111725 -0.0290335323661566 -0.0120961191132665
1.10771834850311 2.43399667739868 3.22525596618652 3.53475093841553 3.72766613960266 4.09225749969482 4.09876728057861 4.09731483459473 4.20743465423584 4.17235136032104 3.84689974784851 3.88798713684082 4.03037786483765 4.21471357345581 4.40918350219727 4.52111387252808 4.5542950630188 4.48488712310791 4.61121845245361 4.56665897369385 4.5326247215271 4.42274856567383 4.46933031082153 4.53612279891968 4.43278837203979 4.31561183929443 4.4243049621582 4.45512294769287 4.51550340652466 4.53005790710449 4.63584899902344 4.72934722900391 4.81329917907715 5.15666580200195 5.31558895111084 5.12268686294556 4.95186519622803 4.77862739562988 4.48542022705078 4.73012638092041 4.81463527679443 4.57030344009399 4.10343408584595 3.71138262748718 3.39093494415283 3.27564001083374 3.58629584312439 3.80150890350342 3.81469225883484 3.7574257850647 3.67456674575806 3.57119607925415 3.48203802108765 3.57094049453735 3.55541634559631 3.40122103691101 3.10260987281799 2.94383406639099 2.78211188316345 2.59703087806702 2.45070552825928 2.30802011489868 2.19948363304138 2.22988224029541 2.25380206108093 2.20235466957092 2.13890099525452 2.00960159301758 1.80674886703491 1.63044154644012 1.31429922580719 1.11923730373383 0.978719413280487 0.863724768161774 0.810865759849548 0.971142828464508 1.34737026691437 1.90581774711609 2.87925457954407 3.30299735069275 3.20544719696045 2.64650845527649 1.08462285995483 1.30911946296692 -1.2039121389389 -1.38494074344635 -1.51856875419617 -1.52747392654419 -1.5286762714386 -1.5262758731842 -1.43017673492432 -1.38483250141144 -1.35147929191589 -1.45259058475494 -1.73317122459412 -1.40117979049683 -1.82870423793793 -1.83279299736023 -1.84241449832916 -1.88071501255035 -1.52402937412262 -1.84226214885712 -1.78807318210602 -1.7504631280899 -1.38925457000732 -1.17178773880005 -1.03312492370605 -0.990893363952637 -1.16978049278259 -1.38300037384033 -1.31415164470673 -1.11638975143433 -1.01463758945465 -0.869923055171967 -0.316623866558075 0.0628665536642075 0.296837359666824 0.921738147735596 0.800186574459076 0.397152751684189 0.468906611204147 0.222083851695061 -0.144865274429321 0.010395547375083 -0.145919844508171 -0.419680297374725 -0.501896798610687 -0.520446121692657 -0.574734330177307 -0.415896564722061 -0.525185883045197 -0.620775043964386 -0.783336341381073 -0.822793424129486 0.238402962684631 1.43242383003235 1.59188497066498 1.4280743598938 3.08314609527588 4.10017061233521 6.1244478225708 9.22296047210693 9.93076229095459 10.7202053070068 10.1835327148438 10.4722862243652 9.74065589904785 9.03490447998047 8.21470069885254 8.69762802124023 6.84023523330688 3.29839277267456 -1.9254834651947 -1.61064171791077 -1.37971365451813 -1.08299458026886 -1.15250933170319 -1.34380197525024 -1.46988558769226 -1.65307009220123 -1.86578619480133 -2.18950390815735 -2.3575484752655 -2.10394048690796 -1.76457321643829 -1.49619209766388 -1.17402338981628 -0.540054619312286 -0.0752151608467102 -0.0501469448208809 -0.0217357855290174
1.00819957256317 2.3358359336853 3.08168387413025 3.38164591789246 3.53781652450562 3.86181354522705 3.86846709251404 3.76954698562622 3.79579567909241 3.81125640869141 3.55369782447815 3.33797383308411 3.57125616073608 3.89412045478821 4.18642139434814 4.33209180831909 4.39333438873291 4.33247995376587 4.45217561721802 4.42129135131836 4.41401767730713 4.36099767684937 4.43504047393799 4.51150369644165 4.40106821060181 4.22571325302124 4.2942328453064 4.29677248001099 4.30278873443604 4.21106433868408 4.28753471374512 4.44403743743896 4.61082649230957 4.92831563949585 5.13855695724487 5.00381374359131 4.81688117980957 4.64740610122681 4.34364891052246 4.48104810714722 4.55111026763916 4.28073167800903 3.83149480819702 3.57685828208923 3.28383231163025 3.18878149986267 3.50212717056274 3.71103000640869 3.7227303981781 3.67313671112061 3.57513952255249 3.46150326728821 3.41113495826721 3.49247765541077 3.47074866294861 3.31728482246399 3.03118705749512 2.87851715087891 2.71319246292114 2.54263973236084 2.40304708480835 2.25635600090027 2.15584683418274 2.19440770149231 2.19897770881653 2.11820197105408 1.97818505764008 1.86805832386017 1.70945751667023 1.56560456752777 1.27869725227356 1.04058957099915 0.848457872867584 0.76403284072876 0.737304091453552 0.899885356426239 1.23440432548523 1.71733582019806 2.72629761695862 3.09427857398987 3.05298590660095 3.29523396492004 3.1059741973877 -0.723499596118927 -1.32357156276703 -1.65696930885315 -1.83624649047852 -1.84782123565674 -1.68178462982178 -1.6181663274765 -1.6528879404068 -1.56271874904633 -1.42240881919861 -1.53981149196625 -1.74546301364899 -1.53623306751251 -1.16691303253174 -1.87066149711609 -1.8998509645462 -1.92174768447876 -1.95671415328979 -1.92421019077301 -1.86044538021088 -1.82545495033264 -1.76936316490173 -1.30629777908325 -1.05008769035339 -0.990224182605743 -1.23647749423981 -1.40526640415192 -1.37328803539276 -1.22799098491669 -1.11330878734589 -0.908077299594879 -0.414338141679764 -0.0290952380746603 0.208735123276711 0.739600121974945 0.631322205066681 0.20153072476387 0.282029896974564 0.130144476890564 0.0388501100242138 -0.0161124151200056 -0.186279088258743 -0.410227805376053 -0.585777580738068 -0.523307740688324 -0.560003042221069 -0.508166432380676 -0.647791922092438 -0.788653969764709 -0.902261674404144 -1.15428006649017 0.0196873359382153 1.09126853942871 1.40010678768158 0.688832342624664 1.47941792011261 2.44630646705627 6.10009717941284 8.30241012573242 9.00832176208496 11.3222942352295 10.9415168762207 9.813063621521 8.72841930389404 7.68838024139404 7.57758092880249 7.66060733795166 6.21618413925171 5.512864112854 -0.320592075586319 -1.68439090251923 0.440565824508667 -1.23442780971527 -1.45624244213104 -1.56043410301208 -1.68667602539062 -1.88600885868073 -2.22557425498962 -2.61920046806335 -2.75717663764954 -2.48644280433655 -2.08621454238892 -1.69675672054291 -1.36610209941864 -0.878609955310822 -0.178716406226158 -0.0628182888031006 -0.0284750554710627
0.944533705711365 2.19039058685303 2.92674231529236 3.23492097854614 3.36097311973572 3.66124939918518 3.7089786529541 3.69387936592102 3.47934627532959 3.50376129150391 3.28300499916077 2.75463032722473 3.05586075782776 3.53814339637756 3.97445487976074 4.16633462905884 4.24029397964478 4.1839017868042 4.30557775497437 4.33391141891479 4.37496280670166 4.34507989883423 4.3991961479187 4.45265913009644 4.36559200286865 4.20621347427368 4.22657871246338 4.20177459716797 4.19081020355225 4.02298021316528 4.00159549713135 4.1754093170166 4.4347767829895 4.76680564880371 4.98223733901978 4.90431356430054 4.70746946334839 4.51943874359131 4.23547744750977 4.28546047210693 4.32274007797241 4.04635381698608 3.61187124252319 3.33962154388428 3.0306396484375 3.08828139305115 3.4714024066925 3.65935921669006 3.64114546775818 3.58457517623901 3.5034441947937 3.37577867507935 3.33629465103149 3.41714549064636 3.40494966506958 3.24947142601013 2.95281195640564 2.82055759429932 2.66527986526489 2.48509359359741 2.36260962486267 2.2147696018219 2.10230350494385 2.07860112190247 2.01761245727539 1.86265575885773 1.75231313705444 1.59320378303528 1.4373904466629 1.26612663269043 1.05017864704132 0.870048642158508 0.733518779277802 0.678083777427673 0.665374338626862 0.847644865512848 1.14921009540558 1.56891751289368 2.53055429458618 3.04555511474609 3.72540426254272 3.47019934654236 3.43954801559448 4.46100854873657 -1.53647375106812 -1.89075195789337 -2.09606289863586 -2.0616626739502 -1.9446394443512 -1.73812460899353 -1.6671097278595 -1.72908341884613 -1.79148936271667 -1.7936784029007 -1.84539115428925 -1.87409567832947 -1.88606607913971 -1.8934383392334 -1.91963362693787 -1.95299649238586 -2.0275731086731 -2.08568477630615 -2.03338074684143 -1.9450843334198 -1.87814545631409 -1.81104969978333 -1.35547137260437 -1.09089529514313 -1.13165616989136 -0.964632093906403 -1.10577964782715 -1.25535178184509 -1.13765370845795 -0.908731937408447 -0.433929562568665 -0.111201547086239 0.120490565896034 0.588406920433044 0.504314482212067 0.0827193856239319 0.170777648687363 0.0618580728769302 -0.153905257582664 -0.142400041222572 -0.25418609380722 -0.457640260457993 -0.593290030956268 -0.472433477640152 -0.641283571720123 -0.626505553722382 -0.728901207447052 -0.82829624414444 -0.997817099094391 -0.520022690296173 -0.0320335850119591 0.931608378887177 1.04280924797058 0.287324517965317 0.544054687023163 3.34794950485229 6.55085372924805 6.5529637336731 7.1371750831604 9.44946479797363 9.07585620880127 7.8666729927063 7.90425157546997 6.96507167816162 5.88897514343262 6.03925228118896 5.56809902191162 4.14837312698364 1.31813049316406 -1.75517010688782 -1.55763983726501 -1.45182025432587 -1.66713833808899 -1.74088382720947 -1.83447527885437 -2.04061341285706 -2.42811918258667 -2.74541473388672 -2.86623120307922 -2.72159767150879 -2.29896020889282 -1.81099712848663 6.63924312591553 6.33192300796509 -0.320420295000076 -0.107729181647301 -0.0393633916974068
0.835427522659302 2.07972049713135 2.81533885002136 3.10574388504028 3.21478128433228 3.52756595611572 3.58246207237244 3.68305897712708 5.20012760162354 3.38395667076111 3.1475248336792 2.70477342605591 2.73910570144653 3.12292838096619 3.67601466178894 3.98601317405701 4.10731887817383 4.08261442184448 4.20864963531494 4.27280330657959 4.35290718078613 4.32431983947754 4.34488964080811 4.37975215911865 4.34667348861694 6.0084023475647 4.22421598434448 4.16470336914062 4.14102029800415 3.98289060592651 3.93418955802917 4.0413179397583 4.24285316467285 4.62354373931885 4.8242564201355 4.78625106811523 4.61693048477173 4.40938568115234 4.11890983581543 4.11691617965698 4.15350198745728 3.86122059822083 3.44784116744995 3.20974135398865 2.89971017837524 2.91272854804993 3.30132007598877 3.59647369384766 3.6105968952179 3.50452136993408 3.41414642333984 3.3106963634491 3.26944899559021 3.33779406547546 3.32621073722839 3.18680286407471 2.88648462295532 2.75395560264587 2.58594679832458 2.41116213798523 2.30898809432983 2.17211723327637 2.02244806289673 1.83245825767517 1.69894099235535 1.56017589569092 1.45197188854218 1.2962292432785 1.13067674636841 0.968522727489471 0.81919252872467 0.686631917953491 0.621465027332306 0.602661728858948 0.634742200374603 0.805092096328735 1.07362985610962 1.4476535320282 2.32145643234253 3.03942131996155 4.44595050811768 3.33669066429138 3.07399725914001 6.36888074874878 5.80004262924194 -1.97087776660919 -2.23798489570618 -2.21544885635376 -2.16809153556824 -1.9463050365448 -1.77864551544189 -1.73844516277313 -0.892633497714996 -1.17600703239441 0.292384207248688 0.295826524496078 -0.999169051647186 -1.91447103023529 -1.96752691268921 -2.05892086029053 -2.16393566131592 -2.25707721710205 -2.28379774093628 -2.24601745605469 -2.16346335411072 -2.04900145530701 -1.93766868114471 -1.78034889698029 -1.46859633922577 -1.35735535621643 -1.33779084682465 -1.27572309970856 -1.17681539058685 -0.93631899356842 -0.506046056747437 -0.211112216114998 -0.00432692468166351 0.433958321809769 0.376860797405243 -0.0119892582297325 0.0893644168972969 -0.00265770242549479 -0.199746370315552 -0.232304394245148 -0.403471738100052 -0.625859498977661 -0.467488765716553 -0.00415275478735566 0.273546993732452 -0.365218937397003 -0.812671661376953 -0.902798235416412 -1.21572434902191 0.206694290041924 -0.163108378648758 0.604304194450378 0.465547144412994 -0.106164433062077 0.455668747425079 3.62861037254333 5.82652187347412 6.22677373886108 6.68996047973633 8.26303577423096 8.25417900085449 5.84705591201782 6.78134679794312 9.55192565917969 12.8006429672241 12.9615354537964 8.80711650848389 3.68504309654236 0.873185753822327 -1.12182450294495 -1.62565732002258 -1.59734511375427 -1.77134227752686 -1.8836772441864 -1.95915019512177 -2.13723349571228 -1.57158744335175 6.25004053115845 11.2977848052979 5.07371187210083 -2.43978214263916 -1.89987969398499 4.20296955108643 2.7822265625 -0.407239824533463 -0.162676066160202 -0.0484218709170818
0.775463700294495 2.02910351753235 2.73479747772217 2.99412798881531 3.10401320457458 3.34088015556335 3.41937828063965 3.58324146270752 7.20039224624634 5.1072416305542 4.22387933731079 6.18351173400879 3.32072114944458 2.91406941413879 3.41397547721863 3.78963279724121 3.97040677070618 3.97827553749084 4.13060903549194 4.18691539764404 4.28106117248535 4.25446128845215 4.27870416641235 4.32019901275635 4.33787250518799 5.80503177642822 5.16556453704834 4.49569797515869 4.28145408630371 5.7632360458374 6.85600423812866 4.02595329284668 4.16674995422363 4.53981447219849 4.70515060424805 4.6570143699646 4.52262878417969 4.3101224899292 4.02372646331787 3.97151970863342 3.99310636520386 3.71532487869263 3.35437488555908 3.11890435218811 2.81181788444519 2.78507399559021 3.15058183670044 3.39672517776489 3.42550182342529 3.43703198432922 3.36853790283203 3.22195816040039 3.203209400177 3.2707507610321 3.25669264793396 3.10525035858154 2.82954955101013 2.67663335800171 2.52149367332458 2.31009149551392 2.24950790405273 2.07607626914978 1.97239327430725 1.63044583797455 1.4532356262207 1.35381579399109 1.19837379455566 1.01829314231873 0.860701560974121 0.740208923816681 0.645705997943878 0.618162453174591 0.590639233589172 0.550016641616821 0.60838520526886 0.769257366657257 1.00530409812927 1.36041474342346 2.14339542388916 2.75991678237915 3.70908975601196 2.99134039878845 6.31416368484497 5.26882314682007 13.4001789093018 10.2242336273193 1.212641954422 -2.26675391197205 -2.27059006690979 -2.08361840248108 -1.88819420337677 -1.79348957538605 -1.72463440895081 -1.52368819713593 -0.0482894256711006 0.259067296981812 -0.383768916130066 -0.995345294475555 -2.03660488128662 -2.17266774177551 -2.28555488586426 -2.40620446205139 -2.56633877754211 -2.60706996917725 -2.3797562122345 -2.23489165306091 -2.11852312088013 -2.02686500549316 -1.91711032390594 -1.70288562774658 -1.51147639751434 -1.33303475379944 -1.24684917926788 -1.01356446743011 -0.636429369449615 -0.335829198360443 -0.10622613132 0.286470532417297 0.245716825127602 -0.135203346610069 -0.00235110288485885 -0.0740938484668732 -0.26414430141449 -0.354864776134491 -0.565701127052307 -0.670150339603424 -0.624672532081604 -0.633657276630402 -0.707407712936401 -0.868875920772552 -1.04126727581024 -1.17434728145599 -1.45627748966217 -1.5487505197525 -1.0316766500473 -0.211334198713303 -0.296090632677078 -0.460525840520859 0.453280925750732 2.95088934898376 5.37366104125977 9.50850772857666 8.87036418914795 7.7612156867981 7.90528869628906 12.6705226898193 10.7199153900146 8.87153816223145 10.1957206726074 8.65655136108398 5.67190313339233 3.12961840629578 0.257792353630066 -1.85361135005951 -1.77726197242737 -1.72864723205566 -1.84344291687012 -1.94967019557953 -2.04750800132751 -0.984461188316345 4.7844877243042 7.13835859298706 9.99452877044678 10.7735538482666 7.33600616455078 0.511922717094421 1.24340915679932 0.291906088590622 -0.527801156044006 -0.246437519788742 -0.104117542505264
0.720508873462677 1.91095864772797 2.61068630218506 2.90175104141235 3.03810620307922 3.22118949890137 3.29420042037964 3.44119906425476 4.23733854293823 4.81538820266724 5.54223203659058 7.46969699859619 10.987979888916 2.87273955345154 3.11941766738892 3.53909635543823 3.79130578041077 3.83114767074585 4.01034593582153 4.08538389205933 4.18743991851807 4.17213916778564 4.21408367156982 4.27371978759766 4.31330060958862 5.09316968917847 4.61631107330322 4.21235132217407 4.56851482391357 5.46096897125244 6.76505947113037 5.11927556991577 4.15375375747681 4.45078182220459 4.65327739715576 4.56404733657837 4.43341064453125 4.21594429016113 3.92904901504517 3.83639311790466 3.86218190193176 3.597731590271 3.27468419075012 3.05195212364197 2.73597860336304 2.69430041313171 3.05019640922546 3.26937532424927 3.27739572525024 3.23408389091492 3.1877748966217 3.16689252853394 3.16472506523132 3.21073746681213 3.21164798736572 3.04264163970947 2.76416015625 2.5978844165802 2.45653462409973 2.18936038017273 2.06292748451233 1.86498630046844 1.70941507816315 1.46064269542694 1.24994921684265 1.0972261428833 0.945050001144409 0.765199899673462 0.680618405342102 0.635808408260345 0.758407235145569 0.653607070446014 0.584617793560028 0.543199837207794 0.594129323959351 0.743474900722504 0.962026119232178 1.29783546924591 2.00936985015869 2.60693979263306 3.31320929527283 4.80281400680542 4.92336177825928 4.83988857269287 10.8071594238281 16.1543006896973 14.2862138748169 4.1347975730896 0.368087500333786 -2.16494059562683 -1.99341094493866 -1.85271275043488 -1.82942295074463 -1.54702603816986 -0.434510082006454 -0.234898000955582 -0.734027564525604 -1.57908129692078 -2.14664053916931 -2.30935215950012 -2.43103718757629 -2.65122628211975 -2.87967562675476 -2.93122720718384 -2.81109714508057 -2.52611660957336 -2.32253956794739 -2.2021746635437 -2.12882709503174 -1.99999415874481 -1.74059176445007 -1.3907767534256 -1.30903744697571 -1.10902953147888 -0.781911611557007 -0.587511360645294 -0.35667958855629 0.00851314794272184 -0.0398809425532818 -0.405617654323578 -0.284172028303146 -0.355248481035233 -0.478102147579193 -0.507421016693115 -0.03237509354949 0.957284867763519 1.34899985790253 1.39913201332092 1.08348035812378 1.48992943763733 1.74450576305389 2.44701099395752 3.43873143196106 3.4576096534729 -0.817408919334412 -0.615788877010345 -0.65360164642334 -0.669495046138763 0.259101450443268 2.02353262901306 4.60552501678467 6.6525993347168 8.64354705810547 8.47374248504639 7.65336179733276 10.9048910140991 8.16119480133057 6.46444606781006 5.58417367935181 4.83389282226562 3.10469770431519 1.31000232696533 -1.17035949230194 -1.93316388130188 -1.87308728694916 -1.86985409259796 -1.91969418525696 -1.54331767559052 -1.21810364723206 0.396991550922394 5.6786937713623 7.74048089981079 8.99554252624512 9.53203773498535 11.3067693710327 7.42831707000732 1.19142985343933 -0.324577361345291 -0.636510252952576 -0.383034199476242 -0.228985384106636
0.623347818851471 1.74317800998688 2.49478244781494 2.77288889884949 2.8960165977478 3.07008576393127 3.20829319953918 3.33408117294312 3.45221042633057 5.50953483581543 7.71464681625366 7.33217620849609 11.3672180175781 13.8282117843628 3.07971692085266 3.28988242149353 3.60918426513672 3.69547986984253 3.88354086875916 3.97788310050964 4.08081912994385 4.08731079101562 4.14646339416504 4.22413682937622 4.2709641456604 4.51121187210083 4.2156982421875 4.1421012878418 4.16816711425781 5.25455522537231 6.33701467514038 6.6063551902771 4.98920822143555 4.37715148925781 4.49396419525146 4.46530151367188 4.34889650344849 4.13672113418579 3.84643483161926 3.71675682067871 3.74088430404663 3.484623670578 3.20798993110657 2.98635697364807 2.68162131309509 2.63226985931396 2.97534871101379 3.18673372268677 3.18807673454285 3.14142346382141 3.08275961875916 3.0011100769043 3.04287481307983 3.17564487457275 3.17217230796814 3.00482249259949 2.7188572883606 2.53851270675659 2.41199421882629 2.11134624481201 1.83091557025909 1.5745222568512 1.36532711982727 1.18119931221008 1.00251078605652 0.840752184391022 0.710495054721832 0.635442852973938 0.612873613834381 0.620686113834381 0.625557243824005 0.611580431461334 0.582511305809021 0.693203032016754 0.599709689617157 0.740312278270721 0.952741026878357 1.2440150976181 1.9160053730011 2.44992423057556 3.12655925750732 3.95561623573303 4.25502729415894 4.45627498626709 8.88337516784668 13.8852243423462 13.0247373580933 9.62699127197266 3.99058866500854 -1.06088030338287 -2.04536151885986 -1.91508591175079 -1.84419691562653 -1.17761826515198 -0.684724628925323 -0.489938020706177 -0.901952147483826 -1.74546110630035 -1.32364642620087 -1.8779844045639 -2.50958871841431 -2.83220171928406 -3.07225441932678 -3.17483592033386 -3.06248950958252 -2.88411116600037 -2.54994177818298 -2.35179710388184 -2.27266240119934 -2.11147785186768 -1.8343780040741 -1.57182240486145 -1.50892090797424 -1.20404136180878 -0.813157975673676 -0.60509467124939 -0.181805372238159 -0.03509521484375 -0.0620561465620995 -0.139622449874878 0.13873453438282 0.941538751125336 0.758898913860321 0.285472214221954 0.484672337770462 0.644838273525238 0.573532342910767 0.530383169651031 0.306426674127579 0.729069709777832 0.892933964729309 0.677311480045319 0.497136503458023 -1.25567948818207 -1.62728202342987 -1.20782566070557 -1.00650990009308 -0.822932004928589 -0.114944338798523 1.36341035366058 3.85594487190247 5.57677984237671 6.85250759124756 7.55990934371948 7.21162605285645 7.92879819869995 6.03251791000366 4.94536161422729 2.72245717048645 1.95362377166748 1.3039618730545 -0.279594510793686 -2.17485046386719 -2.02212882041931 -1.94826209545135 -1.94757521152496 -1.97958660125732 -1.61881566047668 -0.0754598826169968 0.478074818849564 4.62845087051392 7.54180145263672 9.0884838104248 9.22765350341797 9.7036828994751 5.90132904052734 0.764638006687164 -0.916303753852844 -0.776714086532593 -0.531429886817932 -0.3534075319767
0.594507455825806 1.64605283737183 2.19443607330322 2.5930290222168 2.75311231613159 2.99414348602295 3.13567876815796 3.31150007247925 3.43171691894531 5.66212320327759 6.88499402999878 7.10049962997437 10.1709613800049 13.434061050415 14.7297744750977 6.85970735549927 3.54241681098938 3.63498163223267 3.81874775886536 3.89765930175781 3.9940824508667 4.00835609436035 4.08630752563477 4.17455768585205 4.21508884429932 4.1871190071106 4.17949247360229 4.11229372024536 4.11237764358521 4.79763555526733 5.89790296554565 5.85828447341919 4.80582523345947 4.33292484283447 4.33436107635498 4.36045360565186 4.26675796508789 4.06574869155884 3.77043890953064 3.61253619194031 3.63005590438843 3.382399559021 3.13202881813049 2.81539511680603 2.5672881603241 2.56682372093201 2.90465641021729 3.11507272720337 3.11896705627441 3.07946515083313 3.01975893974304 2.94864320755005 2.9747793674469 3.05221819877625 3.05495572090149 2.9566535949707 2.69875335693359 2.43337225914001 2.17451167106628 1.79522252082825 1.60737359523773 1.31882572174072 1.09748446941376 0.913352310657501 0.765123724937439 0.663210213184357 0.598105192184448 0.590879082679749 0.651544630527496 0.620011389255524 0.62414413690567 0.610560059547424 0.581180930137634 0.691488921642303 0.829058825969696 0.957544326782227 1.27774381637573 1.21404469013214 1.82669043540955 2.31528401374817 2.8062469959259 3.37140989303589 3.61064028739929 4.16426992416382 7.5792441368103 11.27659034729 12.4426784515381 9.21486759185791 5.96831321716309 3.24183225631714 -0.340084791183472 -1.93495154380798 -1.19891929626465 -0.966994643211365 -0.755937874317169 -0.673021376132965 -0.954953014850616 0.0939286798238754 0.832104444503784 0.705632150173187 -1.70147347450256 -2.07003951072693 -3.21456241607666 -3.30300188064575 -3.19138669967651 -3.00055384635925 -2.70049023628235 -2.48142719268799 -2.3725688457489 -2.24338388442993 -1.9384651184082 -1.63597023487091 -1.57881474494934 -1.29093623161316 -0.967172205448151 -0.724458038806915 -0.449078142642975 -0.134092435240746 -0.185083821415901 -0.472423732280731 -0.324885487556458 0.0647774860262871 0.0825905874371529 0.134677425026894 0.394245952367783 0.584744095802307 0.389319330453873 0.222462698817253 0.151165395975113 0.331260472536087 0.181709736585617 -0.323337733745575 -1.45772802829742 -2.06560039520264 -2.04345536231995 -1.69444918632507 -1.47515642642975 -1.24063789844513 -0.708027839660645 0.566771864891052 3.08361458778381 4.80098581314087 5.96237325668335 6.72727155685425 6.44062566757202 5.62083625793457 4.78255081176758 3.56599831581116 1.71034216880798 1.19646978378296 0.529540121555328 -0.332804054021835 -0.738247931003571 -2.14384460449219 -2.07966017723083 -2.07590341567993 -2.07372307777405 -1.94074320793152 -0.673903703689575 0.896894514560699 3.97454714775085 6.8267617225647 8.63259887695312 8.8284330368042 8.43244457244873 5.69676494598389 0.723392426967621 -1.09764134883881 -0.85331118106842 -0.599779427051544 -0.467854648828506
0.525789260864258 1.51373696327209 2.10083246231079 2.41092610359192 2.59873461723328 2.92946887016296 3.10249900817871 3.30379891395569 4.94214820861816 6.59877967834473 6.9833288192749 7.07906246185303 9.56844711303711 11.670337677002 12.4935503005981 9.4114933013916 6.05623960494995 3.56771349906921 3.76594471931458 3.85166215896606 3.93044900894165 3.95070290565491 4.03573274612427 4.11884832382202 4.14867734909058 4.1227765083313 4.12479162216187 4.06634044647217 4.07334518432617 4.41395044326782 5.39674425125122 5.16250228881836 4.36544513702393 4.28331089019775 4.23969507217407 4.21022129058838 4.18225002288818 4.00498294830322 3.70304226875305 3.52135300636292 3.52701830863953 3.28568267822266 3.07003998756409 2.72768616676331 2.51487565040588 2.52266812324524 2.85205316543579 3.05577564239502 3.06560468673706 3.02939057350159 2.99359345436096 2.90011596679688 2.88679075241089 2.9618034362793 2.98325419425964 2.85207343101501 2.63681149482727 2.68069458007812 1.91302096843719 1.59000885486603 1.42579996585846 1.12251162528992 0.883037805557251 0.756420135498047 0.676230847835541 0.611944437026978 0.583016693592072 0.582998692989349 0.652172923088074 0.75146895647049 1.08352136611938 1.11068189144135 1.116703748703 1.30547404289246 1.99036300182343 2.61316537857056 1.96550345420837 1.20791327953339 1.76569962501526 2.20746064186096 2.6351637840271 2.80431580543518 3.06588649749756 3.72374272346497 6.56024551391602 9.59851455688477 10.9750356674194 10.4807662963867 8.94841384887695 6.71323871612549 1.48845505714417 0.239410400390625 -1.39877021312714 -1.18042659759521 -0.814363241195679 -0.721637368202209 -0.976783573627472 -0.345507770776749 0.210983589291573 0.601143896579742 1.28427028656006 0.843604028224945 -0.548884510993958 -2.60831260681152 -1.9774831533432 -2.2485454082489 -2.78794431686401 -2.58015847206116 -2.43985891342163 -2.31206512451172 -2.11110091209412 -1.82092046737671 -1.69531643390656 -1.42848169803619 -1.15808606147766 -0.915359497070312 -0.615764915943146 -0.225805640220642 -0.334718137979507 -0.57388699054718 -0.399065881967545 -0.215587079524994 -0.0654013082385063 0.0123763028532267 0.206503048539162 0.439995557069778 0.386418908834457 0.133068919181824 -0.107312388718128 -0.199147030711174 -0.387914657592773 -1.2459180355072 -1.90554141998291 -2.35377097129822 -2.10949277877808 -1.91618096828461 -1.99951696395874 -1.91188383102417 -1.29126083850861 -0.00988738145679235 2.09124970436096 3.77303814888 5.12447929382324 5.81376552581787 5.40250110626221 4.63959836959839 3.7039201259613 2.2549831867218 1.23954057693481 0.706478953361511 1.28123915195465 1.03791129589081 -2.23974967002869 -2.31835389137268 -2.3579843044281 -2.48095035552979 -2.29104804992676 -2.16703033447266 -1.35668635368347 0.181190654635429 3.28727722167969 5.57419967651367 7.03337287902832 7.21952486038208 7.15112447738647 4.82843685150146 1.0686913728714 0.16203898191452 -0.918762743473053 -0.783421218395233 -0.618017733097076
1.07617461681366 5.75274229049683 5.46410942077637 2.36006021499634 2.48531460762024 2.82222270965576 3.06202673912048 3.26865816116333 3.42816734313965 5.11274719238281 6.15987539291382 6.80509805679321 8.83288192749023 10.4306688308716 10.7842798233032 8.38241386413574 5.47718572616577 4.04558706283569 3.71238017082214 3.78586006164551 3.86702680587769 3.87865209579468 3.96679544448853 4.04302167892456 4.07441854476929 4.04811191558838 4.06050825119019 4.01713037490845 4.03352499008179 4.11480522155762 5.00810146331787 4.87582731246948 4.22685813903809 4.25142097473145 4.20314121246338 4.1387882232666 4.09098148345947 3.94057774543762 3.63941097259521 3.454261302948 3.43797945976257 3.19944739341736 3.01156067848206 2.67308235168457 2.42654037475586 2.47651267051697 2.79804801940918 3.00232648849487 3.01215362548828 2.98996043205261 2.94832468032837 2.82822680473328 2.77427411079407 2.81786274909973 2.8368067741394 2.76677560806274 2.47500848770142 2.026043176651 1.73665916919708 2.87258124351501 1.27060854434967 1.34981906414032 0.969534754753113 0.997175216674805 0.964809596538544 1.031001329422 1.08229231834412 0.897932410240173 0.981525123119354 1.13856554031372 1.33900606632233 1.40071558952332 2.16789150238037 2.73661804199219 4.07949876785278 3.11456847190857 2.10066652297974 2.01698184013367 1.74281668663025 2.10390114784241 2.48759627342224 2.97908616065979 4.53061485290527 3.57266044616699 5.75843000411987 8.48533821105957 9.73548030853271 8.94460201263428 8.61999320983887 7.21339416503906 4.06040287017822 0.0864154845476151 -0.861604392528534 -1.26070749759674 -0.884019792079926 -0.700237095355988 -0.637503564357758 -0.652072787284851 -0.0879090204834938 0.579316914081573 1.98070311546326 0.161478906869888 0.984843611717224 2.43772506713867 3.31720852851868 0.749802708625793 -2.64089226722717 -2.64702558517456 -2.5161919593811 -2.395094871521 -2.28378510475159 -2.12570071220398 -1.85352611541748 -1.59809494018555 -1.36334025859833 -1.11670017242432 -0.805120646953583 -0.380888879299164 -0.433629989624023 -0.627775967121124 -0.432030409574509 -0.355114072561264 -0.170832768082619 -0.0726595148444176 0.0978150442242622 0.28782993555069 0.308019429445267 0.0208348073065281 -0.370682865381241 -0.493512690067291 -0.770117580890656 -1.47446346282959 -2.05012202262878 -1.99505650997162 -2.15436768531799 -1.92102575302124 -2.15427398681641 -2.23754215240479 -1.75816702842712 -0.77920138835907 0.877080321311951 2.29017353057861 3.77536177635193 4.76056241989136 4.78400659561157 3.930908203125 3.23782658576965 1.95765340328217 1.77994823455811 2.5433931350708 2.27988791465759 -0.623664557933807 -2.55090999603271 -2.66625666618347 -2.69446396827698 -2.81790924072266 -2.60486793518066 -2.36985087394714 -2.22186636924744 -0.781024754047394 2.51727080345154 4.32393503189087 4.80034732818604 4.62204122543335 5.54430055618286 3.09291219711304 -0.0439471378922462 -1.23125231266022 -1.12652623653412 -0.942172348499298 -0.789131641387939
1.04073119163513 3.13306403160095 3.79556798934937 4.09443521499634 2.72861766815186 2.72772455215454 2.99698781967163 3.24044108390808 3.41711807250977 4.50705718994141 5.4610390663147 6.40352916717529 8.101637840271 9.24920749664307 9.46203708648682 7.45129346847534 4.90229606628418 3.50196433067322 3.68305659294128 3.71671319007874 3.78299641609192 3.80147385597229 3.88869023323059 3.96103286743164 3.99590396881104 3.97475123405457 3.99880194664001 3.96856999397278 3.99100565910339 3.96490931510925 4.69968032836914 4.67870712280273 4.13594627380371 4.19879293441772 4.18221282958984 4.10196685791016 3.92972707748413 3.76905512809753 3.51214790344238 3.3896656036377 3.35380268096924 3.12029623985291 2.80523586273193 2.56861209869385 2.29933071136475 2.4356734752655 2.75002670288086 2.95477890968323 2.9706506729126 2.9504988193512 2.8839271068573 2.73748064041138 2.58255100250244 2.61367273330688 2.64467978477478 2.50562739372253 2.07099556922913 1.8002781867981 1.50802779197693 1.5694580078125 3.01337552070618 3.62310004234314 2.28017425537109 2.18863892555237 2.29250359535217 2.37623906135559 2.25203704833984 2.66958570480347 2.77227115631104 3.10813975334167 2.9704897403717 3.05482745170593 2.71971750259399 2.63839101791382 2.40703058242798 1.96064615249634 1.42410159111023 1.32185101509094 1.72985255718231 2.21641039848328 2.42778968811035 3.50078082084656 7.32915258407593 4.54961967468262 5.21159601211548 7.47806549072266 8.57321453094482 8.01971530914307 7.65499877929688 6.41897296905518 5.79172706604004 1.63271081447601 0.336369305849075 -0.379220217466354 -0.971769332885742 -0.835349798202515 -0.818651735782623 0.0874536707997322 0.0849948152899742 0.511553943157196 0.341532737016678 1.71484875679016 1.86070871353149 2.89912414550781 2.61128425598145 -0.0140701895579696 -1.93996095657349 -2.70606708526611 -2.54936456680298 -2.45124483108521 -2.33090782165527 -2.13062381744385 -2.02127432823181 -1.7558274269104 -1.60237181186676 -1.34676289558411 -1.04973793029785 -0.634848296642303 -0.531572282314301 -0.68301385641098 -0.4469875395298 -0.367030560970306 -0.259908765554428 -0.147731199860573 -0.0018332228064537 0.167357370257378 0.213444694876671 -0.050695925951004 -0.622219443321228 -0.930324494838715 -1.31361770629883 -1.76002943515778 -2.2040753364563 -1.98752510547638 -2.16954708099365 -1.98691022396088 -2.40006065368652 -2.71775937080383 -2.43339490890503 -1.70482051372528 0.0904799625277519 1.39587295055389 2.39702725410461 3.23019075393677 3.89134120941162 3.73635196685791 3.07121610641479 9.76781558990479 10.0343236923218 4.95555782318115 0.40699502825737 -1.38011181354523 -2.84801554679871 -2.96967768669128 -2.82131481170654 -1.49716448783875 -2.77171063423157 -2.68577075004578 -2.55209493637085 -2.08637523651123 1.44158375263214 3.50342440605164 3.88696074485779 2.79006600379944 3.43209481239319 2.25918173789978 -0.267641305923462 -1.30884981155396 -1.15241134166718 -1.02815771102905 -0.914664804935455
0.442482739686966 1.43013572692871 2.71397948265076 3.63374638557434 6.985764503479 5.8040714263916 3.49310517311096 4.7539234161377 3.40173268318176 4.35640954971313 5.17235279083252 5.81664705276489 7.45347166061401 8.37472724914551 8.44746017456055 6.76246118545532 4.75512075424194 3.64545392990112 3.56850910186768 3.65791821479797 3.70790958404541 3.72126197814941 3.80595660209656 3.87199234962463 3.91160559654236 3.90252304077148 3.94177389144897 3.9148108959198 3.94408130645752 3.93114924430847 4.47371196746826 4.47531890869141 3.98311376571655 3.93736052513123 3.94516921043396 3.83116388320923 3.68395233154297 3.4970850944519 3.26663970947266 3.27810764312744 3.29019594192505 3.06550359725952 2.75909304618835 2.53174209594727 2.26994180679321 2.40463066101074 2.71383476257324 2.9162871837616 2.92995977401733 2.89610433578491 2.8195059299469 2.64461421966553 2.4462730884552 2.38408851623535 2.29092884063721 2.01118922233582 1.81437277793884 1.58373010158539 1.28559291362762 1.0823301076889 1.02202486991882 1.77891099452972 3.64274644851685 4.31378316879272 3.89732193946838 4.29331254959106 3.79198431968689 2.6496844291687 3.20689058303833 3.11031889915466 2.84093379974365 2.78692150115967 2.44717454910278 2.12541270256042 1.68935716152191 1.48353040218353 1.16391170024872 1.16626191139221 1.65490865707397 2.0289204120636 2.31287503242493 2.61661434173584 3.25403714179993 3.40546703338623 4.65071201324463 6.45806789398193 7.37066459655762 6.86152505874634 6.32313823699951 5.79727745056152 5.21777391433716 4.16991090774536 -0.074640266597271 0.364795476198196 0.0588352270424366 0.749611496925354 0.888413488864899 1.3191134929657 2.23517870903015 0.460006088018417 1.24967181682587 1.01606166362762 2.33397722244263 2.61005735397339 1.6769335269928 1.19876909255981 0.100458316504955 -2.06548285484314 -1.31731128692627 -1.61024379730225 -2.30288243293762 -2.32282781600952 -2.23743796348572 -2.06761479377747 -1.87171483039856 -1.68232786655426 -1.39481329917908 -0.879600048065186 -0.753347277641296 -0.800733625888824 -0.487294912338257 -0.401439011096954 -0.365239411592484 -0.247583702206612 -0.12530255317688 0.0193879790604115 -0.00302284653298557 -0.254243344068527 -0.805695176124573 -1.29456746578217 -1.81713438034058 -2.11425304412842 -2.28047919273376 -2.29222631454468 -2.21664142608643 -2.08357119560242 -2.61075258255005 -3.03552865982056 -3.05332279205322 -2.81793236732483 -0.991780996322632 0.624742686748505 1.60573756694794 2.33796525001526 3.12559747695923 3.45099306106567 7.02820825576782 9.48206329345703 9.23862457275391 4.99804735183716 0.111672401428223 -1.92300045490265 -2.94995832443237 -1.11812388896942 -2.57158660888672 2.74510908126831 1.88289678096771 -2.84508752822876 -2.78358888626099 -2.67962288856506 0.319437801837921 2.65079760551453 3.3635082244873 2.40732598304749 1.14376473426819 -0.0670638903975487 -0.557517111301422 -1.36817038059235 -1.21050727367401 -1.10266506671906 -1.00999546051025
0.337209820747375 2.91524291038513 4.34146451950073 4.15053415298462 5.68908882141113 6.46552133560181 6.57493257522583 3.65863704681396 4.53737497329712 4.79734754562378 4.7784595489502 5.64883899688721 7.02694988250732 7.685875415802 7.68371152877808 6.30643796920776 4.64322185516357 3.86049890518188 3.40641331672668 3.59890031814575 3.65079855918884 3.64560174942017 3.69462537765503 3.78258037567139 3.83065104484558 3.84513926506042 3.85176277160645 3.88759183883667 3.91311979293823 3.89819693565369 4.24028539657593 4.19519948959351 3.76974487304688 3.70102739334106 3.67802000045776 3.59268426895142 3.42535710334778 3.20425796508789 3.36610984802246 3.88406443595886 3.26227378845215 3.02828764915466 2.72731232643127 2.50681948661804 2.25434923171997 2.37854051589966 2.68357014656067 2.87575316429138 2.88107872009277 2.84498023986816 2.76040434837341 2.55513763427734 2.33979654312134 2.13705587387085 1.77317714691162 1.64634716510773 1.47125005722046 1.31767272949219 1.13697612285614 0.927536845207214 0.836024701595306 1.10933339595795 1.79881751537323 2.26692414283752 2.77904438972473 2.6149308681488 1.88855969905853 1.93785059452057 2.09418201446533 2.19600009918213 2.09120345115662 1.94248974323273 1.76474165916443 1.49489152431488 1.34124231338501 1.21405100822449 1.01374924182892 1.13887214660645 1.59741997718811 1.95360350608826 2.19060707092285 2.53474307060242 2.72232532501221 2.51487374305725 2.41086912155151 4.4584755897522 5.44011354446411 5.29299831390381 5.03517436981201 4.79178047180176 4.02258491516113 3.36968350410461 1.12678134441376 -0.101557977497578 -0.0325321890413761 0.290649384260178 0.787157118320465 1.8069965839386 2.86822080612183 2.40914416313171 1.97090661525726 5.49483585357666 4.39190483093262 2.10696911811829 0.450188994407654 -0.542082250118256 -0.767899513244629 0.166410267353058 -1.54569292068481 -2.0373375415802 -2.45255994796753 -2.42093110084534 -2.39857292175293 -2.31713032722473 -2.20683145523071 -2.10143876075745 -2.32721877098083 -2.21395206451416 -2.08052444458008 -1.62131559848785 -0.65981113910675 -0.480085790157318 -0.485345423221588 -0.435000538825989 -0.321932464838028 -0.212762832641602 -0.234798386693001 -0.48488575220108 -1.0529625415802 -1.68209183216095 -2.09724712371826 -2.23809289932251 -2.32258582115173 -2.41136384010315 -2.4081244468689 -2.38933920860291 -2.87277674674988 -3.44951367378235 -3.64563918113708 -3.49988269805908 -1.83969366550446 -0.25439727306366 0.998054325580597 2.08831858634949 3.03784108161926 3.31402826309204 5.57261180877686 7.29952430725098 7.02941036224365 3.91355681419373 -0.103485062718391 -2.08310890197754 0.593003153800964 6.76327466964722 4.23295497894287 6.1448392868042 5.07894325256348 7.13123035430908 -0.623517036437988 -1.49295997619629 -0.253613889217377 1.81138813495636 2.52240538597107 1.33687615394592 0.202209189534187 -1.22789514064789 -1.41844475269318 -1.45763146877289 -1.28451311588287 -1.17487108707428 -1.08683323860168
3.82054471969604 6.15803241729736 5.89855146408081 4.3258581161499 4.60080480575562 5.14789056777954 4.93487358093262 3.65039253234863 4.04165887832642 4.15322160720825 4.62847995758057 5.57767295837402 6.54053020477295 7.03110790252686 6.94062471389771 5.7755184173584 4.33003711700439 3.3335132598877 3.27403402328491 3.44744682312012 3.53089880943298 3.52897047996521 3.60181307792664 3.72430109977722 4.49385166168213 3.81074523925781 3.79833221435547 3.79078459739685 3.84523177146912 3.79811692237854 3.7952926158905 3.72626876831055 3.67007446289062 3.47807478904724 3.37138414382935 3.28395295143127 3.16272473335266 3.00898790359497 3.10699224472046 3.26699209213257 3.52806711196899 3.00139951705933 2.69275689125061 2.47156453132629 2.21004748344421 2.33897662162781 2.60479140281677 2.7352032661438 2.69677329063416 2.66081786155701 2.64820909500122 2.48226165771484 2.22364664077759 1.74438643455505 1.38817930221558 1.2498881816864 1.11708879470825 0.977970659732819 0.90181976556778 0.768015146255493 0.686107099056244 0.943704724311829 1.26075184345245 1.66946423053741 1.81654584407806 1.86939096450806 1.71043360233307 1.57369637489319 1.33233308792114 1.57999587059021 1.51262414455414 1.45137786865234 1.380774974823 1.251105427742 1.14043402671814 1.06632435321808 0.943961501121521 1.09923279285431 1.5418701171875 1.88675332069397 2.1115550994873 2.44568586349487 2.5719735622406 1.41779673099518 0.323490470647812 1.79536664485931 3.18575716018677 3.23757481575012 3.21699976921082 3.33460330963135 2.67196011543274 1.42094123363495 -0.540839314460754 -0.963416635990143 -0.385380774736404 0.0879044681787491 0.4383165538311 1.22200417518616 2.42593026161194 4.37381553649902 5.3036322593689 7.64571332931519 4.55746555328369 1.96785581111908 -0.34252718091011 -1.29870462417603 -1.74177169799805 -0.246500000357628 -0.872748732566833 -2.12458968162537 -2.51614022254944 -2.49263405799866 -2.49704790115356 -2.43631505966187 -2.42833805084229 -2.61345338821411 -2.69229578971863 -2.84260034561157 -3.1483108997345 -2.96063852310181 -1.17829358577728 -0.708948254585266 -0.628447115421295 -0.660676777362823 -0.588675081729889 -0.552199125289917 -0.5822793841362 -0.788951754570007 -1.25000631809235 -1.74478709697723 -2.13360548019409 -2.31876015663147 -2.48084902763367 -2.65955257415771 -2.64302897453308 -2.66293382644653 -3.06944012641907 -3.59596920013428 -3.88698983192444 -3.79199457168579 -2.36577105522156 -0.774435222148895 0.659424841403961 1.91093647480011 2.69015407562256 3.18245649337769 4.62529325485229 6.1151294708252 5.71651840209961 2.64913249015808 -0.190091669559479 -2.28748655319214 -0.54463654756546 5.51566553115845 8.31531715393066 6.00360584259033 4.80640840530396 6.20384454727173 1.70668721199036 -0.815551459789276 -0.481079906225204 1.20512962341309 1.80163955688477 1.06237006187439 -0.0208402723073959 -1.28661596775055 -1.73617827892303 -1.54716539382935 -1.3807567358017 -1.24975860118866 -1.13870739936829
6.35448408126831 4.97766399383545 3.7630774974823 3.58469724655151 4.33725738525391 4.61409902572632 3.830082654953 3.31449246406555 3.34522342681885 3.88098001480103 4.94477844238281 5.29511451721191 6.11230134963989 6.4787745475769 6.26812601089478 5.22409868240356 3.89105534553528 2.9980890750885 3.10585045814514 3.23114562034607 3.33024621009827 3.88021612167358 3.36204886436462 3.53792691230774 3.59021329879761 3.57392120361328 3.6421263217926 3.66725087165833 3.72273302078247 3.73417353630066 3.7156229019165 3.62592220306396 3.5647599697113 3.27308988571167 3.02415013313293 2.90374708175659 2.76713061332703 2.95788097381592 3.06155228614807 3.18912863731384 3.17436122894287 2.93740725517273 2.64561080932617 2.43339872360229 2.16440439224243 2.14946913719177 2.31135296821594 2.38347887992859 2.30567312240601 2.2624089717865 2.18798661231995 3.39537763595581 1.7925853729248 1.38624238967896 1.10643446445465 0.896577477455139 0.764177560806274 0.642895519733429 0.571327269077301 0.551125764846802 0.579191088676453 0.633945465087891 0.964333891868591 1.17550730705261 1.37087690830231 1.45934498310089 1.3553866147995 1.22543323040009 1.24494755268097 1.34089827537537 1.34321105480194 1.229975938797 1.18618655204773 1.09316205978394 1.02856862545013 0.95636647939682 0.91922253370285 1.06856787204742 1.50049531459808 1.82248187065125 2.05188679695129 2.3902690410614 2.53354787826538 0.764738202095032 -0.010967006906867 0.718893110752106 1.49322474002838 1.68595802783966 1.53582656383514 1.56043529510498 0.710986196994781 -0.518163025379181 -1.75032138824463 -1.81637871265411 -1.37157797813416 -0.83870667219162 -0.00723317032679915 0.767168819904327 1.93291342258453 3.6701192855835 4.52367782592773 7.00078344345093 4.96054697036743 3.08170223236084 1.18738126754761 -1.30646157264709 0.312983483076096 -0.511731505393982 -1.01204681396484 -2.18154573440552 -2.57356095314026 -2.54585790634155 -2.60199999809265 -2.61847496032715 -2.74299454689026 -2.97510004043579 -3.1582305431366 -3.21514225006104 -3.4289813041687 -3.48033809661865 -2.81993198394775 -1.09026777744293 -0.865453004837036 -0.88928896188736 -0.815996170043945 -0.801359534263611 -0.831735670566559 -1.04489171504974 -1.49782621860504 -2.05199360847473 -2.38449668884277 -2.60102891921997 -2.80362033843994 -2.88119959831238 -2.86581444740295 -2.90607309341431 -3.30426740646362 -3.67146325111389 -3.54707789421082 -1.65490424633026 -1.34852206707001 2.99866271018982 3.42733860015869 2.10856509208679 2.50912952423096 2.89247345924377 3.33899831771851 5.12668561935425 5.20251512527466 5.3268723487854 5.20572328567505 9.38677597045898 3.42192125320435 4.86728954315186 7.05667924880981 5.2246356010437 4.17246580123901 5.14327907562256 4.67016744613647 1.16419577598572 -0.764180839061737 0.682865917682648 1.3808650970459 1.75322663784027 3.69268846511841 0.332817703485489 -1.77137875556946 -1.66004621982574 -1.49036741256714 -1.29439234733582 -1.16505599021912
4.47890329360962 3.80703997612 3.81626081466675 3.98990893363953 3.92856192588806 4.04443740844727 3.41186189651489 3.11192154884338 3.23077821731567 4.38535928726196 4.47973537445068 4.99931144714355 5.69109630584717 5.95076894760132 5.69535493850708 4.78537273406982 3.60128092765808 2.92743754386902 2.9351007938385 5.38017129898071 5.77685308456421 5.53371953964233 2.98919796943665 3.06028747558594 3.27153515815735 3.37926387786865 3.49187755584717 3.55018043518066 3.61616015434265 3.6552312374115 3.63898110389709 3.5526556968689 3.29793572425842 2.96666169166565 2.64854693412781 2.46609926223755 2.6518120765686 2.88668727874756 2.98237037658691 3.11055254936218 3.11262345314026 2.88837361335754 2.61047601699829 2.40843319892883 2.15086126327515 1.98575270175934 2.00598692893982 2.0581488609314 2.04175138473511 1.95648658275604 1.87493181228638 1.71115851402283 1.95299160480499 1.08330082893372 0.842622995376587 0.601799190044403 0.457891076803207 0.360816091299057 0.283166885375977 0.326560318470001 0.437057942152023 0.473890960216522 0.827456951141357 0.91752427816391 1.05552506446838 1.15143084526062 1.16626906394958 1.10486471652985 0.883098900318146 0.843623518943787 1.02578139305115 1.15114760398865 1.14579880237579 1.05776512622833 0.994693219661713 0.931312918663025 0.906843602657318 1.04679417610168 1.45990538597107 1.76675009727478 1.97135138511658 2.29544043540955 3.19464826583862 0.615824222564697 0.105731211602688 0.490434318780899 0.714755892753601 0.616700053215027 0.434987276792526 0.22719518840313 -0.552608907222748 -1.49866950511932 -2.14251971244812 -2.17124223709106 -1.95121586322784 -1.33206403255463 -0.794130742549896 0.264506757259369 1.46727919578552 2.90529203414917 4.11191272735596 5.40270853042603 4.67997789382935 3.66918063163757 2.30094575881958 0.263534158468246 0.465071022510529 -0.405487895011902 -0.97992730140686 -0.870153844356537 -1.58638405799866 -2.62540864944458 -2.69344162940979 -2.79508018493652 -3.05454134941101 -3.33307147026062 -3.57586860656738 -3.46683025360107 -3.57621121406555 -3.71048140525818 -3.42524528503418 -2.0474100112915 -1.01634788513184 -1.05081474781036 -1.06063449382782 -1.01999390125275 -1.0970242023468 -1.38364517688751 -1.77389764785767 -2.28771948814392 -2.67936205863953 -2.88947796821594 -2.96856880187988 -3.10917973518372 -3.13873171806335 -3.14250230789185 -3.43890285491943 -3.79648351669312 -1.82847630977631 3.18673610687256 5.9736909866333 6.48356676101685 6.21982908248901 3.0928168296814 2.49557948112488 2.80502676963806 2.96271800994873 4.54338407516479 4.5784912109375 6.84255170822144 11.8289012908936 12.9518575668335 13.3824167251587 7.35497903823853 5.9122838973999 4.87044048309326 3.74644017219543 4.53436851501465 4.85179233551025 0.204672574996948 -0.965326309204102 0.653099596500397 4.24971961975098 6.26245880126953 8.05900001525879 5.85032224655151 -0.0702962726354599 -0.88071084022522 -0.702490746974945 2.5182797908783 4.4122748374939
3.48162865638733 3.24707794189453 3.60179543495178 3.92204093933105 3.53893113136292 3.64946961402893 3.14196681976318 2.90324354171753 3.64421582221985 3.84305167198181 4.23586797714233 4.72710990905762 5.36212968826294 5.61123085021973 5.37332820892334 4.62323808670044 5.71012783050537 7.89956092834473 6.38397836685181 2.76859450340271 2.70517539978027 2.63563251495361 2.71264600753784 2.80151987075806 3.07760691642761 3.28938150405884 3.37665867805481 3.44101333618164 3.49727892875671 3.54154944419861 3.4712975025177 3.29584836959839 2.95669746398926 2.63767290115356 2.38341069221497 2.37980771064758 2.59153389930725 2.82656216621399 2.91633868217468 3.04395294189453 3.04856324195862 2.8436222076416 2.58348798751831 2.38600492477417 2.12464094161987 1.96056127548218 1.89060950279236 1.92527651786804 1.82085108757019 1.69685685634613 1.53918015956879 2.30615568161011 1.13108205795288 0.729719758033752 0.512437701225281 0.322651833295822 0.201355770230293 0.112365186214447 0.0938789770007133 0.169850319623947 0.309407770633698 0.398107886314392 0.610629916191101 0.836338222026825 0.884966731071472 0.954625248908997 0.997262299060822 0.938068032264709 0.836244344711304 0.79251092672348 0.869329869747162 0.938147366046906 0.947506725788116 0.918634831905365 0.888037145137787 0.883567929267883 1.05586862564087 1.11615753173828 1.45888066291809 1.73086535930634 1.91022205352783 2.19545125961304 2.6856153011322 6.62808322906494 1.63492202758789 0.385519474744797 0.442350000143051 0.0400203503668308 -0.344915837049484 -0.784600377082825 -1.53004121780396 -2.31564378738403 -2.58778810501099 -2.56191825866699 -2.22809624671936 -1.74109673500061 -1.21108341217041 -0.161231070756912 1.09617078304291 2.25193881988525 3.72079277038574 4.76807308197021 5.16168928146362 3.9166567325592 4.74053335189819 4.71491765975952 0.961327195167542 -0.0627557560801506 -1.07937681674957 -1.11421859264374 -2.20882654190063 -2.72655272483826 -2.82566809654236 -2.9665732383728 -3.4577100276947 -3.59656119346619 -3.73176503181458 -3.72806429862976 -3.7062840461731 -3.82747316360474 -3.79431676864624 -2.76166176795959 -1.32859814167023 -1.22030627727509 -1.26483070850372 -1.31049191951752 -1.51265573501587 -1.7272002696991 -2.005042552948 -2.40572738647461 -2.79758310317993 -3.04762887954712 -3.16200423240662 -3.26332449913025 -3.30415558815002 -3.26541066169739 -3.48556399345398 -3.13201546669006 0.591364085674286 4.60122585296631 5.52217531204224 4.44805479049683 3.27240538597107 1.90993344783783 2.44301438331604 2.72354173660278 2.87038683891296 4.04823970794678 3.91415119171143 4.37950134277344 9.5403413772583 11.0070934295654 11.9997148513794 9.31147193908691 5.93928623199463 4.68093585968018 3.60783123970032 3.92442846298218 3.12338042259216 -0.548747956752777 0.476599603891373 7.33786058425903 5.83580303192139 5.60087823867798 7.58575057983398 7.38945436477661 6.42316818237305 4.70551490783691 7.42863941192627 6.50877094268799 6.88611173629761
2.88987255096436 3.07015156745911 3.51250982284546 3.40720319747925 5.19800090789795 4.25173044204712 2.85852098464966 2.78316807746887 3.40028476715088 3.65675663948059 4.01676464080811 4.53162908554077 5.22978448867798 5.57760858535767 6.71195840835571 5.42436361312866 3.1557183265686 2.58783149719238 2.53458619117737 2.37972617149353 2.33086395263672 2.38493132591248 2.51042747497559 2.72566270828247 3.0078558921814 3.21495294570923 3.27951598167419 3.34823846817017 3.3670506477356 3.41046738624573 3.39514946937561 3.21323895454407 2.84019875526428 2.44254899024963 2.23873972892761 2.33276844024658 2.5347375869751 2.77255630493164 2.86025667190552 2.99412989616394 3.00535225868225 2.79192876815796 2.53423523902893 2.33455514907837 2.08698058128357 1.92474567890167 1.80758190155029 1.80497014522552 1.58609652519226 1.35252118110657 1.18556320667267 1.18919742107391 0.741007149219513 0.374094307422638 0.186872735619545 0.05775286257267 -0.00559930177405477 -0.0971406027674675 -0.089212954044342 0.0252490285784006 0.217902615666389 0.334768354892731 0.514487624168396 0.688252627849579 0.794920802116394 0.808529913425446 0.878609180450439 0.846050202846527 0.787909805774689 0.771078765392303 0.803162634372711 0.836541712284088 0.828425109386444 0.794999361038208 0.789267838001251 0.766933500766754 0.862514436244965 0.992099940776825 1.40383517742157 1.67462253570557 1.86851298809052 2.16963958740234 2.51420712471008 12.4765634536743 9.93280410766602 2.76018261909485 0.61491197347641 -0.0690374150872231 -0.821342289447784 -1.55258405208588 -2.44745516777039 -2.57327890396118 -2.73200583457947 -2.75795483589172 -2.47525358200073 -2.07573294639587 -1.4247533082962 -0.484873801469803 0.688988447189331 1.81830513477325 3.1683075428009 4.27074003219604 4.55602645874023 6.25687074661255 9.70380210876465 13.0340604782104 6.41102743148804 1.74869561195374 -1.16530454158783 -1.71268332004547 -2.67704224586487 -2.82313013076782 -2.94247579574585 -3.16810488700867 -3.61974930763245 -3.80394721031189 -3.87462544441223 -3.87143540382385 -3.8249397277832 -3.84924817085266 -2.55590867996216 -0.128270745277405 -1.7548862695694 -1.49475419521332 -1.45520961284637 -1.57744514942169 -2.13418936729431 -2.22327184677124 -2.35805630683899 -2.61695146560669 -2.85298228263855 -2.3031280040741 -3.24486589431763 -3.40095543861389 -3.47094082832336 -3.47747230529785 -3.58156824111938 -1.88805484771729 0.373660683631897 2.56340670585632 3.97385835647583 2.49317908287048 1.08780908584595 1.33752465248108 2.16518378257751 2.61660480499268 2.78580403327942 3.78679227828979 6.10067796707153 6.02127742767334 8.68690013885498 9.11942195892334 9.15359497070312 7.65137577056885 5.77676105499268 4.54667377471924 3.21232843399048 2.78213787078857 1.88613080978394 6.2520923614502 11.5937213897705 6.64369106292725 6.45465040206909 7.64426422119141 7.53762626647949 7.11365079879761 8.19290161132812 8.62421321868896 6.95920324325562 4.94875812530518 3.74593925476074
2.22155714035034 2.69057083129883 3.26127457618713 3.3187198638916 3.63650846481323 3.54108190536499 2.61709141731262 4.02031803131104 2.99816536903381 3.51227068901062 3.87980198860168 4.4490795135498 5.18774557113647 5.25318956375122 4.68792295455933 3.78884720802307 2.63595938682556 2.46113252639771 2.22071695327759 2.01113438606262 2.03929328918457 2.1162543296814 2.37711668014526 2.64947390556335 2.93900585174561 3.0719358921051 3.12960886955261 3.2219123840332 3.27577447891235 3.25686979293823 3.2171847820282 2.93256759643555 2.61824536323547 2.26801800727844 2.14576768875122 2.29570460319519 2.49621844291687 2.73740100860596 2.83070778846741 2.94477081298828 2.9647855758667 2.73250007629395 2.48046946525574 2.29118847846985 2.03893756866455 1.8829231262207 1.74123024940491 1.62140417098999 1.40104293823242 2.12444424629211 0.943145036697388 0.765884518623352 0.428460836410522 0.118617549538612 -0.0854543223977089 -0.203673347830772 -0.234150946140289 -0.0410084500908852 -0.155417516827583 -0.0189359001815319 0.181505128741264 0.299908250570297 0.440757066011429 0.577093243598938 0.731963872909546 0.695483982563019 0.760897099971771 0.74588418006897 0.727180778980255 0.722162365913391 0.746883571147919 0.741443932056427 0.738434195518494 0.703804433345795 0.702966511249542 0.725763142108917 0.829905986785889 0.956159055233002 1.34720242023468 1.61062705516815 1.78215074539185 2.04631996154785 2.39151906967163 13.0703840255737 19.5278415679932 9.84283828735352 3.5423150062561 2.70866370201111 1.00150430202484 -1.88891768455505 -2.59361886978149 -2.70261907577515 -2.81135988235474 -2.79008007049561 -2.62825536727905 -2.50641870498657 -2.01453280448914 -1.02024042606354 0.195632934570312 1.29234135150909 2.80747222900391 4.25550317764282 6.10067796707153 11.330096244812 13.9012451171875 11.8203163146973 8.16640090942383 2.63917469978333 0.896348237991333 -0.878184258937836 -2.69441294670105 -2.87283182144165 -3.02995228767395 -3.30142498016357 1.16061818599701 -3.05290675163269 -3.94516181945801 -3.93575429916382 -3.89400768280029 -3.6206374168396 7.8259015083313 -2.11617732048035 -2.06342887878418 -1.79708611965179 -1.69107282161713 -1.98286592960358 -2.53238105773926 -2.63108921051025 -2.61550855636597 -2.70005011558533 -2.90663599967957 -3.13289952278137 -3.36850214004517 -3.5468385219574 -3.70680665969849 -3.70805239677429 -3.71771740913391 -3.28325247764587 -1.39382123947144 1.19444751739502 2.45404005050659 1.18171191215515 0.361053913831711 0.822156548500061 1.72768580913544 2.45436692237854 2.66844797134399 4.74905300140381 6.60801315307617 7.92334842681885 8.00953102111816 8.83230590820312 8.32709312438965 5.61944103240967 5.21897745132446 4.41925859451294 2.96300435066223 2.65827012062073 3.77359580993652 10.8319692611694 10.2113475799561 7.32584667205811 9.05078506469727 8.50078964233398 7.28051853179932 7.37953948974609 7.46886444091797 7.0498309135437 5.58047819137573 3.77921772003174 3.97955012321472
2.07993626594543 2.54678106307983 2.90488433837891 3.08271837234497 3.28366851806641 3.29584813117981 5.43788814544678 3.71543335914612 2.9374692440033 3.37726831436157 3.7794988155365 4.44027900695801 4.69498205184937 4.57078552246094 4.1539888381958 3.39439535140991 2.47466254234314 2.31351351737976 1.95371353626251 1.82668924331665 1.82622849941254 1.89926767349243 2.21568489074707 2.53744077682495 2.76068186759949 2.88129806518555 3.04219889640808 3.05234551429749 3.13015294075012 3.06232404708862 2.96448230743408 2.64898157119751 2.30598998069763 2.11486005783081 2.07679057121277 2.27045607566833 2.45818328857422 2.67797112464905 2.75939536094666 2.87069964408875 2.89855742454529 2.67799043655396 2.43310475349426 2.24695634841919 1.99975001811981 1.84326958656311 1.70287656784058 1.51675355434418 1.29235124588013 1.39954841136932 0.773462653160095 0.559631049633026 1.45843577384949 3.14301991462708 2.15541005134583 1.64719259738922 0.223127499222755 0.130429074168205 1.2442375421524 0.0022539624478668 0.109005033969879 0.28734427690506 0.394680589437485 0.525283932685852 0.628031849861145 0.673256754875183 0.679642736911774 0.68026727437973 0.657840013504028 0.660710692405701 0.704583883285522 0.678368866443634 0.667767584323883 0.636984527111053 0.637359619140625 0.698403298854828 0.804533183574677 0.928550004959106 1.29641544818878 1.55446553230286 1.70196712017059 1.94789659976959 2.31444549560547 9.99804878234863 18.7272338867188 20.7694854736328 11.5446863174438 4.36887216567993 0.693585515022278 3.47113847732544 3.65021562576294 2.00594425201416 3.20125293731689 1.93193781375885 -2.67261624336243 -2.60519933700562 -2.38336777687073 -1.56810975074768 -0.432073771953583 1.07663547992706 2.5701220035553 4.73117160797119 6.27547025680542 9.29456424713135 10.3441972732544 9.46073627471924 6.3413553237915 3.83030915260315 3.09246253967285 0.775862038135529 -2.75771236419678 -3.04688048362732 -3.21686434745789 -3.45790219306946 -2.71659636497498 -3.33198022842407 -0.709784269332886 -0.664110541343689 -4.02439975738525 -3.06072568893433 3.83506894111633 -2.80497145652771 -2.20238423347473 -1.93751502037048 -1.8771493434906 -2.27084898948669 -2.57927918434143 -2.66355609893799 -2.70436787605286 -2.76374864578247 -2.97742772102356 -3.37069702148438 -3.55305576324463 -3.70656871795654 -3.78148460388184 -3.10390377044678 -3.26955509185791 -2.3995988368988 0.0103818876668811 0.847357034683228 1.72170555591583 1.1336042881012 1.90371978282928 5.15618801116943 2.5628342628479 2.29405355453491 2.66330552101135 5.52702045440674 6.37496566772461 6.37601804733276 7.11536407470703 7.86487722396851 7.64879941940308 7.36145544052124 4.86862897872925 4.23833513259888 9.4291353225708 14.6479053497314 17.1216068267822 12.0225715637207 9.64179134368896 7.89811325073242 7.33143711090088 7.60463523864746 7.30786561965942 6.70567607879639 6.55507373809814 6.41336584091187 5.7859263420105 5.38944625854492 3.68416690826416
4.43675756454468 2.50671362876892 2.80448007583618 2.86411690711975 2.97763395309448 4.15185213088989 4.5379114151001 3.1818835735321 2.73495006561279 3.27501344680786 3.71612858772278 4.12106037139893 4.26815223693848 4.22042751312256 3.83172655105591 3.11671257019043 2.29471802711487 2.15061092376709 1.9242684841156 1.72718369960785 1.69517815113068 1.73822367191315 1.93905806541443 2.22541928291321 2.50589656829834 2.62041282653809 2.79830050468445 2.87623906135559 2.83067846298218 2.73445963859558 2.59311890602112 2.34765386581421 2.11175966262817 2.00174570083618 2.00106000900269 2.20305776596069 2.38610315322876 2.6133120059967 2.6985080242157 2.80605220794678 2.83145093917847 2.63499045372009 2.38608860969543 2.20093369483948 1.95910394191742 1.80729496479034 1.67580425739288 1.49396657943726 1.27006101608276 0.917765557765961 0.619016468524933 2.42248034477234 4.05152702331543 5.16742086410522 4.67830896377563 2.39908051490784 1.21040260791779 0.339647680521011 0.324095845222473 0.730449140071869 0.421264827251434 0.265626519918442 0.374661266803741 0.489709228277206 0.595458328723907 0.66479229927063 0.624287605285645 0.591805756092072 0.615358829498291 0.609766781330109 0.628149449825287 0.619503438472748 0.611678004264832 0.594906330108643 0.588025450706482 0.678752422332764 0.775331497192383 0.896023631095886 1.24634683132172 1.49497056007385 1.62709927558899 1.85179138183594 2.24946117401123 8.89630031585693 15.4702482223511 19.0627346038818 18.2069396972656 10.906590461731 7.3327808380127 11.5660333633423 12.3565807342529 11.6416387557983 12.6777782440186 9.3068962097168 7.75681686401367 6.34726524353027 2.44386124610901 -0.191326543688774 -0.209904432296753 1.06183314323425 3.1742889881134 5.4755072593689 5.78922986984253 7.434401512146 8.28271389007568 7.82665252685547 5.07353544235229 2.58076596260071 1.23304128646851 0.0228401515632868 -1.33948385715485 -3.21889066696167 -3.48230218887329 -3.62841320037842 -3.69629788398743 -0.381774604320526 2.70165801048279 5.9907431602478 8.86604404449463 7.88440227508545 8.74491405487061 0.0571276843547821 -2.27497172355652 -1.99065244197845 -1.96179378032684 -1.00106728076935 1.54374086856842 2.74475455284119 2.15268182754517 -1.62962603569031 -3.09969520568848 -3.3946430683136 -3.58752608299255 -2.0992066860199 0.401171445846558 0.955919206142426 1.39420354366302 2.03055691719055 1.25914752483368 1.34920465946198 2.00867295265198 2.29128980636597 6.13125419616699 6.35301351547241 2.22714495658875 2.16905808448792 2.53744888305664 3.9679582118988 5.31252336502075 5.33429336547852 6.2999439239502 7.06449413299561 6.70971298217773 5.35148954391479 5.48093509674072 7.58471727371216 8.70358753204346 11.0838031768799 12.3970613479614 10.2479095458984 9.19143390655518 6.77869415283203 6.17125844955444 5.96907663345337 5.96895503997803 5.43210744857788 5.37508583068848 4.94091081619263 4.47902584075928 3.38072752952576 3.17544889450073
3.21254873275757 2.41200923919678 2.59430599212646 2.61467289924622 4.2491626739502 3.3119056224823 3.31322860717773 2.67908620834351 2.64339900016785 3.1585328578949 3.61800527572632 3.7916157245636 4.01924276351929 3.97616505622864 3.58679270744324 2.8911452293396 2.05363368988037 1.92000663280487 1.86514508724213 1.680495262146 1.59618639945984 1.62639462947845 1.77429938316345 1.93883168697357 2.17152547836304 2.33034133911133 2.47161650657654 2.58005046844482 2.44196724891663 2.34037208557129 2.18246459960938 2.18840026855469 1.92902362346649 1.85307335853577 1.90595066547394 2.14804840087891 2.33307242393494 2.50546479225159 2.61668372154236 2.74136757850647 2.76569890975952 2.58801507949829 2.31935620307922 2.09900903701782 1.92370700836182 1.77919065952301 1.6467627286911 1.46330094337463 1.23840463161469 0.892334759235382 0.457804173231125 1.63591837882996 3.49019932746887 4.31276416778564 4.58529138565063 4.82016277313232 4.54061937332153 3.59003663063049 1.93424379825592 1.49966263771057 0.0743609368801117 0.231633573770523 0.315556794404984 0.476029068231583 0.548601865768433 0.568724870681763 0.598652720451355 0.546611666679382 0.551589012145996 0.566717803478241 0.566698908805847 0.572442531585693 0.566918432712555 0.547390580177307 0.565914750099182 0.651197075843811 0.734344124794006 0.854666888713837 1.19305562973022 1.39533948898315 1.53735709190369 1.76282894611359 2.13272142410278 7.66964530944824 13.3561162948608 16.5990333557129 15.8814506530762 17.3855667114258 17.9795112609863 14.2039270401001 16.436767578125 18.0484962463379 15.0294075012207 15.9107532501221 15.5573263168335 15.0429124832153 11.2824144363403 4.59606838226318 3.80569362640381 2.52425146102905 2.80027008056641 4.3034462928772 5.35070657730103 6.6033763885498 6.75801038742065 6.50253295898438 4.51418828964233 2.17834711074829 1.00551915168762 -0.260328590869904 1.63623225688934 1.93854188919067 -2.03686022758484 -0.707544326782227 3.09472370147705 6.14718914031982 6.78566217422485 8.49536418914795 15.7102327346802 13.1925535202026 7.51877641677856 2.71250748634338 -1.21433508396149 -1.4950076341629 -1.23072004318237 2.35860633850098 5.48276233673096 5.00891923904419 2.11001110076904 -1.76852548122406 -2.63996529579163 -0.176245644688606 4.35990858078003 5.67674589157104 5.73574352264404 5.15496873855591 4.44407653808594 3.37136459350586 2.30901956558228 2.29652690887451 1.60724484920502 3.8657751083374 4.76025915145874 5.30115365982056 4.50137281417847 3.02489995956421 2.61600089073181 3.53238773345947 4.27096652984619 4.62829351425171 5.59587955474854 6.33868026733398 5.94642353057861 4.91662931442261 4.74077749252319 5.68391513824463 7.81501913070679 10.3179540634155 11.1308469772339 9.80615997314453 8.98229598999023 6.65277814865112 5.60843229293823 5.16272878646851 5.19049310684204 4.63358879089355 4.3254508972168 3.93640089035034 3.521559715271 2.61574649810791 2.69209933280945
2.47259974479675 2.27940678596497 2.36676740646362 2.81919193267822 3.18561935424805 3.06993246078491 2.62658596038818 2.24564433097839 2.50104141235352 2.9875054359436 3.4444751739502 3.58004760742188 3.82104706764221 3.78566551208496 3.40132021903992 2.75155544281006 1.86107087135315 1.71456861495972 1.71118903160095 1.59908187389374 1.46214723587036 1.52586817741394 1.66477501392365 1.79182207584381 1.91377890110016 2.03790140151978 2.13191795349121 2.11554098129272 2.08299732208252 2.00290632247925 1.94285583496094 2.00805830955505 1.81399881839752 1.66187107563019 1.78509342670441 2.0780885219574 2.28456282615662 2.41898345947266 2.56227087974548 2.69053673744202 2.71288585662842 2.53959035873413 2.19387793540955 1.96787214279175 1.7794075012207 1.56110203266144 1.40588343143463 1.27644383907318 1.05900955200195 0.767390072345734 0.403842329978943 1.3514392375946 3.11247539520264 3.90167307853699 4.12181520462036 4.03791427612305 4.06865262985229 4.15932559967041 3.44662570953369 1.07309532165527 0.0148574821650982 0.119950592517853 0.187611475586891 0.278013825416565 0.385428577661514 0.481900453567505 0.524018943309784 0.525645136833191 0.515287697315216 0.518991410732269 0.528222501277924 0.52534294128418 0.521955013275146 0.504332959651947 0.540105402469635 0.615988075733185 0.704452872276306 0.80241584777832 1.09091305732727 1.28350472450256 1.42284762859344 1.68434834480286 2.04010915756226 6.57059717178345 11.6210060119629 14.5263662338257 14.9355182647705 14.8823232650757 16.7082405090332 16.3870525360107 15.1982040405273 17.5847244262695 19.0888996124268 16.6814823150635 15.3755197525024 14.8181571960449 12.2962942123413 8.62934017181396 6.84667205810547 2.62448000907898 3.06708669662476 4.21104907989502 5.4676833152771 6.16533279418945 6.09103012084961 5.53541135787964 3.89464330673218 2.06774759292603 1.28705561161041 1.3047776222229 1.56827044487 1.78106725215912 6.26572513580322 7.13774013519287 8.72566986083984 8.28051376342773 9.40531158447266 10.2759809494019 13.8717384338379 13.1321706771851 7.79715490341187 4.15224599838257 0.00256815110333264 -0.220750615000725 1.24863409996033 3.76138186454773 4.75178003311157 4.86592435836792 4.42093849182129 -1.24027788639069 1.64158284664154 7.56059598922729 8.35343170166016 8.4247989654541 7.17741250991821 5.68656587600708 4.05965518951416 3.26604199409485 2.8270411491394 2.07053065299988 3.96437835693359 3.05723857879639 3.87808585166931 4.83158349990845 5.22368717193604 6.51501417160034 4.83600521087646 3.37373113632202 3.8336296081543 4.04004144668579 4.98149538040161 5.68943643569946 5.40845060348511 4.6955885887146 4.59669923782349 5.06454944610596 7.00659704208374 9.08109092712402 9.99964237213135 9.13448047637939 8.56515407562256 6.5596809387207 5.45331478118896 4.86721420288086 4.72718954086304 4.09819984436035 3.68693995475769 3.29148006439209 2.94877696037292 2.09799933433533 2.20059299468994
2.05368447303772 2.04879426956177 2.24084091186523 2.55566811561584 2.78569388389587 2.84939122200012 2.44610261917114 2.12522411346436 2.36045861244202 2.79862642288208 3.24048757553101 3.49739766120911 3.65387177467346 3.61142539978027 3.24240565299988 2.63446140289307 1.76287281513214 1.45232653617859 1.35853159427643 1.25216341018677 1.19021940231323 1.42066335678101 1.56086826324463 1.64573359489441 1.71117949485779 1.79831719398499 1.8703625202179 1.94859194755554 1.85585045814514 1.74968290328979 1.8133088350296 1.84029686450958 1.70866978168488 1.40451645851135 1.590775847435 1.86372244358063 2.05967164039612 2.26383352279663 2.45485973358154 2.59709715843201 2.40940022468567 2.17871379852295 1.98689424991608 1.77641797065735 1.55351746082306 1.32938671112061 1.12992286682129 0.946190476417542 0.761731326580048 0.536938905715942 0.365837037563324 1.2221554517746 2.9313850402832 4.28513526916504 4.5926342010498 3.84707236289978 3.66117668151855 3.31907820701599 2.57221364974976 0.808617949485779 -0.0531093329191208 -0.0570320598781109 -0.0164991207420826 0.10530773550272 0.243863016366959 0.381740003824234 0.458926975727081 0.481345057487488 0.489591985940933 0.480457991361618 0.488314568996429 0.47569727897644 0.473113417625427 0.474344491958618 0.514298021793365 0.580025732517242 0.631516218185425 0.730094790458679 1.02681267261505 1.21007668972015 1.33212018013 1.59815621376038 1.95245110988617 5.76367378234863 10.1715745925903 12.5931921005249 13.8346138000488 14.8587017059326 16.3892440795898 16.5562534332275 18.290376663208 17.2956390380859 18.5377445220947 18.4241733551025 16.953197479248 16.0837497711182 15.0166521072388 11.8413324356079 9.34324932098389 7.44822216033936 4.23385190963745 4.133620262146 4.92102956771851 5.58196973800659 5.41193914413452 4.77029037475586 3.41872048377991 1.86931931972504 1.38262629508972 1.39936411380768 1.4769788980484 4.64023113250732 6.80349540710449 7.81485414505005 9.73530769348145 12.5869102478027 10.7298059463501 11.0819292068481 12.3181314468384 11.7707328796387 8.24447250366211 3.20689058303833 1.43567848205566 2.19755959510803 1.11653995513916 3.58044362068176 4.69758605957031 4.2998104095459 4.07875108718872 7.59815263748169 7.56416654586792 8.64466953277588 8.01809692382812 8.15861129760742 8.01300716400146 5.68024921417236 4.30590486526489 3.35557317733765 2.70254397392273 3.87341713905334 5.96931314468384 3.42739295959473 4.62622547149658 5.24815225601196 4.45293855667114 5.78792762756348 6.20076656341553 3.57119083404541 3.71843767166138 3.85439300537109 4.71032619476318 5.46635246276855 5.24140167236328 4.62130212783813 4.48881816864014 4.68870306015015 6.35366916656494 8.24997711181641 9.08553218841553 8.59270763397217 8.13974666595459 6.42112445831299 5.48142242431641 4.77219438552856 4.42290258407593 3.74022340774536 3.25250935554504 2.88148927688599 2.54992008209229 1.7835510969162 1.78540253639221
1.89392924308777 1.86066257953644 2.04980134963989 2.4064679145813 2.55395913124084 2.6318371295929 2.2906506061554 2.03894758224487 2.29306888580322 2.67493605613708 2.97726249694824 3.4302761554718 3.51198959350586 3.44687581062317 3.09873032569885 2.52579212188721 1.68595123291016 1.16291105747223 0.993148684501648 0.904676079750061 0.898046910762787 1.17353987693787 1.39802849292755 1.45772910118103 1.47577309608459 1.50586187839508 1.56831312179565 1.63881289958954 1.58814227581024 1.41016519069672 1.69532001018524 1.71678745746613 1.55002963542938 1.15937268733978 1.27494895458221 1.44243812561035 1.67102158069611 1.85435664653778 1.95510709285736 1.94869935512543 1.86643862724304 1.80775439739227 1.69178402423859 1.52016973495483 1.32422709465027 1.10571157932281 0.926222026348114 0.715667188167572 0.798329174518585 0.631589353084564 0.412235796451569 1.12319004535675 2.64222550392151 3.90265202522278 5.05785369873047 4.8650426864624 3.8418550491333 3.22711586952209 2.49811482429504 1.51575708389282 -0.0588915795087814 -0.129549577832222 -0.11530913412571 0.00809072237461805 0.116109862923622 0.266431838274002 0.381862640380859 0.427776664495468 0.460170865058899 0.434356808662415 0.430025428533554 0.40874195098877 0.401862502098083 0.437979400157928 0.457214862108231 0.518524706363678 0.589251279830933 0.691465556621552 0.978016555309296 1.15964150428772 1.27291822433472 1.50002920627594 1.86307632923126 5.12355804443359 8.97994995117188 10.7179613113403 11.9405031204224 14.1508941650391 16.1515998840332 16.1993923187256 17.5037651062012 17.1214485168457 17.2596130371094 16.8573951721191 16.229341506958 15.5851125717163 14.9411973953247 13.0248155593872 9.21443557739258 7.39031410217285 5.72941398620605 4.45074367523193 4.7004132270813 5.05953454971313 4.61754560470581 4.20880746841431 2.8783586025238 1.46726143360138 0.812843382358551 0.793544411659241 1.47533619403839 5.97458267211914 8.60589122772217 11.4135723114014 11.4363555908203 13.4438629150391 14.9975996017456 11.2279624938965 11.3015613555908 10.1490964889526 6.81626892089844 2.26373934745789 5.45097875595093 4.64720630645752 4.51215219497681 4.01783084869385 6.07855415344238 5.73714971542358 5.52455759048462 7.9349799156189 10.9800682067871 7.73401594161987 8.68528079986572 9.9721097946167 7.98704624176025 8.22876453399658 8.30986022949219 8.53181266784668 8.68685626983643 10.4574642181396 8.09427165985107 10.4158992767334 9.4845609664917 7.56856966018677 5.97742033004761 6.45834589004517 4.98154830932617 3.36881256103516 3.66568160057068 3.77671432495117 4.61544561386108 5.32052183151245 5.10180187225342 4.56536245346069 4.43280410766602 4.41826057434082 5.88810348510742 7.53940057754517 8.33243846893311 8.03199481964111 7.70605325698853 6.23268556594849 5.36683559417725 4.69337224960327 4.28915309906006 3.63444566726685 3.06243276596069 2.67218613624573 2.33060097694397 1.61867654323578 1.49279344081879
1.7806168794632 1.83717107772827 3.05316567420959 2.2312068939209 2.39244651794434 2.45998287200928 2.13084197044373 1.95432949066162 2.25714921951294 2.61007857322693 2.81587719917297 3.27119874954224 3.39527654647827 3.30137181282043 2.96979784965515 2.43855547904968 1.65342569351196 1.0859158039093 1.67896711826324 1.29452395439148 0.770112097263336 0.776041388511658 1.06684732437134 1.27389788627625 1.3024365901947 1.22171270847321 1.1043643951416 1.10281753540039 1.09682953357697 1.07203280925751 1.49296545982361 1.60658264160156 1.41205668449402 1.02401220798492 0.99527233839035 1.13562333583832 1.28502464294434 1.41688120365143 1.41078019142151 1.42185866832733 1.42667782306671 1.23546588420868 1.26375818252563 1.22289335727692 1.07630860805511 1.23048794269562 0.877173662185669 0.584874510765076 0.647057771682739 0.619467198848724 0.611319720745087 1.03731048107147 2.36233854293823 3.55516338348389 4.47984027862549 5.38091611862183 4.83570671081543 3.56018233299255 2.44963932037354 1.3480783700943 0.571367383003235 0.97591233253479 0.0560075342655182 -0.0325250662863255 0.0555137246847153 0.1661327034235 0.309092551469803 0.382106751203537 0.412733674049377 0.397966921329498 0.382813334465027 0.342250019311905 0.323392957448959 0.342712759971619 0.397393107414246 0.486731141805649 0.556688785552979 0.661134719848633 0.93729305267334 1.10778439044952 1.21603333950043 1.4229953289032 1.76060605049133 4.59690713882446 8.00065040588379 9.55607318878174 10.27512550354 12.3128108978271 14.9265851974487 15.1363210678101 15.9912481307983 16.0114917755127 15.4971208572388 15.406195640564 14.8141202926636 14.2511043548584 13.3510475158691 11.5653123855591 8.99300193786621 6.99185657501221 4.90037727355957 4.08710193634033 4.52892732620239 4.79322957992554 4.2823314666748 3.65905594825745 2.08172345161438 0.716255247592926 0.119743287563324 -0.252175778150558 1.25649869441986 5.74799585342407 10.0812864303589 11.2940540313721 12.2647581100464 12.9804754257202 14.3609666824341 12.0844984054565 10.8939666748047 9.07349586486816 6.27773809432983 2.17279386520386 4.19578218460083 3.59068965911865 3.98701333999634 4.02416515350342 5.12048149108887 5.29224157333374 6.19574403762817 6.8747878074646 8.09200859069824 7.40366077423096 8.43380832672119 13.9861936569214 16.7865409851074 15.8851280212402 17.8252143859863 15.3696517944336 13.9336776733398 11.6756000518799 14.4580364227295 13.0455732345581 13.3577461242676 10.7481870651245 12.5577354431152 8.71205711364746 4.27159833908081 3.15264368057251 3.56438875198364 3.68950057029724 4.50904560089111 5.17005968093872 4.99102354049683 4.47682809829712 4.31669998168945 4.21587038040161 5.45872211456299 6.91633462905884 7.65130519866943 7.51917743682861 7.28713703155518 6.00614452362061 5.28597354888916 4.96038436889648 4.25814628601074 3.5607922077179 2.97069549560547 2.52913928031921 2.19287014007568 1.54715096950531 1.42568027973175
1.71343815326691 1.73252391815186 1.99717211723328 2.08415865898132 2.28954577445984 2.34945845603943 2.02073979377747 1.89197385311127 2.21170282363892 2.56128430366516 2.73807525634766 3.09469866752625 3.31790637969971 3.16766381263733 2.83832359313965 2.33924603462219 1.60642981529236 1.06556499004364 1.62946903705597 1.18191266059875 0.621577441692352 0.474468737840652 0.5810506939888 0.831623494625092 0.860982537269592 0.852257549762726 0.81624972820282 0.769374251365662 0.75030517578125 1.01039099693298 1.4449063539505 1.49406445026398 1.30760943889618 0.903070688247681 0.753671109676361 0.856402099132538 0.915237545967102 0.98809814453125 0.999991595745087 0.939238369464874 0.914337933063507 0.826635301113129 0.842133343219757 0.94981062412262 0.784883201122284 0.624592065811157 0.59994512796402 0.833483815193176 0.991903901100159 0.535721659660339 0.82944118976593 1.01883578300476 2.11917066574097 3.17376565933228 3.91025471687317 4.32822608947754 3.98207855224609 3.06715488433838 2.23125863075256 1.45178747177124 1.75803053379059 1.08858752250671 0.781147658824921 -0.0839313417673111 0.00565859349444509 0.110378049314022 0.252452403306961 0.321742922067642 0.345975458621979 0.364201426506042 0.351704686880112 0.299647271633148 0.300171881914139 0.281959176063538 0.305384278297424 0.393520653247833 0.529267251491547 0.63051849603653 0.897985577583313 1.05968058109283 1.1627699136734 1.35638201236725 1.65577936172485 4.13492631912231 7.14984703063965 9.14713478088379 9.9431848526001 11.1267604827881 13.6794481277466 13.8465604782104 14.5590391159058 14.8073835372925 13.8172082901001 13.5733528137207 13.1895895004272 12.6602449417114 11.3946752548218 9.97348785400391 8.01462459564209 6.15634775161743 4.37635946273804 3.98341274261475 4.38458967208862 4.70978879928589 4.17952871322632 3.1128237247467 0.278394222259521 -0.917795121669769 -1.59767758846283 -1.63839495182037 0.214539796113968 4.99819183349609 8.0352954864502 9.19326877593994 10.8300275802612 12.2205123901367 13.4496088027954 12.4163455963135 14.0333633422852 11.6492910385132 6.80961036682129 5.31224584579468 3.55812764167786 2.67904090881348 3.11010551452637 3.54051327705383 4.64270544052124 5.74488544464111 5.98337936401367 9.50242137908936 7.63336801528931 7.2182502746582 10.0577402114868 12.591347694397 17.0266380310059 20.7126293182373 19.7180595397949 19.0111293792725 16.2257709503174 14.4150667190552 16.4102725982666 19.0932903289795 16.04518699646 15.5750741958618 11.5393495559692 7.06916427612305 4.6293740272522 4.91940879821777 3.55395555496216 3.6746871471405 4.41689252853394 5.02594375610352 4.80337476730347 4.33241653442383 4.15269613265991 4.05573225021362 5.00874805450439 6.32605791091919 7.0554027557373 7.02817392349243 6.90806102752686 5.77118492126465 5.18354320526123 5.49984359741211 5.86389398574829 4.0277943611145 2.95818996429443 2.47358727455139 2.08411359786987 1.47382998466492 1.39148557186127
