NCOLS 173
NROWS 32
XLLCORNER 353936
YLLCORNER 6699408
CELLSIZE 16 
NODATA_value -3.4e+38 
3.47491931915283 3.67560744285583 3.8175733089447 3.86820316314697 3.86854028701782 3.88250088691711 3.91790270805359 3.91166567802429 3.89328551292419 3.904700756073 3.94728708267212 3.97952437400818 4.00860977172852 4.02894258499146 4.08603382110596 4.09412479400635 4.07471895217896 4.04380559921265 4.02937507629395 4.01972913742065 3.97649598121643 3.94956398010254 3.94368815422058 3.95935535430908 3.96206831932068 3.95954465866089 3.99178051948547 3.92966818809509 3.90470910072327 3.88449263572693 3.83699345588684 3.79671859741211 3.86042761802673 3.95020890235901 4.014723777771 4.05865144729614 4.11322450637817 4.09487628936768 3.91442918777466 3.81415128707886 3.84708595275879 3.88630199432373 3.93972444534302 3.5386860370636 3.99590706825256 3.20873117446899 2.5309751033783 2.12840485572815 1.9501405954361 1.64280366897583 1.66811275482178 1.76672399044037 1.68160367012024 1.61505603790283 1.4093154668808 1.60969269275665 1.93797719478607 2.12341117858887 2.42795562744141 2.71394181251526 2.83166432380676 2.94048142433167 4.25496101379395 7.2873911857605 9.19576358795166 12.7789373397827 11.8626403808594 6.43238878250122 4.72355842590332 4.27904367446899 3.96813058853149 3.02933955192566 3.00077247619629 2.58759522438049 2.80267310142517 4.21447801589966 5.4876446723938 6.28761196136475 6.35700941085815 6.1075963973999 5.35758256912231 5.00644111633301 5.28470754623413 5.4912166595459 5.61439561843872 5.94941902160645 6.25551700592041 6.84029769897461 7.50896453857422 7.98182964324951 8.60039043426514 9.00186920166016 9.58504486083984 10.4733762741089 11.1720552444458 11.6761331558228 12.4389019012451 12.9586362838745 14.1420211791992 15.8601036071777 16.3095645904541 27.7899398803711 30.3304233551025 14.6761837005615 12.6022529602051 11.7310171127319 13.1764049530029 21.735523223877 21.8707847595215 18.0182132720947 19.3871021270752 17.3124008178711 18.207160949707 17.0602188110352 9.26392364501953 5.46262168884277 10.3540334701538 13.2883100509644 20.7178115844727 10.8299417495728 10.1346817016602 11.5786008834839 15.7995595932007 17.7766056060791 16.251106262207 14.8804311752319 13.3269824981689 12.1079978942871 11.4822940826416 10.7970323562622 10.1478929519653 9.81277656555176 10.2871322631836 10.7863130569458 11.8054332733154 13.9212083816528 15.3856840133667 16.2301979064941 17.3881053924561 18.6432876586914 22.792049407959 28.6815738677979 19.2576789855957 13.5633001327515 12.8100309371948 8.42869186401367 1.76594185829163 -1.37408792972565 -1.05871725082397 -0.759274423122406 -0.688384532928467 -0.713197827339172 -0.456124097108841 0.238833948969841 1.16516828536987 2.3525276184082 3.60524344444275 4.07800197601318 3.45837044715881 2.54732465744019 0.551415741443634 -2.0773024559021 -2.17188405990601 -1.73333549499512 -1.4016740322113 -1.06873691082001 -0.961165130138397 -0.880586087703705 -1.11409604549408 -1.50321185588837 -2.05499839782715 -1.91293036937714 -1.81286716461182
3.53445339202881 3.70942783355713 3.8004686832428 3.90356850624084 3.93458962440491 3.94074368476868 3.93330693244934 3.98104643821716 3.97320747375488 3.95496654510498 3.97743201255798 4.01925325393677 4.05533313751221 4.08503198623657 4.1365795135498 4.14829015731812 4.1410870552063 4.11002635955811 4.08379030227661 4.07663583755493 4.06580066680908 4.03622913360596 4.03034067153931 4.03116893768311 4.03999185562134 4.03971290588379 4.05870676040649 4.02060699462891 3.99316644668579 3.99076390266418 3.91574716567993 3.88111329078674 3.85982203483582 3.93425345420837 4.02555704116821 4.21228265762329 4.16965770721436 4.19164037704468 4.044677734375 3.99307012557983 3.88949227333069 3.94183158874512 4.00293397903442 3.6525936126709 3.45788383483887 3.20213198661804 2.78727507591248 2.43907117843628 2.19646596908569 2.17589831352234 1.81685984134674 2.07283592224121 2.14737725257874 1.94166684150696 1.49963116645813 1.48269724845886 1.78277373313904 2.12081050872803 2.26703453063965 2.60660600662231 2.83174729347229 2.99840331077576 3.25324034690857 6.595374584198 11.5190124511719 12.6308794021606 11.2233591079712 6.73410987854004 4.32364320755005 4.28708696365356 3.77102422714233 2.9674973487854 3.34352588653564 3.09696555137634 2.82039976119995 3.89389491081238 5.72568655014038 6.90130519866943 7.01412773132324 6.43308734893799 5.9559965133667 5.03119134902954 5.23144245147705 5.51198244094849 5.73991966247559 5.96335935592651 6.25446605682373 6.8067364692688 7.22696542739868 8.03006839752197 8.7266845703125 9.22696304321289 9.71895408630371 10.4797353744507 11.6219253540039 12.2813730239868 12.8329763412476 13.8163747787476 15.0917730331421 17.7333831787109 17.0618877410889 22.3610076904297 21.2074375152588 13.1072368621826 9.10190773010254 11.0506982803345 13.9972009658813 15.2304058074951 14.2098217010498 12.4608163833618 14.624303817749 15.233696937561 11.7459516525269 9.6052770614624 6.7745943069458 2.21789026260376 5.04630279541016 5.66189241409302 4.72962617874146 6.03296518325806 11.4988031387329 11.3925457000732 14.1608514785767 18.1060314178467 19.9936561584473 19.1673145294189 17.4626178741455 13.4680109024048 11.6009740829468 10.6413869857788 10.3254795074463 10.6365032196045 10.6985664367676 10.9433870315552 11.8460340499878 13.5611333847046 15.4604072570801 17.7299156188965 18.5881252288818 20.79807472229 24.6304359436035 22.6517963409424 10.8325319290161 7.55119514465332 4.80989980697632 0.299441248178482 -1.36358845233917 -1.78046047687531 -1.22047424316406 -0.614720404148102 -0.234352305531502 -0.164904549717903 -0.0454508028924465 0.346846431493759 0.700056791305542 1.50312173366547 2.7592830657959 4.20589780807495 4.79571437835693 3.89058113098145 2.5303807258606 0.084863193333149 -1.94454956054688 -1.74073624610901 -0.875447392463684 -0.483696401119232 -0.182066515088081 0.00404544500634074 -0.0239111110568047 -0.587970972061157 -1.42243492603302 -1.50566208362579 -1.2427453994751
3.44208359718323 3.68582510948181 3.84020972251892 3.8801748752594 3.95920372009277 4.01148462295532 3.98469591140747 3.99624180793762 4.04319143295288 4.0313572883606 4.04048347473145 4.08536434173584 4.11529397964478 4.14370441436768 4.16354846954346 4.22982835769653 4.24951410293579 4.23574304580688 4.18279314041138 4.16401720046997 4.16570806503296 4.1191611289978 4.09840059280396 4.10013580322266 4.10830783843994 4.10897779464722 4.11478614807129 4.15826749801636 4.11480665206909 4.06732130050659 4.02174282073975 3.96032190322876 3.9511513710022 3.95990347862244 4.19758319854736 4.29164600372314 4.27975416183472 4.23203992843628 4.22339868545532 4.11992883682251 4.07319116592407 3.99733543395996 4.04126214981079 4.09057331085205 3.71902680397034 3.48116183280945 3.24433135986328 2.67765307426453 2.42438745498657 2.34805870056152 2.33372759819031 2.14896512031555 2.50842499732971 2.29229664802551 2.2418851852417 2.08837604522705 1.95402371883392 2.17990708351135 2.33907771110535 2.32535743713379 2.82537126541138 3.07575345039368 3.27553677558899 5.60790681838989 13.1995792388916 9.07278919219971 5.75764131546021 2.97258973121643 2.936030626297 3.4700825214386 3.02865505218506 2.95388412475586 3.07726955413818 3.08543133735657 2.7489812374115 3.89615941047668 5.74564552307129 7.24946069717407 8.20609760284424 7.82290172576904 7.09264707565308 6.66789817810059 5.19207191467285 5.46329832077026 5.75941467285156 6.04324197769165 6.26896905899048 6.79685926437378 7.20493268966675 8.2191801071167 8.85645198822021 9.3781156539917 9.96788883209229 10.6469507217407 11.9668140411377 12.7795362472534 13.6880741119385 14.7184944152832 15.3331108093262 16.6301612854004 15.4153728485107 17.5491924285889 18.5804405212402 11.3860511779785 8.63324928283691 9.58711051940918 11.5877752304077 12.7822170257568 12.2229881286621 10.3770236968994 8.6016731262207 11.6429529190063 5.12430334091187 4.68340492248535 3.56402111053467 0.151476845145226 -0.5870041847229 -0.353092640638351 0.900334715843201 2.68686580657959 8.34240913391113 11.169261932373 12.7415924072266 15.651478767395 19.2847690582275 22.7295322418213 20.9319400787354 16.0012359619141 12.3920650482178 11.4768743515015 11.4194002151489 11.2975473403931 11.5900650024414 11.2735681533813 11.4503965377808 12.8609085083008 15.0803670883179 17.8197574615479 19.7227153778076 22.3367729187012 20.9597816467285 16.0409336090088 3.79544925689697 -2.18881464004517 -0.977217435836792 0.000684219994582236 -1.13549768924713 -1.51908540725708 -1.32197630405426 -0.593711256980896 -0.126244738698006 0.204314798116684 0.458600759506226 0.657648503780365 0.679886817932129 1.1314811706543 2.47768712043762 4.45137453079224 5.50651216506958 4.64629983901978 4.071129322052 2.246990442276 0.0194891095161438 -1.44792675971985 -0.925850331783295 0.139426380395889 0.552297651767731 0.792927026748657 0.859983026981354 0.623250186443329 -0.207563385367393 -0.630438446998596 -0.549539029598236
3.42004370689392 3.59050035476685 3.82161545753479 3.91736340522766 3.93985605239868 4.0327320098877 4.0689845085144 4.06105089187622 4.10701560974121 4.10070466995239 4.09212636947632 4.12358140945435 4.17768955230713 4.22000455856323 4.24467754364014 4.2673020362854 4.34773015975952 4.3607873916626 4.32080078125 4.27275276184082 4.26644849777222 4.26203012466431 4.22357702255249 4.19541072845459 4.18249750137329 4.18827629089355 4.19504594802856 4.21719264984131 4.25017595291138 4.15625190734863 4.12631177902222 4.0943284034729 4.11184215545654 4.19933366775513 4.27977848052979 4.42665147781372 4.35011386871338 4.32530117034912 4.28791904449463 4.33263683319092 4.21159553527832 4.14993953704834 4.10486936569214 4.14521455764771 4.18149995803833 3.76424765586853 3.51973509788513 3.30018877983093 2.75141072273254 2.53988909721375 2.46965932846069 2.21219635009766 2.74457359313965 2.89375710487366 2.75103688240051 2.84860754013062 2.77523803710938 2.18967938423157 2.28383946418762 2.45184254646301 2.7094349861145 3.06746649742126 3.31118392944336 5.1545524597168 10.4860677719116 3.7849280834198 2.9218385219574 3.07956600189209 3.01165556907654 3.02471518516541 3.00339412689209 2.98717975616455 3.00625085830688 3.1422221660614 3.37118792533875 4.14960813522339 5.6873950958252 7.39328670501709 8.77988147735596 8.63822650909424 8.23030376434326 7.90585708618164 6.94515228271484 5.5090069770813 5.84427738189697 6.17677736282349 6.35190105438232 6.79481601715088 7.18245315551758 7.91555833816528 8.84554100036621 9.51253604888916 10.2770366668701 11.1194725036621 11.8355188369751 13.2075481414795 14.5405616760254 15.5421800613403 16.6798763275146 17.4958591461182 16.6962223052979 15.6653718948364 16.9381198883057 12.2138013839722 9.38872814178467 9.34725284576416 10.7709274291992 11.816294670105 12.5869579315186 12.7324857711792 11.1338520050049 17.8733520507812 5.79099798202515 4.64803981781006 4.2104344367981 2.54547643661499 1.20227587223053 -0.387030482292175 0.0144483055919409 1.94781148433685 6.27518606185913 9.32698535919189 11.6031913757324 13.6227350234985 18.0587177276611 24.6825981140137 19.2790832519531 16.9791297912598 15.9136343002319 13.9501876831055 13.5387496948242 13.4479780197144 13.1511077880859 12.5139474868774 11.9016590118408 13.352105140686 15.6322526931763 17.1518783569336 22.7625865936279 19.5480289459229 14.7517805099487 5.64319801330566 -2.09240961074829 -2.17542672157288 -0.186617910861969 1.48477268218994 -1.51895344257355 -1.2118935585022 -1.12928283214569 -0.761285245418549 -0.00837217271327972 0.339624732732773 0.372895300388336 1.11052048206329 1.0277281999588 1.04368960857391 2.02027463912964 3.72415590286255 5.63750171661377 6.93869352340698 6.72163677215576 6.63350677490234 4.90444755554199 1.63143849372864 0.497550845146179 0.636638760566711 1.03065979480743 1.22631800174713 1.42799818515778 1.4049369096756 0.96073853969574 0.656080543994904 0.861355900764465
3.39173412322998 3.56502509117126 3.74688172340393 3.92426681518555 4.02259111404419 4.10570669174194 4.15030384063721 4.10842084884644 4.13043975830078 4.18073844909668 4.1845817565918 4.17974758148193 4.22921419143677 4.28412437438965 4.33224439620972 4.36728620529175 4.42667675018311 4.43969202041626 4.40796613693237 4.3568639755249 4.32068920135498 4.3184871673584 4.31965684890747 4.29141235351562 4.28652381896973 4.2603120803833 4.28139495849609 4.29608678817749 4.31970930099487 4.26189756393433 4.2192645072937 4.20093441009521 4.64223909378052 4.31311750411987 4.35772562026978 4.58759164810181 4.46739149093628 4.38991355895996 4.36726093292236 4.39214372634888 4.45069789886475 4.26990509033203 4.18127775192261 4.20258522033691 4.24575138092041 4.26743936538696 3.75136709213257 3.47342681884766 3.12996029853821 2.8488404750824 2.68118572235107 2.55913710594177 2.61891007423401 3.14724326133728 3.39965891838074 3.41497445106506 3.50631022453308 2.97054958343506 2.77869272232056 2.80183243751526 2.58382487297058 2.93625450134277 3.2289719581604 3.64104008674622 5.93929147720337 2.99858570098877 2.90481615066528 2.97149705886841 3.17490410804749 3.18220043182373 3.17170357704163 3.09634971618652 3.15899133682251 3.4527575969696 3.92928099632263 4.74125289916992 6.48198318481445 7.67755842208862 9.2064962387085 10.0132608413696 9.52738952636719 8.49612045288086 8.11806583404541 6.5111780166626 5.95677804946899 6.19477319717407 6.49170112609863 6.80963230133057 7.18471097946167 7.62603330612183 8.51069450378418 9.52672290802002 10.4583311080933 11.3972129821777 12.2230358123779 13.6651077270508 15.1400184631348 16.4955654144287 17.7288017272949 17.935489654541 18.6293888092041 20.038236618042 19.7994842529297 13.4372844696045 11.3009176254272 10.3772468566895 11.2262830734253 12.6044435501099 12.9116878509521 14.0356674194336 15.0710201263428 18.7673816680908 7.50168943405151 6.08931636810303 6.98454856872559 7.49003553390503 6.38080644607544 4.12734317779541 0.293886989355087 2.03969883918762 5.31947803497314 7.76961374282837 10.2195301055908 12.3344650268555 15.970498085022 23.1297283172607 12.4517908096313 11.4762392044067 14.9755554199219 16.3466205596924 14.8903684616089 15.2986507415771 14.2625513076782 12.6278448104858 10.0419597625732 11.4939880371094 11.9544734954834 15.065710067749 19.5438098907471 12.4944820404053 5.23753547668457 -2.01063561439514 -2.03801846504211 -1.97982633113861 -1.33836805820465 -0.841326534748077 -1.56305110454559 -1.24759590625763 -0.965129137039185 -0.910141944885254 -0.234989270567894 1.17181992530823 0.608328342437744 1.26515650749207 1.19921207427979 1.1071058511734 1.43140268325806 2.56408834457397 4.57966136932373 7.51603746414185 9.59817123413086 10.9027433395386 11.0196008682251 9.18941593170166 5.33788871765137 3.86490631103516 1.23629641532898 1.9092925786972 2.62410926818848 2.80238366127014 3.07606315612793 2.89663624763489 2.52144289016724
3.28401875495911 3.54033517837524 3.8096616268158 3.98184204101562 4.0526556968689 4.08363676071167 4.18663454055786 4.19310998916626 4.18225145339966 4.20478916168213 4.26881551742554 4.28506374359131 4.31563186645508 4.36863565444946 4.41098642349243 4.44370937347412 4.46538591384888 4.54952955245972 4.54670286178589 4.5119161605835 4.45215749740601 4.43584251403809 4.43639135360718 4.39152002334595 4.3560152053833 4.32929992675781 4.35518407821655 4.35838222503662 4.37923812866211 4.39895963668823 4.35123729705811 4.27912712097168 4.67225503921509 4.28243446350098 4.55392980575562 4.78416299819946 4.52184152603149 4.63857555389404 4.4313063621521 4.42258739471436 4.50648593902588 4.71189641952515 4.3087797164917 4.21920967102051 4.32702255249023 4.38469982147217 3.97380328178406 3.70939755439758 3.52415585517883 3.10572385787964 2.86864519119263 2.72305393218994 2.7064905166626 3.09175944328308 3.68383240699768 4.07612180709839 3.92685961723328 3.96270322799683 3.85302138328552 3.68939304351807 2.97679734230042 2.66924238204956 3.03554916381836 3.36534762382507 3.41147136688232 3.25336980819702 3.1023120880127 3.11154270172119 3.58222055435181 3.52733850479126 3.3999195098877 3.39548397064209 3.63634848594666 4.187331199646 4.8137412071228 5.45133590698242 7.03676795959473 8.22156047821045 9.26594829559326 10.5191278457642 11.6030397415161 11.0420942306519 9.85610485076904 9.40214443206787 6.54861736297607 6.46452283859253 6.51055574417114 6.89643430709839 7.2020583152771 7.62878465652466 8.45651054382324 9.27097797393799 10.6359577178955 11.5521621704102 12.6301879882812 13.8533620834351 15.5820226669312 17.2181453704834 18.1165904998779 18.4367275238037 22.9121589660645 22.5773220062256 20.4282207489014 14.0183906555176 12.4775609970093 12.3812665939331 13.2743883132935 13.8752813339233 15.5179357528687 16.372766494751 18.6501865386963 19.4644203186035 9.72335243225098 8.54702091217041 10.883113861084 11.6048612594604 10.7961683273315 7.85823822021484 0.071268804371357 1.86867797374725 4.55352354049683 6.76489877700806 9.17102146148682 11.3940658569336 13.1002349853516 17.770959854126 8.07883262634277 5.2377815246582 8.31112861633301 11.5348997116089 13.428768157959 13.3809490203857 10.9020004272461 8.81265258789062 6.64308547973633 8.31992816925049 8.75633525848389 13.5980186462402 15.7969465255737 7.41880989074707 -1.65707206726074 -1.84625971317291 -1.85082530975342 -0.831745326519012 -0.395326256752014 -1.71921396255493 -1.46762311458588 -1.23121929168701 -0.979010939598083 -0.65866082906723 0.960847973823547 3.32410359382629 0.969520449638367 0.885291755199432 1.82353627681732 1.67233657836914 1.4933203458786 2.15068602561951 4.54776287078857 6.84247827529907 10.598744392395 11.6745538711548 9.19532203674316 8.9362096786499 7.79462242126465 4.25768280029297 0.0322194248437881 2.04768133163452 3.40969920158386 4.61010026931763 4.44808101654053 4.73801946640015 4.4552788734436
3.32544684410095 3.62016916275024 3.77970504760742 3.87922978401184 4.03360986709595 4.11676645278931 4.14875936508179 4.256019115448 4.26174592971802 4.28195858001709 4.34797620773315 4.36312341690063 4.36155128479004 4.40487813949585 4.46994876861572 4.52212524414062 4.56342744827271 4.57877492904663 4.65570497512817 4.64321851730347 4.61475515365601 4.58408117294312 4.55776453018188 4.55253887176514 4.50221490859985 4.45890808105469 4.44464683532715 4.46049880981445 4.46678018569946 4.47820854187012 4.49480056762695 4.42838621139526 4.73487281799316 6.16091775894165 4.76458549499512 4.77508115768433 4.27706813812256 4.39881181716919 4.46282291412354 4.47443914413452 4.48178434371948 4.75459909439087 4.35085153579712 4.33165168762207 4.39178037643433 4.47072219848633 4.51929235458374 4.07115697860718 3.81734395027161 3.63232326507568 3.088454246521 2.8921070098877 2.83686208724976 2.99869823455811 3.97510933876038 4.33540105819702 4.12248277664185 4.70697069168091 4.59901809692383 4.49190330505371 3.31541514396667 2.60509157180786 2.69834995269775 3.23932504653931 3.45010447502136 3.45674705505371 3.45912718772888 3.45002627372742 3.59049487113953 3.77485156059265 3.64567947387695 3.75206637382507 3.96815276145935 4.77275800704956 5.60824823379517 6.30829191207886 7.57272815704346 9.20543575286865 9.58640098571777 10.5560989379883 12.1770401000977 13.7614002227783 13.1007595062256 11.6902637481689 11.1629257202148 7.24235773086548 6.8511757850647 7.04989147186279 7.29063653945923 7.63465929031372 8.43340682983398 9.0975170135498 10.8699417114258 11.6978721618652 13.3723669052124 14.4815616607666 15.747953414917 17.5202789306641 18.9366436004639 19.5183448791504 19.8542518615723 16.2710494995117 16.7552623748779 15.690954208374 14.2205486297607 14.2683553695679 16.2943534851074 16.7955341339111 18.0988655090332 21.047924041748 25.480655670166 21.7805671691895 12.9004516601562 11.1115922927856 11.230281829834 9.97800254821777 9.92501831054688 6.74463748931885 -0.39907705783844 0.844008266925812 3.59299063682556 6.35356855392456 8.62573337554932 10.6145324707031 12.5420093536377 15.810754776001 10.231146812439 5.63392400741577 5.65840244293213 6.11723136901855 7.04587030410767 9.24688339233398 6.47899103164673 4.99285697937012 5.04823541641235 5.99627494812012 6.81219577789307 13.1531324386597 12.7795896530151 2.95000147819519 -1.57148039340973 -1.58748888969421 -1.62631666660309 0.049127422273159 -0.103161707520485 -1.71002602577209 -1.48047745227814 -1.22907793521881 -0.915590524673462 -0.669180750846863 1.96685516834259 1.82532703876495 1.76582789421082 1.35971736907959 1.35440909862518 2.7357223033905 2.37908411026001 1.80311715602875 3.17043495178223 5.05084562301636 9.53930568695068 9.73464584350586 4.51671934127808 1.81090581417084 1.42592537403107 0.839453399181366 0.209195047616959 0.457461535930634 3.93377494812012 5.63487100601196 5.81224632263184 6.08873462677002 6.53759336471558
3.3278980255127 3.53900146484375 3.74406433105469 3.85381102561951 3.95230436325073 4.12011957168579 4.23470878601074 4.3530158996582 4.35391092300415 4.34177780151367 4.38814878463745 4.45136117935181 4.45928430557251 4.44555711746216 4.51043653488159 4.58023118972778 4.63105821609497 4.67042207717896 4.68504238128662 4.75606870651245 4.76195430755615 4.74669647216797 4.70981168746948 4.68962144851685 4.68050336837769 4.62823390960693 4.58160400390625 4.56257963180542 4.5720477104187 4.5643196105957 4.5692081451416 4.59026098251343 4.82125568389893 5.97676753997803 5.15600872039795 4.80291700363159 4.14743137359619 4.27774047851562 4.70814180374146 4.99493026733398 5.06158018112183 4.5334005355835 4.53422260284424 4.42538499832153 4.39572334289551 4.53769159317017 4.6066951751709 4.63801288604736 4.03277206420898 3.94487810134888 3.72797560691833 3.20784902572632 2.99756622314453 3.17662048339844 3.75688076019287 4.14504384994507 4.57808685302734 4.7013144493103 5.41783857345581 5.44576740264893 2.94536447525024 2.3894898891449 2.70532202720642 3.04301500320435 3.46416354179382 3.70144057273865 3.72728204727173 3.69927382469177 3.72564220428467 3.88485908508301 4.11286926269531 4.27011251449585 4.65835618972778 5.47819185256958 6.29176807403564 7.04038190841675 8.29074954986572 9.75013256072998 10.9925470352173 11.2930002212524 13.009859085083 15.4218940734863 15.4581518173218 13.7580966949463 13.1977834701538 11.6193981170654 8.61469650268555 7.62520122528076 7.4643874168396 7.83242225646973 8.44516277313232 9.0609827041626 10.4742212295532 11.9632635116577 13.6431150436401 15.2198114395142 16.5928649902344 19.1455631256104 20.4955005645752 21.1280879974365 20.6009483337402 18.3858203887939 16.8619918823242 18.0519485473633 18.0343627929688 16.9480991363525 19.599781036377 20.7699661254883 21.0368671417236 23.6099720001221 21.8929920196533 14.4052858352661 10.4670257568359 11.1992931365967 11.7402667999268 7.43862247467041 5.45842123031616 2.57406187057495 -1.88329815864563 -0.851154744625092 2.26463556289673 6.0982403755188 8.19006156921387 9.5838098526001 11.5553665161133 14.1222820281982 11.8082876205444 7.55127859115601 6.40880060195923 6.78015756607056 4.87461042404175 4.71647119522095 3.45511198043823 3.24964714050293 4.28454542160034 5.57556438446045 6.75843954086304 10.6496353149414 8.08154106140137 -0.874518930912018 -1.46053147315979 -1.42722249031067 -1.44285130500793 -1.10149335861206 -1.81376624107361 -1.78063130378723 -1.56245422363281 -1.2523992061615 -0.906290471553802 0.75605583190918 2.0319185256958 -0.474465608596802 -0.203414469957352 0.548369586467743 0.795282125473022 2.04049229621887 4.26508283615112 3.1075234413147 2.76710391044617 3.65217065811157 5.48079967498779 5.85013008117676 -0.0841905772686005 0.0294995661824942 0.00353652168996632 0.101519487798214 0.403912723064423 0.519482851028442 4.33062601089478 6.63919496536255 8.05375576019287 7.87139892578125 9.2305965423584
3.24702262878418 3.5391526222229 3.62971830368042 3.83792781829834 4.02755641937256 4.18994617462158 4.27858686447144 4.32300853729248 4.41385984420776 4.43271589279175 4.44190073013306 4.48317337036133 4.54644823074341 4.55016660690308 4.55680322647095 4.63474369049072 4.7071533203125 4.7469687461853 4.76937389373779 4.8439245223999 4.86152172088623 4.83925533294678 4.80749082565308 4.77415323257446 4.76051187515259 4.74127054214478 4.72096490859985 4.7091646194458 4.67623090744019 4.67517375946045 4.66328907012939 4.6871771812439 4.94432592391968 4.56658506393433 4.59596157073975 4.17550992965698 4.06266641616821 4.2288670539856 4.4070897102356 5.72849035263062 5.71488809585571 4.51038599014282 4.56918621063232 4.7687931060791 4.49108743667603 4.53968000411987 4.72646951675415 4.79136800765991 4.3564248085022 4.16449928283691 3.85978889465332 3.51799750328064 3.27239847183228 3.07406616210938 3.50296020507812 3.8881299495697 5.06337261199951 5.3917179107666 4.99964714050293 5.04650259017944 1.86499512195587 1.9169499874115 2.57808351516724 2.99436497688293 3.38631820678711 3.78817319869995 4.04176235198975 4.01067209243774 4.09694242477417 4.31706714630127 4.84873056411743 5.0373363494873 5.49099254608154 6.21887063980103 7.01070833206177 8.14362144470215 9.6175651550293 10.908278465271 11.7295532226562 13.0932741165161 13.7795162200928 16.477466583252 19.4309825897217 20.854585647583 20.4030570983887 15.8701095581055 10.9176092147827 8.90492630004883 7.80629396438599 7.92193603515625 8.46882724761963 9.0737190246582 9.81917572021484 12.1250429153442 13.8891096115112 15.4788303375244 17.5388774871826 20.3728675842285 22.123218536377 23.334867477417 24.4021892547607 22.9593315124512 21.1717948913574 18.6273136138916 22.2831840515137 20.9503479003906 21.485818862915 20.4589042663574 17.8689250946045 13.2645492553711 9.42530345916748 11.4336080551147 9.60212230682373 8.68284225463867 7.54166460037231 3.85753560066223 1.47110390663147 0.366578072309494 -2.14560222625732 1.23389768600464 2.60153341293335 4.90704154968262 7.57101345062256 9.36989402770996 10.4449100494385 12.5430326461792 12.6729421615601 8.55073261260986 7.37764024734497 7.12772512435913 5.69555044174194 5.03782796859741 3.49673247337341 3.20472645759583 3.83572697639465 4.75090312957764 5.93080472946167 7.20898818969727 3.99603223800659 0.258039534091949 -0.767065107822418 -1.34038949012756 -1.35745370388031 -1.40024411678314 -1.60616433620453 -1.77144348621368 -1.55450618267059 -1.28308212757111 0.130555495619774 1.30228054523468 -0.593190014362335 -0.512538909912109 -0.620620787143707 -0.136132970452309 0.629056036472321 2.50035619735718 5.39204216003418 2.84533047676086 1.97445774078369 1.30160474777222 2.20958065986633 3.14790081977844 0.238217234611511 0.271576792001724 0.350748538970947 0.258545190095901 0.473071098327637 0.84153151512146 2.8943989276886 7.04680633544922 9.58952617645264 10.9771213531494 11.0526523590088
3.15898013114929 3.43042469024658 3.70759010314941 3.9100296497345 4.01582098007202 4.10436820983887 4.2734899520874 4.36091661453247 4.41574287414551 4.48162412643433 4.53966045379639 4.54366016387939 4.58516311645508 4.65497541427612 4.6760082244873 4.72437429428101 4.79818487167358 4.83711719512939 4.85278415679932 4.89218759536743 4.99722909927368 5.000816822052 4.98800182342529 4.93240022659302 4.91396570205688 4.91747713088989 4.88200521469116 4.83352088928223 4.78546047210693 4.76517629623413 4.75837659835815 4.76738023757935 4.75938940048218 4.57446336746216 4.52841091156006 7.17991352081299 4.07345819473267 4.09552240371704 4.313645362854 4.85238742828369 6.91006469726562 5.45194244384766 4.60141658782959 4.80113172531128 4.65565872192383 4.59315729141235 4.73168087005615 4.89315700531006 4.98429250717163 4.52451467514038 4.1336932182312 3.90762710571289 3.47596096992493 3.20182156562805 3.30384969711304 5.31254768371582 4.36599636077881 5.9713306427002 5.40399169921875 3.45776581764221 1.38387084007263 1.62910199165344 2.61822414398193 3.0783417224884 3.32184743881226 3.74588489532471 4.31715822219849 4.5490837097168 4.66497468948364 4.93031406402588 5.27694654464722 5.9825291633606 6.3359808921814 6.8675217628479 8.0601282119751 9.73300647735596 11.4634666442871 12.5351715087891 13.177996635437 14.6545534133911 16.0730781555176 17.3101787567139 20.5018882751465 23.2298755645752 25.7514305114746 23.0106582641602 21.1040287017822 13.8988103866577 9.52048873901367 8.97050380706787 8.58710289001465 9.09775257110596 9.79395866394043 11.9175395965576 14.2044763565063 15.7483034133911 19.1686973571777 21.3103542327881 24.4796333312988 25.7526760101318 26.6674270629883 27.7289505004883 26.7406044006348 23.8025093078613 26.8600120544434 19.9418678283691 15.506459236145 14.0321664810181 9.28884696960449 8.32904434204102 9.4131908416748 13.2194089889526 9.98815441131592 7.37114238739014 4.52009868621826 1.33800113201141 -0.0331480093300343 -0.447605162858963 -2.41689610481262 -0.812530040740967 2.45956611633301 3.46311569213867 7.70657682418823 9.47475528717041 10.2114448547363 11.035120010376 11.7442111968994 6.93157052993774 4.46134948730469 3.46861267089844 2.88110423088074 4.43709659576416 4.12222576141357 3.74226427078247 4.67390918731689 4.38067817687988 5.95986461639404 5.74981927871704 3.25168466567993 1.03320527076721 -0.399065971374512 -1.20866882801056 -1.16290211677551 -1.23173415660858 -1.33934283256531 -1.51026129722595 -1.45163810253143 -1.21572923660278 -1.09782421588898 -0.869838774204254 -0.706803262233734 -0.51863706111908 -0.364020228385925 -0.0736475884914398 0.344127207994461 0.973778784275055 2.23743486404419 0.734096050262451 0.900817394256592 1.06992471218109 1.14464008808136 0.926799297332764 0.644824266433716 0.561261653900146 0.666377425193787 0.660266578197479 0.749394834041595 1.12257874011993 1.57808995246887 5.84466743469238 9.62235832214355 13.2052192687988 12.442663192749
3.11904144287109 3.51012945175171 3.71757483482361 3.81961369514465 4.02830934524536 4.09649801254272 4.1836404800415 4.35951042175293 4.45492839813232 4.48332118988037 4.60007953643799 4.64946985244751 4.68709897994995 4.76040363311768 4.77126264572144 4.77618074417114 4.86485719680786 4.93765068054199 4.96534395217896 5.00263166427612 5.04477691650391 5.13550996780396 5.13889741897583 5.1370325088501 5.10623216629028 5.08467626571655 5.0891637802124 5.04438066482544 4.96189641952515 4.89366054534912 4.88183784484863 4.84949111938477 4.81795740127563 5.38195085525513 8.26269435882568 6.35946226119995 4.12702751159668 4.06228017807007 4.21131801605225 5.26878976821899 6.58772897720337 4.54630708694458 4.59567070007324 4.75175285339355 4.87724924087524 4.70213317871094 4.72271633148193 4.91580820083618 5.10065126419067 5.16221714019775 4.71254587173462 4.25900650024414 4.0302209854126 3.47522330284119 4.32473802566528 5.42822980880737 2.99360251426697 5.99162435531616 5.04379177093506 2.49239253997803 1.23350214958191 1.5691784620285 2.23529982566833 3.04658961296082 3.59470391273499 3.8640923500061 4.46991109848022 4.85796689987183 5.2010817527771 5.37656259536743 5.77098751068115 6.24081468582153 7.036057472229 7.52976417541504 9.23220062255859 11.3935089111328 13.1724767684937 14.2361898422241 14.9630250930786 16.4043445587158 17.5514602661133 19.0616130828857 18.8003959655762 24.9617385864258 24.8739166259766 20.4510345458984 23.5613422393799 28.3358402252197 19.3363151550293 13.6652202606201 10.7917003631592 9.14882183074951 9.85208129882812 11.1755971908569 13.6695232391357 16.0532341003418 19.7568454742432 22.7865829467773 25.4587593078613 29.2623233795166 31.2608737945557 34.5641746520996 32.129035949707 26.1112213134766 17.6889686584473 9.62899494171143 5.91175985336304 6.02183294296265 3.37471890449524 5.45916795730591 7.90965414047241 10.5356435775757 7.06311988830566 3.05692577362061 -0.795550584793091 -2.6016993522644 -2.27120614051819 -1.97025120258331 -2.30774521827698 -2.25701308250427 -1.79306447505951 -0.478173017501831 5.76734447479248 9.92734813690186 11.3215169906616 10.9775447845459 11.3059358596802 4.63158750534058 2.90088391304016 2.97493314743042 2.42231750488281 1.7157210111618 2.01888370513916 3.01927947998047 4.76071500778198 4.38109159469604 4.68553400039673 3.80839347839355 1.75432920455933 1.33123207092285 1.6801164150238 1.4636834859848 1.29310870170593 -1.04872465133667 -1.13187384605408 -1.24046528339386 -1.29409301280975 -1.12279164791107 -1.01850759983063 -0.852291584014893 -0.712730228900909 -0.453238368034363 -0.0298051778227091 0.315871298313141 0.706591844558716 1.37221944332123 1.10346817970276 1.02507269382477 1.09326255321503 1.30090153217316 1.34367883205414 1.21699166297913 1.01080727577209 0.859274506568909 0.91456812620163 1.04303658008575 1.15444397926331 1.30307388305664 1.45267415046692 4.20152950286865 10.7075414657593 14.3893909454346 12.3800230026245
3.10930871963501 3.35435056686401 3.62871694564819 3.88298678398132 3.96256828308105 4.11590147018433 4.17499923706055 4.29028129577637 4.46712875366211 4.612229347229 4.71273851394653 4.76068496704102 4.74928092956543 4.806236743927 4.88494682312012 4.90837526321411 4.92406129837036 5.01416778564453 5.07756185531616 5.10756731033325 5.14097929000854 5.17531204223633 5.28584623336792 5.32658529281616 5.31334972381592 5.28581142425537 5.27683019638062 5.27310132980347 5.18490171432495 5.08131122589111 5.00979614257812 4.98516893386841 4.94384956359863 4.87400007247925 6.29664707183838 5.14116668701172 4.24591255187988 4.24601030349731 4.16909980773926 4.3848762512207 4.4473090171814 4.39075565338135 4.52367258071899 4.68762683868408 4.9769115447998 5.17035150527954 4.88789081573486 4.96486568450928 5.169997215271 5.27738904953003 5.38612127304077 4.51406574249268 4.17345428466797 3.83127617835999 3.51259899139404 3.43670558929443 2.8244252204895 5.64853572845459 3.80125784873962 0.99496990442276 1.04952168464661 1.5632176399231 1.98668587207794 2.70285606384277 3.65704894065857 4.18519496917725 4.38074207305908 4.88952493667603 5.50867986679077 5.83222341537476 6.07607316970825 6.53451442718506 7.00726747512817 8.50712585449219 11.2473983764648 13.1650695800781 15.1284513473511 16.4449100494385 17.7953186035156 19.574291229248 18.5019931793213 18.1755142211914 18.793306350708 24.3641014099121 21.250509262085 11.904595375061 14.5545482635498 24.8485736846924 22.4221305847168 18.1399478912354 14.0536451339722 9.95263385772705 9.83901977539062 11.0752210617065 12.6403875350952 15.5397987365723 19.6741542816162 23.405948638916 26.7264137268066 38.5936737060547 34.0196533203125 28.3298397064209 19.2401847839355 12.7098436355591 8.47811889648438 7.56383895874023 3.64414739608765 2.17001581192017 1.44859313964844 3.60000705718994 4.4853663444519 5.17524719238281 2.61690473556519 -1.2519611120224 -2.78897976875305 -2.57129526138306 -2.3302903175354 -2.25896525382996 -2.24960732460022 -2.1405086517334 -2.04167819023132 -1.57170295715332 2.79489660263062 8.60132217407227 12.3364086151123 10.1619634628296 7.68465662002563 1.96172249317169 1.46542823314667 0.905681431293488 -0.388512253761292 0.00566037697717547 0.0833600983023643 -0.489446491003036 2.25386905670166 2.31129908561707 3.68889880180359 2.78412222862244 2.45496845245361 1.39953792095184 2.69515323638916 4.72646713256836 6.34916400909424 5.15060997009277 1.97514677047729 -0.964496850967407 -1.02578270435333 -1.00763034820557 -0.874966442584991 -0.653339266777039 -0.484622746706009 -0.180276930332184 0.295002341270447 0.585453987121582 0.831538200378418 1.41650748252869 1.82128691673279 1.58916103839874 1.3769166469574 1.38184523582458 1.45839750766754 1.42424368858337 1.29855871200562 1.10997402667999 1.11220157146454 1.3498637676239 1.57215869426727 1.57554543018341 1.48477458953857 2.56756949424744 7.37923669815063 9.52844619750977 4.61406373977661
2.96840381622314 3.27316808700562 3.52280259132385 3.80746245384216 4.03646945953369 4.06214904785156 4.2201943397522 4.38957214355469 4.55592346191406 4.66096639633179 4.71291875839233 4.82487154006958 4.85733890533447 4.85850048065186 4.93837308883667 5.03797483444214 5.06909465789795 5.07211923599243 5.15310382843018 5.20894479751587 5.24355316162109 5.28428316116333 5.40243673324585 5.44108009338379 5.46554183959961 5.4383602142334 5.38341665267944 5.37710523605347 5.32282781600952 5.22406387329102 5.16065502166748 5.11384391784668 5.07071590423584 5.01840114593506 5.30277967453003 4.90017175674438 4.37502336502075 4.40221738815308 4.30737924575806 4.19428443908691 4.37120580673218 4.41709756851196 4.54770517349243 4.74092578887939 5.01819896697998 5.32226037979126 5.13182497024536 5.2168436050415 5.2077751159668 5.39590167999268 5.537184715271 5.11555480957031 4.54632663726807 4.30862379074097 3.75658917427063 3.3364589214325 3.31337881088257 4.87709093093872 1.94754576683044 0.983958840370178 1.06809878349304 1.56052303314209 2.11827349662781 2.71369552612305 3.68172860145569 4.24358320236206 4.71330690383911 4.86066722869873 5.5741286277771 6.21309232711792 6.69445180892944 7.22930860519409 8.818039894104 10.2405204772949 12.3914184570312 14.3129558563232 15.336594581604 17.9534683227539 18.8408012390137 20.8793754577637 18.9081497192383 18.5527725219727 18.844934463501 16.8282337188721 14.9265193939209 3.68088173866272 4.54319286346436 8.02621841430664 4.89130067825317 12.3813877105713 13.8291397094727 10.4006814956665 10.6038875579834 10.822681427002 11.9703674316406 14.3203287124634 19.6150512695312 22.8976860046387 27.8988723754883 33.2994995117188 20.7169151306152 19.312463760376 15.9811401367188 9.26071548461914 5.72677278518677 1.17230713367462 0.299823373556137 0.0139287766069174 0.0146822053939104 1.12615406513214 0.31753808259964 0.741873621940613 1.7291738986969 -1.49892365932465 -2.76600480079651 -2.64228987693787 -2.40078139305115 -2.2702648639679 -2.16355228424072 -2.00891518592834 -1.84662783145905 -1.43583524227142 2.60820889472961 8.8643741607666 15.4085445404053 7.51711416244507 2.70806574821472 -0.863209784030914 -1.51405560970306 -1.47798728942871 -1.22238552570343 -1.26274597644806 -1.5784912109375 -1.62269592285156 -1.23940980434418 -0.489755570888519 1.57880675792694 2.2853090763092 2.71446514129639 1.17941641807556 1.9697151184082 5.19463777542114 8.42175483703613 8.39662075042725 5.79867839813232 3.93017840385437 -0.722574353218079 -0.826637744903564 -0.0758136212825775 0.552899181842804 0.679101526737213 0.429813206195831 0.530336380004883 0.787610769271851 1.1264910697937 1.33600389957428 1.83195841312408 2.37416219711304 2.25183343887329 1.62906491756439 1.4915292263031 1.62355256080627 1.49259150028229 1.31661927700043 1.29258346557617 1.52050197124481 1.82595276832581 1.88748264312744 1.71730732917786 1.5474328994751 1.46615791320801 1.21857440471649 0.724237740039825
2.90171694755554 3.13432478904724 3.41127443313599 3.66877388954163 3.97740173339844 4.25610780715942 4.37425851821899 4.40910673141479 4.49389505386353 4.66656160354614 4.771644115448 4.822509765625 4.92344808578491 4.98408603668213 4.99999141693115 5.10937643051147 5.21549987792969 5.21502447128296 5.25589323043823 5.31963491439819 5.34895896911621 5.38614273071289 5.46790266036987 5.61490392684937 5.64581251144409 5.6838002204895 5.64101505279541 5.56883001327515 5.55687761306763 5.44293594360352 5.3287558555603 5.23812437057495 5.19842624664307 5.15620088577271 5.0836501121521 5.46323585510254 4.58448266983032 4.51276588439941 4.54369115829468 4.34555053710938 4.30434560775757 4.4150218963623 4.60210514068604 4.85147047042847 5.09186267852783 5.43904876708984 5.58548974990845 5.3772988319397 5.36104154586792 5.44008684158325 5.72748851776123 5.91536092758179 5.46157693862915 4.77803993225098 4.50541639328003 4.36328840255737 4.9889817237854 2.95434713363647 2.75852227210999 2.03486514091492 1.31088137626648 1.52073776721954 2.34849858283997 3.57481575012207 4.5655722618103 4.72939872741699 5.12054872512817 5.56381750106812 5.99534368515015 7.07755279541016 8.43795680999756 9.44991493225098 10.4485845565796 11.4302930831909 11.713339805603 14.1561050415039 16.7558441162109 18.9279289245605 20.7269611358643 19.4700012207031 16.1028499603271 18.1847476959229 17.9468879699707 10.2166271209717 11.7367849349976 2.17493486404419 1.49051034450531 1.98400282859802 2.46069002151489 3.75382328033447 6.35941171646118 10.3463745117188 13.1113653182983 17.017786026001 12.2883710861206 13.7289934158325 18.3548812866211 23.5354881286621 29.4872493743896 31.6437034606934 20.8832759857178 15.6491641998291 15.8827505111694 6.75914430618286 0.293641537427902 -0.25513744354248 -0.0631501451134682 0.0371551625430584 0.315741509199142 0.916555106639862 1.24941217899323 1.98414421081543 3.01072931289673 -1.45515727996826 -2.62668657302856 -2.66722655296326 -2.5172381401062 -2.19535994529724 -2.17485499382019 -1.89168560504913 -1.6805225610733 -1.54522180557251 2.62357473373413 8.74431037902832 11.4254236221313 0.681202948093414 -1.61128664016724 -1.41936469078064 -1.44469499588013 -1.57374203205109 -1.22590672969818 -0.533813416957855 -0.322154253721237 -1.26767718791962 -1.56912505626678 -1.18424105644226 0.219517230987549 1.78778958320618 1.88578903675079 -0.807332694530487 0.0526047833263874 5.03880739212036 6.94419193267822 0.667160212993622 -1.1664879322052 -1.03075408935547 -0.83648157119751 -0.707551300525665 0.1831084638834 1.1084109544754 1.23964905738831 1.05798280239105 0.718490362167358 0.966468691825867 1.21832120418549 1.4095675945282 2.13026738166809 2.75592446327209 2.63426637649536 2.37558317184448 1.63079369068146 1.54031622409821 1.51482129096985 1.44634675979614 1.46688330173492 1.70587003231049 1.94120907783508 2.05030202865601 2.03064298629761 1.73210477828979 1.63414835929871 1.50288605690002 1.07274830341339
2.76231789588928 3.04994869232178 3.342533826828 3.66083979606628 4.10494661331177 4.33064126968384 4.35686922073364 4.47620391845703 4.50839996337891 4.61998605728149 4.79538822174072 4.86722135543823 4.93022632598877 5.05467224121094 5.14890909194946 5.26411771774292 5.36005973815918 5.35194301605225 5.33187580108643 5.40557479858398 5.46092462539673 5.50894165039062 5.58115005493164 5.6846981048584 5.8236198425293 5.8606481552124 5.85577011108398 5.7974419593811 5.74538135528564 5.71317052841187 5.60289812088013 5.47102022171021 5.38106870651245 5.32307147979736 5.26199722290039 6.91440773010254 4.85855960845947 4.61516571044922 4.71862649917603 4.6282811164856 4.47058439254761 4.39603471755981 4.56570243835449 4.92145109176636 5.23425817489624 5.55603075027466 5.83523416519165 5.97773361206055 5.64738416671753 5.61222505569458 5.84793138504028 6.18134546279907 6.32891607284546 5.82305765151978 5.00897550582886 4.66816425323486 4.05818128585815 3.11978769302368 2.9694504737854 2.72960925102234 2.06426858901978 1.68139040470123 3.12970662117004 5.68605756759644 7.61146306991577 7.99847364425659 9.56605625152588 8.27145004272461 8.72540473937988 8.59864139556885 9.60807609558105 12.4991292953491 11.1952486038208 10.8548421859741 12.263617515564 14.3848314285278 19.2779407501221 22.2766742706299 21.7365398406982 17.5807285308838 12.9048528671265 12.7899332046509 10.573431968689 3.73166441917419 4.2139253616333 0.922314345836639 1.12757658958435 1.7038494348526 2.09103560447693 3.0089738368988 4.83091068267822 8.20554637908936 16.1278209686279 20.2235488891602 20.53297996521 13.5023231506348 16.3283519744873 19.8505401611328 28.2073192596436 25.9893493652344 18.8352966308594 15.2264490127563 12.9254264831543 3.46962070465088 -0.83886593580246 -0.399596065282822 1.91411769390106 1.84707689285278 1.21594846248627 1.0102242231369 0.812257945537567 1.08791732788086 1.39746880531311 -1.98541760444641 -2.3414614200592 -2.45520210266113 -2.14879894256592 -0.377146363258362 -1.23342144489288 -2.0015127658844 -1.60790741443634 -1.35650193691254 1.96844518184662 5.9520149230957 8.15742588043213 -1.61944842338562 -1.71353244781494 -1.52593123912811 -1.16639697551727 -1.40499639511108 -1.27603030204773 0.0487990044057369 0.739459156990051 0.181923508644104 -1.55080711841583 -1.54363214969635 -0.28796198964119 -0.627446055412292 -1.09073686599731 -1.39942991733551 -1.09929192066193 2.64925312995911 -1.22102689743042 -1.5248771905899 -1.37386572360992 -1.15534675121307 -1.00447380542755 -0.539968550205231 -0.0658620670437813 1.39409971237183 2.40909504890442 2.30006980895996 1.82445645332336 1.01511573791504 1.20658183097839 1.37868559360504 1.48280096054077 2.55114507675171 3.16221737861633 3.08646416664124 2.54614162445068 1.70210421085358 1.69258606433868 1.66972601413727 1.67564392089844 1.83791029453278 2.04766273498535 2.15768122673035 2.15453124046326 1.97156703472137 1.8018000125885 1.70639431476593 1.51980423927307
2.69341111183167 3.05810236930847 3.34969830513 3.65393114089966 3.92428994178772 4.25023794174194 4.41978073120117 4.42763090133667 4.56298542022705 4.61360359191895 4.77504014968872 4.93924570083618 5.06042575836182 5.18541193008423 5.2965612411499 5.33116626739502 5.43525123596191 5.50671195983887 5.48268556594849 5.47716283798218 5.5202898979187 5.61945581436157 5.71023559570312 5.7907247543335 5.93135643005371 5.97332048416138 6.01403713226318 5.98701524734497 5.88759994506836 5.8468861579895 5.74397087097168 5.6524977684021 5.55826187133789 5.44908809661865 5.40616846084595 6.73313808441162 5.02179718017578 4.83647108078003 4.9308557510376 4.91712808609009 4.92968034744263 4.78768539428711 4.68396711349487 5.04709005355835 5.47195625305176 5.72737550735474 6.04100561141968 6.2157621383667 6.30520391464233 6.04878902435303 6.03588438034058 6.27567625045776 6.6391544342041 6.77184629440308 5.50557708740234 4.8865327835083 4.17664051055908 3.58696484565735 3.41246342658997 3.61092257499695 3.30960536003113 2.57434105873108 4.07620716094971 5.56432247161865 9.84457015991211 17.0183334350586 15.0906963348389 9.72954559326172 9.12553787231445 10.2325649261475 12.4668664932251 14.9278450012207 14.700496673584 11.0556764602661 12.2203016281128 14.9805088043213 18.464771270752 17.4203796386719 15.3850564956665 10.5501136779785 8.36497592926025 6.70949935913086 6.14394044876099 4.79124021530151 3.0000159740448 1.62281858921051 0.991860747337341 1.53085255622864 2.21877026557922 3.41605234146118 5.45458507537842 8.72430419921875 13.7636699676514 15.6467914581299 12.6457548141479 11.946629524231 14.1930904388428 17.3450736999512 27.852746963501 22.6073265075684 16.5559272766113 12.1369361877441 7.91513109207153 4.30846786499023 -0.0329280830919743 -0.0462948009371758 2.46713256835938 0.87205570936203 0.228809371590614 0.878622531890869 0.839337110519409 1.29953873157501 0.172689273953438 -1.79315102100372 -1.93812298774719 -2.06479525566101 -1.53131783008575 0.257014155387878 -1.34408318996429 -2.15157914161682 -1.67526412010193 -1.22293365001678 0.54115891456604 5.5264892578125 12.1429195404053 -0.0453023239970207 -1.29589927196503 -1.63248956203461 -1.07628583908081 -0.526296973228455 -0.380205601453781 0.659936010837555 -0.0742223709821701 -1.51487374305725 -1.54293298721313 -1.54661512374878 -1.49540066719055 -1.48399901390076 -1.44627606868744 -1.4461704492569 -1.36360323429108 -1.27483332157135 -1.33690690994263 -1.38626742362976 -1.30566990375519 -1.01960015296936 -0.788240313529968 -0.447353780269623 -0.293790847063065 1.08388185501099 2.95358037948608 3.89184069633484 4.12386655807495 3.26479744911194 1.51692771911621 1.26408326625824 1.445387840271 1.56272304058075 2.96995306015015 3.68056988716125 3.63862800598145 2.97749471664429 1.74261808395386 1.92541706562042 2.00266623497009 2.09485173225403 2.19798350334167 2.27278327941895 2.36836171150208 2.35927295684814 2.15311741828918 1.93228721618652 1.86843657493591
2.70886206626892 2.96927762031555 3.24601173400879 3.5073037147522 3.80078172683716 4.05689907073975 4.37952947616577 4.48523139953613 4.48856401443481 4.68545150756836 4.88276100158691 5.04253959655762 5.10456371307373 5.1985878944397 5.38162088394165 5.45648813247681 5.45007419586182 5.56207609176636 5.62280988693237 5.58841514587402 5.62671613693237 5.70454788208008 5.79634237289429 5.88956785202026 6.0296311378479 6.18788242340088 6.17225980758667 6.26183605194092 6.22153282165527 6.1263222694397 6.05224895477295 5.9551157951355 5.79791450500488 5.65841484069824 5.56373882293701 5.39689779281616 5.19938945770264 5.09976625442505 5.22003889083862 5.28173208236694 5.29364728927612 5.17746305465698 5.30124855041504 5.34643220901489 5.691002368927 6.18712472915649 6.35464811325073 6.48926687240601 6.56462860107422 6.47709369659424 6.53654050827026 6.53774452209473 6.91747426986694 7.08643531799316 6.5630841255188 5.46614360809326 4.9415340423584 4.0083441734314 3.89120173454285 4.18055725097656 4.6756272315979 4.21889495849609 4.21204805374146 7.01509094238281 17.5356769561768 20.7911758422852 12.2133951187134 10.2242822647095 10.3271331787109 10.0667514801025 8.56592178344727 9.79369258880615 11.4218130111694 9.9518461227417 10.9719505310059 12.5095357894897 10.9592428207397 7.7798171043396 7.40583419799805 7.46865320205688 7.09893608093262 7.05126237869263 6.86623764038086 6.19102144241333 4.01089239120483 2.78342986106873 1.93149209022522 1.79480636119843 2.79637479782104 4.03679037094116 6.15656232833862 9.34511470794678 10.6682100296021 8.77110385894775 7.98736381530762 9.17396259307861 14.1161994934082 15.2037782669067 25.9447288513184 23.4796142578125 17.0011577606201 12.019061088562 6.52916574478149 4.0356912612915 0.498081296682358 1.03672444820404 -0.0411998108029366 -1.04627418518066 -0.77741014957428 -0.0449159517884254 -0.0339043028652668 0.702894687652588 -1.49033272266388 -1.60469317436218 -0.0432931818068027 -1.94183301925659 -2.03213882446289 -2.21149039268494 -2.5231945514679 -2.31640553474426 -1.98127925395966 -1.32934045791626 -0.772341787815094 3.09154176712036 9.76296138763428 -1.0781455039978 -1.58124303817749 -1.66240167617798 -0.73783665895462 -0.198266953229904 -0.67950314283371 -1.45767915248871 -1.58501946926117 -1.61688303947449 -1.47087168693542 -1.27352631092072 -1.1604483127594 -1.20046007633209 -1.28440988063812 -1.31550884246826 -1.2470064163208 -1.2144033908844 -1.09893119335175 -1.09870851039886 -1.1525684595108 -0.899942219257355 -0.562692940235138 -0.325750529766083 -0.172057837247849 -0.21764999628067 2.53662633895874 5.25728178024292 5.78469800949097 4.5984206199646 4.20541858673096 1.10983347892761 1.32787501811981 1.51061356067657 1.83353984355927 3.54126667976379 4.56960964202881 4.6515154838562 3.80303335189819 3.02102136611938 2.23768019676208 2.35109210014343 2.43144512176514 2.46009659767151 2.52764892578125 2.61410999298096 2.55106997489929 2.19760012626648 2.1046679019928
2.66203904151917 2.83744168281555 3.09910416603088 3.3876359462738 3.65337824821472 3.9608428478241 4.21946954727173 4.43535137176514 4.67593145370483 4.83816909790039 4.86478424072266 4.99036550521851 5.1491756439209 5.2419605255127 5.37022972106934 5.51647281646729 5.59252738952637 5.70502471923828 5.72865009307861 5.64053630828857 5.68413066864014 5.78963327407837 5.90970849990845 6.02901601791382 6.12486505508423 6.28147459030151 6.40971565246582 6.45418167114258 6.53805637359619 6.47507619857788 6.38282442092896 6.30289745330811 6.20024871826172 5.99294567108154 5.83843898773193 5.58056688308716 5.43549060821533 5.33309745788574 5.51240921020508 5.64741182327271 5.66189432144165 5.76207828521729 5.79986763000488 5.91387796401978 6.00685262680054 6.47887229919434 6.62164163589478 6.93225002288818 6.95381689071655 7.01131534576416 6.89277601242065 6.86003398895264 7.06063556671143 7.47027540206909 7.68668508529663 7.12488031387329 5.85554838180542 5.51100301742554 5.0183424949646 4.89762115478516 5.32855176925659 5.61432886123657 5.9914026260376 6.95296430587769 12.8832101821899 10.8887844085693 3.49419951438904 4.73394632339478 6.29082870483398 7.02662658691406 5.96690273284912 7.60526847839355 7.79123115539551 7.02781295776367 6.71010971069336 7.00714254379272 7.09138154983521 7.86061763763428 8.08834457397461 8.39294242858887 8.50076293945312 8.30363082885742 8.66023445129395 8.70761013031006 8.27166366577148 5.60611820220947 4.35160255432129 3.73853063583374 3.64692735671997 4.3542423248291 6.79811954498291 6.54893922805786 7.21367645263672 5.68319845199585 6.46220064163208 7.95198440551758 12.8177309036255 15.3317785263062 20.0360622406006 24.5363101959229 17.1521778106689 11.7410440444946 4.93632936477661 0.900640547275543 0.668917953968048 -0.192819133400917 -0.309362173080444 -0.483859449625015 -0.865274965763092 0.101384393870831 2.27942633628845 -0.208331853151321 -1.52269983291626 -1.34305989742279 -0.324106246232986 -1.98757135868073 -1.8833247423172 -1.89872372150421 -2.42342114448547 -2.44709825515747 -2.16248035430908 -1.51926898956299 -0.721948266029358 2.37063407897949 7.6228141784668 -1.05952882766724 -1.53802680969238 -1.56503069400787 -1.5836923122406 -1.51336336135864 -1.33936774730682 -1.3980485200882 -1.52501559257507 -1.42108392715454 -1.08583199977875 -0.822526752948761 -0.878071486949921 -0.601021111011505 0.644965946674347 -1.04051220417023 -1.02972841262817 -0.938233494758606 -0.803714573383331 -0.678056001663208 -0.736803889274597 -0.714166402816772 -0.387732803821564 -0.13239498436451 -0.070565328001976 -0.0785650387406349 3.17049264907837 6.32506513595581 5.15163946151733 1.93902993202209 1.62376487255096 0.903109908103943 1.17235743999481 1.46063089370728 1.76644396781921 4.32270765304565 5.35130167007446 5.50625848770142 5.59271669387817 4.55868101119995 3.2668673992157 2.48927211761475 2.50497555732727 2.52999472618103 2.61574554443359 2.7312331199646 2.72634267807007 2.5367157459259 2.30011177062988
2.71010994911194 2.83416223526001 2.9602792263031 3.2449893951416 3.60060691833496 3.92000341415405 4.26102209091187 4.61790323257446 4.72412443161011 4.78451299667358 4.93300247192383 4.96546077728271 5.16024494171143 5.37442111968994 5.50384473800659 5.64605474472046 5.72613763809204 5.78437042236328 5.92683982849121 5.76024436950684 5.79160070419312 5.8644380569458 5.97892093658447 6.14342880249023 6.28984975814819 6.35078001022339 6.548424243927 6.71320629119873 6.7534818649292 6.72744655609131 6.66205024719238 6.60347461700439 6.57602405548096 6.36838388442993 6.34465456008911 5.75769996643066 5.60391235351562 5.53207397460938 5.76367330551147 5.97418975830078 6.1039891242981 6.26567363739014 6.43649005889893 6.47261714935303 6.62584114074707 6.80242967605591 7.30277633666992 7.42549705505371 7.7201714515686 7.47282600402832 7.46013069152832 7.45575952529907 7.47107028961182 7.66970157623291 8.21955490112305 8.36558628082275 6.87152194976807 6.55536127090454 6.46190690994263 5.92678499221802 5.78706216812134 5.96235752105713 5.14567375183105 7.54187202453613 10.0603713989258 8.5224027633667 2.30260419845581 2.49131488800049 3.1666624546051 4.46662712097168 5.14361095428467 5.57744741439819 7.03138113021851 6.00397539138794 6.57164573669434 6.71980237960815 7.07275247573853 7.48891639709473 8.83154392242432 9.37331676483154 9.83431339263916 10.3984203338623 10.673620223999 11.6693353652954 11.6448202133179 10.8600940704346 7.71658325195312 5.86360883712769 5.02764797210693 5.07359743118286 5.49593877792358 7.04232263565063 6.37460327148438 4.54309129714966 5.77132844924927 7.14323329925537 11.3069152832031 15.984091758728 16.5737552642822 26.2351264953613 14.6646127700806 8.93184280395508 2.8965892791748 -1.04975914955139 0.525125324726105 -0.379741966724396 -1.52694571018219 -0.937627553939819 -0.28529292345047 1.34626507759094 2.69447636604309 -1.31096339225769 -1.38720536231995 -1.34572863578796 -1.56216311454773 -1.98280036449432 -1.38981187343597 -1.13978111743927 -1.47763562202454 -2.44509649276733 -2.27524352073669 -1.71049618721008 -1.13624584674835 -0.137201085686684 2.83442306518555 -0.324164211750031 -1.5031681060791 -1.44794833660126 -1.48368990421295 -1.58222925662994 -1.4740606546402 -1.22106051445007 -1.1574319601059 -1.07786750793457 -0.753316283226013 -0.543944358825684 -0.544618606567383 1.67161631584167 0.681743800640106 -0.994511246681213 -1.00401794910431 -0.787068128585815 -0.601701855659485 -0.424490392208099 -0.262534379959106 -0.310880303382874 -0.177547052502632 0.00803439784795046 0.0736618936061859 0.144197553396225 -0.0444466769695282 2.19698405265808 0.848743319511414 -0.223454385995865 0.186829954385757 0.67594963312149 1.14292013645172 1.44372832775116 1.64209353923798 2.82699632644653 5.38745594024658 6.86155986785889 8.42826843261719 8.07411479949951 5.99160575866699 5.24105882644653 2.69849705696106 2.63316226005554 2.71095681190491 2.84493803977966 2.96343111991882 2.98052382469177 2.80161952972412
2.77630710601807 2.91588425636292 3.07597470283508 3.23686528205872 3.60789942741394 3.93133950233459 4.24973964691162 4.42092847824097 4.6582670211792 4.82227754592896 4.86444854736328 5.05514907836914 5.28044366836548 5.50924205780029 5.57507801055908 5.67989110946655 5.82995939254761 6.3686785697937 6.37180757522583 5.77621984481812 5.9151496887207 5.92947387695312 6.02778196334839 6.18012475967407 6.36326265335083 6.49477863311768 6.67860412597656 6.89148950576782 6.98341798782349 7.06250286102295 7.01447486877441 6.90481758117676 6.80924701690674 6.86648273468018 6.75217151641846 5.90958690643311 5.70956325531006 5.71968078613281 6.05157232284546 6.32698249816895 6.48420381546021 6.6975417137146 6.892982006073 7.05975484848022 7.12645816802979 7.41514348983765 7.63590145111084 8.22109317779541 8.20371913909912 8.20371437072754 8.0927791595459 8.13430404663086 8.14201641082764 8.15640926361084 8.74807453155518 9.30144309997559 8.89106559753418 7.69751882553101 7.44392013549805 7.11169195175171 7.01714563369751 6.18991041183472 6.05643558502197 5.32729768753052 9.35776042938232 8.85001182556152 2.43955731391907 2.50813341140747 3.01762247085571 3.44558072090149 4.75267124176025 5.4309778213501 5.49484491348267 5.66553592681885 6.53098249435425 6.98163175582886 7.22325849533081 8.16995239257812 9.43225383758545 10.1192455291748 11.0967531204224 12.1153841018677 13.2435607910156 14.0308132171631 13.777250289917 14.0204591751099 10.7739391326904 7.67033338546753 6.36949110031128 6.63183975219727 6.74231195449829 7.74991464614868 4.1014666557312 3.69307112693787 5.25533246994019 7.19798040390015 11.1941041946411 15.1185321807861 17.5020999908447 25.1075572967529 13.7907905578613 8.58847427368164 2.01928067207336 -1.14938306808472 -0.192200943827629 -0.40906634926796 -1.46434915065765 -1.38361477851868 0.17498816549778 -0.326888054609299 -1.24677121639252 -1.31166160106659 -1.08492255210876 -1.13528728485107 -1.19213843345642 -1.15650868415833 -0.870024502277374 -0.557686448097229 -0.120533533394337 -0.693511724472046 -2.17929649353027 -1.81795167922974 -1.32965219020844 -1.00965547561646 -0.892560541629791 -1.1486679315567 -1.51940250396729 -1.3127613067627 -1.28914225101471 -1.44804680347443 -1.35021722316742 -0.984580278396606 -0.818987727165222 -0.614823698997498 -0.436247527599335 -0.345500439405441 -0.35228830575943 -0.582172930240631 -0.808305263519287 -0.886409163475037 -0.842322409152985 -0.557650804519653 -0.341005831956863 -0.1783577054739 -0.0448394194245338 0.144648611545563 0.129307955503464 0.234974697232246 0.358452826738358 0.333107024431229 0.287040859460831 -0.05068539083004 -0.531000077724457 -0.332425087690353 0.0601838640868664 0.538512289524078 0.985984861850739 1.30519354343414 1.53744173049927 1.78305995464325 3.54641389846802 8.15164756774902 9.80346870422363 11.5235805511475 11.6022233963013 8.48847007751465 5.26903390884399 2.63715744018555 2.79541635513306 2.9444363117218 3.10315942764282 3.23876976966858 3.24764394760132
2.85133504867554 2.98584532737732 3.17992281913757 3.45080351829529 3.68312501907349 3.80054664611816 4.09340190887451 4.30179834365845 4.44293594360352 4.74349308013916 5.06515407562256 5.20264148712158 5.24389886856079 5.42919397354126 5.66469860076904 6.04202747344971 6.25643873214722 6.48810720443726 6.21950817108154 5.7019248008728 5.89666271209717 6.00357055664062 6.05498790740967 6.26401901245117 6.4474310874939 6.64014863967896 6.78383731842041 7.02379703521729 7.23362684249878 7.37163400650024 7.4638524055481 7.38246965408325 7.23016500473022 7.30212116241455 6.56684875488281 6.15301179885864 5.93801879882812 5.97746276855469 6.39100742340088 6.65649175643921 6.89170026779175 7.02672624588013 7.26574230194092 7.43265533447266 7.59511756896973 7.85129117965698 8.24097537994385 8.72492599487305 8.98082065582275 9.26982879638672 9.25692081451416 8.98838996887207 9.16381072998047 9.14899158477783 9.475830078125 10.1654300689697 11.0869140625 10.6764430999756 10.0441837310791 9.2993631362915 7.32657718658447 7.11600971221924 6.58758926391602 6.50620889663696 12.1483469009399 7.03764152526855 1.67090570926666 2.24870872497559 4.5271635055542 2.81775307655334 4.61973524093628 5.36382961273193 5.56299495697021 5.77827835083008 6.31092405319214 6.87489080429077 7.6002311706543 8.39196014404297 9.32205009460449 10.8151588439941 11.7966938018799 14.0701150894165 15.3063154220581 17.2690448760986 17.7553062438965 18.499963760376 18.5128765106201 13.0172319412231 9.39530372619629 8.52102470397949 9.7239294052124 7.91549158096313 2.67253804206848 3.04916787147522 4.50454330444336 7.02096366882324 10.917028427124 15.740740776062 16.6764831542969 21.4293441772461 15.1180267333984 14.9541845321655 6.90120410919189 -0.258364588022232 -0.499945133924484 -0.341279983520508 -1.41576015949249 -1.49541556835175 -1.11180567741394 -1.4624662399292 -1.12402534484863 -0.881079614162445 -0.944175481796265 -0.923252403736115 -0.731824815273285 -0.488812416791916 -0.501667261123657 -0.115522928535938 0.681791126728058 1.27391755580902 1.91095280647278 1.50709891319275 -1.5700523853302 -1.10714590549469 -0.797608494758606 -0.854483902454376 -1.275346159935 -1.18548631668091 -1.14718437194824 -1.20179724693298 -1.19462013244629 -0.832564413547516 -0.278028637170792 -0.0488954409956932 -0.0994817614555359 -0.0651566982269287 -0.0523793399333954 -0.282290875911713 -0.544999182224274 -0.435836941003799 -0.287563681602478 0.170248851180077 2.1815824508667 2.66082525253296 0.120211459696293 0.327933996915817 0.530514776706696 0.287644773721695 0.487366378307343 0.624035716056824 0.54719865322113 0.331178784370422 -0.149633213877678 -0.331720769405365 -0.0827289149165154 0.335648953914642 0.824566423892975 1.20507574081421 1.40298080444336 1.68373930454254 4.37102890014648 7.28910112380981 10.2102842330933 12.5936059951782 11.7172088623047 10.1037321090698 7.82866907119751 5.01345777511597 2.82694602012634 3.07624340057373 3.21936631202698 3.37340140342712 3.49695372581482
2.94364428520203 3.08173513412476 3.22740459442139 3.66141033172607 3.91234111785889 4.22600364685059 4.653235912323 4.22628927230835 4.46325349807739 4.90706777572632 5.09398984909058 5.14097118377686 5.31359195709229 5.36967325210571 5.57570505142212 5.80497789382935 5.72858667373657 5.73913288116455 5.80883884429932 5.78220224380493 5.97219467163086 6.09751176834106 6.10259056091309 6.25355625152588 6.51474380493164 6.73303127288818 6.98273754119873 7.1506724357605 7.4192590713501 7.63498306274414 7.78534412384033 7.83496189117432 7.7344331741333 7.47343587875366 6.95915222167969 6.5849232673645 6.29930543899536 6.47864580154419 6.86973905563354 7.10008478164673 7.28306531906128 7.38626432418823 7.74437189102173 8.09091854095459 8.21858406066895 8.44252300262451 8.78842544555664 9.15096759796143 9.89237022399902 10.3722610473633 10.6640939712524 10.8996963500977 10.4356527328491 10.5845441818237 10.7229070663452 11.0500020980835 11.9133157730103 12.9378576278687 12.3000783920288 14.4924907684326 11.4380617141724 9.42609119415283 6.50153541564941 6.67434024810791 5.49522638320923 3.22984743118286 1.75907123088837 2.27643394470215 2.71997785568237 2.52829217910767 3.53716969490051 5.28472995758057 6.03766489028931 6.45036172866821 6.55516195297241 6.79932069778442 7.99680757522583 8.70748901367188 9.59230995178223 10.8066577911377 12.4645595550537 14.9762992858887 17.5773735046387 18.6024284362793 21.9003067016602 22.336446762085 25.2907905578613 24.938627243042 14.9366436004639 9.17779541015625 7.53469657897949 4.09791135787964 2.27896404266357 2.73938488960266 4.02677059173584 6.19175434112549 10.4213361740112 15.6299085617065 18.5217800140381 20.7358589172363 21.6929702758789 19.3394031524658 7.30930519104004 -0.0469912402331829 -0.698871612548828 0.620627343654633 0.121224611997604 -1.41879212856293 -1.48697912693024 -1.50292110443115 -1.03109812736511 -0.0306201241910458 -0.438255310058594 -0.39569965004921 -0.447056174278259 -0.088464543223381 0.615644097328186 1.09547734260559 1.81721973419189 3.82839584350586 2.6234073638916 1.91643273830414 -1.47505021095276 -1.08474218845367 -0.724097490310669 -0.66471266746521 -0.866395831108093 -1.07409119606018 -1.00897884368896 -0.94791841506958 -0.788729667663574 -0.646695256233215 -0.12567825615406 0.430595576763153 0.513652384281158 0.429001599550247 0.344109266996384 0.296397238969803 0.270272105932236 0.0732409283518791 0.198214814066887 0.29087820649147 5.08216619491577 3.66661977767944 0.943392992019653 0.260137617588043 0.403809607028961 0.251474171876907 0.438644081354141 0.73666787147522 0.757370233535767 0.570657074451447 0.348783224821091 0.190190017223358 0.0392899736762047 0.158369868993759 0.78224766254425 1.19237351417542 1.4524781703949 1.65482902526855 3.17139792442322 5.32605028152466 11.1265821456909 9.15616703033447 5.46452808380127 4.65552091598511 5.29801177978516 3.15743184089661 2.70165729522705 3.03349328041077 3.2270405292511 3.4220449924469 3.61870121955872
3.05797553062439 3.18541598320007 3.39631271362305 3.76494264602661 4.11893033981323 4.43396472930908 4.59336280822754 4.1855902671814 4.42760896682739 4.63283920288086 4.98182249069214 5.14684581756592 5.21065998077393 5.42751693725586 5.48435258865356 5.78571271896362 5.91996765136719 5.92253971099854 5.94148015975952 5.95828866958618 5.92624092102051 6.07421731948853 6.17733669281006 6.26391410827637 6.55291604995728 6.86215257644653 7.11678791046143 7.4333815574646 7.59660243988037 7.84981298446655 8.06458282470703 8.08964824676514 8.03114128112793 7.88953304290771 7.468590259552 6.98268795013428 6.91751718521118 7.16818761825562 7.37878751754761 7.68271112442017 7.88546991348267 8.03991413116455 8.28805732727051 8.6243782043457 8.83535861968994 9.04824352264404 9.24962902069092 9.9000072479248 10.4596281051636 11.2344989776611 11.9429759979248 12.2562866210938 11.5551433563232 11.487491607666 11.7116928100586 11.8918104171753 12.5509881973267 13.3991556167603 13.0098142623901 14.1235361099243 10.9560432434082 10.7729768753052 11.4350214004517 8.46761894226074 6.75391340255737 5.13316822052002 2.61060070991516 1.91721045970917 2.45779347419739 2.70374608039856 3.02280211448669 4.22478723526001 6.2572922706604 7.25217247009277 7.69079351425171 7.89900064468384 8.37998485565186 9.29977893829346 10.1675367355347 11.0229434967041 13.1375188827515 15.4026775360107 17.8124465942383 21.4833679199219 24.3648128509521 28.5462493896484 30.0400257110596 26.875 20.6158218383789 13.728422164917 8.15445995330811 2.67730855941772 1.76402628421783 2.59549999237061 3.69956398010254 5.21614122390747 10.7026767730713 14.8316707611084 18.8427505493164 28.499174118042 25.8469467163086 16.4373893737793 6.21607160568237 0.151091143488884 -1.79063022136688 0.0626311749219894 -1.33244204521179 -1.39324057102203 -1.37213134765625 -1.21949350833893 -0.612431526184082 0.110058456659317 -0.322947144508362 -0.338517516851425 0.127778962254524 0.270118325948715 1.29809963703156 2.16279339790344 4.5763463973999 6.02127885818481 0.558080077171326 -0.958869218826294 -1.46456670761108 -1.08477509021759 -0.819524049758911 -0.514463365077972 -0.485947489738464 -0.788739681243896 -0.821057617664337 -0.601014912128448 -0.441992521286011 -0.273463100194931 0.225788488984108 0.754434108734131 1.16088306903839 1.10961401462555 0.870254695415497 0.742844223976135 0.741815745830536 0.751927614212036 0.574194967746735 2.55983805656433 5.17145347595215 -0.0166333932429552 -0.259199798107147 0.124212257564068 0.347164869308472 0.453324407339096 0.444196939468384 0.844715356826782 0.945712685585022 0.924118876457214 0.871771216392517 0.865955352783203 0.946223855018616 0.990920901298523 1.27346277236938 1.31413292884827 1.31014037132263 1.4844114780426 1.67171096801758 2.10772252082825 4.14951372146606 1.67200231552124 1.20592486858368 1.41016817092896 1.51142799854279 1.79839384555817 2.40092778205872 2.96445417404175 3.31392693519592 3.48442721366882 3.68151259422302
3.24756813049316 3.34237241744995 3.50786995887756 3.82789134979248 4.20885705947876 4.78170919418335 4.83386421203613 4.50108480453491 4.19874429702759 4.47913265228271 4.69097900390625 5.02584505081177 5.17929744720459 5.30103349685669 5.62649774551392 5.87731313705444 6.03666067123413 5.96503353118896 6.00381803512573 6.04558944702148 6.0854811668396 5.99060344696045 6.18115711212158 6.40179777145386 6.57448673248291 6.91927003860474 7.24537658691406 7.56238651275635 7.73099374771118 8.03655910491943 8.3336296081543 8.55501651763916 8.65032577514648 8.56463718414307 8.12214279174805 7.62786054611206 7.57068634033203 7.74736547470093 7.94325351715088 8.18472671508789 8.45711612701416 8.71417331695557 8.96724319458008 9.22005558013916 9.71103286743164 9.8886775970459 10.1286649703979 10.4199838638306 11.151123046875 11.8271026611328 12.5031032562256 12.5391302108765 12.8583564758301 11.8117570877075 11.7641868591309 12.1346645355225 12.8161935806274 13.953387260437 14.5235481262207 13.9823064804077 9.16143321990967 10.2132587432861 11.1160507202148 12.0414667129517 8.75407314300537 7.5176830291748 5.74682426452637 2.03106665611267 2.01181650161743 2.8397388458252 3.71319389343262 4.19125604629517 5.33508348464966 8.10050773620605 8.6154203414917 8.99533557891846 9.59968376159668 10.4945125579834 10.6893014907837 12.0756578445435 13.7598457336426 15.420708656311 17.4931545257568 20.9736824035645 30.0949802398682 31.212028503418 21.9247379302979 13.7186498641968 8.76532745361328 14.2548503875732 9.29546070098877 3.38065099716187 1.2568519115448 1.97226190567017 3.38015794754028 4.44069290161133 9.8633975982666 14.6769790649414 21.4967746734619 29.4662914276123 17.0302696228027 9.13180065155029 5.63906526565552 -1.54218637943268 -1.74092233181 -1.66257393360138 -1.45946323871613 -1.32232844829559 -1.21181845664978 -0.681774497032166 -0.489483147859573 -0.436473369598389 -0.954696178436279 0.326694875955582 -0.56807279586792 0.595783054828644 2.08113694190979 5.54206800460815 4.64776659011841 3.6400682926178 -0.564396679401398 -1.56906044483185 -1.50153589248657 -1.15006649494171 -0.77465409040451 -0.521355211734772 -0.308050185441971 -0.254402577877045 -0.480532586574554 -0.287701547145844 0.0318159610033035 0.187198832631111 0.415132999420166 1.18956053256989 1.66669833660126 1.68597888946533 1.48348951339722 1.15713477134705 1.23836767673492 1.93327224254608 3.16361689567566 1.68634378910065 0.356666505336761 -0.236137419939041 -0.2726771235466 0.0399021506309509 0.448616147041321 0.602612376213074 0.786969780921936 1.08936142921448 1.36977696418762 1.28596329689026 1.19963204860687 1.19210386276245 1.32195687294006 1.5109578371048 1.45762550830841 1.55716919898987 1.62457466125488 1.33416843414307 1.51962423324585 1.99103260040283 2.43782186508179 1.54998111724854 1.37691974639893 1.28746175765991 1.42591464519501 1.65467500686646 2.12141990661621 2.8443546295166 3.29014301300049 3.60832142829895 3.80731868743896
3.44920969009399 3.50459957122803 3.6713080406189 3.94573760032654 4.42757081985474 4.85899686813354 4.95368957519531 4.94687223434448 4.72474765777588 4.36052083969116 5.44785356521606 5.17298650741577 5.02343845367432 5.50451278686523 5.75982427597046 5.78038787841797 5.95078134536743 6.11079168319702 6.04455471038818 6.02501440048218 6.17311668395996 6.19054412841797 6.13557720184326 6.42093229293823 6.73491430282593 7.0241813659668 7.43332862854004 7.72912549972534 8.12434005737305 8.33614444732666 8.65682411193848 8.97711372375488 9.26624584197998 9.27813053131104 9.00739479064941 8.68174362182617 8.62239837646484 8.58119201660156 8.55086994171143 8.93795967102051 9.29108715057373 9.76232719421387 10.0418224334717 10.2795734405518 10.5254945755005 10.8994550704956 11.2834215164185 11.522985458374 11.6800889968872 11.9531774520874 12.6014537811279 13.4985370635986 13.455249786377 14.467493057251 13.4887218475342 13.1464509963989 14.7114953994751 15.3655052185059 15.647777557373 16.4168663024902 14.7266283035278 9.28409576416016 8.61888122558594 7.97560882568359 9.97340393066406 8.49242782592773 8.59330272674561 6.61341714859009 2.34008884429932 2.48220014572144 3.8657660484314 5.16331768035889 5.46633338928223 8.65611267089844 10.5055141448975 11.0378112792969 12.0303020477295 12.9051389694214 13.7144613265991 12.5834913253784 14.10023021698 16.4811515808105 16.646089553833 20.3281631469727 29.4779453277588 19.0013465881348 8.06101226806641 3.08200073242188 1.56033217906952 1.20102107524872 4.06809568405151 2.2913544178009 0.842350363731384 1.52740204334259 3.03480267524719 4.5357518196106 8.84202098846436 12.8970422744751 22.8363342285156 23.0466327667236 11.1195888519287 10.0082015991211 4.89454317092896 -1.55199468135834 -1.67227935791016 -1.57121205329895 -1.6024808883667 -1.24589574337006 -0.785167336463928 0.00105816277209669 -0.0869734957814217 0.0644004195928574 0.183411031961441 0.728545904159546 -1.03540778160095 0.743940353393555 1.91662633419037 3.02540946006775 1.18962860107422 -0.393245130777359 -1.48106753826141 -1.50708866119385 -1.4753497838974 -1.219083070755 -0.808585047721863 -0.42676106095314 -0.279891073703766 0.036586944013834 0.0578065887093544 0.00559823866933584 0.422761231660843 0.734318554401398 0.857385516166687 1.42214548587799 1.95064747333527 2.18141579627991 2.18219065666199 1.95321238040924 1.70446145534515 3.55503511428833 7.54411363601685 0.711823284626007 0.615158677101135 0.392997831106186 0.0517905838787556 0.271627873182297 0.637521803379059 1.005091547966 1.23383319377899 1.58234548568726 1.85629820823669 1.70928108692169 1.51672899723053 1.45773351192474 1.32910406589508 1.48391735553741 1.67946672439575 1.78279495239258 1.85718977451324 1.97163212299347 1.54034554958344 1.55319607257843 2.16332173347473 1.81806027889252 1.6811785697937 1.49130892753601 1.4284565448761 1.77242088317871 2.14751267433167 2.66185522079468 3.25268459320068 3.63774061203003 3.94829607009888
3.68122172355652 3.77382731437683 3.89556765556335 4.11437129974365 4.71807813644409 5.17311096191406 4.90991306304932 5.1585636138916 5.13524389266968 4.93897581100464 5.67388391494751 4.78715801239014 5.18255805969238 5.45734739303589 5.64613199234009 5.86751699447632 5.86463832855225 6.01406860351562 6.10532474517822 6.24370574951172 6.10590696334839 6.27899646759033 6.35385227203369 6.52922105789185 6.79223442077637 7.09830045700073 7.58190202713013 8.00307941436768 8.29778957366943 8.84885501861572 9.00702571868896 9.41489028930664 9.76856994628906 9.75548648834229 9.60277271270752 9.2430534362793 9.17505550384521 9.27670192718506 9.56748676300049 9.86964130401611 10.2512092590332 10.8319187164307 11.2912654876709 11.5915746688843 11.5942449569702 11.7545566558838 12.1987133026123 12.0924739837646 11.9679689407349 12.5244445800781 13.5052518844604 14.5200395584106 15.6134195327759 15.2618675231934 16.9460182189941 15.3973093032837 15.1231365203857 13.8035507202148 13.1165456771851 15.0119562149048 17.4422473907471 15.6795625686646 10.5019474029541 8.38404083251953 7.41851043701172 7.62178564071655 8.8280725479126 7.57988500595093 4.85346698760986 2.35772204399109 4.18077659606934 5.87690496444702 6.40130376815796 7.4569411277771 11.1955337524414 14.3757152557373 14.7235250473022 17.5697193145752 17.2100696563721 17.4663867950439 15.4975423812866 17.5467510223389 15.7052164077759 18.8795166015625 20.8109455108643 10.5220489501953 4.1351580619812 1.13701212406158 -0.673375844955444 -1.09783625602722 -0.834041953086853 -0.289326548576355 0.129634812474251 1.22943294048309 2.62153100967407 4.46018266677856 7.12043857574463 10.6865520477295 17.0302333831787 19.1100463867188 12.1156816482544 11.0451326370239 2.03035569190979 -1.27434527873993 -1.47559404373169 -1.45974123477936 -1.5610169172287 -1.25950062274933 -0.216068983078003 1.99892437458038 0.597679316997528 0.878796339035034 1.38003432750702 0.0394680835306644 -0.432305485010147 0.184319004416466 1.11000978946686 0.454675197601318 -0.558041393756866 -1.35244464874268 -1.34258830547333 -1.40424525737762 -1.38284134864807 -1.23135304450989 -0.819563627243042 -0.33726841211319 -0.203319251537323 0.196690499782562 0.522615253925323 0.463003575801849 0.760440528392792 1.16959011554718 1.56632220745087 1.78319370746613 2.07663249969482 2.48502659797668 2.79810380935669 2.81680679321289 2.50346970558167 4.15641260147095 4.84680557250977 0.912529289722443 0.723130762577057 0.938513100147247 0.8668332695961 0.698335647583008 1.02594435214996 1.3890917301178 1.71444761753082 2.07356214523315 2.30772948265076 2.15226221084595 1.82739424705505 1.6491551399231 1.57112777233124 2.06892442703247 1.84674882888794 1.8905942440033 1.57309281826019 1.60250174999237 1.6287499666214 1.58296298980713 1.78976309299469 1.85063552856445 1.88643515110016 1.77559399604797 1.66502463817596 1.81802952289581 2.37376165390015 2.75443387031555 3.34726977348328 3.70127844810486 4.05673313140869
4.16128492355347 4.06839895248413 4.12700271606445 4.41134071350098 5.36054182052612 4.6576886177063 4.9132604598999 4.92136430740356 5.85727071762085 5.84188079833984 4.37229633331299 4.50494527816772 4.76846790313721 5.27059459686279 5.57932090759277 5.71666860580444 5.95274877548218 5.95480585098267 6.56931209564209 6.3140344619751 6.2393684387207 6.41200494766235 6.5483512878418 6.48442268371582 6.90934944152832 7.27710103988647 7.64903736114502 8.14730834960938 8.71179008483887 9.25738716125488 9.34938907623291 9.75184345245361 10.3302431106567 10.5522832870483 10.5769786834717 10.73401927948 10.8773002624512 10.78879737854 10.817985534668 10.9887981414795 11.2293262481689 11.5315895080566 12.0682849884033 12.4372310638428 12.5841417312622 12.5667562484741 13.1309423446655 13.4857997894287 13.4180393218994 13.8419742584229 14.8430690765381 15.725715637207 15.5362358093262 16.7504196166992 16.5131568908691 13.2844104766846 13.5788164138794 13.1274709701538 11.2972564697266 11.9748849868774 14.3030433654785 12.9132671356201 10.6751947402954 9.02305126190186 10.3816156387329 7.32026958465576 8.55150985717773 10.6109504699707 8.89491081237793 3.80010628700256 3.25167775154114 5.62584829330444 7.74791049957275 8.98955917358398 9.59462833404541 14.9726572036743 20.5044021606445 20.6614246368408 17.9402961730957 17.3837280273438 14.820969581604 18.4917507171631 15.520414352417 16.9761562347412 17.3150329589844 7.65630865097046 2.88718581199646 -0.782358407974243 -1.31225633621216 -1.19970285892487 -0.971180081367493 -0.554005861282349 -0.107658907771111 0.893467485904694 2.12611794471741 3.92402052879333 6.05681085586548 8.41182708740234 15.2410163879395 23.129451751709 12.2339143753052 7.15250825881958 -0.762792110443115 -1.17104291915894 -1.35441148281097 -1.49733781814575 -1.44985198974609 -1.35766756534576 -0.163609445095062 1.25429749488831 0.535517871379852 1.20781886577606 0.924087464809418 -1.40313255786896 -1.5216338634491 -0.996829509735107 0.109865270555019 -1.24989497661591 -1.43239283561707 -1.31752836704254 -1.27189755439758 -1.27672243118286 -1.31221079826355 -1.166712641716 -0.781823396682739 -0.308880120515823 -0.0614341013133526 0.250373631715775 0.688933849334717 1.03228187561035 1.09368824958801 1.66979658603668 2.16533374786377 2.22963547706604 2.56975078582764 3.05760717391968 3.38344097137451 3.56473350524902 3.30600023269653 3.38729000091553 1.59093809127808 1.11764907836914 1.2924108505249 1.47395205497742 1.65792727470398 1.62031722068787 1.50631976127625 1.81453061103821 2.24296140670776 2.54080009460449 2.63698625564575 2.63282179832458 2.38280963897705 1.94453072547913 1.75927114486694 1.5424040555954 1.25447535514832 1.65800809860229 1.68998515605927 1.440993309021 1.27125537395477 1.35601532459259 1.6347496509552 1.85254192352295 2.00615692138672 2.05196213722229 1.98762536048889 2.1365921497345 2.60665822029114 2.91952514648438 3.38351607322693 3.93112564086914 4.28076934814453
4.84635019302368 4.48042726516724 4.47656965255737 5.33351039886475 4.73515510559082 4.37092971801758 4.62743330001831 5.55026912689209 6.38306522369385 5.04388761520386 4.09494256973267 4.20952320098877 4.52316284179688 4.8531928062439 5.40268182754517 5.6759991645813 5.83050918579102 6.21685838699341 6.35691833496094 6.34549140930176 6.27751302719116 6.4985933303833 6.78319311141968 6.84280300140381 6.89757204055786 7.46606206893921 7.81968355178833 8.22127532958984 8.96664714813232 9.59477806091309 10.1541023254395 10.2610416412354 10.6598606109619 11.2682180404663 11.6024122238159 11.7253360748291 12.3567972183228 12.2002010345459 11.9482049942017 11.8141717910767 11.8547515869141 12.7805328369141 13.8013553619385 14.2207670211792 15.0202198028564 15.1079797744751 15.7076463699341 15.8746767044067 15.8599472045898 15.9361524581909 15.7719955444336 16.1633911132812 14.9304695129395 15.6443271636963 14.869255065918 8.9083423614502 9.83960247039795 11.0884122848511 10.0952062606812 9.78977203369141 10.1304969787598 6.96016311645508 3.32543921470642 5.87458372116089 6.77869558334351 6.75933742523193 6.80943250656128 11.9449996948242 14.2373561859131 11.9062347412109 5.48684787750244 4.62753343582153 8.19502735137939 11.8500938415527 13.4905471801758 17.2057838439941 21.9030055999756 14.3774271011353 9.70632457733154 8.79569244384766 8.6388692855835 11.9837398529053 11.7292108535767 16.1642284393311 15.9639806747437 5.63715219497681 1.80857527256012 -1.67957639694214 -1.52029597759247 -1.24749994277954 -1.06533181667328 -0.639676332473755 -0.172726631164551 0.36579629778862 1.66925597190857 3.27556800842285 5.07129812240601 7.52406644821167 14.5391702651978 19.4842872619629 8.13272094726562 4.81519412994385 -0.857164025306702 -1.01223421096802 -1.09223031997681 -1.30453741550446 -0.756752133369446 -1.19274234771729 -0.827307879924774 0.458776742219925 0.10026390850544 -0.139403402805328 -0.135056734085083 -1.17092168331146 -1.26378607749939 -0.225119560956955 0.00117844028864056 -1.4010705947876 -1.29957509040833 -1.22237908840179 -1.14882719516754 -1.10211801528931 -1.15229690074921 -1.07166397571564 -0.732081770896912 -0.288241922855377 0.0141832623630762 0.187457710504532 0.711500823497772 1.28935039043427 1.56556844711304 2.11827278137207 2.51899838447571 2.94100713729858 2.9525260925293 3.40124154090881 3.8733651638031 4.23903846740723 4.30167675018311 3.66764378547668 2.33792209625244 1.71678137779236 1.88213086128235 1.87931251525879 2.21434426307678 2.23898673057556 2.22217655181885 2.46687507629395 2.6763710975647 2.78604388237 2.85484528541565 2.90647006034851 2.93681812286377 2.52890992164612 1.87982738018036 1.72837722301483 1.88670194149017 2.24297070503235 1.89057493209839 1.40665900707245 0.829293549060822 1.01493775844574 1.39026415348053 1.70371639728546 1.97410345077515 2.22910165786743 2.370365858078 2.58979368209839 2.75300145149231 3.26269483566284 3.55901527404785 3.99053192138672 4.50570154190063
5.41435861587524 5.09127235412598 4.87092208862305 5.22228527069092 4.31768798828125 4.31066179275513 4.60085868835449 5.65865612030029 4.7474250793457 4.62146282196045 3.78376436233521 3.8257110118866 4.23918342590332 4.6350040435791 4.97932481765747 5.53191328048706 6.11732959747314 6.36344432830811 6.2706995010376 6.37291765213013 6.45680093765259 6.54645347595215 6.8880090713501 7.01016616821289 7.19623708724976 7.69587087631226 8.03588771820068 8.59088325500488 9.2642822265625 9.93593120574951 10.6848068237305 11.2585172653198 11.2399015426636 11.5541667938232 12.2572107315063 12.702205657959 12.945333480835 13.6031675338745 13.1474361419678 12.9359445571899 12.9918165206909 13.533182144165 14.4516706466675 16.5746002197266 16.9368171691895 15.9189338684082 16.3428401947021 15.6946249008179 16.3830318450928 15.7889451980591 14.3685340881348 13.9969596862793 12.6192903518677 12.7292547225952 6.86405467987061 6.18509387969971 7.67936992645264 7.74011611938477 6.89644432067871 7.08227872848511 7.41603660583496 3.19853758811951 2.63629651069641 4.82323360443115 7.45734119415283 7.26979541778564 8.75185298919678 11.2503461837769 18.3068256378174 21.6090755462646 17.7779941558838 5.91801595687866 6.85580635070801 16.1040267944336 12.6093559265137 12.1359024047852 17.1013126373291 6.44561100006104 4.8007493019104 5.84774160385132 7.10207462310791 9.58491802215576 13.3789348602295 11.9423990249634 6.94563865661621 0.233156010508537 -1.57930135726929 -1.65506076812744 -1.60896682739258 -1.38203537464142 -0.978150486946106 -0.578551888465881 -0.207178249955177 0.190351545810699 1.45951676368713 2.77864217758179 4.15038347244263 6.59251737594604 11.1447715759277 14.3614196777344 5.61134147644043 0.139809101819992 -0.762108683586121 -0.720433950424194 -0.693928956985474 -0.864882111549377 0.266402840614319 -1.23412704467773 -1.07785904407501 -0.0934444293379784 0.555259764194489 0.978261470794678 0.902378797531128 -0.851870894432068 -1.05751931667328 1.82758510112762 2.73296928405762 -1.1140364408493 -1.01658082008362 -1.0108494758606 -0.941560208797455 -0.895436346530914 -0.943993389606476 -0.878154933452606 -0.626173257827759 -0.189537778496742 0.205783009529114 0.523671984672546 0.944545149803162 1.61611640453339 2.06839466094971 2.13283634185791 2.76774835586548 3.12353038787842 3.50566649436951 3.66248321533203 4.28892135620117 4.88827896118164 4.9705662727356 4.66500806808472 3.55563592910767 2.60843634605408 2.63893628120422 2.81447863578796 2.56423783302307 2.72621202468872 2.8241651058197 3.00515627861023 2.99578833580017 2.9363694190979 3.57179665565491 3.43290638923645 3.26303052902222 3.03024530410767 2.19786810874939 2.1446750164032 1.9450763463974 1.67505216598511 1.11020290851593 0.722627937793732 0.669828295707703 0.610670208930969 1.04837357997894 1.48927414417267 1.84059154987335 2.31173896789551 2.66256213188171 2.81757235527039 3.0494179725647 3.29523777961731 3.75346422195435 4.13213443756104 4.66096162796021
6.2107105255127 6.14678716659546 5.64523124694824 5.0092945098877 4.54503870010376 4.39981842041016 4.69435262680054 4.84197187423706 4.79839944839478 5.07926273345947 3.34073829650879 3.37429618835449 4.05269622802734 4.56199932098389 5.06975078582764 5.76485633850098 6.05763149261475 6.23029279708862 6.49970674514771 6.41628837585449 6.78847646713257 6.9776873588562 7.29393196105957 7.31559228897095 7.56584644317627 7.90206956863403 8.52769565582275 9.07358074188232 9.83771419525146 10.3852205276489 11.0283813476562 11.9030141830444 12.2894248962402 12.1705474853516 12.6881036758423 13.1010274887085 13.7632169723511 14.7559366226196 16.196117401123 15.3905401229858 14.8797206878662 14.8178243637085 15.5526008605957 16.4564933776855 14.6458072662354 13.7009315490723 13.8607120513916 13.0181245803833 13.1514472961426 13.3290395736694 12.1701889038086 11.0701637268066 10.7376613616943 8.21091365814209 5.15576934814453 5.78465795516968 6.67516851425171 7.94467163085938 7.72274017333984 4.75773000717163 4.35344314575195 3.63598799705505 3.66718864440918 5.7561821937561 7.29764747619629 10.6871938705444 12.106333732605 12.4799871444702 17.6153430938721 17.2334384918213 12.3846855163574 9.23614311218262 5.34432125091553 13.9217252731323 7.22573947906494 5.62241983413696 9.28931713104248 1.08039546012878 1.56581902503967 4.13705158233643 6.88649654388428 10.786940574646 14.9654722213745 6.645592212677 3.96855878829956 1.82642710208893 -1.64573073387146 -1.53601276874542 -1.49042415618896 -1.23686945438385 -0.828919947147369 -0.485714465379715 -0.113436862826347 0.201726317405701 1.35417199134827 2.45329213142395 3.19028115272522 5.42439031600952 7.77123308181763 10.7631511688232 4.61629056930542 -0.20361815392971 -0.436041980981827 -0.499426126480103 -0.39050954580307 -0.756241083145142 -0.101210527122021 -1.26161253452301 -1.04193139076233 -0.746175467967987 1.34253859519958 2.49408936500549 1.19895553588867 -0.737836718559265 -0.781681299209595 -0.954129636287689 -1.02880656719208 -1.00288414955139 -0.857526898384094 -0.758889138698578 -0.743944585323334 -0.722858548164368 -0.70723831653595 -0.590251803398132 -0.373559653759003 -0.0495651215314865 0.284096717834473 0.886534094810486 1.63387906551361 1.91967380046844 2.22673869132996 2.57943797111511 2.67091965675354 3.23090553283691 3.56523990631104 3.96136927604675 4.58828783035278 5.16343021392822 5.73506021499634 5.69665050506592 5.4861273765564 4.84574460983276 4.35574817657471 3.63774561882019 3.46115851402283 3.25069451332092 3.49825501441956 3.60487055778503 3.26466417312622 3.02056264877319 3.99807000160217 2.93930459022522 3.16979694366455 3.81400227546692 3.10349106788635 2.46307849884033 2.01783418655396 1.78610289096832 0.653232336044312 0.740295767784119 0.733999907970428 0.692427694797516 0.762449085712433 1.49179911613464 1.94878005981445 2.33752250671387 2.69965434074402 2.98577952384949 3.1626992225647 3.45714378356934 3.89325571060181 4.15632772445679 4.59775686264038
6.22517061233521 7.01536321640015 6.59351682662964 5.42896032333374 4.71835994720459 4.62958288192749 4.60616588592529 5.45094537734985 5.34874486923218 4.589111328125 3.04178595542908 3.16288113594055 3.86481952667236 4.44599390029907 4.94705104827881 5.28014659881592 5.89396142959595 6.16884469985962 6.4953351020813 6.92402076721191 7.09638404846191 7.34872341156006 7.45557975769043 7.71792793273926 8.25748252868652 8.4888162612915 8.90450477600098 9.75097846984863 10.5073871612549 11.2985887527466 11.8067960739136 12.4235563278198 12.7873344421387 12.6682233810425 12.8676195144653 14.3887596130371 15.2580547332764 16.6404514312744 18.7294769287109 19.5972557067871 17.2832298278809 16.1595630645752 15.7869653701782 14.4607830047607 12.2268848419189 11.2196235656738 10.9292974472046 10.1354904174805 10.1138906478882 10.7724180221558 9.45367431640625 9.31498622894287 9.13460636138916 4.79150915145874 5.15150499343872 5.58294248580933 6.81462001800537 9.21841812133789 10.3987083435059 9.74303436279297 4.56076812744141 4.32642221450806 4.79632663726807 7.89794445037842 8.88839054107666 10.4860591888428 9.77416324615479 6.64316987991333 9.03010654449463 4.27961444854736 0.356498450040817 0.408118098974228 4.82319974899292 5.42782783508301 3.53611755371094 0.971951961517334 1.28005588054657 1.2776346206665 1.76282525062561 3.07482624053955 7.08606672286987 15.486743927002 13.9621772766113 4.11000061035156 3.83295392990112 2.00216603279114 -1.63344192504883 -1.44717597961426 -1.29917430877686 -1.16294622421265 0.765022456645966 1.80573046207428 -0.0909764543175697 0.262744188308716 0.841545701026917 1.79761302471161 2.65815210342407 4.19371271133423 5.64834928512573 9.95760917663574 7.44935417175293 1.28509569168091 -0.210984885692596 -0.258545786142349 -0.32674178481102 -0.457516640424728 -0.307067662477493 -1.13702189922333 -0.909842193126678 -0.649351119995117 1.53568065166473 2.04283905029297 -0.52456670999527 -0.692789375782013 -0.653877019882202 -0.690520405769348 -0.765945315361023 -0.774317979812622 -0.738889515399933 -0.613756954669952 -0.471942514181137 -0.378039419651031 -0.352909743785858 -0.294362217187881 -0.136085212230682 0.0870747715234756 0.342243582010269 1.19391071796417 1.98639738559723 2.32363319396973 2.57069277763367 2.8938729763031 3.06718039512634 3.20433449745178 3.8343653678894 4.25428342819214 4.69411945343018 5.33737993240356 5.96420526504517 6.53361845016479 6.71724557876587 6.37657117843628 5.48388433456421 5.00723552703857 4.71508026123047 4.25545930862427 4.07706689834595 4.01238965988159 3.75786471366882 3.43137788772583 3.04798555374146 2.7661817073822 2.98399257659912 4.04713678359985 3.60035991668701 3.6531138420105 2.57223272323608 1.95098304748535 1.3015900850296 0.66628223657608 0.781274735927582 0.802455067634583 0.813305795192719 1.34177660942078 1.83685374259949 2.22986626625061 2.62430500984192 2.97285771369934 3.32666683197021 3.65151143074036 3.90238118171692 4.44977378845215 4.85486030578613
6.00171613693237 7.28563404083252 7.23291063308716 6.39150667190552 5.44196319580078 4.79596090316772 4.92859220504761 5.26874160766602 4.54617881774902 3.56197261810303 3.04498958587646 3.05949234962463 3.5059769153595 4.02810001373291 4.57676315307617 5.06792163848877 5.37858819961548 6.08396196365356 6.92882633209229 7.29161930084229 7.21844005584717 7.41987991333008 7.73127317428589 8.10728454589844 8.79672813415527 9.18123340606689 9.43764972686768 10.5986700057983 11.5926904678345 12.2703819274902 12.4538526535034 12.7689752578735 13.888521194458 14.4288997650146 14.1990079879761 14.2844591140747 16.5991725921631 17.0911121368408 19.3438758850098 19.1251544952393 15.5243377685547 14.5587606430054 13.5725374221802 11.714448928833 10.0893611907959 9.04258918762207 8.05444049835205 7.90160083770752 8.82124423980713 8.46919822692871 7.08796262741089 7.52936124801636 5.26383781433105 4.33135271072388 4.89520978927612 5.47265863418579 7.94569730758667 11.2272253036499 11.2193813323975 9.51704025268555 6.59205293655396 5.10044240951538 4.97665643692017 6.74104499816895 6.47128486633301 6.13075399398804 2.97987961769104 1.87158811092377 4.91673517227173 4.45122098922729 0.739014327526093 -0.225089088082314 0.839195370674133 2.55171060562134 1.57815647125244 1.1246110200882 1.39767479896545 1.78726446628571 2.54145503044128 3.26720952987671 6.49219751358032 15.7887544631958 13.095929145813 3.75232434272766 4.29406023025513 0.873272478580475 -1.74656939506531 -1.51251792907715 -1.18405830860138 -0.584376931190491 0.109572805464268 -0.243849635124207 -0.328899741172791 0.156853675842285 0.403231620788574 1.09411776065826 1.85823905467987 3.13200807571411 4.61379909515381 9.91687965393066 8.99949359893799 1.46038925647736 -0.0221877321600914 -0.0859718024730682 -0.199242547154427 -0.178243592381477 -0.412820011377335 -0.862011015415192 -0.741422533988953 -0.499841392040253 -0.281998574733734 -0.311825543642044 -0.295679539442062 -0.42279651761055 -0.443050801753998 -0.428683638572693 -0.488894045352936 -0.551642179489136 -0.580770194530487 -0.41767030954361 -0.181845486164093 -0.0768125131726265 -0.130037859082222 -0.112785957753658 0.0161366108804941 0.19185645878315 0.926725387573242 1.49125587940216 2.23073887825012 2.86339592933655 3.24947190284729 3.37508773803711 3.47413420677185 3.61571598052979 3.85788655281067 4.28483819961548 4.73261260986328 5.65328884124756 6.3734564781189 6.99347019195557 8.58769989013672 7.15728139877319 5.93941116333008 5.56830596923828 5.83575439453125 4.32064342498779 3.86973309516907 4.20118570327759 4.31102132797241 3.97953629493713 3.5479040145874 3.13701844215393 3.22418570518494 3.23479652404785 3.1010057926178 4.05505132675171 3.59151220321655 2.07338070869446 1.16468739509583 1.05518007278442 0.836883306503296 0.877762198448181 0.913159251213074 0.93238765001297 1.5965211391449 2.06648063659668 2.510085105896 3.04316568374634 3.4626145362854 3.7063148021698 4.11981201171875 4.44660043716431 5.29564046859741
