NCOLS 173
NROWS 32
XLLCORNER 353920
YLLCORNER 6700464
CELLSIZE 16 
NODATA_value -3.4e+38 
5.71645069122314 6.31281995773315 6.88197326660156 7.91635656356812 7.59673929214478 8.16864109039307 10.2102470397949 2.98489427566528 -0.158359333872795 0.894331157207489 1.66259098052979 1.26467907428741 1.37750923633575 1.82460689544678 1.65482306480408 2.18941760063171 2.6396050453186 2.91648268699646 3.40726113319397 1.16803276538849 1.5334792137146 2.90570521354675 1.34931397438049 0.482889026403427 1.29073977470398 1.25900030136108 0.977661550045013 1.54548573493958 2.17488431930542 -0.261465340852737 -0.137921899557114 0.907444179058075 4.31678485870361 1.10796439647675 0.0952103435993195 0.0558601282536983 0.0500206872820854 0.185443192720413 1.28289127349854 1.83315706253052 1.64169585704803 1.97521770000458 2.18485283851624 2.35734438896179 2.52623438835144 2.62363243103027 2.69661211967468 2.78659129142761 2.85015678405762 2.78931021690369 2.84193897247314 2.84266018867493 2.7873899936676 2.71662998199463 2.4089879989624 2.46690535545349 2.46593379974365 2.30319857597351 2.27775287628174 2.19991183280945 2.38393568992615 2.43260717391968 2.63579869270325 2.7643301486969 2.83563113212585 3.14753079414368 3.49282217025757 3.90023303031921 4.09452724456787 4.63866853713989 5.21683073043823 5.97142028808594 7.22690582275391 8.05563735961914 8.87177658081055 9.656174659729 10.1911306381226 10.550407409668 10.0532159805298 9.37802696228027 7.99343299865723 5.64367294311523 4.81916570663452 3.92171263694763 4.08625984191895 4.19163846969604 4.35958003997803 4.16404867172241 4.23547220230103 3.82213521003723 3.69569206237793 3.17623162269592 3.10085272789001 2.43693375587463 2.39621114730835 2.38874650001526 2.48169493675232 2.48475289344788 2.44073605537415 2.62243509292603 2.78278589248657 2.88135981559753 2.98689293861389 3.20193886756897 3.32509565353394 3.41730618476868 3.52922177314758 3.65693140029907 3.63731265068054 3.68629145622253 3.72241711616516 3.6822521686554 3.82767105102539 3.80431723594666 3.75717306137085 3.72455430030823 3.70770406723022 3.6016149520874 3.36989116668701 3.19496726989746 3.22253966331482 3.28506064414978 3.53602719306946 3.61537480354309 3.71511363983154 3.82247948646545 3.912353515625 4.2589316368103 5.12971544265747 5.84340715408325 6.71728706359863 7.11581993103027 7.89898586273193 8.76975059509277 9.8198184967041 12.0589189529419 13.4083995819092 19.1521415710449 17.2841567993164 13.6312141418457 9.45558834075928 0.190452292561531 -3.68754887580872 -3.54122543334961 -3.27627873420715 -3.00919342041016 -2.74437046051025 -2.29083442687988 -1.40720462799072 0.747366726398468 3.55658936500549 5.73844957351685 8.68103981018066 11.5889673233032 13.536358833313 14.7154388427734 15.2486925125122 16.6215057373047 17.7100143432617 9.62434864044189 -0.384186953306198 -0.0432441607117653 0.654423356056213 1.61007237434387 2.87212800979614 3.57507801055908 3.80781602859497 4.49793434143066 4.89366102218628 5.22040796279907 5.76141929626465 6.18365478515625 6.76038885116577
5.16476440429688 6.18214559555054 7.34359312057495 8.30005645751953 7.98045587539673 7.64793300628662 8.09051132202148 6.29888677597046 -0.548840224742889 -0.26572385430336 -0.0360697619616985 0.106487564742565 0.167469039559364 0.213442116975784 0.545102298259735 1.04313588142395 1.78439712524414 2.35131049156189 1.67521381378174 0.658925175666809 2.05408716201782 4.54957866668701 2.80871224403381 1.13801038265228 2.21916818618774 1.84961020946503 2.50527429580688 1.73667800426483 0.337793052196503 -0.451031893491745 -0.420914679765701 -0.246108904480934 1.67162418365479 0.572473764419556 0.228259459137917 0.103913761675358 0.0866591408848763 0.135620400309563 0.230186522006989 0.595713794231415 1.23930084705353 1.77521562576294 2.11066627502441 2.56381583213806 2.42816257476807 2.54338717460632 2.66855597496033 2.76769185066223 2.85375595092773 2.9334020614624 2.98345255851746 2.93405628204346 2.98955249786377 2.98977971076965 2.94510889053345 3.00430059432983 2.91850519180298 2.5826632976532 2.5897204875946 2.45640397071838 2.4260778427124 2.33489727973938 2.50307083129883 2.54281687736511 2.7448365688324 2.89882278442383 3.04722332954407 3.47692513465881 3.71247696876526 4.12664365768433 4.62874603271484 5.33680725097656 6.11519908905029 7.09945821762085 8.76972198486328 9.53928852081299 11.0999717712402 11.7221460342407 11.9282169342041 12.1138820648193 10.9026250839233 11.0898561477661 9.96031379699707 6.26487350463867 3.75451517105103 4.12497663497925 4.49367570877075 4.80099105834961 4.96404457092285 4.78453779220581 4.82584428787231 4.29450178146362 4.23119163513184 4.17997789382935 3.1562705039978 2.87062501907349 2.5808413028717 2.41373825073242 2.41788291931152 2.55474185943604 2.67764449119568 2.79094433784485 2.95821213722229 3.08123111724854 3.17358112335205 3.39653325080872 3.5343222618103 3.65299534797668 3.79391145706177 3.95345377922058 3.95457196235657 4.08307886123657 4.24610185623169 4.24610757827759 4.0877366065979 4.07193231582642 4.02694129943848 3.99893665313721 3.95774126052856 3.8387131690979 3.57354140281677 3.47813391685486 3.41395854949951 3.46646165847778 3.75062251091003 3.85861945152283 3.99905776977539 4.14944839477539 4.38979244232178 4.84167051315308 5.79538583755493 6.10085773468018 7.09546661376953 8.13443183898926 9.39326286315918 10.5154247283936 12.438440322876 17.3114032745361 14.3640050888062 12.9417114257812 8.66015625 0.745350182056427 -3.46733665466309 -3.31806898117065 -3.09058856964111 -2.88477230072021 -2.66621732711792 -2.3384325504303 -1.45683205127716 0.387759387493134 2.35906624794006 4.95260238647461 7.19204711914062 10.9635782241821 12.9266023635864 13.5890245437622 16.0222873687744 18.8285427093506 17.620777130127 9.68187522888184 -0.966280043125153 -0.688599824905396 -0.110280133783817 0.47525542974472 0.995026111602783 2.31419086456299 3.22437691688538 3.90250849723816 4.19085073471069 4.94551944732666 5.33664703369141 5.65792274475098 6.30624532699585
4.16662120819092 4.77125597000122 6.30684423446655 8.55354785919189 9.57164573669434 7.21310520172119 6.9094409942627 7.98390102386475 3.41434621810913 -0.649777173995972 -0.362935245037079 -0.145482271909714 0.0176293253898621 0.151101186871529 0.201621517539024 0.215822383761406 1.15990817546844 1.27082145214081 0.156708374619484 0.386204481124878 1.9574511051178 4.90801858901978 5.02158069610596 1.09540796279907 1.83808207511902 3.37429094314575 4.33466291427612 1.75198543071747 -0.596754908561707 -0.578318238258362 -0.487618774175644 -0.323645204305649 0.419889122247696 1.49447524547577 0.128388777375221 0.468499541282654 0.0649703219532967 0.128173425793648 0.277516216039658 0.346455305814743 0.789866268634796 1.37325096130371 1.90034437179565 2.24456262588501 2.19080567359924 2.39324688911438 2.54782605171204 2.70219326019287 2.81096172332764 2.91386604309082 3.00866556167603 3.08726501464844 3.14288306236267 3.09526085853577 3.17332792282104 3.23165726661682 3.19674611091614 3.16111016273499 3.08056163787842 2.74384641647339 2.76861166954041 2.60955214500427 2.54946994781494 2.44955229759216 2.59629964828491 2.65964317321777 2.82587337493896 3.07822322845459 3.37011384963989 3.59694314002991 4.11718559265137 4.76834964752197 5.32718801498413 6.26308298110962 7.44129514694214 8.47331809997559 9.97906303405762 11.5514488220215 13.3189105987549 14.1149063110352 14.8290948867798 14.4342250823975 12.7665376663208 5.50997018814087 2.92836880683899 3.39129376411438 4.19682264328003 4.84907484054565 5.16399717330933 5.55569791793823 5.7184624671936 5.56737899780273 5.86894798278809 5.69633674621582 5.00206470489502 5.11554527282715 3.99530959129333 3.03920364379883 2.45002484321594 2.49790072441101 2.63917565345764 2.72677206993103 2.86757302284241 2.9997923374176 3.15939784049988 3.27725553512573 3.37256097793579 3.62414360046387 3.78054428100586 3.93275499343872 4.13075399398804 4.34300899505615 4.55429029464722 4.53214263916016 4.58239078521729 4.55116605758667 4.41914892196655 4.3857479095459 4.32135629653931 4.28841114044189 4.23827886581421 4.13761568069458 4.22611141204834 3.90041017532349 3.6628155708313 3.71075963973999 4.03557920455933 4.18399477005005 4.3034725189209 4.44443416595459 4.88826131820679 5.07236337661743 5.74027156829834 6.96610736846924 8.61479187011719 9.17561435699463 12.3299875259399 11.5860395431519 13.1185922622681 12.2592267990112 5.37405109405518 1.14076399803162 -2.7099723815918 -3.12338018417358 -2.94445466995239 -2.78090953826904 -2.52859282493591 -2.22530961036682 -1.52374219894409 0.178116679191589 1.53673672676086 4.0189471244812 6.484206199646 10.3305673599243 10.0323619842529 12.1133165359497 14.8254232406616 16.9239082336426 18.0992374420166 7.12143850326538 -1.33543729782104 -0.845693707466125 -0.154432162642479 0.421252608299255 0.860451638698578 1.42077648639679 2.62164855003357 3.10234665870667 3.47921633720398 4.31918239593506 4.56976222991943 5.40901803970337 5.81478118896484
3.14424824714661 3.48405027389526 4.74308347702026 5.87793207168579 7.63903093338013 13.2863311767578 4.23332548141479 4.80230474472046 8.00459480285645 -1.04735743999481 -0.862594187259674 -0.506372511386871 -0.142150267958641 0.0418120101094246 0.110367603600025 0.185829788446426 0.214589595794678 0.251369506120682 0.26348277926445 0.271282225847244 1.02307689189911 4.153564453125 4.60597610473633 0.467705637216568 1.11121761798859 3.26797604560852 5.03546142578125 5.1315393447876 -0.633193790912628 -0.659552693367004 -0.454126566648483 -0.291596204042435 0.190180957317352 2.17926788330078 0.618654489517212 0.257002294063568 0.155049875378609 0.152336329221725 0.164951533079147 0.237813949584961 0.492534726858139 1.01008594036102 1.43618774414062 1.79057037830353 1.96460914611816 2.26891183853149 2.30313348770142 2.549067735672 2.70126843452454 2.83681035041809 2.96774172782898 3.08997273445129 3.17951512336731 3.26274538040161 3.32647371292114 3.39867520332336 3.33011651039124 3.39786553382874 3.40154576301575 3.36741065979004 3.27197289466858 2.91087937355042 2.9070143699646 2.75007271766663 2.78339457511902 2.73176574707031 2.76769781112671 3.10567045211792 3.22470450401306 3.32182383537292 3.64238786697388 4.07829284667969 4.73850250244141 5.59279727935791 6.36234855651855 7.60980272293091 8.31139373779297 10.0521669387817 12.1523132324219 13.5876846313477 17.0362892150879 23.330394744873 12.5313386917114 5.78969860076904 2.14277172088623 2.63302397727966 3.41761803627014 4.48824214935303 5.29727792739868 5.74021768569946 5.93581485748291 6.39852952957153 6.82377147674561 6.76910161972046 7.01589441299438 7.04498958587646 6.35773229598999 6.07194757461548 4.63316249847412 3.34921216964722 2.68014907836914 2.67744565010071 2.77902483940125 2.91886878013611 3.08344769477844 3.20198345184326 3.36384344100952 3.49756002426147 3.62114477157593 3.91508221626282 4.13128089904785 4.35754919052124 4.58429765701294 4.78873348236084 4.94001245498657 4.86913013458252 4.95677185058594 4.91241455078125 4.79315090179443 4.73369693756104 4.65042591094971 4.61925172805786 4.74726963043213 4.64485311508179 4.56104898452759 4.25096750259399 4.0473804473877 4.03032827377319 4.17512702941895 4.46094179153442 4.69702196121216 4.92541313171387 5.71086502075195 6.9535551071167 8.67323970794678 8.83307456970215 8.89500331878662 10.0849313735962 16.8713703155518 11.4925384521484 2.45558762550354 1.34084916114807 -0.552135407924652 -2.81645703315735 -2.56887483596802 -2.68461298942566 -2.50604486465454 -2.1992883682251 -1.50536417961121 -0.129545703530312 1.20745182037354 3.04223728179932 5.19871997833252 10.1124811172485 7.26982593536377 10.5436010360718 12.8152923583984 17.3747062683105 14.5493259429932 5.73025274276733 -1.14201498031616 -0.818047285079956 -0.232622429728508 0.392503708600998 1.04697370529175 1.64748811721802 2.12163877487183 2.54901790618896 2.91153407096863 3.44855904579163 3.80167484283447 4.69030141830444 4.98756217956543
2.82758712768555 3.31033730506897 3.44345712661743 3.90785670280457 5.73426818847656 11.4466314315796 9.70953559875488 3.46061229705811 5.52595138549805 5.44250440597534 -1.16395998001099 -0.920643925666809 -0.449017375707626 -0.149213209748268 0.0218211077153683 0.13275434076786 0.175621032714844 0.249513015151024 0.371940404176712 0.411676019430161 1.09206962585449 2.18345546722412 2.23526048660278 1.35615396499634 0.868610560894012 1.99906587600708 4.90354347229004 6.39898061752319 -0.436992198228836 -0.467799633741379 -0.373528599739075 -0.0764279142022133 0.273604661226273 1.35865235328674 1.61042129993439 0.524448275566101 0.0985581278800964 0.12157104164362 0.222635731101036 0.117801740765572 0.289710730314255 0.684602856636047 1.11657583713531 1.38193047046661 1.51091420650482 1.88242089748383 2.0724470615387 2.38864946365356 2.43267369270325 2.69691133499146 2.84926295280457 2.99948620796204 3.1321222782135 3.21629881858826 3.33959078788757 3.4187970161438 3.50991725921631 3.58338737487793 3.53335332870483 3.63055372238159 3.60022282600403 3.55249762535095 3.42917990684509 3.03786277770996 3.11129689216614 3.12506246566772 2.97982454299927 2.97100067138672 3.07612895965576 3.26384258270264 3.39297533035278 3.71025538444519 4.20110940933228 4.79363584518433 5.61778116226196 6.82052230834961 7.60301399230957 8.91292095184326 10.7065286636353 12.0206117630005 14.7976856231689 23.8136940002441 22.7073421478271 8.53322887420654 1.91938102245331 2.02512669563293 2.61053395271301 3.64359712600708 4.85405206680298 5.61120510101318 6.31103038787842 6.87159395217896 7.50514650344849 7.80413103103638 8.61915874481201 8.47498989105225 9.08204555511475 8.29683876037598 7.22600221633911 7.06534099578857 2.30850124359131 2.37578129768372 2.54381418228149 2.70907688140869 2.87675809860229 3.07603716850281 3.27345395088196 3.41148066520691 3.60801720619202 3.76314282417297 3.95682764053345 4.19639253616333 4.59462356567383 4.79481887817383 4.9638352394104 5.16012525558472 5.34143114089966 5.30273056030273 5.39199209213257 5.3211727142334 5.36417961120605 5.37965106964111 5.23878526687622 5.08634424209595 5.14731645584106 5.12731122970581 5.14568376541138 4.72715520858765 4.65244007110596 4.75852918624878 4.85447692871094 5.50745820999146 6.7559700012207 7.41416692733765 7.90115547180176 6.64982318878174 5.91562175750732 8.44990825653076 16.5323276519775 11.1181020736694 3.09878253936768 0.226624488830566 6.99935722351074 -2.7948169708252 -2.35392642021179 -1.82055854797363 -1.51543605327606 -1.26410639286041 -0.867869973182678 -0.0532913468778133 1.2008969783783 2.51524758338928 4.72623872756958 8.09281158447266 5.90645408630371 7.36406278610229 8.73930263519287 15.4053602218628 6.9885368347168 0.577841758728027 -0.0508985556662083 -0.628991007804871 -0.309153825044632 0.378821492195129 1.14778590202332 1.73585271835327 2.17426586151123 2.46024036407471 2.61845850944519 2.80591368675232 3.16936922073364 3.74435353279114 4.14982748031616
2.83654761314392 3.21617531776428 3.42865753173828 2.88540315628052 3.48312187194824 5.14296197891235 11.7535943984985 4.16103792190552 3.56246829032898 8.28391170501709 -1.16704154014587 -1.1151397228241 -0.698015570640564 -0.360575258731842 -0.134105488657951 0.00864090397953987 0.140868917107582 0.209558308124542 0.355443179607391 0.396272778511047 0.730654001235962 0.462122827768326 0.62675416469574 1.79564237594604 1.54296278953552 2.08639669418335 3.41817784309387 5.30434989929199 2.40193057060242 -0.227345481514931 -0.170623585581779 0.230443134903908 0.545521378517151 0.919876575469971 2.02616381645203 0.641191363334656 0.26097971200943 0.0674685761332512 0.090814121067524 0.0103372596204281 0.181141227483749 0.440493762493134 0.771785914897919 0.996845066547394 1.1600079536438 1.43566715717316 1.57695758342743 1.97258698940277 2.17242407798767 2.51268649101257 2.57527589797974 2.6983335018158 2.91536831855774 3.08182191848755 3.25321459770203 3.37357425689697 3.51816439628601 3.62999248504639 3.72044372558594 3.79915499687195 3.7547447681427 3.82301330566406 3.7699830532074 3.7339198589325 3.83637189865112 3.73814821243286 3.34588146209717 3.37312293052673 3.2431583404541 3.20999073982239 3.23439455032349 3.4843966960907 3.83542490005493 4.27762413024902 4.98244428634644 5.88520431518555 6.79522323608398 7.49099683761597 11.6312990188599 9.79551601409912 11.7258157730103 15.4252414703369 25.4699306488037 17.1837692260742 2.136234998703 2.1018807888031 2.17913675308228 2.95911407470703 4.28235483169556 5.19343662261963 6.12671566009521 6.73914766311646 7.5227222442627 8.59146404266357 9.42100715637207 10.0991325378418 10.9815607070923 10.5556011199951 11.3655157089233 9.78111553192139 5.13028430938721 1.98365318775177 2.32775640487671 2.54122829437256 2.76924920082092 2.91626048088074 3.07539439201355 3.29328751564026 3.5110912322998 3.69926905632019 3.86857199668884 4.18669366836548 4.40905809402466 4.63198614120483 4.97674989700317 5.17323541641235 5.39807415008545 5.61688375473022 5.82250261306763 5.80001735687256 6.01247787475586 6.05157279968262 5.87491083145142 5.79209089279175 5.70403385162354 5.59682989120483 5.71942329406738 5.56014013290405 5.53411912918091 5.41042184829712 5.08542919158936 4.76601362228394 5.03285694122314 5.47353029251099 4.92160558700562 4.58397436141968 4.87204933166504 6.39717626571655 10.8395862579346 11.747218132019 6.25676250457764 -0.277123808860779 0.685308516025543 -1.80019557476044 -1.39615333080292 -0.992031037807465 -1.01722288131714 -0.559005796909332 -0.0433840192854404 0.170206964015961 0.955429196357727 1.95202040672302 3.27464771270752 5.44204425811768 4.79030704498291 4.66960859298706 5.85902786254883 9.90751361846924 4.6333909034729 -0.727897167205811 -0.589250206947327 -0.402986198663712 -0.105918243527412 0.446132719516754 1.13943040370941 1.80424177646637 2.26803231239319 2.59472012519836 2.71245718002319 2.66842484474182 2.88689684867859 3.11364459991455 3.49221897125244
2.86869335174561 4.02212238311768 4.96983432769775 3.02172613143921 1.27302289009094 1.74443745613098 7.62549066543579 3.13834857940674 1.6139155626297 4.71902894973755 7.85898780822754 -1.17546510696411 -0.996084809303284 -0.598065674304962 -0.303282648324966 -0.161851063370705 -0.00227756053209305 0.0871660262346268 0.24336750805378 0.357284367084503 0.455669820308685 0.471010088920593 0.576510846614838 1.3928382396698 1.68093252182007 1.44376027584076 2.82578754425049 3.78200125694275 3.96847033500671 -0.00959665793925524 0.052646815776825 0.380680322647095 0.829095363616943 1.06336724758148 2.4515106678009 0.947697937488556 0.524185121059418 0.365326642990112 0.202941030263901 0.159033715724945 0.154937475919724 0.35308638215065 0.498201787471771 0.64227968454361 0.802256524562836 1.03682076931 1.21292889118195 1.49099969863892 1.63984441757202 2.07869958877563 2.24494075775146 2.32081127166748 2.75159120559692 2.78967571258545 3.08954668045044 3.26916909217834 3.42930459976196 3.5643937587738 3.76558780670166 3.84815621376038 3.93005585670471 4.007981300354 3.93199849128723 4.03120040893555 4.14463520050049 4.12617349624634 4.14379072189331 4.05064296722412 3.67916655540466 3.71045088768005 3.60508704185486 3.56841206550598 3.70665717124939 4.0333194732666 4.56520891189575 5.30254697799683 6.06639194488525 6.76953077316284 9.02896213531494 9.06328105926514 10.5266447067261 11.9352798461914 18.2738361358643 18.9966812133789 11.33385181427 2.44353079795837 2.38462042808533 2.53822445869446 3.64043235778809 4.67887449264526 5.77949094772339 6.48075485229492 7.28172636032104 8.50492763519287 9.34330749511719 10.769923210144 11.1425704956055 11.9974126815796 13.2784156799316 9.21951389312744 3.16353464126587 1.52253139019012 1.78309333324432 2.22595381736755 2.5595531463623 2.76188445091248 2.94770836830139 3.16205787658691 3.4224374294281 3.69269943237305 3.88728427886963 4.11418581008911 4.28062105178833 4.55023860931396 4.73633813858032 4.93936014175415 5.3194694519043 5.54768705368042 5.82651853561401 6.05266332626343 6.31426572799683 6.51676177978516 6.55929565429688 6.66823768615723 6.5890531539917 6.64529848098755 6.49681425094604 6.34722995758057 6.72381067276001 7.50751066207886 8.45528221130371 8.9686861038208 6.67860841751099 4.99987745285034 4.27914047241211 4.48941946029663 4.69994688034058 4.88151216506958 6.66111660003662 7.16802597045898 6.19890356063843 2.68240714073181 2.84315156936646 2.38981604576111 5.8769850730896 4.19222068786621 0.615774273872375 -0.585808992385864 -0.833257615566254 -0.0625371858477592 0.649307429790497 1.56950318813324 2.37257766723633 3.02135705947876 3.42871809005737 4.27638673782349 4.25640392303467 4.69654607772827 2.55127334594727 -0.222745001316071 -0.403283149003983 -0.190216258168221 0.170764982700348 0.630243003368378 1.22164368629456 1.8854044675827 2.27599954605103 2.59422087669373 2.80566358566284 2.92549633979797 3.0669481754303 3.2180962562561 3.28590178489685
2.29539823532104 2.80547690391541 4.72411680221558 0.347707003355026 0.937878787517548 0.673207104206085 2.25295090675354 0.906386137008667 2.14232802391052 0.44359827041626 5.30903625488281 5.74438524246216 -1.07161152362823 -0.856159150600433 -0.489016622304916 -0.294688880443573 -0.119349285960197 -0.00682473974302411 0.116871625185013 0.245663806796074 0.360558688640594 0.464529126882553 0.589339435100555 1.07202339172363 1.57420825958252 0.975147545337677 1.63370716571808 3.14163064956665 2.83232855796814 0.332581758499146 0.26919761300087 0.455844849348068 0.821337938308716 1.05093657970428 2.43411159515381 1.38328158855438 0.875675737857819 0.749996364116669 0.587509632110596 0.426592141389847 0.241197228431702 0.343342423439026 0.401021957397461 0.432835072278976 0.529735028743744 0.680783867835999 0.847704291343689 1.09795343875885 1.29354441165924 1.60082733631134 1.76669037342072 1.9808806180954 2.29070138931274 2.49474382400513 2.8996753692627 2.94717907905579 3.29513144493103 3.46877264976501 3.64631247520447 3.79857015609741 3.97903513908386 4.04973840713501 4.15244388580322 4.25853872299194 4.36912298202515 4.3470025062561 4.49573612213135 4.48584651947021 4.54534435272217 4.44380235671997 4.07282257080078 4.12118291854858 4.18097400665283 4.26647710800171 4.45067644119263 4.95748567581177 5.60421466827393 6.21212768554688 8.31652164459229 9.25057506561279 10.1545362472534 9.78591060638428 12.0017013549805 18.8292694091797 13.4316644668579 5.67758464813232 2.66476225852966 2.74032378196716 3.1291344165802 4.10307836532593 5.37878608703613 6.17592620849609 6.91876173019409 8.21701526641846 9.02037715911865 10.4954566955566 11.1245489120483 12.7312602996826 16.7201061248779 9.5990514755249 1.31875860691071 1.10173511505127 1.39525997638702 1.68727576732635 2.28196787834167 2.64145994186401 2.81295418739319 3.11226415634155 3.4981541633606 3.72432041168213 3.82786655426025 4.08267116546631 4.35061120986938 4.55389833450317 4.72480440139771 4.98887777328491 5.21711015701294 5.47837114334106 5.91263484954834 6.18300771713257 6.44118070602417 6.7647271156311 7.07638168334961 7.29921245574951 7.47503328323364 7.5654764175415 7.5393853187561 7.5728497505188 7.39222049713135 8.97652435302734 10.2742700576782 9.43831348419189 6.26228189468384 6.00997638702393 5.06395387649536 5.43626260757446 4.73102140426636 4.28984880447388 4.79106283187866 4.78635311126709 4.95749855041504 5.11840009689331 4.53020095825195 5.30880260467529 8.2338809967041 9.45452499389648 -1.93391919136047 -1.53070819377899 -1.04365050792694 -0.235602483153343 0.21544274687767 1.62551069259644 2.53554725646973 2.59416246414185 2.61450052261353 2.66308379173279 3.70553016662598 1.76198828220367 -0.436028093099594 -0.243890941143036 -0.123607270419598 0.102475456893444 0.3713219165802 0.733077645301819 1.23458695411682 1.8852527141571 2.42857503890991 2.95713472366333 3.20112609863281 3.28756999969482 3.30435276031494 3.33443856239319 3.32305097579956
-0.894538819789886 0.298989206552505 1.37930870056152 0.145892530679703 -0.881116151809692 0.446357488632202 -0.813338935375214 0.512031972408295 1.55169904232025 -0.828262567520142 0.24987405538559 3.96273326873779 -0.418000161647797 -0.752176940441132 -0.575203835964203 -0.36972588300705 -0.179969400167465 -0.0588437095284462 0.0423337109386921 0.178496509790421 0.276164084672928 0.38742384314537 0.504640519618988 0.594451010227203 1.28167605400085 0.982453763484955 1.14998114109039 1.98515105247498 2.29797267913818 0.56974595785141 0.54950624704361 0.653707504272461 0.736207544803619 1.07142102718353 2.14090943336487 1.89933967590332 1.05396616458893 0.995872735977173 0.980506956577301 0.887049078941345 0.678106129169464 0.496324449777603 0.298209518194199 0.358101844787598 0.423769056797028 0.461422145366669 0.568030834197998 0.73876827955246 0.928568005561829 1.22126078605652 1.34041142463684 1.47418963909149 1.80599546432495 2.00439262390137 2.4197359085083 2.62803387641907 3.08209872245789 3.16397380828857 3.5054829120636 3.67465114593506 3.84975242614746 3.97844076156616 4.11636734008789 4.34412574768066 4.48570394515991 4.62324380874634 4.75510740280151 4.7556209564209 4.92899751663208 4.92452573776245 5.04462718963623 4.9468469619751 4.76254415512085 4.8363242149353 4.92858266830444 4.98389005661011 5.44622278213501 5.92487716674805 7.59481811523438 9.76512241363525 9.15335083007812 8.88427257537842 9.7676830291748 13.7927865982056 15.8157024383545 8.51468467712402 2.77599167823792 2.76446533203125 3.08902716636658 3.72418308258057 5.05334186553955 5.84429979324341 6.54648590087891 7.79638433456421 8.5872163772583 10.3354082107544 11.1210470199585 13.1081562042236 17.0579299926758 13.2745952606201 2.83728861808777 0.799522876739502 1.06846868991852 1.44145560264587 2.00829148292542 2.39741468429565 2.72019410133362 3.01194834709167 3.49018359184265 3.71965408325195 3.93007969856262 4.16058254241943 4.28942346572876 4.52322864532471 4.7702522277832 4.97315645217896 5.15140533447266 5.48904800415039 5.78258323669434 6.07959175109863 6.40405511856079 6.85726976394653 7.1929144859314 7.66064691543579 8.03853607177734 8.24216556549072 8.58769416809082 8.64790439605713 8.74784278869629 10.6188678741455 10.8732900619507 7.56578302383423 6.90050983428955 6.47999620437622 6.31207990646362 7.1077127456665 5.53214693069458 4.29574966430664 4.01384258270264 4.39753818511963 5.12587547302246 5.48127269744873 6.26472043991089 7.62794303894043 7.17052459716797 7.98817157745361 -2.4067976474762 -1.63024246692657 -0.677608847618103 3.09457945823669 3.39079332351685 7.07394456863403 4.333824634552 1.9022935628891 1.94380712509155 1.76149451732635 1.54095613956451 0.651380717754364 -0.400222033262253 -0.0950462073087692 0.142417892813683 0.32345575094223 0.52648001909256 0.873413503170013 1.288041472435 1.6725926399231 2.67633390426636 3.08962297439575 3.28426837921143 3.39169001579285 3.52914619445801 3.57277345657349 3.53300738334656
-0.680290400981903 -1.02424907684326 -0.97607558965683 -0.907031953334808 -0.883128225803375 -0.8153977394104 -0.752144992351532 0.122041635215282 1.51983857154846 -0.699326753616333 -0.0858007743954659 1.77259230613708 0.412631928920746 -0.57175350189209 -0.464450061321259 -0.38522732257843 -0.207504436373711 -0.0485731475055218 0.0293178353458643 0.126143351197243 0.237804636359215 0.344944804906845 0.408311635255814 0.485375285148621 0.8235684633255 0.658018827438354 0.822243690490723 1.47510409355164 1.91501808166504 0.755782008171082 0.767607748508453 0.785522401332855 0.852269470691681 1.06998765468597 1.35943651199341 2.49947834014893 1.1219756603241 1.12503480911255 1.17103111743927 1.15805995464325 1.13872933387756 1.05672228336334 0.831786811351776 0.836765944957733 0.747017443180084 0.561360061168671 0.475768536329269 0.525570213794708 0.673456311225891 0.851460993289948 0.953203141689301 1.08120632171631 1.36290955543518 1.59019303321838 1.96175646781921 2.16221594810486 2.55787396430969 2.80122923851013 3.28692388534546 3.32729578018188 3.43512892723083 3.7799756526947 3.99410438537598 4.22184610366821 4.46862697601318 4.74140214920044 4.92729473114014 5.08074140548706 5.22971153259277 5.3802056312561 5.67464351654053 5.74545621871948 6.02970170974731 6.07807922363281 5.95703744888306 5.77460479736328 6.07568216323853 6.39112186431885 7.04587697982788 9.27133369445801 8.94338893890381 7.53541135787964 8.41365051269531 11.2392253875732 11.9723691940308 10.0509061813354 5.04286241531372 2.97481322288513 3.05123233795166 3.63439583778381 4.50016689300537 5.37067461013794 6.07800722122192 7.37061405181885 8.09111213684082 9.85910701751709 11.1546907424927 12.9616041183472 17.4599456787109 14.5863838195801 4.88892507553101 1.14654755592346 1.43968534469604 1.41620540618896 2.32928681373596 2.31841397285461 2.55901169776917 2.84613299369812 3.31234931945801 3.66743922233582 3.92360830307007 4.11959981918335 4.36044502258301 4.55099582672119 4.70239591598511 4.97785329818726 5.17814970016479 5.48150634765625 5.81969594955444 6.13392496109009 6.48703670501709 6.81251811981201 7.24193429946899 7.767737865448 8.17770767211914 8.71173191070557 9.17858791351318 9.33245372772217 9.82269763946533 10.0994386672974 9.29729080200195 8.70339679718018 8.43989944458008 7.30191850662231 6.54415702819824 7.23604869842529 7.89721298217773 8.86285400390625 5.160560131073 3.65396571159363 4.22283792495728 4.93776512145996 5.41704416275024 6.3343186378479 8.29926681518555 0.62327116727829 -2.70492196083069 -2.14510416984558 -0.236264243721962 3.65956926345825 6.73185253143311 10.4133176803589 5.74737358093262 -0.0407385714352131 0.745504140853882 1.92470741271973 1.03125238418579 1.30274415016174 0.814301311969757 0.208173006772995 0.148564517498016 0.410384595394135 0.676924228668213 1.00345873832703 1.38474929332733 1.76922225952148 2.46038627624512 2.85102963447571 3.07651233673096 3.30583119392395 3.6777446269989 3.76029014587402 3.80371928215027
3.27792882919312 0.6779465675354 -1.03521776199341 -0.94609147310257 -0.850611567497253 -0.784247219562531 -0.764776051044464 -0.637346506118774 -0.324867635965347 -0.545344889163971 -0.486260116100311 1.10986256599426 0.373810946941376 -0.41357296705246 -0.366534799337387 -0.315442949533463 -0.210620865225792 -0.0666161477565765 0.0317767262458801 0.099971204996109 0.173863112926483 0.267738908529282 0.337206304073334 0.411064833402634 0.476923227310181 0.5515376329422 0.643827497959137 1.03160226345062 1.20145905017853 0.820332825183868 0.836285948753357 0.958890676498413 1.05391037464142 1.16362023353577 1.34605205059052 2.76356244087219 1.28707504272461 1.18478548526764 1.23798489570618 1.28642666339874 1.36562263965607 1.37564921379089 1.38557183742523 1.36030244827271 1.5217672586441 1.26893699169159 1.19516098499298 1.38525414466858 1.87048745155334 1.22074472904205 0.714207172393799 0.751071155071259 0.932235479354858 1.15528845787048 1.46517360210419 1.7418384552002 2.11990880966187 2.3076958656311 2.71489357948303 2.86409187316895 3.02189898490906 3.54749441146851 3.66903185844421 4.12351751327515 4.37377977371216 4.63220119476318 4.96058893203735 5.26211166381836 5.4984188079834 5.67648363113403 5.99265909194946 6.50432109832764 7.18421697616577 7.41230583190918 8.07824897766113 8.38967037200928 7.87409543991089 7.77560710906982 7.97653341293335 8.13143825531006 10.9076833724976 8.35483551025391 7.27443933486938 9.43406772613525 9.87467479705811 8.6226110458374 6.13003873825073 4.63773393630981 3.21363496780396 3.392902135849 4.25635576248169 5.1024317741394 5.73174571990967 6.7109169960022 7.89063262939453 9.20885181427002 10.4220237731934 12.5628452301025 19.7076244354248 13.1674299240112 3.44242000579834 1.58016169071198 2.15961790084839 2.33824062347412 2.94049978256226 3.13473463058472 3.86439633369446 3.72264623641968 4.68857336044312 4.46269464492798 3.77685356140137 4.05809926986694 4.28692436218262 4.49182653427124 4.80678367614746 5.05315446853638 5.18377304077148 5.53036308288574 5.87211418151855 6.26756238937378 6.62066459655762 6.96607255935669 7.3731427192688 7.76926517486572 8.34477043151855 8.80394840240479 9.19723224639893 9.88549423217773 10.4030685424805 10.5052309036255 10.0356273651123 10.3106393814087 10.027774810791 10.1651287078857 8.93531513214111 8.04803943634033 8.81352424621582 9.43031215667725 6.09947395324707 2.82722163200378 1.56328678131104 2.3423535823822 4.69961261749268 3.25893449783325 7.72269535064697 -2.31022119522095 -2.59821200370789 -2.01891541481018 1.99326276779175 7.73900127410889 5.7454981803894 3.86702251434326 5.81849765777588 -1.31366968154907 -0.699848890304565 2.02588820457458 1.02186381816864 0.415100455284119 1.71108734607697 3.27271342277527 0.0363429076969624 0.29990491271019 0.749833822250366 1.05756151676178 1.40210962295532 1.7770482301712 2.22756767272949 2.54435420036316 2.75306367874146 3.12753844261169 3.44942951202393 3.82328748703003 3.98188042640686
1.3013916015625 2.04784274101257 -0.0247799251228571 -0.977906286716461 -0.865966200828552 -0.767108142375946 -0.695992290973663 -0.61804062128067 -0.492767184972763 -0.409869700670242 -0.325872451066971 0.116563849151134 0.234151244163513 0.178089782595634 -0.206192702054977 -0.243136838078499 -0.179825499653816 -0.0792354643344879 0.00793285015970469 0.0714778453111649 0.159254744648933 0.205900982022285 0.237627163529396 0.327510625123978 0.411868900060654 0.507809698581696 0.527129769325256 0.602263927459717 0.650145173072815 0.780783534049988 0.874943554401398 1.03333163261414 1.10246872901917 1.36143219470978 1.49560070037842 2.76744651794434 1.38799691200256 1.38431966304779 1.41209769248962 1.37579870223999 1.45290267467499 1.53436398506165 1.68342900276184 1.80007779598236 2.00562953948975 2.05359601974487 2.32732129096985 2.55991101264954 3.09834384918213 2.46110892295837 0.795642197132111 0.826069593429565 0.876904904842377 0.950265347957611 1.03185141086578 1.23963105678558 1.58404159545898 1.90616965293884 2.29594230651855 3.15109610557556 2.52244758605957 2.94882845878601 3.32158207893372 3.92531585693359 4.11037635803223 4.63569784164429 4.93013715744019 5.23850202560425 5.66673564910889 6.00649881362915 6.3527307510376 6.85070276260376 7.40841197967529 8.05859470367432 8.73952865600586 9.55439186096191 10.6083507537842 11.0393228530884 10.9329996109009 10.8583307266235 13.5908117294312 11.4557771682739 7.27902317047119 8.1477689743042 8.29980182647705 7.20922613143921 6.51467752456665 4.17098474502563 3.28925347328186 3.42195391654968 4.10594320297241 4.78320503234863 5.38248586654663 5.90405654907227 6.9566764831543 8.42676830291748 10.3510494232178 11.9507436752319 16.1269111633301 13.0289258956909 2.40491700172424 2.0822639465332 2.56637930870056 2.72700381278992 3.40473556518555 3.72232675552368 4.59378671646118 4.78416585922241 5.88275480270386 6.93258428573608 7.41253519058228 6.49141931533813 4.81847143173218 4.38536071777344 4.69694042205811 4.99729204177856 5.44375801086426 5.80250597000122 6.09140348434448 6.41989135742188 6.69650650024414 7.13983106613159 7.56091737747192 8.03512477874756 8.58217334747314 8.87912654876709 9.3483304977417 9.88556480407715 9.98437881469727 10.2294483184814 10.5033941268921 11.2039136886597 11.5716209411621 12.3521385192871 10.6442251205444 11.2366409301758 10.4815454483032 8.27608680725098 6.15962696075439 2.40115833282471 -2.24239945411682 -1.92084097862244 -0.512229919433594 3.78012442588806 -1.02488350868225 -1.65540039539337 -1.57523512840271 -1.36358416080475 1.2582391500473 4.27720880508423 5.80100250244141 -1.17344665527344 1.2558159828186 -0.0845377594232559 0.193633511662483 -0.108057752251625 -0.55265337228775 0.0990040898323059 1.65000450611115 2.66640973091125 2.39348959922791 0.145047634840012 0.677067160606384 1.29672133922577 1.59362888336182 1.89512658119202 2.17370057106018 2.3372483253479 2.55891108512878 2.85649991035461 3.16030669212341 3.66665720939636 3.86894154548645
-0.908307552337646 -0.877069890499115 1.17163753509521 -0.872261345386505 -0.800010502338409 -0.440524846315384 -0.58872401714325 -0.50756824016571 -0.435881644487381 -0.358149856328964 -0.216124966740608 -0.163367450237274 -0.0125948684290051 0.453446805477142 -0.0442596152424812 -0.114777013659477 -0.0862276926636696 -0.0716408640146255 -0.0115927122533321 0.0768381804227829 0.178592279553413 0.207472860813141 0.216206148266792 0.258414447307587 0.307924509048462 0.446393370628357 0.476388365030289 0.560793817043304 0.636717557907104 0.731143414974213 0.80603963136673 0.974191308021545 1.09218406677246 1.35996735095978 1.45702540874481 2.62142634391785 1.54476094245911 1.56916737556458 1.56571531295776 1.65773403644562 1.69353878498077 1.70870387554169 1.81260979175568 2.00041151046753 2.22538256645203 2.58219075202942 3.04042911529541 3.55200266838074 4.20335245132446 3.62004446983337 1.60037744045258 0.86980003118515 0.88999879360199 0.934660494327545 1.04816699028015 1.15249574184418 1.23388755321503 1.35462260246277 1.73114621639252 1.87041306495667 2.12585663795471 2.52943205833435 2.76350259780884 3.35773968696594 3.79487776756287 4.42946624755859 4.7448296546936 5.32901668548584 5.63013029098511 5.95205736160278 6.45391654968262 7.00020265579224 7.54843139648438 8.24729633331299 8.96674346923828 9.92226505279541 11.1826419830322 13.0989055633545 15.4316692352295 15.5230646133423 17.7500762939453 14.1437520980835 10.5395050048828 8.43818759918213 7.3673939704895 5.93763732910156 4.89340019226074 3.45190691947937 3.57974982261658 3.48656988143921 3.70496511459351 4.47793769836426 5.17595958709717 5.65395641326904 6.67236328125 7.8357458114624 9.34559631347656 10.6900205612183 16.9840393066406 11.0990037918091 2.80390238761902 2.6499936580658 2.96616673469543 3.26126265525818 3.74840140342712 4.21728467941284 5.41483545303345 5.49443387985229 6.4945969581604 7.44542407989502 8.37606906890869 8.82025337219238 10.0850620269775 9.63511657714844 8.41669750213623 4.86407375335693 5.35730028152466 5.8348970413208 6.42385339736938 6.76437616348267 6.93146324157715 7.35794115066528 7.63318777084351 8.2060079574585 8.73046112060547 9.87404441833496 10.9373168945312 9.51779556274414 9.1639461517334 9.71383666992188 10.3826913833618 11.4886903762817 12.7066078186035 14.0062761306763 12.8727951049805 13.482494354248 11.3281421661377 6.57361650466919 3.07654285430908 -0.705522894859314 -3.09511923789978 -3.01841020584106 -2.35071897506714 -0.854555487632751 0.41545844078064 1.22390162944794 1.12932980060577 1.34689545631409 -0.912684440612793 -0.31380307674408 1.99442887306213 -0.790623664855957 -0.688376069068909 0.0637255311012268 5.28174495697021 -0.805828094482422 -0.800804734230042 -0.789230585098267 0.576059281826019 4.39287376403809 3.81644725799561 0.197323769330978 0.509634077548981 1.2274386882782 1.77924752235413 1.97502815723419 2.16468906402588 2.24123549461365 2.44418263435364 2.63999795913696 2.92712306976318 3.32058787345886 3.57388353347778
-0.811734557151794 -0.792383372783661 -0.753593266010284 -0.726184785366058 -0.624034345149994 -0.532813847064972 -0.461493015289307 0.458172976970673 -0.374308079481125 -0.187941029667854 -0.00426107365638018 0.0139431646093726 -0.020661972463131 0.272645443677902 0.29217928647995 0.15494929254055 -0.0383494608104229 -0.0193898323923349 0.00458809873089194 0.070946954190731 0.201405510306358 0.244972467422485 0.279089272022247 0.28652611374855 0.324670046567917 0.381531029939651 0.42822653055191 0.49300080537796 0.596463799476624 0.692632138729095 0.780523777008057 0.897320866584778 1.00429904460907 1.23923552036285 1.3732613325119 1.37414729595184 1.61419641971588 1.89193022251129 1.83623278141022 1.90573441982269 1.93686151504517 2.07691335678101 2.13790249824524 2.259596824646 2.53261613845825 2.83026742935181 3.29534220695496 4.07053279876709 4.89179801940918 4.74418210983276 3.33873438835144 1.19878005981445 0.906468868255615 0.923457622528076 1.00786316394806 1.15639817714691 1.29477024078369 1.38955926895142 1.46434700489044 1.51382291316986 1.59791016578674 1.94661998748779 2.33158493041992 2.76648855209351 2.99574732780457 3.64200353622437 4.22707319259644 4.9919056892395 5.22738122940063 5.63683700561523 6.29583168029785 6.76057243347168 7.49801206588745 8.33905220031738 9.07927989959717 9.98757076263428 11.4810476303101 13.8385486602783 16.2434024810791 20.7940254211426 25.0743942260742 22.5573596954346 9.2919979095459 8.63610363006592 6.57100009918213 5.25103425979614 4.88611841201782 4.00308227539062 3.59139657020569 3.55301070213318 3.69902372360229 4.0633020401001 4.72667598724365 5.15887069702148 6.28498029708862 7.25809383392334 8.58761596679688 10.1935110092163 13.6927909851074 12.1650123596191 6.02889728546143 3.14809393882751 3.17100143432617 3.56643319129944 4.32023048400879 5.03353691101074 6.2090916633606 6.68724203109741 8.05059623718262 7.83991050720215 8.48624324798584 9.3430757522583 10.9045572280884 12.2211532592773 12.220534324646 7.47887516021729 3.78134679794312 5.03404521942139 6.39486074447632 6.94747114181519 7.43447923660278 7.71287822723389 7.99044752120972 8.47279834747314 9.23567962646484 10.1830797195435 11.5436372756958 9.00026035308838 9.08074378967285 9.71949005126953 10.4625654220581 11.4838962554932 12.4235696792603 13.5039253234863 13.3843145370483 12.6755895614624 10.4909620285034 4.80917501449585 -0.806974470615387 -3.72097563743591 -3.56828856468201 -3.24089050292969 -2.47409272193909 -1.56480634212494 -0.533462345600128 1.5279883146286 3.16022610664368 4.80825328826904 -0.0270202271640301 -0.400999873876572 -0.112818345427513 -0.0237986799329519 0.0374632850289345 1.47419202327728 3.21737599372864 4.80035877227783 -0.578907907009125 -0.595395445823669 -0.335126250982285 2.57936596870422 5.44234180450439 0.120236836373806 0.437317043542862 0.999161183834076 1.63550662994385 1.93849039077759 2.10559439659119 2.27110290527344 2.40598058700562 2.48274517059326 2.72245335578918 3.03919744491577 3.31469011306763
0.448911815881729 -0.115703247487545 -0.6390500664711 -0.597201943397522 -0.446627736091614 -0.397136092185974 -0.30028024315834 -0.312332600355148 -0.249370157718658 0.220888942480087 0.0633223950862885 0.018473831936717 0.0821710824966431 0.0914319828152657 0.653142690658569 0.629909336566925 0.000454758614068851 0.0214704796671867 0.0308444760739803 0.0727842971682549 0.262055665254593 0.385483920574188 1.12751007080078 1.17548990249634 0.419745683670044 0.377789109945297 1.667884349823 0.538739383220673 0.563085794448853 0.580378174781799 0.65970242023468 0.782338678836823 0.891257882118225 1.03619575500488 1.15171694755554 1.15900874137878 1.41832387447357 1.59888064861298 2.2071213722229 1.89527678489685 2.18352580070496 2.32171320915222 2.42010045051575 2.64728713035583 2.95642924308777 3.13919806480408 3.67149209976196 4.45829200744629 5.62094259262085 5.17232751846313 4.6370415687561 2.23376226425171 1.02117025852203 0.991237819194794 0.97130411863327 1.11233580112457 1.30609238147736 1.42965054512024 1.47117972373962 1.51323473453522 1.54001140594482 1.60798609256744 1.70485436916351 2.11823225021362 2.50068378448486 2.97359204292297 3.31453347206116 4.08263635635376 4.38521862030029 5.00881719589233 5.86956119537354 6.44105768203735 7.23996210098267 8.1176176071167 9.00440883636475 9.81821537017822 11.6431035995483 13.9161148071289 16.3795471191406 22.1085033416748 26.687183380127 30.463062286377 6.30822944641113 5.46943521499634 6.52110815048218 6.048659324646 5.17317914962769 5.97656536102295 6.00525522232056 4.47159910202026 3.24916648864746 3.72509717941284 4.1258659362793 4.35256099700928 5.74186086654663 6.55017185211182 8.28053188323975 9.84891223907471 11.432785987854 15.1148195266724 9.12883758544922 4.26797819137573 3.23315668106079 3.74302244186401 4.52438974380493 6.02205848693848 7.11754179000854 7.65742015838623 8.85172843933105 9.60456657409668 11.4760398864746 10.3698644638062 12.902738571167 11.2664699554443 12.8774976730347 10.6174869537354 1.97990834712982 2.73747181892395 5.87963962554932 6.8660044670105 7.42777633666992 7.90757322311401 8.48275470733643 9.03896617889404 10.4346466064453 11.7857942581177 11.2996416091919 9.36941146850586 9.14303016662598 9.66008281707764 10.6082029342651 11.2636909484863 12.6318302154541 12.5342893600464 12.1623077392578 12.0124835968018 10.407600402832 4.55252456665039 -1.97939324378967 -3.91626477241516 -3.62390279769897 -3.23952460289001 -2.96427607536316 -2.40799450874329 -1.53322875499725 0.679531753063202 3.16086101531982 5.05414009094238 3.51545166969299 -0.176539927721024 0.254655003547668 0.497413814067841 0.961956381797791 1.94056081771851 2.76511788368225 8.33329200744629 -0.245632529258728 -0.40688681602478 -0.242592081427574 -0.0547616370022297 1.72623133659363 0.222523167729378 0.511071801185608 1.02947318553925 1.48492622375488 1.80648028850555 2.08643388748169 2.28030490875244 2.39070248603821 2.51564693450928 2.66601657867432 2.77061057090759 3.01048398017883
-0.394315630197525 -0.394566625356674 -0.37986496090889 -0.337634384632111 -0.235779732465744 -0.17120572924614 -0.13080495595932 -0.093286506831646 0.354866683483124 0.60693234205246 0.688480496406555 0.84404444694519 0.498785793781281 0.361104518175125 0.655683219432831 0.10858903080225 0.0557623468339443 0.0682930871844292 0.0850054696202278 0.745763778686523 1.54887986183167 2.2850296497345 1.38030540943146 0.546412229537964 0.481663763523102 0.418061584234238 0.483945220708847 0.658838331699371 0.594686388969421 0.612931191921234 0.611521303653717 0.626376867294312 0.735328137874603 0.886328279972076 1.00713968276978 1.03990304470062 1.23176336288452 1.33523750305176 1.59005796909332 1.68118226528168 2.07606840133667 2.23178458213806 2.69330358505249 2.95385122299194 3.28353691101074 3.66637921333313 4.19295167922974 4.87158393859863 5.95663547515869 7.16071557998657 8.22298431396484 3.27504229545593 1.38300156593323 1.23564887046814 1.19743895530701 1.14320409297943 1.23150730133057 1.37958335876465 1.46498918533325 1.51903820037842 1.5633225440979 1.58470165729523 1.62791359424591 1.68823063373566 1.835657954216 2.26055097579956 2.75257897377014 3.33784413337708 3.6040198802948 3.99781894683838 4.82624292373657 5.73381757736206 6.72048091888428 7.51947689056396 8.71015548706055 9.49577903747559 11.358757019043 13.7123966217041 16.244010925293 22.4868583679199 32.227710723877 27.8833560943604 10.012996673584 5.14667177200317 5.78582668304443 5.87566328048706 7.16045093536377 7.15715503692627 5.97678279876709 5.3593635559082 2.5485954284668 3.01801800727844 3.4156186580658 3.80601572990417 4.74894237518311 5.4899001121521 7.68333673477173 9.40631866455078 10.4012632369995 16.4181156158447 10.959529876709 6.14929580688477 3.21425247192383 3.6090521812439 4.91738843917847 6.32909059524536 7.66800689697266 8.94227027893066 9.69881343841553 11.4039011001587 12.2457122802734 14.6053142547607 16.8843059539795 10.317045211792 8.94165897369385 10.2836084365845 2.32732200622559 1.11471021175385 3.23018860816956 6.32832813262939 7.3243842124939 7.89443016052246 8.39210414886475 9.21435642242432 10.7150554656982 12.5387420654297 12.5514497756958 9.84975528717041 8.89523601531982 9.01835536956787 9.62761688232422 10.746654510498 12.1621675491333 12.0613088607788 9.69713401794434 10.5804567337036 8.56301879882812 4.24773645401001 -3.94973731040955 -3.84807395935059 -3.56392431259155 -3.18808126449585 -2.95694851875305 -2.68996715545654 -2.35102415084839 -1.93069851398468 0.963758051395416 5.17534732818604 -0.271676868200302 -0.0287668947130442 0.182062074542046 0.534842789173126 2.42139554023743 3.21734738349915 3.76041221618652 6.69636869430542 2.06073522567749 0.00601620133966208 -0.134558320045471 0.0109484950080514 0.185471132397652 0.44386750459671 0.727177202701569 1.11053895950317 1.4236888885498 1.75931334495544 2.08477640151978 2.4223735332489 2.59851336479187 2.57995629310608 2.63945627212524 2.73640632629395 2.85685682296753
-0.162934079766273 0.216925770044327 -0.203699037432671 -0.18996487557888 -0.0889342278242111 0.357091337442398 -0.00505137769505382 0.347169041633606 0.691159904003143 0.932503342628479 1.07183790206909 1.16561555862427 1.38464653491974 1.60960710048676 1.09311652183533 0.660249173641205 0.569808185100555 1.83521378040314 2.40823864936829 4.80673408508301 2.39921689033508 0.588674306869507 0.609513342380524 0.645969152450562 0.622347474098206 0.614594995975494 0.548688650131226 1.00099897384644 0.618597328662872 0.64328795671463 0.649062991142273 0.665303766727448 0.655435979366302 0.669159889221191 0.84120911359787 0.861922264099121 1.03331863880157 1.15107381343842 1.34068524837494 1.42807865142822 1.80560982227325 2.06844162940979 2.64262056350708 2.89625644683838 3.4058678150177 4.0948281288147 4.6779727935791 5.21560430526733 6.07707214355469 7.02807664871216 11.1884250640869 3.06120228767395 1.9272712469101 1.68349897861481 1.44984412193298 1.38503074645996 1.37423384189606 1.35220885276794 1.45818424224854 1.50978231430054 1.56916034221649 1.60385143756866 1.64736247062683 1.67540228366852 1.713503241539 2.02565884590149 2.04052376747131 2.46233797073364 2.73521971702576 3.32292366027832 3.9781322479248 4.61839723587036 5.56291627883911 6.73867654800415 7.87110042572021 9.06911277770996 10.1553535461426 12.1917018890381 15.7618045806885 22.2289695739746 35.3468627929688 26.7577743530273 12.0633373260498 6.15905904769897 5.58949708938599 5.50871992111206 7.00634002685547 7.6613883972168 10.9260206222534 9.39001178741455 2.0476336479187 2.13115525245667 2.60009169578552 3.04124212265015 3.92401266098022 4.48536014556885 6.46202993392944 8.23212909698486 10.2077989578247 14.2644033432007 11.6649360656738 7.50187206268311 3.38144183158875 3.73850131034851 5.1299614906311 6.5990309715271 7.93554639816284 9.36979484558105 11.308518409729 12.8436756134033 16.1064586639404 16.581974029541 14.2661323547363 10.8743171691895 4.52532768249512 8.82660102844238 6.04275798797607 0.407139509916306 1.24688458442688 4.8528356552124 7.11882591247559 7.83214330673218 8.44233417510986 9.49388599395752 10.4081611633301 11.479172706604 11.8863563537598 9.89209270477295 8.581374168396 8.68605327606201 9.36775207519531 9.31644725799561 10.3605127334595 10.1169481277466 9.4522647857666 6.31819915771484 3.60346627235413 1.44982159137726 -3.77672815322876 -3.70350098609924 -3.42080163955688 -3.1210024356842 -2.90200662612915 -2.65890288352966 -2.33918452262878 -1.90729033946991 -1.16387891769409 0.0648594498634338 -0.452493727207184 -0.211507990956306 0.0832363963127136 0.646067202091217 1.99450767040253 2.73131155967712 5.18201398849487 6.37025928497314 7.63454866409302 0.715384185314178 0.439062148332596 0.285731911659241 0.517289698123932 0.764442503452301 1.04236555099487 1.26229107379913 1.45987117290497 1.85832715034485 2.15029358863831 2.54806661605835 2.7678062915802 2.84913754463196 2.97123670578003 3.01149654388428 3.13644552230835
-0.00865525752305984 2.48836612701416 -0.0713355168700218 -0.0380300432443619 0.10229916870594 0.110620982944965 0.298785299062729 0.639181315898895 0.828184902667999 1.03823339939117 1.58007323741913 2.03725504875183 2.386310338974 3.83163380622864 5.52117967605591 6.42221164703369 5.07346439361572 2.45538926124573 2.53987574577332 0.714569628238678 0.838181972503662 0.521705567836761 0.583814859390259 0.635779738426208 0.69455623626709 0.747006773948669 0.719196736812592 0.737140953540802 0.621184289455414 0.657991170883179 0.675357222557068 0.690058350563049 0.691640496253967 0.702334702014923 0.698196530342102 0.708237886428833 0.777755916118622 0.973959982395172 1.16252195835114 1.2833126783371 1.57103931903839 1.75182616710663 2.30531883239746 2.54632973670959 3.03535985946655 3.87045741081238 4.88744783401489 5.65606021881104 7.23375988006592 9.08416080474854 11.8707580566406 3.31321954727173 2.06354260444641 1.9747622013092 1.8235981464386 1.85636746883392 1.69568061828613 1.79509055614471 1.72799718379974 1.65989542007446 1.58138251304626 1.61602127552032 1.64812409877777 1.7022305727005 1.74673175811768 1.93699133396149 2.10215353965759 2.13741588592529 2.16287517547607 2.41614699363708 3.021644115448 3.78859305381775 4.53570604324341 5.40874004364014 6.54332828521729 8.16840839385986 9.55249309539795 10.8303604125977 14.1580400466919 19.5692596435547 32.2546615600586 30.6200103759766 14.4399995803833 7.80932998657227 6.16469955444336 5.85178804397583 6.42934226989746 7.77792692184448 10.2543296813965 10.9297180175781 0.411704778671265 0.861002683639526 1.59676420688629 2.28128814697266 3.22238349914551 3.73954081535339 4.61960315704346 7.12242937088013 10.3653087615967 11.4561967849731 12.8612909317017 6.68591213226318 3.80231308937073 4.21042776107788 5.27982234954834 6.63422536849976 8.23183536529541 9.5873851776123 11.0327806472778 13.5748205184937 16.9433574676514 21.6911506652832 9.66525554656982 7.36329650878906 4.1810154914856 4.60089683532715 5.20108985900879 -0.435027927160263 -0.0843060463666916 2.93846750259399 7.33692264556885 8.76637172698975 10.1958265304565 10.7714672088623 10.3769226074219 11.0778474807739 10.7509956359863 9.95729541778564 8.87855529785156 9.07414054870605 8.91839504241943 9.69804763793945 9.84786987304688 8.80780982971191 8.19132232666016 2.61559200286865 0.273252159357071 0.977933466434479 -3.11117792129517 -3.64642286300659 -3.45523476600647 -3.14242386817932 -2.85429406166077 -2.61782908439636 -2.31235003471375 -1.53033602237701 -1.47270524501801 -1.07519400119781 -0.654759407043457 -0.218868300318718 0.580268442630768 1.68833374977112 3.09258127212524 4.54537487030029 5.23951959609985 6.18545579910278 9.48360443115234 0.761756062507629 0.684016823768616 1.02890145778656 1.18493402004242 1.08875942230225 1.16463935375214 1.43904113769531 1.66576778888702 1.96896159648895 2.33961892127991 2.67114996910095 2.91677093505859 3.09640145301819 3.22454619407654 3.2908148765564 3.42487001419067
0.12652313709259 0.151265829801559 0.262127161026001 0.387101918458939 0.180821612477303 0.257977485656738 0.590594112873077 0.78851044178009 0.996782243251801 1.27562427520752 2.07511448860168 3.11983227729797 5.22041177749634 7.07211542129517 8.23208236694336 1.24212276935577 0.677195370197296 -0.0515574067831039 0.00375371985137463 0.0746419727802277 0.257572084665298 0.410097509622574 0.457782834768295 0.590287387371063 0.677027702331543 0.741737246513367 0.79581081867218 0.863186657428741 0.829552888870239 0.850677192211151 0.810633182525635 0.707420825958252 0.723615765571594 0.736126184463501 0.740456223487854 0.757995367050171 0.761225700378418 0.769179105758667 0.985253274440765 1.09957706928253 1.35711598396301 1.51064431667328 1.93467402458191 2.13736391067505 2.44608759880066 3.27464866638184 4.1800651550293 4.9216365814209 7.52162885665894 9.45082092285156 11.987232208252 3.82289743423462 2.17533278465271 2.12436175346375 2.15031027793884 2.13391208648682 2.16730356216431 2.27593111991882 2.42667150497437 2.18447327613831 2.02126669883728 1.90226912498474 1.73602306842804 1.69949793815613 1.75128138065338 1.78919005393982 1.962442278862 2.15217161178589 2.21832704544067 2.27607250213623 2.29684090614319 2.77640175819397 3.47102451324463 4.42277765274048 5.29712295532227 6.48259878158569 7.85824155807495 8.54284381866455 11.3680582046509 15.0332918167114 23.8923873901367 32.5385856628418 21.0271110534668 9.90555095672607 7.05065155029297 6.6751594543457 6.77627801895142 7.26711177825928 7.2137246131897 5.73869132995605 -0.282632738351822 -0.173018991947174 0.487071216106415 1.53920674324036 2.47475910186768 3.25380396842957 4.05885362625122 5.09800863265991 9.56709575653076 9.59251689910889 10.3891525268555 4.47264575958252 4.56640434265137 5.38506603240967 6.19285583496094 7.45023059844971 8.48729133605957 9.58079242706299 10.8398952484131 11.7757654190063 13.7828769683838 20.6299266815186 8.62979507446289 5.16122627258301 3.28250479698181 1.53538858890533 0.861413180828094 -1.35905277729034 -0.709903657436371 2.94291019439697 5.70704936981201 8.96413230895996 13.0487747192383 13.8935470581055 7.70757150650024 8.57472038269043 8.92317676544189 8.89264869689941 9.15114974975586 9.49331092834473 10.426908493042 10.8938245773315 9.66242980957031 7.07467889785767 4.51693058013916 1.49327731132507 0.884943723678589 1.21290409564972 0.678653359413147 -0.8396977186203 -3.57116031646729 -3.31822371482849 -2.89629817008972 -2.58746480941772 -2.27896404266357 -1.9330540895462 -1.5388640165329 -1.18448734283447 -0.61935156583786 -0.0344070605933666 0.40967270731926 1.40013694763184 4.13386726379395 5.28960084915161 7.83576917648315 5.08149147033691 1.46164381504059 1.22753763198853 1.16659188270569 1.31806910037994 1.39486002922058 1.55226635932922 1.79514360427856 1.75787425041199 1.8872731924057 2.12955164909363 2.37973213195801 2.66064023971558 2.8956253528595 3.06333899497986 3.24017810821533 3.46410894393921 3.63869690895081
0.206634625792503 0.272922843694687 0.320881456136703 1.64036798477173 0.26511549949646 0.534291684627533 0.758698105812073 0.976170718669891 1.23694062232971 1.76480758190155 3.20560598373413 3.75772309303284 3.45517182350159 5.17824697494507 4.45210123062134 0.42668879032135 0.499424457550049 -0.067742146551609 -0.0426734462380409 0.00864128489047289 0.132551580667496 0.260242760181427 0.365881323814392 0.482184082269669 0.543260514736176 0.696832180023193 0.779590606689453 0.839888334274292 0.927595734596252 0.929757475852966 0.970234215259552 0.932931542396545 0.884798765182495 0.77499657869339 0.788053095340729 0.814830124378204 0.828293681144714 0.835189759731293 2.01076054573059 0.794766902923584 1.01182615756989 1.27323079109192 1.63550019264221 1.84298312664032 2.01350688934326 2.67379188537598 3.3528094291687 4.64201545715332 6.55930233001709 10.1830167770386 9.6631441116333 4.91285943984985 2.13091850280762 2.20224070549011 2.32107353210449 2.36070346832275 2.51181077957153 2.62265133857727 2.76561808586121 2.72777223587036 2.68567323684692 2.34086728096008 2.17840313911438 2.01760172843933 1.84329152107239 1.82262933254242 1.94186115264893 2.25633955001831 2.30392789840698 2.27064418792725 2.34359979629517 2.39737772941589 2.42974615097046 3.26012444496155 4.05122804641724 5.31857442855835 6.39174270629883 6.96858024597168 9.07181453704834 11.6469240188599 16.1869316101074 27.2717552185059 29.4913063049316 15.9723863601685 7.87268733978271 7.64485454559326 9.41004467010498 6.69860553741455 3.67386054992676 3.42878150939941 -0.517039358615875 -0.593811988830566 -0.21875287592411 0.235267654061317 1.25645101070404 2.44139122962952 3.2788770198822 3.92624950408936 6.45872354507446 7.68432855606079 5.13445281982422 4.86972379684448 5.27439165115356 6.97399282455444 7.5039529800415 8.46542644500732 9.92228507995605 11.1322374343872 11.3718576431274 12.9044914245605 14.1903867721558 12.9720020294189 12.7000617980957 6.48553562164307 4.18139219284058 0.1453597843647 -2.60285973548889 -2.34266567230225 -1.31371760368347 2.01591467857361 4.30231666564941 7.41478776931763 11.6377429962158 14.6505651473999 6.21810722351074 6.74934005737305 8.04247188568115 9.70750904083252 9.65174293518066 10.0602779388428 10.359354019165 9.17802143096924 8.26312255859375 4.32565450668335 2.63072323799133 0.665640294551849 -0.777934730052948 -0.490781426429749 0.583797037601471 -1.18462312221527 -3.73444008827209 -3.49428415298462 -3.02677583694458 -2.56991386413574 -2.2686619758606 -1.88068306446075 -1.50143480300903 -1.08909177780151 -0.307172417640686 0.475323706865311 0.746330261230469 1.05155527591705 1.48597252368927 7.455810546875 7.39372682571411 3.22767066955566 1.47451555728912 1.63556933403015 1.65470218658447 1.83476293087006 1.77174186706543 1.92080569267273 2.07793688774109 2.27303719520569 2.53899502754211 2.50829672813416 2.44119071960449 2.66734981536865 2.88859677314758 3.14544105529785 3.37448954582214 3.53252983093262 3.6656608581543
0.221130475401878 0.309245735406876 0.366552233695984 0.390472263097763 0.571450591087341 0.752003133296967 0.893729865550995 1.11934554576874 1.48205530643463 2.98660635948181 3.23619484901428 2.18691539764404 2.37226057052612 3.20208358764648 4.11329889297485 1.17783677577972 0.85275000333786 0.228714495897293 -0.0393219217658043 -0.0121366791427135 0.0688390880823135 0.202177867293358 0.300527006387711 0.345452129840851 0.446585476398468 0.576969623565674 0.637837171554565 0.789912045001984 0.908477365970612 0.913180828094482 0.982642829418182 1.03605973720551 1.08171129226685 1.04181551933289 0.978825330734253 0.840239286422729 0.832725882530212 0.85390031337738 1.75699329376221 0.844623029232025 0.844343185424805 0.917805373668671 1.23387813568115 1.53016674518585 1.65652763843536 2.27518057823181 2.80891156196594 3.74175214767456 5.15788269042969 8.37657737731934 8.01568603515625 5.89380741119385 2.14600133895874 2.23335981369019 2.3306622505188 2.46889996528625 2.64746928215027 2.82505559921265 3.02909827232361 3.1106264591217 3.05271935462952 2.94180941581726 2.8910346031189 2.51814913749695 2.31293797492981 2.16582608222961 2.08421635627747 2.24368977546692 2.29654216766357 2.37401223182678 2.42315316200256 2.38906478881836 2.4762921333313 2.53591012954712 2.84012937545776 3.92523741722107 4.88990688323975 5.35648155212402 7.44433546066284 9.15438747406006 12.1120986938477 16.0469951629639 27.0067710876465 24.7598266601562 14.9032917022705 11.5243072509766 6.37932395935059 6.52121734619141 5.31202936172485 2.23392391204834 0.332920968532562 -0.191694155335426 -0.211453780531883 -0.251268327236176 0.249974340200424 1.54404997825623 2.15286660194397 3.43366265296936 4.05570602416992 6.14829635620117 4.85567092895508 4.88691759109497 5.57083463668823 6.76306915283203 7.23288822174072 9.52944374084473 11.1599378585815 14.04185962677 14.6034030914307 12.8752918243408 12.268702507019 10.6338014602661 9.83220195770264 3.60275888442993 1.95655274391174 6.66909456253052 -3.33848476409912 -3.19180154800415 -2.17702889442444 0.629504024982452 3.11084890365601 5.29170513153076 10.569580078125 9.17349529266357 5.56040382385254 5.99721908569336 7.76037168502808 9.53256130218506 10.8376359939575 6.89429616928101 7.3560004234314 7.78943109512329 5.82079601287842 4.49083757400513 1.7599139213562 -1.73380613327026 -1.61032569408417 -0.118489950895309 -1.5199887752533 -2.19502258300781 -3.66136956214905 -3.47587728500366 -3.02426648139954 -2.62756037712097 -2.25545597076416 -1.86456668376923 -1.42527568340302 -0.975144803524017 -0.147503614425659 0.606822907924652 0.890245735645294 1.05627501010895 1.35584580898285 1.4876811504364 1.97385382652283 1.68883180618286 1.76788640022278 1.89585435390472 2.0097861289978 2.19211006164551 2.23858428001404 2.45045232772827 2.63586640357971 2.54117035865784 2.76639437675476 3.04046678543091 3.33392739295959 3.28968262672424 3.33747220039368 3.27196025848389 3.30160808563232 3.49765038490295 3.69351935386658
0.30726620554924 0.325742959976196 0.373515486717224 0.597837567329407 0.768074929714203 0.859633147716522 0.989625096321106 1.25022423267365 1.75168573856354 3.89055037498474 1.8448292016983 1.88560330867767 2.29647064208984 2.61036992073059 3.39506459236145 1.72819662094116 1.69223356246948 0.812615096569061 -0.0333134345710278 -0.0111224642023444 0.0674992203712463 0.161475494503975 0.263812184333801 0.320118427276611 0.372601747512817 0.419753164052963 0.532701313495636 0.668928205966949 0.756522953510284 0.807534277439117 0.970730066299438 1.04087436199188 1.09173214435577 1.10634672641754 1.13149631023407 1.08243191242218 1.01529693603516 0.885232031345367 0.933440327644348 0.90803861618042 0.881753146648407 0.891665101051331 0.902192652225494 1.09499979019165 1.22208046913147 1.7329865694046 2.28729295730591 3.13745141029358 4.23907804489136 6.77071046829224 6.91148996353149 6.38091564178467 2.65332412719727 2.23908996582031 2.31387186050415 2.46494436264038 2.61971688270569 2.86723256111145 3.13793420791626 3.319420337677 3.38101625442505 3.35183596611023 3.29092311859131 3.1912636756897 3.09829068183899 2.8351309299469 2.794517993927 2.48617959022522 2.28431487083435 2.35913705825806 2.40854907035828 2.49833941459656 2.55411314964294 2.52931714057922 2.58755207061768 2.78180956840515 3.40517258644104 3.7980625629425 5.45816087722778 6.69338464736938 10.0559377670288 13.6288595199585 19.2950305938721 23.9482727050781 21.9183502197266 14.99729347229 2.05227661132812 5.70455551147461 6.0519437789917 1.24866759777069 2.45416951179504 1.27817344665527 1.03108930587769 0.577263176441193 0.868373453617096 1.53112626075745 1.89365756511688 3.08135223388672 3.6223349571228 6.63195180892944 5.48552370071411 4.38297605514526 5.31050252914429 6.24771881103516 7.11979818344116 8.62040042877197 10.3761377334595 14.104118347168 19.1229782104492 11.9958591461182 6.94570922851562 6.4212794303894 4.63447666168213 0.522057890892029 -1.35144376754761 3.76910758018494 -3.25482487678528 -3.09904599189758 -2.34840512275696 -0.143580213189125 1.56287896633148 3.85185527801514 7.48366355895996 6.67701864242554 5.31256055831909 7.40635967254639 9.26874446868896 11.1619720458984 8.51564693450928 6.26882982254028 5.15960264205933 5.3211030960083 5.27115297317505 4.05480289459229 1.1233948469162 -0.973563432693481 -1.39164960384369 -0.778484344482422 -1.80276608467102 -3.32509350776672 -3.40190052986145 -3.3692045211792 -3.08042407035828 -2.77915072441101 -2.40235900878906 -1.89405155181885 -1.44936561584473 -0.949345350265503 -0.231822475790977 0.436011224985123 0.681808173656464 0.858706831932068 1.19543862342834 1.4343329668045 2.52738738059998 1.78176510334015 1.80638706684113 1.9431928396225 2.08912229537964 2.30929374694824 2.47584867477417 2.62412595748901 2.79822659492493 2.91526770591736 3.15368032455444 3.14677906036377 3.47335743904114 3.82758259773254 4.06408786773682 4.26696062088013 4.08870792388916 3.76083254814148 3.6054801940918
0.331330806016922 0.337571680545807 0.567909240722656 0.710673391819 0.797475934028625 0.904270350933075 1.04131209850311 1.30410754680634 2.403648853302 2.04308128356934 1.8605649471283 1.95158386230469 2.05390501022339 2.13657546043396 3.56278133392334 2.45175623893738 1.28228902816772 1.03049612045288 0.397317737340927 0.271511107683182 0.109440356492996 0.16736376285553 0.25017637014389 0.308395743370056 0.342254757881165 0.395571261644363 0.458991557359695 0.514170229434967 0.621903777122498 0.709802865982056 0.829338490962982 0.865134119987488 1.01622354984283 1.07817697525024 1.14564764499664 1.17795872688293 1.20287585258484 1.15559494495392 1.20719134807587 1.24924850463867 0.936720788478851 0.92848151922226 0.944957435131073 0.968081474304199 0.996399283409119 1.07436585426331 1.48010623455048 2.23322939872742 3.17253446578979 4.70981597900391 6.38897037506104 5.35071992874146 2.32385778427124 2.14556789398193 2.27582931518555 2.49102568626404 2.63004589080811 2.86790633201599 3.1171281337738 3.34514117240906 3.47216629981995 3.58957934379578 3.65355825424194 3.60849189758301 3.52779626846313 3.5690062046051 3.51193189620972 3.44003057479858 3.0228374004364 2.75451898574829 2.57554173469543 2.48084545135498 2.5352144241333 2.63671970367432 2.68971371650696 2.7537853717804 2.7285053730011 2.86213445663452 3.77700185775757 4.6926097869873 7.26987028121948 10.4408502578735 14.9129095077515 22.1575298309326 18.2299518585205 14.3850660324097 6.12139558792114 3.31897854804993 4.29933023452759 4.4282169342041 2.15751242637634 2.18527936935425 2.46005630493164 2.69453430175781 2.55663514137268 2.69475626945496 3.04150581359863 3.40713000297546 3.71705389022827 5.30873823165894 5.4224681854248 5.56418180465698 4.60515022277832 5.27012825012207 6.68422889709473 7.55277156829834 10.0473079681396 11.9681739807129 18.8524074554443 15.7427606582642 5.63159036636353 2.64111042022705 1.57106876373291 -0.124609775841236 -3.08150506019592 -2.99218153953552 -2.95712685585022 -2.89179444313049 -2.4504816532135 -0.505542397499084 0.55490243434906 2.20057106018066 3.92949175834656 4.68497514724731 6.35209560394287 8.45473480224609 10.8073778152466 11.8664531707764 6.09027814865112 2.5105664730072 3.84078073501587 5.26202344894409 5.85170078277588 4.76647233963013 2.20020580291748 0.0913332104682922 -1.68785238265991 0.886105418205261 -3.0247209072113 -2.96202683448792 -3.00791454315186 -2.99898099899292 -2.85716772079468 -2.78148555755615 -2.42661595344543 -1.92206871509552 -1.55234789848328 -1.12619030475616 -0.630609393119812 -0.0241588689386845 0.255656033754349 0.607606112957001 0.995677590370178 1.34420228004456 1.66869819164276 1.85120820999146 1.95160555839539 2.06445622444153 2.14997816085815 2.30366444587708 2.44163417816162 2.5482337474823 2.82278633117676 3.05559206008911 3.31849789619446 3.51314377784729 3.73315048217773 3.75158524513245 4.20677423477173 4.52294540405273 4.6782078742981 4.83420085906982 4.60510921478271
0.31501230597496 0.462752044200897 0.673175513744354 0.740998089313507 0.803787708282471 0.867206811904907 1.0052148103714 1.25906980037689 2.95494484901428 1.79438006877899 1.82389235496521 2.04436922073364 2.18564891815186 2.25210380554199 3.46919226646423 2.25929307937622 2.12792277336121 1.96589922904968 0.658373951911926 0.175108253955841 0.287439316511154 0.320583164691925 0.403974950313568 0.384429305791855 0.328002721071243 0.337937623262405 0.384172588586807 0.48283526301384 0.543749332427979 0.615043818950653 0.671402275562286 0.754469931125641 0.886715173721313 0.920646011829376 1.09152913093567 1.15257203578949 1.22475910186768 1.2698792219162 1.32269537448883 1.35107958316803 1.27986598014832 1.20581710338593 1.03918075561523 1.01169979572296 1.0495138168335 1.24386882781982 1.02932965755463 1.18893325328827 1.85715317726135 3.14206647872925 5.67325592041016 5.2363805770874 2.2629075050354 2.03351020812988 2.16868662834167 2.38982820510864 2.56269812583923 2.83086037635803 2.97396278381348 3.15785479545593 3.37813949584961 3.57562017440796 3.70900177955627 3.832768201828 3.92091965675354 4.04980993270874 3.99265837669373 3.89937233924866 3.81253099441528 3.72928380966187 3.30944967269897 2.97862958908081 2.77527070045471 2.60622310638428 2.66711473464966 2.71212339401245 2.79489421844482 2.85250663757324 2.94726276397705 3.87616038322449 5.05155992507935 7.47018957138062 11.4605665206909 17.6491775512695 18.8901176452637 11.2578325271606 5.08559799194336 5.92354202270508 1.23780453205109 2.25468301773071 4.15811634063721 3.32274127006531 3.42224550247192 3.78622603416443 4.11530828475952 4.64299249649048 4.65985441207886 5.28484964370728 6.0119833946228 5.78659391403198 6.57158899307251 7.13034248352051 4.23948049545288 4.27785682678223 5.7280535697937 6.26342821121216 9.01297664642334 10.4273223876953 18.7418613433838 11.3342456817627 4.75477838516235 1.02400946617126 2.02572727203369 -1.27646040916443 -2.96893167495728 -2.8322172164917 -2.73158550262451 -2.57701635360718 -2.27697038650513 -0.723087191581726 -0.105081871151924 1.49268770217896 2.46691679954529 3.32689666748047 5.21991300582886 7.56330156326294 16.1646213531494 9.07979869842529 0.894346535205841 2.36898326873779 3.7926013469696 6.51943731307983 7.34156894683838 6.77119541168213 2.71526074409485 0.425895422697067 -0.70407509803772 -1.23924016952515 -2.9131977558136 -2.89507007598877 -2.85440611839294 -2.62069296836853 -2.37693929672241 -2.26412010192871 -2.04473280906677 -1.85083067417145 -1.59761023521423 -1.27953934669495 -0.883209884166718 -0.521392643451691 -0.105009309947491 0.319168090820312 0.913715064525604 1.29401481151581 1.64314293861389 2.02297019958496 2.54919981956482 2.74307489395142 2.82444357872009 2.87661075592041 2.69983983039856 2.53985643386841 2.68702673912048 2.94375061988831 3.34569263458252 3.63643574714661 3.92192077636719 4.13627147674561 4.38269472122192 4.39742040634155 4.88924360275269 5.17666912078857 5.31188535690308
0.35059455037117 0.524251461029053 0.680947661399841 0.756064593791962 0.820684373378754 0.881300926208496 0.945644617080688 1.16050791740417 1.72354960441589 2.64972543716431 1.83892452716827 1.96833348274231 2.07682967185974 2.62572073936462 2.75225758552551 2.84739971160889 3.09754300117493 2.08975267410278 1.25604808330536 0.33750593662262 0.500910997390747 0.525973439216614 0.528853833675385 0.474519610404968 0.495884478092194 0.441784650087357 0.376143872737885 0.487610697746277 0.522261619567871 0.575290083885193 0.656322717666626 0.684094190597534 0.707576990127563 0.804813742637634 0.950720071792603 0.986081302165985 1.18259310722351 1.26655924320221 1.3107750415802 1.40859365463257 1.43951034545898 1.44359171390533 1.41137003898621 1.32219684123993 1.12870812416077 1.10392248630524 1.07872891426086 1.06136512756348 1.07554948329926 1.65937232971191 3.78238224983215 4.92945671081543 3.39324045181274 1.83924674987793 1.99820399284363 2.24557876586914 2.40252542495728 2.5719850063324 2.72533464431763 2.86195158958435 3.07560276985168 3.28905415534973 3.58986616134644 3.87000203132629 4.02374744415283 4.16368770599365 4.26562786102295 4.38213682174683 4.33036327362061 4.2248387336731 4.16004657745361 4.05270576477051 3.60902976989746 3.21040844917297 3.05493187904358 3.01788306236267 2.83294987678528 2.8091938495636 2.93563652038574 3.67913389205933 4.43372344970703 6.20023441314697 9.67008781433105 12.0742311477661 14.7128944396973 10.2864027023315 4.21544218063354 4.03295993804932 2.61820936203003 2.02898526191711 3.67152047157288 3.22713947296143 3.81252717971802 5.0674614906311 5.36088609695435 5.92153835296631 6.6806902885437 7.56916093826294 8.12432670593262 8.14660167694092 7.91117238998413 7.86783504486084 4.79677152633667 4.27962684631348 4.81059217453003 5.22163534164429 7.58455085754395 8.82192325592041 15.6808090209961 9.21880722045898 3.73240947723389 -0.942207932472229 -0.936636030673981 0.659657835960388 -2.73426842689514 -2.63916802406311 -2.56077933311462 -2.46755743026733 -2.17461442947388 -1.69473838806152 -1.25170540809631 0.89610743522644 1.70468091964722 2.9987416267395 4.15600633621216 5.31292295455933 12.5038175582886 9.11352252960205 -0.720467209815979 1.92260468006134 3.61712431907654 6.39769887924194 9.66246700286865 8.12648391723633 3.66689515113831 1.20537781715393 -2.00286078453064 -2.92762041091919 -0.760319352149963 -2.86469221115112 -2.71670317649841 -2.46085000038147 -2.17716789245605 -1.81155276298523 -1.55334782600403 -1.37517845630646 -1.43428838253021 -1.29914963245392 -0.986566245555878 -0.666616141796112 -0.251151561737061 0.32355135679245 0.761685371398926 1.24583065509796 1.87128555774689 2.39615082740784 2.86214804649353 3.03820538520813 3.21599006652832 3.29081034660339 3.10414052009583 3.08064770698547 2.93253493309021 2.85921120643616 3.1652398109436 3.50671648979187 3.97239995002747 4.26351451873779 4.55178117752075 4.82091856002808 5.12178421020508 5.26314878463745 5.56456422805786
0.35364106297493 0.544111728668213 0.632272362709045 0.733587265014648 0.82401579618454 0.919645428657532 0.99935120344162 1.14346742630005 1.50103187561035 3.9224488735199 1.87190890312195 1.94233191013336 2.09822344779968 2.37047076225281 2.43546009063721 4.20226335525513 2.38605761528015 2.1952817440033 1.56569063663483 0.441320985555649 0.596950054168701 0.610513985157013 0.647946953773499 0.62089604139328 0.622257769107819 0.578466236591339 0.602470755577087 0.5888352394104 0.541039228439331 0.593396723270416 0.649532794952393 0.683873653411865 0.692696571350098 0.739179909229279 0.774004399776459 0.873997449874878 1.05101597309113 1.08888018131256 1.11368560791016 1.32029068470001 1.38964247703552 1.5211238861084 1.57085525989532 1.57398223876953 1.546515583992 1.4429839849472 1.20830368995667 1.17058324813843 1.13390719890594 1.13316762447357 1.7478084564209 3.39091277122498 3.58678460121155 1.45853126049042 1.62003755569458 2.0278332233429 2.21036219596863 2.26851940155029 2.70032238960266 2.57497477531433 2.76807856559753 3.00467920303345 3.35916972160339 3.63009810447693 3.95538687705994 4.10022211074829 4.36341381072998 4.50095701217651 4.60270690917969 4.73925256729126 4.66278076171875 4.59618806838989 4.47768926620483 4.35400056838989 4.15692758560181 4.05518388748169 3.57754135131836 3.36017751693726 3.17416667938232 3.03278207778931 3.24483966827393 6.05905055999756 9.33228969573975 9.10490608215332 6.97268295288086 6.72769546508789 3.98254084587097 2.89033579826355 2.74144268035889 2.96005392074585 3.01616811752319 3.22835779190063 3.53838443756104 4.51642322540283 5.85555839538574 7.15780591964722 7.62021350860596 8.40347003936768 9.71100616455078 10.708517074585 10.6650505065918 10.2894439697266 8.26145267486572 6.90025091171265 5.39173603057861 5.18307685852051 5.57764387130737 7.06173801422119 11.405722618103 6.59504556655884 0.841855823993683 -0.96591579914093 -2.48710536956787 -0.993856728076935 -0.378523588180542 -0.485314309597015 -1.25991213321686 -2.36434268951416 -2.23447299003601 -2.02852201461792 -1.20432162284851 0.180861309170723 0.76384711265564 2.49487924575806 4.47253847122192 5.52566719055176 10.1541528701782 6.03832674026489 3.30912137031555 0.0227035470306873 2.23708820343018 8.42450428009033 9.39685535430908 8.04531288146973 3.4409499168396 1.04684221744537 -2.79796576499939 -0.924426853656769 -2.70988059043884 -2.68764400482178 -2.54719734191895 -2.28304028511047 -1.99480271339417 -1.60184073448181 -1.33399820327759 -1.17177820205688 -1.00641739368439 -0.871710479259491 -1.03440451622009 -0.72577565908432 -0.28175076842308 0.261310636997223 0.749963104724884 1.36376595497131 2.07643890380859 2.54944896697998 2.9325795173645 3.19782423973083 3.35391807556152 3.43302965164185 3.46438908576965 3.48223805427551 3.30244135856628 3.39518427848816 3.33625960350037 3.45878410339355 3.79116106033325 4.1113600730896 4.60364866256714 4.924729347229 5.23132658004761 5.47296953201294 5.73938894271851
0.456352442502975 0.528814256191254 0.627673864364624 0.723386466503143 0.805991232395172 0.923318445682526 1.08188235759735 1.22751247882843 1.45197749137878 2.79256343841553 2.06683349609375 1.93623673915863 2.1192421913147 2.32300972938538 2.61510133743286 3.41361784934998 2.76998138427734 2.71889972686768 2.40000796318054 0.803846836090088 0.698102712631226 0.719867646694183 0.670958161354065 0.69878363609314 0.752326369285583 0.741839826107025 0.760573625564575 0.633667647838593 0.713426530361176 0.823127865791321 0.750952303409576 0.713712751865387 0.720643401145935 0.734870374202728 0.778519749641418 0.816421806812286 0.840359628200531 0.933478534221649 0.9610236287117 1.1476868391037 1.20216751098633 1.44197356700897 1.55213940143585 1.67601609230042 1.72448825836182 1.73669815063477 1.68434047698975 1.71323347091675 1.56685864925385 1.31562757492065 1.23183465003967 1.41899585723877 1.98733413219452 1.81351971626282 1.39165055751801 1.59358525276184 1.7731237411499 1.82355391979218 2.2964723110199 2.57249999046326 2.54023361206055 2.73050260543823 3.0806622505188 3.37542033195496 3.80384492874146 3.99174380302429 4.14483833312988 4.42672538757324 4.68244361877441 4.77332067489624 4.85559701919556 5.04277849197388 5.01092958450317 5.00952482223511 5.2354850769043 5.1378231048584 5.00198316574097 4.54759931564331 4.02862453460693 3.87760448455811 3.72712635993958 3.62331914901733 7.26431798934937 10.7877244949341 2.93271350860596 2.80665278434753 2.91463208198547 2.94519257545471 4.2475323677063 4.42108774185181 3.06476807594299 3.40688848495483 3.99946427345276 4.50306844711304 5.00417137145996 5.98972368240356 6.21511888504028 8.47730350494385 10.2602672576904 11.8264713287354 13.062427520752 13.3857307434082 13.1477022171021 12.9684858322144 11.212718963623 8.17679977416992 5.15433073043823 3.3236346244812 6.37484455108643 1.97530007362366 -0.289761483669281 -2.10234451293945 -2.20900630950928 -2.13900971412659 1.34341585636139 2.44607019424438 3.34593462944031 -2.24819397926331 -2.15159273147583 -2.05145859718323 -1.70836520195007 -0.0668438300490379 0.2802754342556 1.36822187900543 2.76874136924744 4.67095613479614 11.2405529022217 5.95801639556885 1.87500965595245 -1.60183560848236 -1.85146975517273 5.45604181289673 10.3469343185425 5.95861053466797 6.09622097015381 2.57943916320801 -1.44941210746765 -2.54909443855286 -1.64638733863831 -2.39893579483032 -2.21101093292236 -1.96412062644958 -1.54822421073914 -1.26515245437622 -1.2712938785553 -1.19482851028442 -0.89476090669632 -0.665195405483246 -0.566303372383118 -0.455059170722961 -0.259797900915146 0.477091491222382 0.90061229467392 1.34512901306152 1.98264741897583 2.54563808441162 2.91676688194275 3.20429825782776 3.42652344703674 3.50811147689819 3.60709118843079 3.63712286949158 3.67106294631958 3.79020667076111 3.70969438552856 3.93230485916138 4.12059450149536 4.09885883331299 4.4153208732605 4.71782684326172 4.98774909973145 5.56107807159424 5.87462472915649
0.525597155094147 0.555757999420166 0.649103283882141 0.754333913326263 0.810001313686371 0.935005962848663 1.11493337154388 1.30109882354736 1.51463878154755 1.85546827316284 3.26443552970886 1.92921352386475 2.08007383346558 2.29947733879089 2.65565490722656 2.68002486228943 3.27950811386108 3.31361436843872 2.39857602119446 1.17414999008179 0.805452883243561 0.820607483386993 0.746195018291473 0.780205547809601 0.752029299736023 0.816465139389038 0.898906111717224 0.843007445335388 0.996543884277344 0.993192970752716 0.90045577287674 0.935331404209137 0.846073031425476 0.789509356021881 0.787543654441833 0.781568348407745 0.811403751373291 0.837312340736389 0.878843247890472 1.01503670215607 1.10077333450317 1.38036000728607 1.45430946350098 1.58149361610413 1.67018437385559 1.84070312976837 1.88828694820404 1.89388048648834 1.92919492721558 1.92148315906525 1.75793981552124 1.46359896659851 1.33339703083038 1.43425917625427 2.58632349967957 1.47286534309387 1.17174625396729 1.84389662742615 2.96491765975952 2.8793261051178 2.22692513465881 2.43252611160278 2.80910086631775 3.1026349067688 3.54290723800659 3.76312446594238 4.04252481460571 4.2703161239624 4.39507341384888 4.63041591644287 4.97553253173828 5.09317636489868 5.2166166305542 5.52716016769409 5.92495918273926 5.8406548500061 5.88198184967041 5.77217435836792 5.63971996307373 5.24653196334839 4.68217039108276 4.64178609848022 4.30219221115112 9.05940437316895 5.23149013519287 3.26511573791504 3.2979519367218 3.42326617240906 4.47306537628174 7.43667125701904 3.99918007850647 3.08817601203918 3.65709352493286 4.14031505584717 4.36535596847534 5.54520130157471 5.99178981781006 6.43421459197998 7.78541326522827 11.3137531280518 13.3862380981445 16.5081977844238 17.7790031433105 20.2135543823242 10.3844175338745 5.77748966217041 -0.490524858236313 -2.23365521430969 -1.76248872280121 0.0667445808649063 0.183922708034515 -2.07267260551453 -1.96579372882843 -1.82232654094696 0.49695211648941 0.741061508655548 5.83783054351807 0.565849125385284 -1.99596953392029 -1.92775964736938 -1.72829115390778 -1.3717964887619 -0.361617594957352 1.01181244850159 1.69825160503387 4.14765310287476 7.54306364059448 8.7571907043457 2.11595892906189 -1.83368682861328 -1.70459473133087 -0.748272955417633 6.31668758392334 7.07349634170532 6.88033533096313 5.63004779815674 0.497061371803284 -2.28581476211548 -2.16227602958679 -2.04752993583679 -1.99634313583374 -1.7098982334137 -1.25103986263275 -1.00107872486115 -0.948424220085144 -0.910813093185425 -0.728661060333252 -0.522853851318359 -0.35105288028717 -0.206054329872131 -0.136891856789589 0.459497421979904 1.11772835254669 1.45175349712372 1.8856498003006 2.39663338661194 2.81536650657654 3.09212732315063 3.34572386741638 3.47587656974792 3.68878149986267 3.75120067596436 3.85201501846313 3.93085360527039 4.07722663879395 4.28027677536011 4.49988269805908 4.4832706451416 4.66696929931641 4.5723352432251 4.99662351608276 5.28355503082275 5.63979816436768
0.610017538070679 0.661626100540161 0.702119708061218 0.777027904987335 0.845675587654114 0.962978065013885 1.08915424346924 1.30716371536255 1.54162287712097 1.79002237319946 3.86210346221924 2.06444597244263 1.99332213401794 2.2314817905426 2.44401979446411 2.93483543395996 3.07715272903442 3.47594308853149 2.58572363853455 1.45642900466919 0.905345261096954 0.914590299129486 0.850591897964478 0.874315857887268 0.827331781387329 0.900205552577972 0.892861247062683 0.959459662437439 1.10123193264008 1.15578937530518 1.13452708721161 1.09842371940613 1.0097850561142 1.04090619087219 0.917945027351379 0.845320224761963 0.906522154808044 0.906304657459259 0.985400915145874 0.98215389251709 1.03223288059235 1.16475355625153 1.22846782207489 1.58437466621399 1.71549069881439 1.86244118213654 1.82545053958893 1.91879713535309 2.10531783103943 2.13370156288147 2.13975048065186 2.14377593994141 2.42166996002197 2.18295073509216 1.98475539684296 1.3438663482666 1.31223464012146 1.57232868671417 2.58594179153442 3.00115585327148 1.66357755661011 1.876593708992 2.45605087280273 2.81011533737183 3.25688481330872 3.46504211425781 3.6763072013855 3.97198128700256 4.11908960342407 4.39128303527832 4.41760969161987 4.65536975860596 5.04691553115845 5.37335062026978 5.9935998916626 6.32660102844238 6.66925954818726 6.58148288726807 6.75349760055542 6.64733266830444 6.52546310424805 6.28239727020264 5.59165382385254 6.08741140365601 5.90966844558716 5.35126447677612 5.3809609413147 5.20132684707642 5.62014055252075 5.87480306625366 6.90288734436035 3.55426263809204 3.55495572090149 3.57785224914551 3.88375926017761 4.74102592468262 5.12043523788452 6.87853717803955 7.42669486999512 8.95050525665283 10.1077947616577 14.9448108673096 16.4791660308838 26.8271217346191 11.1017665863037 4.22483062744141 -2.62323570251465 -2.50995659828186 -2.2467315196991 -2.02506232261658 1.21788513660431 -1.99418234825134 -1.91930639743805 -1.6703063249588 -0.621283113956451 0.68347829580307 4.67760324478149 0.403876066207886 -1.21124923229218 -1.68561351299286 -1.3559684753418 -1.52913415431976 -1.4259090423584 -0.648765861988068 1.32246780395508 3.05919933319092 6.07995891571045 5.60420656204224 -0.508808374404907 -1.57400643825531 -1.49735701084137 -0.66080516576767 1.32845222949982 3.24610781669617 5.60615491867065 8.68309116363525 2.16111183166504 -2.00979328155518 -1.88769745826721 -1.70504522323608 -1.61123514175415 -1.5671409368515 -1.40671288967133 -1.11988067626953 -0.718929827213287 -0.461419999599457 -0.279454976320267 -0.164945900440216 0.0929672718048096 0.0157090425491333 0.0918486714363098 0.324418425559998 0.898244380950928 1.26424252986908 1.5990983247757 1.97874319553375 2.44949412345886 2.72594714164734 3.069993019104 3.35032200813293 3.60033798217773 3.73928141593933 3.96458530426025 4.04540729522705 4.21191596984863 4.37591934204102 4.57428693771362 4.79656076431274 5.04015064239502 5.02706050872803 5.15207529067993 5.03680896759033 5.67177200317383
0.709748327732086 0.757532835006714 0.811948776245117 0.865340292453766 0.901960015296936 0.99604469537735 1.08289015293121 1.24594759941101 1.48429560661316 1.74759113788605 3.64934492111206 2.59176301956177 1.9362359046936 2.13368487358093 2.2998218536377 2.73082447052002 2.98159289360046 3.53609609603882 2.67798209190369 1.59881901741028 0.79300856590271 0.84520149230957 0.948672831058502 0.970044493675232 0.924285888671875 0.981928884983063 0.954922437667847 1.04260814189911 1.1531126499176 1.08858060836792 1.2503274679184 1.28193521499634 1.22285389900208 1.20965886116028 1.11530351638794 1.09567165374756 0.981060683727264 0.999982059001923 1.03398585319519 1.00756740570068 1.07343626022339 1.08647608757019 1.18848025798798 1.3796112537384 1.47662544250488 1.6272087097168 2.18696427345276 2.45419597625732 2.11156868934631 2.59650707244873 2.30286073684692 2.3562183380127 2.82656955718994 3.23280930519104 3.42899227142334 1.59372067451477 1.64941394329071 1.42393779754639 1.91518175601959 2.71387028694153 1.4068318605423 1.14899599552155 1.83014261722565 2.16999316215515 2.85209584236145 3.12105965614319 3.21510314941406 3.63715600967407 3.77217292785645 4.06695747375488 4.12894439697266 4.44704818725586 4.57804346084595 5.05513715744019 5.768798828125 6.50618982315063 6.85475492477417 7.21005439758301 7.65182495117188 7.577308177948 8.01436519622803 7.95188045501709 7.88897609710693 8.44047832489014 8.14488315582275 7.58145475387573 7.28276681900024 7.59879064559937 9.49924945831299 7.71674633026123 5.07802248001099 6.27304077148438 5.01265144348145 3.92386794090271 4.280517578125 4.0329327583313 4.24212312698364 5.44294738769531 5.96933794021606 9.52262020111084 11.7075109481812 12.6792993545532 9.11887645721436 23.5273456573486 16.4222393035889 2.69045400619507 0.646381676197052 -2.56875157356262 -2.312420129776 -1.99975609779358 -1.67977237701416 -1.81232261657715 -1.75616991519928 -1.42670285701752 -0.140602186322212 1.03225779533386 4.55974578857422 1.68018186092377 -0.321881502866745 0.600295543670654 0.603704035282135 -0.237525299191475 -0.927210509777069 -0.848605811595917 -0.806001424789429 0.406753331422806 6.84866523742676 5.1660795211792 -1.48315346240997 -1.41857552528381 -0.599340915679932 -1.06599807739258 0.311863362789154 2.74780750274658 3.95831489562988 5.79659461975098 3.42717528343201 -1.74587464332581 -1.66719484329224 -1.5609917640686 -1.47613120079041 -1.4331328868866 -1.35976755619049 -1.30649697780609 -1.03842639923096 -0.628388285636902 -0.117065250873566 0.131062492728233 0.389870345592499 0.620323777198792 0.695981383323669 0.479219347238541 0.612037658691406 0.956238925457001 1.24737370014191 1.5080418586731 1.89878273010254 2.264803647995 2.68178653717041 2.9594202041626 3.33022499084473 3.60284018516541 3.87475275993347 4.04129791259766 4.28696584701538 4.41187381744385 4.58802700042725 4.85459327697754 5.08457136154175 5.3280348777771 5.55504512786865 5.55438661575317 5.70341491699219
0.775991559028625 0.799190104007721 0.831734836101532 0.964932680130005 0.98608535528183 1.04291462898254 1.11936163902283 1.21214711666107 1.37652552127838 1.65573692321777 2.95495843887329 2.90276217460632 2.18782043457031 2.07119417190552 2.11457538604736 2.37792491912842 2.85654306411743 3.5956289768219 2.6060631275177 1.78088986873627 0.871901988983154 0.748877108097076 0.816148340702057 0.89064884185791 1.00725698471069 1.05514073371887 1.02338707447052 1.12549245357513 1.2353048324585 1.16812038421631 1.29465866088867 1.30879783630371 1.3639851808548 1.38675820827484 1.36052274703979 1.34592545032501 1.16434633731842 1.15994787216187 1.21764719486237 1.12517619132996 1.204514503479 1.1905403137207 1.2781720161438 1.30311179161072 1.42556941509247 1.56741642951965 1.91878414154053 2.25389742851257 3.25596523284912 3.72630500793457 3.68104338645935 2.37336134910583 2.32246994972229 2.41384863853455 2.21940851211548 2.14421772956848 2.21608018875122 2.2648446559906 1.96446847915649 2.41018056869507 1.42069220542908 1.41132116317749 1.54446768760681 1.70399785041809 2.29358267784119 2.77825832366943 3.42232966423035 3.72261261940002 3.87394309043884 3.69638442993164 3.77836537361145 4.11598491668701 4.26764631271362 4.86969089508057 5.56433200836182 6.14621496200562 6.61091375350952 7.40114879608154 7.86883306503296 8.40993690490723 9.06679058074951 9.2869815826416 10.2758636474609 10.7450170516968 10.4616289138794 10.8228712081909 10.4204339981079 10.8666000366211 12.0071153640747 9.99002456665039 4.78011083602905 4.9636025428772 3.87177181243896 3.35904121398926 3.76029419898987 4.08831882476807 4.41796159744263 4.22638702392578 4.54105663299561 6.66489744186401 9.92547416687012 15.2566938400269 6.75899076461792 6.98641061782837 13.4466543197632 4.43019914627075 4.67972040176392 -0.592921197414398 -2.14451456069946 -1.91923749446869 -1.72612833976746 -1.63615322113037 -1.53937768936157 -1.38347864151001 -0.342538058757782 0.679609477519989 2.94490385055542 2.47928547859192 -0.365060597658157 0.215406090021133 3.83863186836243 -0.798050343990326 -0.304753392934799 -0.0738719329237938 0.0271804556250572 -0.314860999584198 1.63366627693176 3.75147986412048 -1.18646085262299 -1.15492224693298 -0.463213324546814 -0.797528564929962 1.15865194797516 1.47317934036255 5.24685192108154 3.03214716911316 1.09684896469116 -1.42461931705475 -1.35347270965576 -0.670830547809601 -0.662799298763275 -1.35171937942505 -0.817818641662598 -1.26398539543152 -1.13656330108643 -0.993345499038696 -0.498872309923172 -0.0835543870925903 0.227584883570671 0.83271586894989 1.0545380115509 1.17683434486389 1.27498435974121 1.06876289844513 1.00904309749603 1.1952121257782 1.5122218132019 1.76541674137115 2.11865758895874 2.47527456283569 2.91035962104797 3.17479825019836 3.58028602600098 3.87688279151917 4.14785623550415 4.26501941680908 4.51962280273438 4.87583160400391 5.12697792053223 5.40081262588501 5.62398242950439 5.8651270866394 6.11571788787842
0.930021822452545 0.869667649269104 0.911604583263397 1.01130831241608 1.05488204956055 1.12795007228851 1.16401886940002 1.23095655441284 1.36453700065613 1.53389430046082 1.91168475151062 3.15727925300598 2.31120181083679 2.24527192115784 2.02403712272644 2.29562020301819 2.45190620422363 2.98770976066589 3.19042658805847 2.59198093414307 0.979913651943207 0.576198399066925 0.671497166156769 0.77473247051239 0.857658684253693 0.955637276172638 1.09875762462616 1.19075739383698 1.28724360466003 1.26553785800934 1.38818037509918 1.40005469322205 1.4824116230011 1.4146192073822 1.47237694263458 1.49682414531708 1.50740897655487 1.56697070598602 1.48737192153931 1.32433652877808 1.35641443729401 1.39339733123779 1.47808039188385 1.51895415782928 1.65680587291718 1.73388266563416 1.95812237262726 2.22084069252014 2.66310453414917 2.87395882606506 4.11575365066528 5.35375547409058 3.03158855438232 2.0805242061615 2.36825275421143 2.46997737884521 2.58252263069153 2.8011953830719 3.17959713935852 2.90441012382507 2.39318466186523 2.29392838478088 2.15427780151367 1.50062119960785 1.86580467224121 2.66397786140442 3.66752743721008 4.18995237350464 4.96137714385986 4.18992376327515 3.29004168510437 3.70787382125854 3.90023159980774 4.59843635559082 5.27269124984741 5.7465386390686 6.39418363571167 6.98853969573975 7.530930519104 8.64534378051758 9.32049751281738 10.2104263305664 11.3031930923462 12.221137046814 13.344349861145 13.9375095367432 14.6785831451416 15.7676134109497 15.3343162536621 11.8528785705566 7.82931041717529 4.90717172622681 3.02236223220825 3.01177215576172 3.34089088439941 3.91225218772888 4.49768018722534 4.78395700454712 4.78351402282715 4.12400054931641 5.38095664978027 9.99350833892822 6.87115240097046 2.90778994560242 2.80411982536316 4.85675621032715 6.58412647247314 5.85810852050781 -0.526702046394348 -1.68057072162628 -1.54400038719177 -1.45357263088226 -1.40632402896881 -1.34019422531128 -0.890867829322815 0.682631433010101 1.10801911354065 2.19805073738098 1.11279845237732 -0.875476717948914 3.5221471786499 -0.252315878868103 0.138868764042854 0.449950128793716 0.522185087203979 0.532795965671539 0.232231944799423 -0.130657970905304 -0.577566027641296 -0.772144436836243 -0.697573721408844 -0.677152276039124 1.78711295127869 2.08235859870911 7.8479151725769 2.59405326843262 -0.762465715408325 -0.29904767870903 0.00362000032328069 0.930039823055267 -0.451725691556931 -0.918731987476349 -0.726447284221649 -1.11652290821075 -1.03252613544464 -0.929025530815125 -0.80517566204071 -0.438645005226135 -0.285261988639832 0.37387415766716 0.840237379074097 1.61551380157471 1.78448390960693 1.97320199012756 2.29322910308838 2.05103611946106 1.93266689777374 1.95262968540192 1.9426212310791 2.01539540290833 2.29676604270935 2.64387178421021 3.11122560501099 3.39639353752136 3.75290393829346 3.94571685791016 4.31291818618774 4.69523096084595 5.03129148483276 5.39921426773071 5.67486429214478 5.94381523132324 6.16686916351318
