NCOLS 172
NROWS 32
XLLCORNER 353968
YLLCORNER 6701120
CELLSIZE 16 
NODATA_value -3.4e+38 
1.00046002864838 5.54801559448242 7.06211614608765 5.80688953399658 3.02781462669373 -0.753728687763214 -3.00057625770569 -3.07206749916077 -3.02912044525146 -1.96978783607483 0.909732043743134 3.18504738807678 4.78261566162109 5.46115684509277 4.00072193145752 3.28640794754028 5.80089426040649 8.18240165710449 8.80517196655273 5.61642599105835 5.11073350906372 10.5869722366333 12.7710227966309 13.4013690948486 12.4767265319824 9.64775276184082 7.87764263153076 7.58847379684448 8.90511131286621 7.17754888534546 6.65558004379272 8.15005397796631 8.53084087371826 6.73611211776733 5.76889038085938 4.87209701538086 4.627037525177 7.91059064865112 11.6445999145508 12.3628377914429 11.9007787704468 10.6214399337769 6.99403953552246 5.38783121109009 3.51586198806763 2.08727502822876 4.26901054382324 2.1931483745575 2.22438049316406 2.48444509506226 5.42726564407349 6.47285127639771 5.6021785736084 5.74794149398804 11.8162326812744 6.7930121421814 8.28853988647461 6.51937055587769 10.6330490112305 8.47212600708008 6.62780952453613 6.71035528182983 8.1516637802124 4.80123090744019 4.30730056762695 4.16294002532959 3.90429592132568 3.11061835289001 2.56883144378662 2.43991470336914 2.40949440002441 2.40114855766296 2.38362431526184 3.02401471138 2.3631329536438 2.2189838886261 2.00286412239075 2.57095956802368 2.56796026229858 2.8004949092865 3.5198609828949 4.39436769485474 4.99608850479126 5.09448432922363 4.68269014358521 4.4331431388855 4.14106559753418 3.79332208633423 3.43570852279663 3.11808466911316 2.67757725715637 2.37795519828796 2.1478054523468 1.98092555999756 1.7837210893631 1.58256697654724 1.40778863430023 3.37781715393066 2.82065796852112 2.11539173126221 1.50536847114563 1.25177323818207 1.20406723022461 1.16488313674927 1.13322031497955 1.08932662010193 1.05255401134491 1.04595923423767 1.01838564872742 0.990412950515747 0.992145299911499 0.970966637134552 0.941113710403442 0.895641446113586 0.89006507396698 0.877451419830322 0.868719875812531 0.855528950691223 0.833684861660004 0.837251007556915 0.837936222553253 0.838298261165619 0.823216199874878 0.81568044424057 0.814617693424225 0.809552907943726 0.812928378582001 0.877924799919128 0.806154310703278 0.791558563709259 0.774425625801086 0.765677809715271 0.754759192466736 0.740084707736969 0.72368586063385 0.703400075435638 0.678889989852905 0.666799366474152 0.655361473560333 0.649984896183014 0.632707118988037 0.601457357406616 0.563320279121399 0.543050646781921 0.506234586238861 0.460449606180191 0.41281458735466 0.391218632459641 0.401982098817825 0.388000518083572 0.373208284378052 0.366771161556244 0.362413048744202 0.353002518415451 0.325456172227859 0.321364790201187 0.307905197143555 0.313098460435867 0.313496112823486 0.300907075405121 0.274312376976013 0.232197597622871 0.191619455814362 0.116310819983482 0.0409855134785175 0.158282399177551 -0.0304505173116922 -0.0286472290754318 1.28790211677551 0.136428311467171 0.327258139848709 0.140284925699234
-3.31513905525208 0.968469977378845 6.46358633041382 8.84836101531982 9.13913917541504 2.96857070922852 -0.787267684936523 -2.78689765930176 -3.08191967010498 -1.3953230381012 0.936636030673981 0.297132074832916 4.23184108734131 5.52848243713379 3.6574809551239 1.93790507316589 4.29693937301636 8.25437355041504 6.7355637550354 1.96344864368439 1.38336443901062 3.83308339118958 5.75080823898315 7.78867340087891 8.53633213043213 6.29748010635376 3.63573884963989 6.10824394226074 9.19010639190674 11.3026733398438 11.7162284851074 10.611349105835 9.15359115600586 7.80044507980347 6.15244770050049 5.45329666137695 4.817551612854 8.47855377197266 10.2976169586182 14.0955753326416 12.2627487182617 7.89265871047974 6.31045246124268 4.75878286361694 2.80497908592224 1.37335062026978 1.21649515628815 1.26758551597595 0.728876292705536 0.587733268737793 6.82789945602417 7.62165355682373 7.13260316848755 6.52962303161621 13.2049570083618 12.2819223403931 11.4855070114136 8.5678539276123 7.18447780609131 7.61718368530273 6.9460186958313 5.85453987121582 4.9084644317627 4.53797101974487 3.50443983078003 3.02260184288025 2.69224500656128 2.51615428924561 2.4733407497406 2.46563839912415 2.41591095924377 2.4030933380127 2.40779066085815 2.25579214096069 2.16718220710754 1.95625257492065 1.83373022079468 1.77685332298279 1.8884642124176 1.78153085708618 2.51098561286926 3.42488861083984 4.18436861038208 4.87256050109863 4.80255079269409 4.32521533966064 3.99355888366699 3.75252032279968 3.51988768577576 3.08712291717529 2.68032097816467 2.34957909584045 2.15273594856262 1.92737197875977 1.71687710285187 1.50730264186859 1.28438568115234 1.62218713760376 3.51229429244995 1.61229908466339 1.30484437942505 1.26276004314423 1.21179831027985 1.18027520179749 1.17189025878906 1.14602708816528 1.10311591625214 1.07728350162506 1.0591881275177 1.03488779067993 1.02196431159973 1.01505088806152 0.993878543376923 0.913945257663727 0.923855304718018 0.902335166931152 0.909529566764832 0.88847541809082 0.872810900211334 0.876868367195129 0.872930645942688 0.878116488456726 0.862749457359314 0.852125823497772 0.857358813285828 0.852535843849182 0.856609582901001 0.933153569698334 0.854709029197693 0.837218046188354 0.823462426662445 0.818059265613556 0.808872044086456 0.792405545711517 0.778448283672333 0.757511913776398 0.752005219459534 0.742184579372406 0.72584342956543 0.723964691162109 0.706303179264069 0.657765924930573 0.641097486019135 0.60963362455368 0.57136332988739 0.531483948230743 0.486777901649475 0.448628067970276 0.447268009185791 0.438488304615021 0.399225980043411 0.388833850622177 0.377950638532639 0.361223489046097 0.337407797574997 0.332606106996536 0.328444927930832 0.335537403821945 0.34927237033844 0.338388204574585 0.309289813041687 0.263987392187119 0.214717999100685 0.144760549068451 0.0707214698195457 0.21045084297657 0.0658591985702515 -0.0199009925127029 0.0352301113307476 1.20103573799133 0.378643035888672 0.706451892852783
-4.42154598236084 -1.20253777503967 -0.969193339347839 8.8193883895874 10.4822778701782 10.2430067062378 3.1511218547821 -0.864672303199768 -2.15879893302917 -2.70925760269165 0.701316118240356 -2.12867307662964 4.00586843490601 5.40462398529053 2.46390581130981 -0.191819131374359 1.46852421760559 8.62589550018311 3.6322808265686 0.754183292388916 -0.199874266982079 2.58881831169128 4.45876789093018 4.81912326812744 3.79650664329529 0.977026402950287 -0.165512084960938 -0.949292778968811 -0.216517940163612 5.03593635559082 10.059886932373 10.5099906921387 10.5242471694946 9.46584796905518 7.5211706161499 7.11923217773438 6.86471748352051 7.88279390335083 9.87352180480957 11.4834079742432 9.06264972686768 7.68508577346802 6.31014442443848 3.86179757118225 1.99027395248413 1.37439966201782 0.942315518856049 0.619808316230774 0.424509704113007 1.2673944234848 7.98565292358398 10.5255889892578 9.84100818634033 11.5601596832275 17.1075820922852 9.71263885498047 12.1528978347778 9.13709354400635 7.22956800460815 6.58050918579102 5.70671653747559 5.28429889678955 4.13727045059204 3.20821189880371 2.69429230690002 2.60892152786255 2.53311204910278 2.50969791412354 2.45028185844421 2.60862612724304 2.30636548995972 2.34259605407715 2.06024932861328 2.07863426208496 2.01088905334473 2.03163862228394 1.89871764183044 1.84895217418671 1.61429512500763 1.59087538719177 1.73728609085083 2.62835144996643 3.67848587036133 4.11377429962158 4.14544725418091 4.04621267318726 3.93206334114075 3.74208784103394 3.35351061820984 3.11821746826172 2.66920733451843 2.31771683692932 2.07293081283569 1.79833400249481 1.64267444610596 1.51139688491821 1.39466977119446 1.32256889343262 1.33028173446655 1.3850017786026 1.28567898273468 1.26957058906555 1.25859212875366 1.23997735977173 1.20397329330444 1.18917286396027 1.16543626785278 1.13503563404083 1.09744238853455 1.09278035163879 1.07850420475006 1.04996454715729 1.01444911956787 0.961411774158478 0.964648425579071 0.948519706726074 0.940747320652008 0.936791956424713 0.918483793735504 0.914937317371368 0.902641415596008 0.905148148536682 0.894077718257904 0.902524471282959 0.889907956123352 0.886539399623871 0.887372970581055 0.901413202285767 0.899344980716705 0.884044229984283 0.879501819610596 0.873363494873047 0.855157852172852 0.842743217945099 0.827071487903595 0.815129399299622 0.815375030040741 0.801951050758362 0.789989709854126 0.78816282749176 0.759405791759491 0.722918570041656 0.716840267181396 0.689930498600006 0.647615492343903 0.59721040725708 0.551998555660248 0.52360987663269 0.497255742549896 0.481416463851929 0.471184104681015 0.438216328620911 0.416060775518417 0.401265770196915 0.391075521707535 0.384819865226746 0.377007037401199 0.382785618305206 0.37419855594635 0.363438993692398 0.346893489360809 0.308432906866074 0.238355487585068 0.238959610462189 0.246268793940544 0.187756612896919 0.128871396183968 0.0558555461466312 0.0318101160228252 -0.0370440259575844 0.73634946346283 0.928332686424255
-4.39765167236328 -3.99526500701904 -4.60542869567871 1.11637604236603 10.4309892654419 10.3854455947876 9.56002044677734 2.50574374198914 -0.158549249172211 -1.31674909591675 -1.86419153213501 -0.499028325080872 5.38011741638184 0.817682027816772 1.95527017116547 -0.509877383708954 -0.660723209381104 6.00138998031616 4.65404605865479 -0.149481698870659 -1.13901507854462 1.53134620189667 3.61968493461609 4.09024953842163 1.45820200443268 -1.08080494403839 -1.56135404109955 -2.1712794303894 -2.27591466903687 5.33413124084473 6.20616674423218 5.89671325683594 8.23071765899658 10.037317276001 9.46201992034912 8.19753170013428 6.41393280029297 7.29474830627441 13.4745616912842 10.2418241500854 9.31754970550537 6.05860471725464 4.13476085662842 2.33716320991516 1.81174600124359 1.18015646934509 0.920847058296204 0.557804703712463 0.252991169691086 0.0316909924149513 6.30346202850342 11.5665311813354 18.4526348114014 14.0039167404175 13.4161033630371 9.25318622589111 12.2523918151855 9.73663520812988 6.57946157455444 5.96670913696289 4.81731748580933 3.76768064498901 3.21582436561584 2.86843156814575 2.7153160572052 2.64299178123474 2.55027222633362 2.51498413085938 2.32771492004395 2.12355756759644 2.44672465324402 2.37518906593323 2.63385629653931 2.53873705863953 2.26829862594604 2.1992712020874 1.92779982089996 1.73845589160919 1.62776041030884 1.43388974666595 1.7832099199295 1.87945806980133 2.84482431411743 3.34125137329102 3.00615549087524 3.0910050868988 3.2590491771698 3.22404265403748 3.16064381599426 2.85705900192261 2.58546257019043 2.08059144020081 1.90181577205658 1.73771047592163 1.60166311264038 1.48191678524017 1.42995667457581 1.3752247095108 1.31966280937195 1.33065044879913 1.32485842704773 1.30386745929718 1.28589653968811 1.27623438835144 1.26042091846466 1.23179137706757 1.21995222568512 1.19959735870361 1.16086709499359 1.13072741031647 1.11918008327484 1.0901894569397 1.03712224960327 1.02212452888489 1.00919473171234 0.99003678560257 0.975513935089111 0.972393572330475 0.973634481430054 0.958574414253235 0.952742636203766 0.938151717185974 0.941786706447601 0.945279836654663 0.924522638320923 0.93554824590683 0.922463834285736 0.929749250411987 0.93347555398941 0.921166062355042 0.920718431472778 0.91838002204895 0.899277150630951 0.886341691017151 0.883864343166351 0.875123918056488 0.884633719921112 0.871486067771912 0.860115885734558 0.852985620498657 0.80877959728241 0.809692740440369 0.79168027639389 0.766552329063416 0.731799304485321 0.677665054798126 0.63155859708786 0.597997188568115 0.562326848506927 0.529050290584564 0.532947063446045 0.524090468883514 0.4732466340065 0.463327914476395 0.449066966772079 0.44620543718338 0.436177164316177 0.428194344043732 0.420145839452744 0.40491783618927 0.382842928171158 0.350285291671753 0.28202885389328 0.222108513116837 0.162977486848831 0.103879831731319 0.055837657302618 0.088601142168045 -0.0207465253770351 -0.0378799214959145 -0.0275968257337809 -0.03165552765131
-4.38746643066406 -3.81396245956421 -4.5888295173645 -4.66953706741333 4.69757699966431 8.8791389465332 9.89874458312988 8.51008987426758 4.22308158874512 2.09600162506104 -0.286156326532364 -1.02524590492249 2.40355324745178 0.275527715682983 1.14529752731323 0.234502866864204 0.21981580555439 1.53956377506256 4.92095470428467 1.68665242195129 -0.984124362468719 -0.208046644926071 2.32374882698059 4.28569221496582 0.316438734531403 -1.73351168632507 -2.01016592979431 -2.19660377502441 -2.59573721885681 5.20298624038696 4.81468296051025 4.00646638870239 6.91770935058594 11.3023557662964 8.24492740631104 6.40592813491821 4.43372964859009 8.74696922302246 15.4439754486084 11.6864213943481 6.57573747634888 3.39087438583374 2.10195398330688 1.6406956911087 1.46489715576172 2.15585112571716 1.3725209236145 1.25909197330475 0.77049708366394 0.20987132191658 3.58455300331116 13.8940620422363 21.1468658447266 14.2826995849609 11.273796081543 8.06388759613037 11.5047645568848 6.90030241012573 5.55646371841431 4.30847263336182 3.70823621749878 3.0845468044281 3.00860071182251 2.89322447776794 2.73534297943115 2.67280602455139 2.45556426048279 2.1318895816803 1.83602023124695 1.62476944923401 1.87368595600128 3.17209625244141 3.44535994529724 2.99306678771973 2.62530255317688 2.16706967353821 2.04813885688782 1.6425473690033 1.56668055057526 1.41636502742767 1.57805752754211 2.06330013275146 2.29879093170166 2.73659086227417 2.62173986434937 3.01416563987732 3.04286766052246 3.09543180465698 2.12650918960571 2.33311796188354 2.32050251960754 2.03842663764954 1.7570720911026 1.59630501270294 1.53808951377869 1.48184657096863 1.44472146034241 1.39610171318054 1.35478484630585 1.35579574108124 1.35529220104218 1.34194695949554 1.34505367279053 1.32638382911682 1.30261635780334 1.28510844707489 1.25202977657318 1.24802112579346 1.21844971179962 1.17870843410492 1.1585499048233 1.10200166702271 1.07380700111389 1.07424700260162 1.05764532089233 1.04510962963104 1.02533149719238 1.02143239974976 1.01336407661438 1.01141834259033 0.994733393192291 0.995323002338409 0.986020624637604 0.972850263118744 0.97569751739502 0.962713479995728 0.964047491550446 0.965564608573914 0.964240074157715 0.969575226306915 0.965995013713837 0.946596086025238 0.932971298694611 0.919900119304657 0.921966969966888 0.923489034175873 0.933882296085358 0.926825165748596 0.922615945339203 0.891683340072632 0.874421179294586 0.880210816860199 0.863843679428101 0.844391047954559 0.819786667823792 0.766179025173187 0.7295081615448 0.692948043346405 0.64583420753479 0.581659555435181 0.589436173439026 0.575381934642792 0.535686254501343 0.508679330348969 0.513939917087555 0.503894448280334 0.501554369926453 0.491923123598099 0.471002489328384 0.45307919383049 0.431913107633591 0.392480194568634 0.32971465587616 1.86686301231384 0.648930132389069 0.35262542963028 0.126773998141289 0.0670627728104591 0.0201539434492588 -0.0159477405250072 0.124268263578415 -0.0358792096376419
-4.33433151245117 -4.24007415771484 -4.54837608337402 -4.64708948135376 -0.922187149524689 7.21256065368652 10.0064258575439 8.4158239364624 6.12763643264771 4.60098695755005 2.25448083877563 0.825139760971069 -0.701992869377136 -1.23792517185211 2.00026845932007 0.96610701084137 0.236487120389938 -0.802892923355103 1.38576638698578 2.28845286369324 -0.728764951229095 -1.37178122997284 2.79289054870605 2.89808869361877 -0.271972000598907 -1.98759520053864 -2.35841464996338 -1.54958319664001 -2.76484632492065 1.35379207134247 5.50780200958252 9.4434118270874 6.96603393554688 9.27214527130127 4.44263744354248 8.72214698791504 8.8323802947998 11.2257280349731 15.385781288147 6.88693284988403 2.83001041412354 2.23075079917908 1.18004238605499 0.834075510501862 2.40808606147766 4.13396739959717 3.60218548774719 2.59218668937683 1.60990417003632 1.27374064922333 7.69495391845703 20.0640029907227 12.7608880996704 14.3112268447876 11.3303060531616 8.85083961486816 7.17123985290527 5.04251003265381 4.35704278945923 3.55944967269897 3.21989250183105 3.08308172225952 3.02130913734436 2.91611409187317 2.66657042503357 2.29637789726257 1.95581185817719 1.70956349372864 1.47286093235016 1.26014077663422 1.03416907787323 2.90322542190552 3.81989192962646 3.20415353775024 2.97270655632019 2.42213153839111 2.00984525680542 1.71943628787994 1.39141893386841 1.3178915977478 1.53430831432343 1.85358548164368 2.56917357444763 3.08642864227295 2.94685220718384 3.1444091796875 3.18390345573425 2.0728976726532 1.89163613319397 1.85030770301819 1.97931146621704 1.73610401153564 1.63733804225922 1.60266101360321 1.58082592487335 1.54107904434204 1.4942342042923 1.45553839206696 1.43800318241119 1.39776587486267 1.38898515701294 1.39612257480621 1.38951456546783 1.38938236236572 1.34089684486389 1.32431137561798 1.29891097545624 1.29073214530945 1.2775719165802 1.23802137374878 1.19125390052795 1.1370598077774 1.12819623947144 1.11706948280334 1.11404490470886 1.1023246049881 1.08049345016479 1.07626140117645 1.05661034584045 1.04472637176514 1.04782211780548 1.02505958080292 1.0219532251358 1.01116347312927 1.01249861717224 0.999626934528351 0.993400692939758 1.0094587802887 1.00888347625732 0.994328260421753 0.994166195392609 0.983725845813751 0.967879891395569 0.960511863231659 0.971978545188904 0.970122039318085 0.972771167755127 0.974306344985962 0.970067024230957 0.92018187046051 0.940224885940552 0.939144134521484 0.93223512172699 0.914232194423676 0.891540288925171 0.83955043554306 0.813102900981903 0.786268353462219 0.73497748374939 0.677053809165955 0.696678519248962 0.690300524234772 0.693783402442932 0.678018391132355 0.603004217147827 0.651971876621246 0.641881942749023 0.579571962356567 0.546745657920837 0.520172894001007 0.483484387397766 0.442085176706314 0.997953653335571 0.349227905273438 0.293117105960846 1.32730543613434 0.190413564443588 0.112271763384342 0.0596936568617821 0.0100276451557875 -0.0163589268922806 0.32270935177803
-4.25197601318359 -4.42845916748047 -4.57978105545044 -4.17819976806641 -3.46895337104797 7.32337427139282 9.24039459228516 8.58788871765137 6.79323196411133 5.29464721679688 4.09225797653198 1.48816347122192 -0.273177772760391 -1.06389904022217 -1.28216326236725 1.77762818336487 -0.0958684459328651 -1.36935603618622 -0.763406038284302 0.467693656682968 -0.0645316019654274 -1.28537142276764 2.83786106109619 2.47816729545593 -0.869515776634216 -2.31387233734131 -2.31199288368225 3.82174158096313 2.02662777900696 -0.327271789312363 6.40784358978271 7.56899929046631 7.51908540725708 8.18928813934326 7.70630311965942 7.60336017608643 9.40762519836426 10.9748811721802 8.47855377197266 3.09420561790466 2.39713358879089 1.21387112140656 0.448516845703125 0.178879201412201 3.73251843452454 4.8993124961853 5.36262273788452 3.58743500709534 3.24364805221558 6.48318910598755 15.1421632766724 11.2131633758545 11.5246744155884 13.8128709793091 10.3831653594971 6.94724369049072 6.04094743728638 3.93846702575684 3.4906542301178 3.31514143943787 3.24055361747742 3.00917625427246 2.80288529396057 2.5208899974823 2.15263700485229 1.87768280506134 1.60148477554321 1.37556493282318 1.12477648258209 0.853644967079163 0.666130781173706 1.86518466472626 3.27396655082703 3.62248778343201 2.90630483627319 2.66721439361572 1.9541848897934 1.65175819396973 1.31919980049133 1.17476868629456 1.63774740695953 1.77341115474701 2.72544193267822 3.53163242340088 3.34699654579163 3.39861726760864 2.23685383796692 2.01366829872131 1.78734648227692 1.75351679325104 1.71643555164337 1.6720255613327 1.69848322868347 1.68359529972076 1.64231312274933 1.58549499511719 1.57262420654297 1.53195583820343 1.50143599510193 1.47375333309174 1.44853377342224 1.46301341056824 1.4369877576828 1.42614233493805 1.39442217350006 1.37493181228638 1.3560209274292 1.32907068729401 1.3298237323761 1.31120669841766 1.22059738636017 1.1984486579895 1.18901026248932 1.17973625659943 1.16046869754791 1.15748167037964 1.14060986042023 1.10408115386963 1.10193622112274 1.09107112884521 1.08410251140594 1.07310223579407 1.06120216846466 1.06014442443848 1.0624293088913 1.05033707618713 1.04546046257019 1.0297908782959 1.03258323669434 1.0386791229248 1.01795661449432 1.032839179039 1.02129638195038 1.01050090789795 1.00978446006775 1.0177549123764 1.01892614364624 1.00284075737 0.991115152835846 0.97190135717392 0.989891350269318 0.989881873130798 0.984213471412659 0.965003848075867 0.941114604473114 0.894869804382324 0.869713246822357 0.843856453895569 0.820583581924438 0.769536912441254 0.799517691135406 0.791341602802277 0.776828050613403 0.793567538261414 0.777086555957794 0.714902997016907 0.698886632919312 0.677946329116821 0.650931775569916 0.622109472751617 0.579916298389435 0.536127030849457 0.519517242908478 0.451888769865036 0.378872334957123 0.75812041759491 0.233995974063873 0.156839311122894 0.0876250863075256 0.0328713431954384 0.0658566579222679 -0.00560205103829503
-4.19937419891357 -4.45677947998047 -4.5607738494873 -4.63896608352661 -2.90389323234558 6.64281463623047 9.5670690536499 9.17354869842529 8.04082775115967 5.66972017288208 4.90072870254517 2.32105231285095 0.458200514316559 -0.814866542816162 -1.53197038173676 -1.43278419971466 2.19248557090759 -0.398576080799103 -2.07738876342773 -0.920138597488403 1.31397998332977 1.482994556427 3.0536425113678 1.03837561607361 -0.658022105693817 -1.98409199714661 1.90271008014679 5.13442611694336 2.61098432540894 1.20537781715393 4.44527149200439 7.95172929763794 9.1059045791626 9.26589107513428 8.53734397888184 7.20357894897461 7.19723272323608 7.2316517829895 3.12446808815002 2.57189249992371 1.6435455083847 0.449969232082367 -0.160867869853973 0.105703890323639 2.16894173622131 3.09338879585266 6.0108208656311 4.3134298324585 7.45253372192383 17.5831241607666 9.45588207244873 10.8467016220093 10.4954528808594 10.0869007110596 10.1261558532715 5.52421903610229 4.66969203948975 3.65697646141052 3.54301381111145 3.25895476341248 2.80662393569946 2.44802927970886 2.13593053817749 1.7966456413269 1.67160451412201 1.51452660560608 1.23028957843781 0.937251031398773 0.745697200298309 0.530959248542786 0.392757058143616 0.826723337173462 2.47009539604187 3.29881477355957 3.27753400802612 2.46734642982483 2.08205604553223 1.54179799556732 1.36330854892731 1.1591272354126 1.66612374782562 2.47606754302979 2.66365623474121 3.2183837890625 3.05358791351318 2.47650384902954 2.05911874771118 1.91353631019592 1.85197806358337 1.8639805316925 1.84953093528748 1.80069077014923 1.74583888053894 1.74417686462402 1.74104845523834 1.67996752262115 1.63637781143188 1.60834836959839 1.59459054470062 1.54360234737396 1.54348254203796 1.51807677745819 1.49807381629944 1.45598435401917 1.45174479484558 1.40528178215027 1.4034571647644 1.39679265022278 1.37088584899902 1.33121836185455 1.29668021202087 1.27725958824158 1.25795698165894 1.24209415912628 1.22611260414124 1.20001220703125 1.19965255260468 1.17084181308746 1.14788055419922 1.14229643344879 1.13024508953094 1.1187481880188 1.11444866657257 1.11440575122833 1.0975399017334 1.09035444259644 1.07791781425476 1.08423948287964 1.07364082336426 1.09073376655579 1.0831732749939 1.07971787452698 1.06984186172485 1.06546175479889 1.06039106845856 1.04878902435303 1.05084753036499 1.0457170009613 1.01586818695068 1.03552222251892 1.03604364395142 1.0344272851944 1.02816569805145 1.00897371768951 0.976241767406464 0.951596021652222 0.954171299934387 0.93664288520813 0.895068526268005 0.832335710525513 0.893103897571564 0.898643434047699 0.895762264728546 0.878993690013885 0.874047577381134 0.857137441635132 0.808578610420227 0.782842814922333 0.753264367580414 0.721183776855469 0.672973453998566 0.650658965110779 0.61785352230072 0.575500786304474 0.482533693313599 0.420690655708313 0.49695211648941 0.275764375925064 0.201294809579849 0.12122306227684 0.148119151592255 1.00689840316772
-4.23227405548096 -4.3538875579834 -4.43486309051514 -4.55065727233887 -4.52122068405151 6.12852621078491 10.1203184127808 10.3970022201538 10.2121143341064 6.83698844909668 4.97392845153809 2.36968374252319 0.366109818220139 -0.669946551322937 -1.30968463420868 -1.94163429737091 1.14879310131073 -0.428791284561157 -1.92315399646759 -0.266730606555939 0.631193220615387 0.380463272333145 1.27233707904816 0.324758350849152 -0.0232772827148438 1.47794365882874 2.42029857635498 1.02720499038696 9.10593128204346 5.24270677566528 4.2455906867981 5.75364828109741 13.3224906921387 8.79318904876709 6.9383864402771 5.94479990005493 5.77017307281494 3.57941579818726 2.71169137954712 1.99532675743103 0.931612193584442 0.0380360335111618 -0.652974784374237 2.2030975818634 1.87266254425049 -0.939658105373383 2.17510747909546 7.02950000762939 17.3542728424072 14.9827108383179 9.16867542266846 8.86241626739502 10.8229551315308 8.70037746429443 8.25866794586182 4.45153093338013 3.96396899223328 3.6609206199646 3.09627604484558 2.67243337631226 2.33091926574707 1.96935749053955 1.67032742500305 1.38781607151031 1.07474803924561 0.8703453540802 0.803577601909637 0.566703677177429 1.10431849956512 0.499642997980118 0.595174908638 1.03343212604523 1.65570962429047 2.64539074897766 2.59087681770325 2.52216553688049 2.00174522399902 1.74152290821075 1.33563363552094 1.22493803501129 1.87908971309662 2.44132494926453 3.19550609588623 2.65523242950439 2.41672587394714 2.06824898719788 2.11625504493713 2.05132675170898 2.09587907791138 2.03547143936157 1.88746011257172 1.88630068302155 1.82293927669525 1.80402278900146 1.80337047576904 1.79265904426575 1.73963379859924 1.67138230800629 1.64465498924255 1.60961091518402 1.59916162490845 1.58414256572723 1.55338132381439 1.52512776851654 1.49018836021423 1.4745854139328 1.44355297088623 1.43269085884094 1.44581627845764 1.33281123638153 1.36640024185181 1.36126494407654 1.33128702640533 1.30408143997192 1.28307926654816 1.26774740219116 1.24848222732544 1.23702597618103 1.20481526851654 1.1923143863678 1.18339991569519 1.18429946899414 1.16205978393555 1.15306866168976 1.13868582248688 1.13991737365723 1.13521826267242 1.14492094516754 1.13333475589752 1.12713170051575 1.12822139263153 1.13439953327179 1.12180364131927 1.1275120973587 1.13015723228455 1.12341344356537 1.09529829025269 1.08399748802185 1.06955111026764 1.08192002773285 1.06987655162811 1.05808711051941 1.07040953636169 1.07025635242462 1.0620436668396 1.04727864265442 1.02516233921051 1.00192666053772 0.953385353088379 0.945717751979828 0.974705696105957 0.992458641529083 1.02691316604614 1.00682461261749 0.985963106155396 0.972517013549805 0.950585186481476 0.886961221694946 0.846455752849579 0.794727325439453 0.747895956039429 1.16717255115509 0.735116899013519 0.687883377075195 0.629963994026184 0.612205862998962 0.503175318241119 0.406107753515244 0.336391091346741 0.279489129781723 1.23757433891296 0.192992135882378
-3.99343705177307 -4.12397241592407 -4.25315189361572 -4.38297080993652 -3.98319339752197 2.71455192565918 11.7648677825928 11.0971355438232 12.1199169158936 7.3817286491394 4.40393304824829 1.7411242723465 0.278542548418045 -0.263769716024399 -0.71133154630661 -1.21486222743988 1.80997157096863 1.05746638774872 -1.98200309276581 -2.49230933189392 -0.611825108528137 -1.99674832820892 -0.0442322976887226 -0.350247740745544 0.14135730266571 2.08160829544067 2.78460454940796 3.25427770614624 13.5896120071411 11.5287666320801 5.92006826400757 6.63410806655884 10.0727844238281 6.01833248138428 4.23822784423828 4.82594108581543 4.8105320930481 3.19847059249878 2.1741828918457 1.44295251369476 0.451341450214386 0.110586918890476 -0.201069980859756 3.87409710884094 1.90885043144226 1.77787387371063 3.82984685897827 7.77417087554932 8.19953918457031 9.78243541717529 9.8877477645874 9.54732894897461 9.93333339691162 8.64567089080811 5.86817932128906 4.14368915557861 3.5053858757019 3.03567600250244 2.65665507316589 2.22863864898682 1.8145866394043 1.50154340267181 1.17000067234039 0.912199378013611 0.64175683259964 0.383477002382278 0.37986147403717 0.834235012531281 1.10986256599426 0.762026607990265 1.20638823509216 1.06937420368195 1.28339648246765 1.54632079601288 2.03411793708801 2.19049406051636 1.90011739730835 1.64621233940125 1.44126200675964 1.1949679851532 2.03085708618164 2.97320079803467 2.67806386947632 2.13002729415894 2.33290815353394 2.41509914398193 2.404372215271 2.391934633255 2.17291808128357 2.12594604492188 2.03881907463074 1.95422327518463 1.92543804645538 1.86984300613403 1.8288516998291 1.8081933259964 1.80122685432434 1.74278914928436 1.69587206840515 1.67817151546478 1.65541613101959 1.64458811283112 1.64118099212646 1.60222601890564 1.55865621566772 1.52932643890381 1.51401674747467 1.49608194828033 1.41874086856842 1.41444218158722 1.416100025177 1.40976071357727 1.39510571956635 1.36967945098877 1.36318731307983 1.35467827320099 1.32834005355835 1.30704474449158 1.30948317050934 1.27768778800964 1.23072791099548 1.2240344285965 1.21010255813599 1.21780037879944 1.20992791652679 1.21415638923645 1.20284819602966 1.19405424594879 1.21886217594147 1.22464263439178 1.22060096263885 1.17953622341156 1.18402218818665 1.18298363685608 1.18806767463684 1.17488777637482 1.14465475082397 1.11447632312775 1.12432599067688 1.10502862930298 1.11558151245117 1.11985778808594 1.12565100193024 1.13325381278992 1.13399696350098 1.12216985225677 1.1019252538681 1.06764030456543 1.01844298839569 1.04399526119232 1.0795533657074 1.11041927337646 1.14473307132721 1.17724907398224 1.16737639904022 1.14457941055298 1.10494208335876 0.989282667636871 0.929769277572632 0.872663676738739 0.862951457500458 0.870546281337738 0.839707314968109 0.834805846214294 0.820633828639984 0.786072850227356 0.650362908840179 0.598671615123749 0.524256348609924 0.76514059305191 0.376700043678284 0.314730197191238
-3.75139307975769 -3.98555946350098 -4.15819931030273 -4.28947496414185 -3.04830265045166 3.17477917671204 10.7124509811401 12.7699575424194 13.278787612915 6.91030979156494 3.70552468299866 1.54173958301544 0.461679667234421 0.574782133102417 0.359978973865509 1.74001562595367 1.5487642288208 -0.857568144798279 -1.67956757545471 -2.63157653808594 -3.11071705818176 -3.51429128646851 -1.10905683040619 -1.79796230792999 0.829318284988403 -0.234246864914894 4.7257719039917 12.1203346252441 15.5164194107056 14.6090269088745 8.46310520172119 7.43013381958008 5.62231063842773 4.0371880531311 3.79960823059082 5.26543664932251 3.97239923477173 2.58314228057861 2.36998891830444 3.06097674369812 2.65043354034424 3.36730933189392 3.27823638916016 3.02593660354614 2.96696972846985 2.85651135444641 4.20211362838745 7.14979028701782 7.70830202102661 8.19461441040039 9.30972957611084 8.72234725952148 9.18522357940674 8.29215145111084 4.03511619567871 3.52435541152954 3.11534929275513 2.65047454833984 2.16963768005371 1.72477960586548 1.29597389698029 0.989581406116486 0.704024493694305 0.515323877334595 0.172592982649803 -0.0998510420322418 0.598179876804352 1.52972173690796 1.03789758682251 0.873090147972107 1.21616470813751 1.20024383068085 1.02799701690674 0.985785901546478 1.42168521881104 1.74715340137482 1.70337069034576 1.45177376270294 1.40327441692352 1.57588720321655 2.09029841423035 2.29078507423401 1.79100978374481 2.0761444568634 2.51543855667114 2.86886811256409 2.51179242134094 2.42736887931824 2.34529185295105 2.23013067245483 2.17736101150513 2.08736276626587 2.02217245101929 1.89214384555817 1.86547362804413 1.81720423698425 1.81097173690796 1.7900550365448 1.72458171844482 1.74444472789764 1.74410343170166 1.7045031785965 1.70438420772552 1.67407143115997 1.62937939167023 1.62716317176819 1.58340513706207 1.53036904335022 1.46327948570251 1.46260726451874 1.46298933029175 1.45164024829865 1.44964075088501 1.43818914890289 1.42022109031677 1.42621278762817 1.48572850227356 1.60336244106293 1.43506097793579 1.67457091808319 1.60400950908661 1.4489198923111 1.55174446105957 1.41541957855225 1.30710101127625 1.28382122516632 1.27432453632355 1.27421617507935 1.25151169300079 1.23320734500885 1.23342609405518 1.28428387641907 1.24868035316467 1.24832105636597 1.23863351345062 1.2124969959259 1.18670499324799 1.14441108703613 1.16059374809265 1.16253781318665 1.16972923278809 1.17964649200439 1.18459677696228 1.17716228961945 1.18802487850189 1.18839418888092 1.16662263870239 1.13118493556976 1.13634550571442 1.16674411296844 1.20259153842926 1.23074662685394 1.23868823051453 1.33967256546021 1.323655128479 1.29475975036621 1.22047173976898 1.07845771312714 1.01954686641693 0.979581654071808 0.999464273452759 0.97581672668457 0.954951167106628 0.989081144332886 0.967774927616119 0.904725313186646 0.821064054965973 0.745075762271881 0.721283435821533 0.67245626449585 0.590098023414612 0.518696010112762
-3.43177819252014 -3.64770460128784 -3.86094617843628 -4.02262735366821 -3.44761943817139 5.10089921951294 9.54190921783447 14.5428237915039 11.5754470825195 6.39291858673096 3.10785222053528 1.45705270767212 0.528436422348022 1.68313002586365 3.19387197494507 3.74345469474792 0.734041273593903 -0.872480571269989 -1.86140894889832 -2.65978312492371 -3.31965494155884 -3.78253984451294 -1.36883723735809 -1.47772514820099 0.640016734600067 2.69020867347717 9.02643013000488 15.739951133728 14.8575611114502 12.316385269165 8.5596981048584 6.42846202850342 4.63662147521973 2.88734149932861 2.83429074287415 4.77955007553101 3.80076742172241 4.14164924621582 4.20215559005737 5.4993052482605 5.92515182495117 4.87387084960938 4.07229566574097 4.5345516204834 4.81527948379517 5.78765678405762 4.72560930252075 5.86308336257935 6.79348802566528 6.8635311126709 7.79069185256958 6.03829956054688 7.83064794540405 5.89249658584595 3.57803845405579 2.91054224967957 2.61937427520752 2.16317987442017 1.65070831775665 1.1978508234024 0.82495504617691 0.49839660525322 0.193907901644707 0.326356559991837 0.466805785894394 -0.174237295985222 0.764922082424164 1.79988658428192 1.25816440582275 0.761512696743011 1.0551176071167 0.954963266849518 1.00532793998718 1.04457533359528 0.921121895313263 1.24520695209503 1.28874862194061 1.35583996772766 1.78510677814484 1.7610057592392 1.67561674118042 1.83478045463562 1.72077214717865 1.76651751995087 2.15137338638306 2.53393149375916 2.64214706420898 2.41756296157837 2.4593710899353 2.35788297653198 2.25422477722168 2.16242122650146 2.0836181640625 1.95666253566742 1.94635319709778 1.92179811000824 1.91722750663757 1.84337997436523 1.85977828502655 1.78562545776367 1.80776417255402 1.79687333106995 1.75627648830414 1.75712502002716 1.71407091617584 1.70160162448883 1.65254437923431 1.62039279937744 1.55168950557709 1.51879501342773 1.49218189716339 1.48683226108551 1.4536999464035 1.44257259368896 2.03317952156067 2.92481255531311 2.76532506942749 2.5747447013855 2.50773453712463 2.02413940429688 2.05112957954407 1.89332711696625 1.68170917034149 1.60122442245483 1.5882830619812 1.42145538330078 1.36690127849579 1.35709583759308 1.34760010242462 1.32485783100128 1.3100368976593 1.33627367019653 1.30118525028229 1.29815661907196 1.25678312778473 1.28963947296143 1.26789557933807 1.2851380109787 1.23360466957092 1.22393929958344 1.2257285118103 1.22236597537994 1.2368426322937 1.24231934547424 1.23592174053192 1.25245654582977 1.22588777542114 1.22470355033875 1.25966155529022 1.29905486106873 1.30871069431305 1.40660679340363 1.38725984096527 1.38018274307251 1.41192507743835 1.38253426551819 1.26227307319641 1.17858457565308 1.11944651603699 1.08217811584473 1.3200010061264 1.06372034549713 1.37225043773651 1.06654989719391 1.04713296890259 1.01188695430756 1.00696516036987 0.987571358680725 0.929505228996277 0.879534304141998 0.806194007396698 0.742868602275848
-3.05489730834961 -3.20656776428223 -3.47468829154968 -3.77171039581299 -3.09739327430725 6.75734758377075 9.1762113571167 13.4680252075195 9.11030006408691 5.74909687042236 2.54835510253906 0.173205882310867 1.30868256092072 1.40059280395508 6.58544778823853 4.73266410827637 0.508446633815765 -0.983603119850159 -2.19714188575745 -2.9700334072113 -3.75755000114441 -1.39215564727783 -1.58706653118134 0.439855545759201 0.0296156983822584 1.47150015830994 8.57057857513428 17.4607162475586 18.3123931884766 10.5010423660278 6.96572828292847 4.64782190322876 2.55505657196045 1.20614719390869 1.98146712779999 6.36596298217773 6.60250616073608 7.08432865142822 8.07597160339355 7.12392902374268 6.26813316345215 6.02914524078369 5.32043981552124 9.03069400787354 9.01431846618652 7.92237043380737 6.10739231109619 5.81744718551636 5.59504652023315 4.9586353302002 5.46702003479004 5.44533395767212 6.40966463088989 3.7435290813446 3.21397280693054 2.45492696762085 1.78051471710205 1.57548499107361 1.1059809923172 0.69590300321579 0.32155242562294 -0.02964011952281 -0.17693056166172 -0.41840934753418 0.506090223789215 0.732771039009094 0.487499803304672 1.71438479423523 1.15105986595154 0.711150109767914 0.593672454357147 0.650998294353485 1.06332468986511 1.11293494701385 0.859215438365936 0.861888766288757 0.96498715877533 1.41913235187531 1.3047913312912 1.09194982051849 1.56958663463593 1.72975659370422 1.77988982200623 1.90182983875275 2.00776672363281 2.32160663604736 2.55921602249146 2.52392601966858 2.61567711830139 2.42354512214661 2.37973761558533 2.22733283042908 2.18163728713989 2.14026021957397 2.01805782318115 2.05191349983215 2.03218030929565 2.02297472953796 2.0737452507019 1.96561563014984 1.83226466178894 1.95990860462189 1.8800151348114 1.82783436775208 1.81522166728973 1.76955342292786 1.72892439365387 1.7036817073822 1.64537048339844 1.57618939876556 1.53582036495209 1.48935890197754 1.3979504108429 1.34017217159271 1.5453941822052 3.09058356285095 4.3971734046936 3.96917629241943 3.11227440834045 2.81669354438782 2.35292553901672 2.18052697181702 2.12918758392334 1.82726180553436 1.62304413318634 1.5048211812973 1.48907852172852 1.4567174911499 1.43192195892334 1.41392803192139 1.39140045642853 1.39437699317932 1.33255171775818 1.34084737300873 1.37267863750458 1.33045470714569 1.33076727390289 1.33463966846466 1.34544098377228 1.30596005916595 1.30371141433716 1.29227733612061 1.2853102684021 1.30429565906525 1.31577336788177 1.35284638404846 1.3870096206665 1.38363945484161 1.36823499202728 1.46909940242767 1.46487605571747 1.4542635679245 1.48240423202515 1.45181846618652 1.52748048305511 1.49445080757141 1.38389134407043 1.25159502029419 1.20637476444244 1.20216548442841 1.19959354400635 1.17548370361328 1.1688574552536 1.17448103427887 1.15396404266357 1.13927888870239 1.1508914232254 1.17215394973755 1.14029538631439 1.09146964550018 1.0070219039917 0.962292909622192
-2.75892853736877 -2.97152376174927 -3.16012024879456 -3.51096320152283 -2.63186836242676 7.60840654373169 11.2017545700073 11.2132682800293 9.11216640472412 4.73211669921875 1.3041855096817 -1.15163064002991 3.76663208007812 10.7840995788574 9.2823371887207 3.86661338806152 0.959805905818939 -1.45363712310791 -2.48313212394714 -3.3710560798645 -3.60874581336975 -1.08977556228638 -2.58437418937683 -1.25068211555481 1.99284625053406 4.42493057250977 12.4514141082764 15.1547384262085 16.5009860992432 7.92209577560425 4.37849807739258 1.63443434238434 0.327361136674881 -0.716165721416473 2.49607920646667 10.4588613510132 13.2090578079224 10.6512413024902 8.34659290313721 7.87564659118652 7.54631519317627 7.16473913192749 6.45116472244263 9.86963653564453 11.1316623687744 7.78409433364868 6.82239532470703 5.92765140533447 5.74943256378174 5.29055786132812 5.67946481704712 4.36311340332031 4.0623254776001 3.25890564918518 2.24016833305359 1.72956824302673 1.20445919036865 0.936639308929443 0.497314602136612 0.0897022187709808 -0.0847574323415756 -0.364679455757141 -0.545767486095428 -0.489794582128525 0.155659630894661 1.10105490684509 1.06131732463837 1.06365239620209 0.839534103870392 0.579917907714844 0.483939737081528 0.511963665485382 0.80857241153717 1.05849063396454 1.03110587596893 0.992508411407471 0.969894826412201 1.09990775585175 0.831157267093658 0.818137109279633 1.18368482589722 1.39064836502075 1.71544373035431 1.92356622219086 2.01175093650818 2.26124739646912 2.34081220626831 2.34047079086304 2.61163520812988 2.60653853416443 2.57884168624878 2.40926623344421 2.31679439544678 2.21008014678955 2.17537236213684 2.13335633277893 2.22838830947876 2.11941409111023 2.24807977676392 2.19456362724304 2.17433929443359 2.11611580848694 2.03128027915955 1.95918107032776 1.8965390920639 1.83516538143158 1.81834900379181 1.74301183223724 1.71395337581635 1.67284595966339 1.61351275444031 1.54272973537445 1.37817692756653 1.27495539188385 1.28077781200409 2.15564179420471 3.73902201652527 4.85583877563477 4.55435085296631 3.26302027702332 3.06442666053772 2.62563920021057 2.15146493911743 1.93599438667297 1.71606051921844 1.59367275238037 1.58333134651184 1.54520976543427 1.49397075176239 1.48491978645325 1.45808613300323 1.43400573730469 1.45540642738342 1.44651341438293 1.42257821559906 1.41731917858124 1.41388058662415 1.40530216693878 1.39658617973328 1.36727750301361 1.36183190345764 1.39644205570221 1.4123432636261 1.452303647995 1.46588802337646 1.46591579914093 1.58477807044983 1.57103991508484 1.53671634197235 1.51965284347534 1.55532586574554 1.52535367012024 1.60222280025482 1.56282639503479 1.55502676963806 1.52387464046478 1.46360993385315 1.30768513679504 1.27298736572266 1.31399357318878 1.26003754138947 1.2612419128418 1.25959694385529 1.26317071914673 1.25931107997894 1.26083433628082 1.28708827495575 1.32775151729584 1.31314337253571 1.27596485614777 1.22266316413879 1.1698055267334
-2.46661043167114 -2.72993993759155 -2.97007369995117 -3.23085451126099 -3.46789050102234 5.23452472686768 15.4349641799927 10.0603628158569 6.87974071502686 3.27778458595276 0.519886076450348 -2.02433276176453 3.46264576911926 17.3296546936035 5.4242992401123 3.77611136436462 0.886212229728699 -1.57988107204437 -3.23184251785278 -3.36467504501343 -3.40406489372253 -3.4335572719574 1.09171462059021 -2.18310070037842 4.34040498733521 7.12229919433594 13.9359674453735 16.6222496032715 9.90836143493652 4.35546970367432 1.24416720867157 -0.0145274512469769 -1.28209733963013 -2.79131865501404 -1.31045746803284 8.00845241546631 13.5079908370972 10.740216255188 8.52644348144531 8.3191556930542 10.7198095321655 8.52271747589111 7.11573648452759 9.56509017944336 14.7501392364502 9.63085079193115 7.91105651855469 7.24578475952148 6.27675199508667 6.52407598495483 4.53492546081543 3.65345549583435 3.07671356201172 2.42792415618896 1.82538402080536 1.10642802715302 0.53271222114563 0.29301780462265 0.0210721585899591 -0.214221805334091 -0.219613924622536 -0.300332903862 -0.409831941127777 -0.419284164905548 0.24600824713707 0.797441363334656 1.04599559307098 0.983273088932037 0.586857616901398 0.760920286178589 0.604797959327698 0.460128039121628 0.45574688911438 0.804843842983246 1.19777238368988 1.08721721172333 0.968581974506378 0.72981858253479 0.688539564609528 0.669268012046814 0.746240198612213 1.06928718090057 1.50084137916565 1.81462252140045 1.82641339302063 2.23675107955933 2.07212996482849 2.08960938453674 2.35021066665649 2.64562797546387 2.69355344772339 2.37980151176453 2.52688312530518 2.35611724853516 2.39161443710327 2.14237809181213 2.47807288169861 2.29761838912964 2.49985361099243 2.46009969711304 2.3928554058075 2.27611804008484 2.25962090492249 2.13877367973328 2.05385231971741 2.03029799461365 1.92265093326569 1.85001587867737 1.80947244167328 1.794273853302 1.70647716522217 1.64302837848663 1.49593877792358 1.35405337810516 1.28026080131531 1.32155740261078 2.23880672454834 4.2275071144104 5.35244178771973 4.75344038009644 3.31946587562561 2.7467200756073 2.36490106582642 1.85655915737152 1.70669066905975 1.6778461933136 1.6548398733139 1.62245619297028 1.56863141059875 1.55931389331818 1.56866610050201 1.54081356525421 1.5243935585022 1.52224326133728 1.50941383838654 1.51045024394989 1.51199996471405 1.48266935348511 1.4830801486969 1.46167933940887 1.48267006874084 1.52077758312225 1.55777907371521 1.55104470252991 1.70289695262909 1.66399312019348 1.63543832302094 1.68242537975311 1.64158952236176 1.60310924053192 1.69031500816345 1.64753901958466 1.63872337341309 1.6277529001236 1.56243228912354 1.54416394233704 1.49633622169495 1.35699319839478 1.35396134853363 1.3316947221756 1.34482538700104 1.32464754581451 1.30572295188904 1.33846294879913 1.35514748096466 1.404740691185 1.39107227325439 1.41710901260376 1.40220522880554 1.39380669593811 1.37322342395782 1.34720265865326
-2.13887214660645 -2.52973580360413 -2.68482398986816 -2.84490871429443 -2.81823801994324 3.02860522270203 13.6192407608032 5.14678430557251 4.45645999908447 2.5332498550415 0.243055462837219 -1.91848301887512 3.38026762008667 13.3981103897095 2.85238718986511 2.83642387390137 1.67941641807556 -1.58114290237427 -2.94237565994263 -3.12874174118042 -3.03538918495178 -3.1887092590332 -1.94353592395782 3.90050363540649 5.83520793914795 9.00766944885254 12.6650352478027 11.6473522186279 5.53487014770508 1.43152272701263 -0.343467056751251 -2.07337141036987 -2.62180542945862 -2.74124550819397 -2.54622888565063 1.64245629310608 8.56448841094971 6.38784122467041 8.4725399017334 11.1509008407593 9.98498916625977 7.66659212112427 6.32879304885864 10.4705286026001 18.0149364471436 13.697286605835 10.6538982391357 7.2701997756958 6.03028059005737 4.34794425964355 5.90414714813232 3.28374361991882 2.56288981437683 1.82061803340912 1.26639139652252 0.73800927400589 0.238510742783546 -0.0228361822664738 -0.0840299353003502 -0.114814624190331 -0.149080574512482 -0.204848274588585 -0.295684039592743 -0.414591699838638 0.11534807831049 0.913719892501831 0.876982450485229 1.14525651931763 0.851450204849243 0.617356359958649 0.687015771865845 0.493762463331223 0.416139006614685 0.523205280303955 1.11247062683105 0.816738367080688 0.883215248584747 0.794835448265076 0.650839328765869 0.702231109142303 0.63243180513382 0.672553241252899 1.31066346168518 1.54124903678894 1.7930543422699 1.93558144569397 1.84509420394897 1.82510125637054 1.99938905239105 2.34642314910889 2.38688206672668 2.3570351600647 2.92146730422974 2.56028294563293 2.2635805606842 2.30145192146301 2.68254470825195 2.72499990463257 2.67843627929688 2.59268116950989 2.64375948905945 2.6444239616394 2.37397742271423 2.39069557189941 2.20041561126709 2.20288276672363 2.11991238594055 2.03499460220337 1.9274994134903 1.9302886724472 1.84527611732483 1.74672281742096 1.64818251132965 1.50478255748749 1.43332529067993 1.37879025936127 1.39599061012268 3.25954723358154 4.80562210083008 4.79450035095215 4.11653089523315 2.99302363395691 2.39378237724304 1.91319239139557 1.76507592201233 1.72651445865631 1.71922278404236 1.73877835273743 1.73637723922729 1.70000028610229 1.66763198375702 1.65640807151794 1.64682853221893 1.62552154064178 1.62140202522278 1.60280096530914 1.65957772731781 1.61882793903351 1.60436797142029 1.6511572599411 1.69667184352875 1.67885518074036 1.79556679725647 1.77031278610229 1.72602820396423 1.81013524532318 1.74529564380646 1.81561768054962 1.77611887454987 1.73834347724915 1.73362135887146 1.70134496688843 1.64214634895325 1.59781455993652 1.56868982315063 1.54900848865509 1.5343896150589 1.43692743778229 1.40019226074219 1.39993345737457 1.40917992591858 1.40055286884308 1.40329456329346 1.46643960475922 1.46898329257965 1.49407744407654 1.49041354656219 1.50435495376587 1.50787329673767 1.52388226985931 1.54460847377777 1.51819598674774
-1.84769558906555 -2.18212127685547 -2.37101697921753 -2.49103975296021 -1.81510269641876 4.55868721008301 13.886492729187 3.36597371101379 -0.986352741718292 -2.34543204307556 7.89745664596558 1.91190481185913 2.71861362457275 0.641721308231354 7.383704662323 2.93258738517761 0.175296574831009 -2.4869441986084 -2.71330094337463 -2.80343079566956 -2.83403491973877 -2.85884928703308 -2.86878538131714 8.40191268920898 6.63087320327759 8.54300785064697 7.56873083114624 7.04925203323364 3.79214763641357 0.0401285514235497 -2.02756786346436 -2.21808314323425 -2.42488026618958 -2.55134201049805 -2.69638776779175 -1.58742141723633 6.1435432434082 11.2537460327148 10.1708288192749 8.55830478668213 6.81303119659424 6.13531923294067 8.13861274719238 9.97412395477295 15.183445930481 18.4224281311035 9.94443130493164 6.7012677192688 6.2074089050293 3.79915237426758 3.17969512939453 2.28167295455933 1.69568371772766 1.25697028636932 0.722910642623901 0.202633455395699 0.122988119721413 0.0300196073949337 -0.0217432994395494 -0.0762392953038216 -0.102851465344429 -0.152994960546494 -0.217579886317253 -0.309145033359528 -0.402236878871918 0.591514348983765 1.27322447299957 1.05778050422668 0.961322426795959 0.723582684993744 0.594304919242859 0.575076401233673 0.494764268398285 0.440325647592545 0.400453060865402 0.404434531927109 0.732484757900238 0.93465930223465 0.868453025817871 0.67523580789566 0.733263552188873 0.723447799682617 0.949457705020905 1.51510846614838 1.70736253261566 1.7116961479187 1.65242779254913 1.79167497158051 1.77174806594849 1.91625571250916 1.81248641014099 2.11438512802124 2.87043428421021 2.51474952697754 2.05344796180725 2.17375564575195 2.2920253276825 2.58421277999878 2.94580936431885 2.99987578392029 2.93819308280945 2.87641835212708 2.747314453125 2.40324807167053 2.44262218475342 2.29063630104065 2.26079607009888 2.13556981086731 2.05223703384399 2.02600359916687 1.99871337413788 1.91588318347931 1.83121693134308 1.7126989364624 1.64046943187714 1.5428409576416 1.52849531173706 1.58308553695679 3.51590061187744 4.12873697280884 4.07621002197266 3.42104339599609 2.54167485237122 2.09535813331604 1.85693693161011 1.85692608356476 1.84873557090759 1.86398661136627 1.85648155212402 1.83302354812622 1.78281438350677 1.75300312042236 1.75490891933441 1.76132655143738 1.82186281681061 1.81199681758881 1.86884391307831 1.90968286991119 1.89358520507812 1.83324944972992 1.94370365142822 1.92260050773621 1.87867879867554 1.90917158126831 1.84543550014496 1.926877617836 1.91590070724487 1.87674975395203 1.82663297653198 1.79039561748505 1.71158087253571 1.71293663978577 1.65185701847076 1.63469672203064 1.61420905590057 1.53548288345337 1.5133672952652 1.49820590019226 1.50330829620361 1.54018294811249 1.60011768341064 1.58323264122009 1.53764355182648 1.56084537506104 1.56543958187103 1.58744442462921 1.59204638004303 1.61066436767578 1.64040684700012 1.61578547954559 1.64424920082092 1.72712278366089
-1.59226191043854 -1.89534485340118 -2.09090304374695 -1.90784072875977 -1.38491988182068 3.27968525886536 9.57705783843994 4.26906490325928 -1.0833694934845 -2.7789740562439 5.08268404006958 10.3367013931274 2.15033555030823 -0.366166412830353 3.14138555526733 4.46479654312134 -2.30417537689209 -2.3909022808075 -2.58521056175232 -2.1852560043335 -2.54077553749084 -2.22786784172058 0.929288685321808 4.2499098777771 7.48229360580444 6.95125484466553 5.83120632171631 4.7204532623291 3.70222449302673 -1.62903249263763 -1.8774002790451 -2.04793906211853 -2.19512844085693 -2.41035747528076 -2.5851628780365 -0.696481049060822 7.95001459121704 15.0240812301636 10.5413799285889 8.6068000793457 9.85115242004395 7.41990804672241 5.43440914154053 8.90715312957764 12.6429138183594 16.0011825561523 6.04672241210938 7.41638898849487 3.82060790061951 2.7428343296051 1.97579109668732 1.56631207466125 0.90200537443161 0.375748723745346 0.292198836803436 0.260331153869629 0.181768834590912 0.0973983332514763 0.0352318808436394 -0.00691379699856043 -0.0481390208005905 -0.101701356470585 -0.171987444162369 -0.161178380250931 -0.195697814226151 0.204727217555046 1.00568306446075 1.15017223358154 1.05103945732117 0.917389035224915 0.661974728107452 0.583253800868988 0.498396873474121 0.417579293251038 0.301128208637238 0.258602857589722 0.324758350849152 0.706818342208862 1.04128646850586 0.952303767204285 0.801825940608978 0.810896217823029 0.864821970462799 1.28209972381592 1.64900946617126 1.62661957740784 1.66375684738159 1.82471680641174 1.91466915607452 1.80047261714935 1.64667773246765 1.84834694862366 2.31631851196289 2.42224621772766 2.04100751876831 2.05453705787659 2.01273632049561 2.05480861663818 2.54299187660217 2.92505025863647 3.30352377891541 3.59720182418823 3.13772249221802 2.78830242156982 2.51211333274841 2.50124382972717 2.34373664855957 2.27840542793274 2.24150443077087 2.16399717330933 2.14092135429382 2.04927945137024 2.01656126976013 1.91156792640686 1.82009589672089 1.75893831253052 1.68994033336639 1.72374832630157 1.82232177257538 3.3660147190094 3.4603590965271 3.59723210334778 2.95642161369324 2.34144949913025 2.03376507759094 1.98044037818909 1.97054755687714 1.99385547637939 1.99048042297363 1.94860911369324 1.92340648174286 1.93359851837158 1.99305784702301 1.97193622589111 2.03224802017212 2.08808493614197 2.06898808479309 2.18160319328308 2.15620088577271 2.08427977561951 2.02005672454834 2.06725406646729 1.99911296367645 2.06754803657532 2.01237487792969 1.99068343639374 1.93315434455872 1.89962673187256 1.8273628950119 1.77807056903839 1.74238789081573 1.73265957832336 1.68152797222137 1.61600124835968 1.62394881248474 1.61414813995361 1.61648952960968 1.64227998256683 1.6940484046936 1.69028174877167 1.70796930789948 1.69288206100464 1.68924403190613 1.66137254238129 1.6695374250412 1.70611500740051 1.73723161220551 1.70446586608887 1.74176263809204 1.83083617687225 1.94133460521698 1.94675254821777
-1.22114646434784 -1.5344090461731 -1.7806898355484 -1.86025083065033 -1.19581973552704 3.30579924583435 9.41788864135742 6.07047700881958 -0.252498775720596 -2.3283474445343 -2.42027926445007 6.09033250808716 8.36886215209961 1.5608856678009 1.9006359577179 0.821956872940063 -2.18609285354614 -2.27632856369019 -2.40690231323242 -0.614775419235229 -1.6941579580307 -0.892906665802002 -2.0314028263092 6.14994382858276 9.27626991271973 7.72899961471558 7.33943271636963 4.01882314682007 3.16316246986389 -1.4006667137146 -1.63556122779846 -1.78983342647552 -1.95822513103485 -2.20654630661011 -2.37041139602661 8.9121265411377 10.8836965560913 8.49611282348633 8.963210105896 10.3677797317505 10.255202293396 8.83622169494629 8.11337757110596 7.5239052772522 9.54366302490234 8.18974304199219 8.90950012207031 4.1347222328186 2.37682342529297 1.68555474281311 1.12101626396179 0.456560105085373 0.306692183017731 0.42942550778389 0.61829400062561 0.559822797775269 0.243473440408707 0.160542592406273 0.115707188844681 0.0811975747346878 0.031895574182272 -0.0252151284366846 -0.109007976949215 -0.206930249929428 -0.0288233961910009 0.00375660392455757 0.564592480659485 1.27960073947906 1.1175377368927 0.988015353679657 0.694394290447235 0.543959558010101 0.426241248846054 0.382813334465027 0.303485363721848 0.209555685520172 0.195165351033211 0.35230165719986 0.828960180282593 1.02112686634064 0.889158010482788 0.936870217323303 0.911820232868195 1.06289315223694 1.33105707168579 1.55643129348755 1.70291292667389 1.83547008037567 1.9527770280838 1.70262598991394 1.61837899684906 1.65620613098145 2.03414344787598 2.2075080871582 2.33675050735474 2.0031111240387 1.88300681114197 1.93207263946533 2.17523193359375 2.45699906349182 2.8463876247406 3.28540325164795 3.56084823608398 3.39757490158081 2.88354778289795 2.72544693946838 2.46434092521667 2.4185049533844 2.38259935379028 2.32822561264038 2.27290940284729 2.22375917434692 2.14646124839783 2.09227156639099 1.99646723270416 1.89234280586243 1.84105408191681 1.82915186882019 1.82946991920471 2.08908438682556 3.28281688690186 3.55824995040894 3.07470178604126 2.57235980033875 2.3671977519989 2.18908786773682 2.2098183631897 2.23194813728333 2.18837428092957 2.19005131721497 2.19914674758911 2.15696334838867 2.22297668457031 2.27641916275024 2.25736784934998 2.36764740943909 2.34942626953125 2.26755404472351 2.3000648021698 2.22452211380005 2.15605306625366 2.23759889602661 2.16731142997742 2.13346099853516 2.08032584190369 1.99142801761627 1.93242335319519 1.89750254154205 1.881263256073 1.80917954444885 1.77573096752167 1.69635605812073 1.68391966819763 1.6957585811615 1.71442377567291 1.75359511375427 1.82318508625031 1.80172896385193 1.81039798259735 1.79996824264526 1.81384038925171 1.8151251077652 1.84585928916931 1.86924171447754 1.83817827701569 1.8088892698288 1.83474981784821 1.93350040912628 2.05863070487976 2.07409715652466 2.17973446846008 2.23349809646606
-0.91125476360321 -1.18900215625763 -1.43750822544098 -1.62179672718048 -1.67234754562378 6.83395957946777 8.63724517822266 5.44200372695923 2.6764554977417 -0.356135129928589 -1.9044623374939 -0.270036369562149 6.70262098312378 3.76641440391541 1.77135038375854 -1.67886912822723 -1.92524182796478 -2.11899876594543 -2.19754266738892 1.170285820961 1.35611295700073 -0.546562492847443 -0.327599614858627 4.69950389862061 11.661018371582 5.74516916275024 6.10949754714966 4.72841739654541 2.51406693458557 -1.04650461673737 -1.18998634815216 -1.37296962738037 -1.52826249599457 -1.62625277042389 0.3489910364151 3.60088109970093 2.36177039146423 5.1047477722168 8.61437129974365 8.95377254486084 9.29424476623535 8.26333713531494 9.51889801025391 6.92339038848877 5.28273344039917 10.7036542892456 4.06293344497681 1.75285911560059 1.0709468126297 0.55126827955246 0.326517283916473 0.312968581914902 0.647269010543823 0.692454934120178 0.997485816478729 0.909050464630127 0.481864809989929 0.242858052253723 0.177206411957741 0.197287946939468 0.136149242520332 0.0662607699632645 -0.0119896456599236 -0.125421062111855 0.00956226512789726 -0.207691475749016 0.109255574643612 1.21691572666168 1.29509747028351 0.966875970363617 0.743113577365875 0.533120274543762 0.414853036403656 0.389422088861465 0.333757102489471 0.325332909822464 0.297148376703262 0.303192138671875 0.614332675933838 0.669796407222748 0.934451639652252 1.17220461368561 1.07325673103333 0.981267929077148 1.04947602748871 1.27850937843323 1.55419707298279 1.72920119762421 1.78211140632629 1.56542944908142 1.56734621524811 1.67430436611176 1.88349199295044 2.08560729026794 1.94714486598969 1.81640768051147 1.91645097732544 1.81252920627594 1.91419315338135 2.31345200538635 2.55865502357483 2.83985471725464 3.11076378822327 3.2572648525238 3.21602892875671 2.82686805725098 2.64584732055664 2.518714427948 2.6068434715271 2.53173351287842 2.38577842712402 2.40312504768372 2.33756875991821 2.19806146621704 2.10298204421997 1.96393322944641 1.8893586397171 1.87283134460449 1.95855140686035 2.25117087364197 3.33353233337402 3.46063280105591 3.22670745849609 2.83559846878052 2.64047265052795 2.48917865753174 2.42992115020752 2.56140756607056 2.50634765625 2.46903204917908 2.45119762420654 2.51613569259644 2.49344897270203 2.58979320526123 2.56593775749207 2.47239422798157 2.51035213470459 2.421053647995 2.50236845016479 2.42383337020874 2.34852004051208 2.31078124046326 2.23012685775757 2.14299058914185 2.09056615829468 2.0237717628479 1.96765661239624 1.91689872741699 1.86609292030334 1.80300831794739 1.8388831615448 1.86820912361145 1.81396353244781 1.85327804088593 1.92306625843048 1.91571795940399 1.92331182956696 1.90843915939331 1.91461110115051 1.93203151226044 1.96238958835602 1.99577450752258 1.96624660491943 1.98757565021515 2.08282327651978 2.21881651878357 2.243084192276 2.21810412406921 2.3031485080719 2.36660027503967 2.42074799537659 2.71161198616028
-0.580299198627472 -0.855627357959747 -1.03872835636139 -1.27112936973572 -0.501568973064423 5.17191934585571 6.21629238128662 5.205885887146 3.69228029251099 1.35046076774597 0.214070796966553 -1.20095384120941 2.73293805122375 2.70289826393127 0.851306796073914 -1.16154670715332 -1.50770211219788 -1.78610241413116 -1.9734708070755 -0.384861707687378 5.5904598236084 8.10537052154541 3.35734295845032 3.38859844207764 4.08783006668091 5.71304941177368 4.93684673309326 2.08939814567566 1.71828806400299 -0.738836228847504 -0.854352295398712 -0.9684779047966 -1.05683052539825 -0.0945707112550735 -0.887402832508087 -0.268178582191467 8.8929271697998 -0.969658195972443 1.98328185081482 7.38328790664673 7.32548379898071 9.62907600402832 6.13063287734985 5.86872005462646 9.4834451675415 3.39280486106873 0.888014018535614 0.366842091083527 0.348992109298706 0.327764749526978 0.288701176643372 0.786540865898132 0.889848172664642 0.948602616786957 1.13828229904175 1.2310643196106 0.818213403224945 0.337069988250732 0.254284739494324 0.263736486434937 0.236535027623177 0.141031831502914 0.0966441035270691 0.00766231957823038 -0.116177156567574 -0.171581223607063 -0.219125062227249 0.660053968429565 0.999387562274933 0.746515035629272 0.724415957927704 0.725552082061768 0.508020043373108 0.522677659988403 0.465439558029175 0.368682563304901 0.379253923892975 0.546467483043671 0.469618946313858 0.618388652801514 0.821691870689392 1.01402413845062 1.17719972133636 1.11303699016571 1.06926894187927 1.13221526145935 1.22462832927704 1.54641366004944 1.62162637710571 1.31266617774963 1.47444951534271 1.64310693740845 1.78501033782959 1.88587808609009 1.59403491020203 1.56302428245544 1.89313995838165 1.65573000907898 1.80969429016113 2.10486793518066 2.55726504325867 3.03962707519531 3.24490332603455 3.27940535545349 3.28276371955872 3.08239054679871 2.78551721572876 2.87886190414429 2.73504185676575 2.67725658416748 2.49775123596191 2.47380304336548 2.38956522941589 2.2380108833313 2.1336510181427 2.01965880393982 1.98443293571472 2.01600575447083 2.06982564926147 2.53338885307312 3.33212232589722 3.55035042762756 3.42010474205017 3.1195867061615 2.79047012329102 2.84645199775696 2.78016519546509 2.85154604911804 2.93552732467651 2.91328835487366 2.82374715805054 2.86200475692749 2.83255982398987 2.71779894828796 2.746821641922 2.6488926410675 2.7229585647583 2.6194806098938 2.5338499546051 2.479252576828 2.41418480873108 2.31424999237061 2.24200916290283 2.18226766586304 2.12190771102905 2.05452418327332 2.0010085105896 2.00583696365356 1.99114322662354 2.05508375167847 2.06114196777344 2.09685873985291 2.07658100128174 2.01981234550476 2.03780174255371 2.0310652256012 2.03556680679321 2.03590035438538 2.06746506690979 2.11220622062683 2.09507966041565 2.11419153213501 2.22183108329773 2.36641931533813 2.38564801216125 2.49376153945923 2.56113648414612 2.55756998062134 2.58450317382812 2.89141130447388 3.18662118911743 3.73992609977722
-0.138407915830612 -0.511892914772034 -0.700780034065247 -0.898431718349457 0.594929099082947 0.936922788619995 4.29676294326782 3.36372756958008 1.49361515045166 1.46881091594696 3.1872673034668 0.641150414943695 0.685253858566284 1.97650074958801 1.6019994020462 0.835163712501526 -1.09186494350433 -1.28890752792358 -1.49464118480682 -0.853000283241272 1.22015178203583 3.66367077827454 5.28216457366943 4.93748378753662 3.44544172286987 6.52178335189819 -0.513862311840057 1.65820729732513 1.81574416160583 -0.500077903270721 -0.531958878040314 -0.576566696166992 -0.620725691318512 -0.59234881401062 2.88840103149414 1.63009011745453 4.56513452529907 -0.428135603666306 -0.581102013587952 7.34104490280151 7.40828895568848 4.15448808670044 7.67634582519531 7.67438697814941 1.80232930183411 0.385265439748764 0.349481374025345 0.330186814069748 0.292502790689468 0.272124826908112 0.28462490439415 0.426945358514786 0.640494823455811 0.812145233154297 1.14643466472626 1.49120163917542 1.70422518253326 0.436343044042587 0.350069552659988 0.315733373165131 0.295325189828873 0.273699045181274 0.203108787536621 0.170384615659714 0.016799334436655 -0.0640689209103584 -0.114435128867626 0.130237817764282 0.0876585766673088 -0.00260913232341409 0.373951464891434 0.716249346733093 0.921131193637848 0.700300931930542 0.424868375062943 0.468530565500259 0.495882153511047 0.805322766304016 0.657243847846985 0.666354417800903 0.813635587692261 0.913478434085846 1.28873693943024 1.40319502353668 1.17149317264557 1.1115255355835 1.08449149131775 1.27361226081848 1.37774729728699 1.25470769405365 1.44763576984406 1.54239678382874 1.52464413642883 1.46755075454712 1.35502576828003 1.52088975906372 1.9640474319458 1.70201563835144 1.7185138463974 1.95137977600098 2.40343308448792 3.07014060020447 3.52742505073547 3.72459268569946 3.34929442405701 3.33946490287781 2.97298526763916 2.91980195045471 2.79824471473694 2.7473042011261 2.67136311531067 2.53536891937256 2.42124319076538 2.32744336128235 2.21924877166748 2.17987275123596 2.19248509407043 2.15314555168152 2.23063588142395 2.97479486465454 3.5421347618103 3.67470645904541 3.67042946815491 3.32639288902283 3.12789034843445 3.17430067062378 3.27631807327271 3.28565335273743 3.32694244384766 3.30523371696472 3.15356755256653 3.01474046707153 3.02605128288269 2.90779542922974 2.97622561454773 2.86704874038696 2.79959964752197 2.68048930168152 2.53871059417725 2.48054552078247 2.42384910583496 2.33880281448364 2.27763652801514 2.2451856136322 2.19546031951904 2.19034075737 2.16996741294861 2.21526789665222 2.20860481262207 2.27799201011658 2.2599151134491 2.2456214427948 2.21874332427979 2.22449064254761 2.22488117218018 2.17014360427856 2.20047855377197 2.24599957466125 2.20632696151733 2.2200927734375 2.34940552711487 2.50222611427307 2.53264212608337 2.64658546447754 2.73056077957153 2.71468901634216 2.75466632843018 3.08316612243652 3.40531158447266 3.98062896728516 4.65488290786743 4.72809314727783
0.235315203666687 -0.0636952370405197 -0.261281847953796 -0.499833881855011 0.948517322540283 0.59563934803009 -0.579794228076935 2.31909823417664 0.163186445832253 0.0428662598133087 1.94769752025604 1.62847948074341 1.51652145385742 2.85826015472412 2.47278165817261 1.09854233264923 0.749965846538544 0.043809212744236 -0.694217145442963 -1.04862475395203 -0.53164666891098 3.88716459274292 4.46092700958252 6.52915906906128 0.795502007007599 1.96712720394135 -0.308725208044052 -0.392114549875259 2.63156843185425 0.151916712522507 -0.268168091773987 -0.267621845006943 -0.27176570892334 -0.278920948505402 2.03250789642334 1.42952144145966 0.758557438850403 0.262195467948914 -0.125306457281113 3.29291939735413 5.95297574996948 7.62582635879517 3.52216076850891 1.18144154548645 0.424472570419312 0.421941995620728 0.585798740386963 0.550733804702759 0.515324354171753 0.310149908065796 0.327713489532471 0.325016409158707 0.443726122379303 0.52028614282608 0.703232884407043 1.47002589702606 2.50948572158813 1.56939744949341 0.443640172481537 0.388103812932968 0.356315970420837 0.376540333032608 0.364639699459076 0.281353831291199 0.137364149093628 0.0496462620794773 0.000312374118948355 -0.0498162508010864 -0.129266873002052 -0.205196380615234 -0.295872330665588 -0.00595637923106551 0.584370791912079 0.861557364463806 0.563327014446259 0.414162755012512 0.571695685386658 0.724892377853394 0.850923836231232 0.87423700094223 0.794731616973877 0.962687849998474 1.23740267753601 1.44378340244293 1.32424294948578 1.16302645206451 1.12145400047302 1.08932280540466 1.25685608386993 1.37294673919678 1.59160542488098 1.4591805934906 1.35903418064117 1.25126051902771 1.26446497440338 1.26120138168335 1.58884012699127 1.54923391342163 1.62285947799683 1.65798246860504 2.14416241645813 2.78617525100708 3.47222208976746 3.89598679542542 3.48522305488586 3.44120311737061 3.39377617835999 3.41565179824829 2.7432062625885 2.85862135887146 2.67134070396423 2.65279483795166 2.59971499443054 2.53493762016296 2.62636399269104 2.48302221298218 2.47948956489563 2.60545325279236 2.62411451339722 2.78523063659668 3.40212249755859 3.56067156791687 3.73616909980774 3.60954809188843 3.59978699684143 3.69384288787842 3.71390914916992 3.72570586204529 3.54822874069214 3.53455424308777 3.37143278121948 3.22017431259155 3.27987504005432 3.15013813972473 3.06143188476562 2.94606423377991 2.83000493049622 2.70729637145996 2.62457871437073 2.52571988105774 2.48664879798889 2.49138689041138 2.42867851257324 2.40719509124756 2.40652799606323 2.46246004104614 2.42287445068359 2.51312446594238 2.49384713172913 2.43941807746887 2.42072248458862 2.43107223510742 2.39063620567322 2.4318904876709 2.49789595603943 2.45532774925232 2.40715742111206 2.37656092643738 2.49593830108643 2.65818476676941 2.68671059608459 2.79610276222229 2.8781566619873 2.96745610237122 2.96046328544617 3.30697774887085 3.64551997184753 4.24424600601196 4.96405839920044 5.04561424255371 5.21818780899048 5.147047996521
0.554169595241547 0.375765740871429 0.167269915342331 -0.0445207133889198 4.00603151321411 -0.224696099758148 -0.30057293176651 -0.364859968423843 -0.420746713876724 -0.48228931427002 0.278136789798737 1.15026783943176 1.89104318618774 2.78896570205688 2.93593883514404 2.40468525886536 2.01458215713501 1.79828858375549 0.957955837249756 0.432198911905289 0.3290194272995 1.03389644622803 1.37513113021851 3.91072869300842 0.317947298288345 1.23940396308899 0.145304501056671 0.114359006285667 0.460426807403564 0.197762176394463 0.130858764052391 -0.0641659572720528 -0.0683043152093887 0.784111380577087 0.186750367283821 -0.0465172901749611 -0.0620783492922783 2.80635476112366 3.22024917602539 5.41123104095459 4.87563467025757 1.67077791690826 0.486021190881729 0.540636301040649 0.630777180194855 0.611219167709351 0.719915628433228 0.845184803009033 0.820851683616638 0.65804398059845 0.433577477931976 0.394610613584518 0.441620260477066 0.439591377973557 0.437530517578125 0.738247931003571 1.65979063510895 2.33340430259705 1.42220723628998 0.509918928146362 0.493433713912964 0.454534292221069 0.427944242954254 0.359521925449371 0.216870874166489 0.158331722021103 0.125491678714752 0.0834622383117676 0.0242056511342525 -0.0305693652480841 -0.0958670973777771 -0.29344779253006 -0.17317208647728 0.442314982414246 0.687253773212433 0.645430386066437 0.629121065139771 0.715681314468384 0.857966065406799 1.02792406082153 1.02371418476105 0.937142074108124 1.22549843788147 1.34364104270935 1.41380631923676 1.23882853984833 1.30753409862518 1.39641523361206 1.31241405010223 1.41878890991211 1.37544906139374 1.41009426116943 1.32638299465179 1.27128851413727 1.29878151416779 1.35204780101776 1.29817402362823 1.33592343330383 1.38006746768951 1.2216545343399 1.62926268577576 2.1429181098938 3.09508514404297 3.42789053916931 3.05225539207458 3.46581888198853 4.25701475143433 3.59659934043884 2.8004457950592 3.01591062545776 3.69387674331665 3.84053754806519 3.66320157051086 2.97330021858215 2.83103966712952 3.54033327102661 2.92922186851501 2.81571340560913 3.07223010063171 3.20615863800049 3.41292476654053 3.58941888809204 3.69761538505554 3.86833620071411 3.98860096931458 4.19631195068359 4.07628679275513 4.02876806259155 3.79311752319336 3.8013653755188 3.65259122848511 3.49202680587769 3.37410187721252 3.24709534645081 3.2692289352417 3.06711769104004 3.0077428817749 2.90206360816956 2.89019560813904 2.8356819152832 2.79795336723328 2.81598210334778 2.88321256637573 2.76716780662537 2.68437242507935 2.78124356269836 2.75140237808228 2.67573928833008 2.65034246444702 2.65951180458069 2.62935400009155 2.64292812347412 2.68985080718994 2.66377019882202 2.64974904060364 2.78573846817017 2.96822929382324 2.98748826980591 2.9499306678772 2.99003863334656 3.07366394996643 3.23415613174438 3.62286043167114 4.00291872024536 4.25821590423584 4.54525899887085 5.31706190109253 5.40280818939209 5.56125974655151 5.48857831954956 5.41499757766724 5.44626569747925
0.820803940296173 0.834717810153961 0.67754065990448 0.632743716239929 0.338972538709641 0.157978385686874 -0.0415384881198406 -0.184309110045433 -0.297575384378433 -0.40979591012001 0.409408241510391 2.61868858337402 2.33999466896057 2.68932271003723 3.04540133476257 2.87015581130981 2.44144225120544 1.91270422935486 1.6421502828598 1.19025063514709 0.94429075717926 0.922926545143127 0.899378061294556 0.702800810337067 0.620995402336121 0.589575529098511 1.01331686973572 1.34008455276489 0.695754647254944 0.560699880123138 0.486478239297867 0.238841414451599 1.92544281482697 4.94186353683472 1.59176206588745 0.305309504270554 0.301907360553741 1.06052529811859 0.473695486783981 0.965410530567169 0.507194459438324 0.55931144952774 0.714659571647644 0.705639660358429 0.779501855373383 0.900797545909882 0.88875150680542 0.969036340713501 0.959069550037384 0.939405858516693 0.709131240844727 0.530730545520782 0.460104614496231 0.454450100660324 0.467850506305695 0.631124913692474 0.587088823318481 1.89636492729187 2.03043413162231 0.930915117263794 0.559448421001434 0.502060055732727 0.427125513553619 0.384595066308975 0.276583194732666 0.238096863031387 0.264837056398392 0.254063695669174 0.217094913125038 0.109102413058281 -0.0392844527959824 -0.249443545937538 -0.498881995677948 -0.454630196094513 0.28488364815712 0.813037037849426 0.725875794887543 1.05150973796844 1.19968378543854 0.998914897441864 1.26723551750183 1.25636649131775 1.19132280349731 1.50871670246124 1.7397176027298 1.62455022335052 1.48706567287445 1.50757205486298 1.39092063903809 1.26065361499786 1.36078143119812 1.72549021244049 1.40740811824799 1.44075989723206 1.32678818702698 1.30559420585632 1.24814665317535 1.21814250946045 1.1614488363266 1.09957706928253 1.19372391700745 1.64195322990417 2.647292137146 2.74451065063477 2.33444428443909 2.81617856025696 3.48188757896423 3.76973462104797 2.6156861782074 2.42942380905151 2.2647180557251 3.59390354156494 3.60489320755005 2.82755661010742 3.14328932762146 3.25759983062744 3.51581907272339 3.35658097267151 3.44489192962646 3.82084774971008 4.00383758544922 4.15943670272827 4.27457809448242 4.52005624771118 4.82856798171997 4.72356033325195 4.62511873245239 4.49769878387451 4.43240642547607 4.37787532806396 4.23252534866333 3.85916972160339 3.87510442733765 3.60249400138855 3.46632552146912 3.354651927948 3.29059505462646 3.28117990493774 3.18028926849365 3.20256948471069 3.27397060394287 3.14219045639038 3.25280261039734 3.22780609130859 3.09560966491699 2.95587968826294 2.93555784225464 2.93896770477295 2.90639972686768 2.89481353759766 2.94688677787781 2.89842867851257 2.8592381477356 3.03458404541016 3.22557377815247 3.25838398933411 3.33312654495239 3.42335152626038 3.40340971946716 3.51628708839417 3.93544888496399 4.33414697647095 4.98908662796021 5.84707498550415 5.96084690093994 5.79617834091187 5.9563570022583 5.87432098388672 5.774329662323 5.80239772796631 5.69322347640991 5.53984642028809
1.09924972057343 1.00708425045013 1.01301181316376 0.935444235801697 0.75575715303421 0.465929001569748 0.212019413709641 -0.0301875416189432 -0.331446766853333 -0.501843392848969 3.10892963409424 3.41489744186401 3.82863545417786 3.57329177856445 3.24289441108704 2.55345439910889 2.25144028663635 1.68994319438934 3.1010844707489 3.89222288131714 2.48210787773132 1.76844537258148 1.67485988140106 1.44662892818451 1.20712208747864 1.10636699199677 1.41158270835876 1.4519921541214 0.954511106014252 0.861329615116119 0.637701809406281 0.488802760839462 1.90752685070038 2.96692037582397 0.834194004535675 0.687734186649323 0.696203231811523 0.652107536792755 0.549444437026978 0.754827499389648 0.723540008068085 0.729922652244568 0.86949211359024 1.00961089134216 0.965414226055145 1.03332114219666 1.0483193397522 1.09962069988251 1.27572977542877 1.25175559520721 1.11507403850555 0.784458100795746 0.500823318958282 0.500179708003998 0.534167408943176 0.580913245677948 0.613108992576599 0.913037061691284 1.15510165691376 0.81118631362915 0.889365673065186 0.516949832439423 0.418648362159729 0.381648182868958 0.401345193386078 0.349221557378769 0.346141993999481 0.428341895341873 0.376824706792831 0.255203038454056 0.0200544185936451 -0.224547609686852 -0.513436615467072 -0.557855904102325 -0.211926147341728 1.29984986782074 1.4388747215271 1.06705820560455 1.50235843658447 1.42277812957764 1.26274955272675 1.55617690086365 1.84732174873352 1.77173721790314 1.86408424377441 1.73491752147675 1.60879647731781 1.46118009090424 1.44990313053131 1.27138197422028 2.12355756759644 1.55419361591339 1.48179566860199 1.45147228240967 1.34397196769714 1.24610984325409 1.15924513339996 1.10474050045013 1.10729157924652 1.05503988265991 1.01818549633026 1.5176602602005 2.32952308654785 2.28007054328918 2.16420269012451 2.40051817893982 3.46822905540466 3.13696718215942 2.27960896492004 2.27413582801819 2.3751482963562 2.19916915893555 3.61091732978821 3.14467811584473 3.67889833450317 3.41834259033203 3.56699752807617 3.86348724365234 4.03952598571777 4.11620569229126 4.30689525604248 4.93863248825073 5.86218643188477 5.26436042785645 5.43537855148315 5.39212369918823 5.8018798828125 5.54146337509155 5.39069843292236 5.0446400642395 4.74779796600342 4.38120698928833 4.0675253868103 3.87015390396118 3.68537354469299 3.73051857948303 3.57919931411743 3.61976051330566 3.74799752235413 3.62148427963257 3.69369673728943 3.66343188285828 3.5172131061554 3.42915534973145 3.43828129768372 3.39309144020081 3.30949258804321 3.18749737739563 3.24106049537659 3.20071625709534 3.14108109474182 3.28800272941589 3.50856494903564 3.56761622428894 3.62637162208557 3.72891068458557 3.70989084243774 3.87866234779358 4.31272602081299 4.75263357162476 5.42973327636719 6.34842014312744 6.45047283172607 6.55505037307739 6.47204160690308 6.28795719146729 6.16385793685913 6.21068239212036 6.09780263900757 5.9256010055542 5.89120101928711 5.78914880752563
1.25958204269409 1.20683491230011 1.11980056762695 1.08068454265594 1.00528848171234 0.711260557174683 0.445389181375504 0.158557221293449 -0.201163172721863 -0.402360886335373 -0.463209927082062 4.11702251434326 4.7485785484314 3.7169976234436 3.21288967132568 2.16127586364746 2.65775418281555 6.42780828475952 3.0173397064209 2.6556932926178 2.55474090576172 2.28491759300232 2.08861947059631 1.86100888252258 1.65157699584961 1.37028551101685 1.3239940404892 1.24520170688629 0.97152304649353 0.867459952831268 0.433075189590454 0.599208414554596 1.13463294506073 0.878356516361237 0.82153183221817 0.768275082111359 0.735155761241913 0.894920349121094 0.815122187137604 0.939490377902985 1.09890949726105 1.0766190290451 1.08212280273438 1.13763523101807 1.12395834922791 1.17553055286407 1.35654616355896 1.33096241950989 1.27782678604126 1.40289855003357 1.37380075454712 1.12416291236877 0.714584290981293 0.645967125892639 0.633001267910004 0.63231098651886 0.617835164070129 0.611143827438354 0.554858088493347 0.555830359458923 1.1322854757309 0.954050481319427 0.540010333061218 0.508842587471008 0.477915346622467 0.553895890712738 0.478258341550827 0.425371319055557 0.36786937713623 0.288316279649734 0.105541944503784 -0.194427296519279 -0.500273466110229 -0.637605667114258 -0.288873583078384 0.887020409107208 1.88510918617249 1.79145526885986 1.3042950630188 1.78740894794464 2.20927095413208 1.91996788978577 1.97199213504791 1.85167217254639 1.72460925579071 1.77607369422913 1.73792159557343 1.62696444988251 1.66505539417267 1.71283566951752 1.61508202552795 1.56416296958923 1.51011598110199 1.41320109367371 1.29892778396606 1.17919194698334 1.1706029176712 1.10131752490997 1.0306830406189 1.00982713699341 0.998648226261139 1.37099456787109 2.08551573753357 2.36397552490234 2.22314834594727 2.77424192428589 4.10343360900879 2.99753022193909 2.04049897193909 2.00540113449097 1.7868093252182 2.54071140289307 3.13406181335449 3.56745100021362 3.81439161300659 4.15503072738647 4.37318086624146 4.31412839889526 4.43075704574585 4.06121683120728 4.13321208953857 5.41907978057861 5.4323148727417 5.14028978347778 6.5504035949707 6.22223854064941 6.63615417480469 5.99556970596313 5.66255760192871 5.30863189697266 5.04446125030518 5.02261638641357 4.94654417037964 4.55710983276367 4.08102083206177 3.8812108039856 4.02979135513306 3.99168515205383 4.13678312301636 4.18752145767212 4.05307340621948 3.89107084274292 3.89694595336914 3.85395097732544 3.76513910293579 3.78857731819153 3.72767972946167 3.65789771080017 3.59928297996521 3.61313843727112 3.84757018089294 3.89609670639038 3.95750427246094 4.22178936004639 4.55240726470947 4.50759744644165 4.76584196090698 5.25597953796387 5.94280529022217 6.94786596298218 7.04968690872192 7.12199449539185 7.02790117263794 6.8086462020874 6.84288167953491 6.71613693237305 6.52907085418701 6.43099498748779 6.33373928070068 6.1953444480896 6.04486799240112 5.87348699569702
1.27101898193359 1.26523268222809 1.20534408092499 1.15090274810791 1.09400463104248 0.826753616333008 0.589759826660156 0.319437742233276 0.0468842945992947 -0.16049362719059 -0.285075783729553 -0.373723179101944 3.2598602771759 4.02434158325195 1.93606352806091 4.40314912796021 6.71854734420776 4.11640691757202 3.67281436920166 3.23338270187378 2.84704780578613 2.54727292060852 2.06760597229004 1.88531816005707 1.71245455741882 1.60474359989166 1.23486351966858 1.11281943321228 0.516006410121918 0.760773956775665 0.914415597915649 1.10201072692871 0.965728461742401 0.939591526985168 0.909420251846313 0.98371821641922 0.947430551052094 1.09034562110901 1.20630419254303 1.16765415668488 1.26759791374207 1.2594256401062 1.25911808013916 1.2868367433548 1.46691870689392 1.4407479763031 1.39047074317932 1.51619958877563 1.48936879634857 1.37791967391968 1.34423041343689 1.2897036075592 0.908264875411987 0.68116968870163 0.650059044361115 0.584535300731659 0.575798034667969 0.570626795291901 0.510489284992218 0.582617580890656 0.608861207962036 1.01173269748688 1.02932262420654 0.707889020442963 0.644280254840851 0.553399503231049 0.500886797904968 0.405460685491562 0.291898041963577 0.222991868853569 0.0864726454019547 -0.208917498588562 -0.504531919956207 -0.663838088512421 -0.698881149291992 0.353512436151505 1.08727657794952 2.27707576751709 2.99406361579895 2.19593095779419 2.23375916481018 1.99978196620941 1.87272715568542 1.86502766609192 1.85956573486328 1.92061424255371 2.08678770065308 1.9381148815155 1.83636033535004 1.78047978878021 1.65585482120514 1.51698172092438 1.42101526260376 1.30627083778381 1.29336595535278 1.19281899929047 1.11317324638367 1.07972073554993 1.01786720752716 0.993426620960236 0.9830521941185 0.952092111110687 1.32974433898926 1.77105844020844 2.28990268707275 3.11739087104797 4.43275451660156 2.74977374076843 1.85940206050873 1.8320015668869 1.40634071826935 2.30414462089539 3.27424788475037 4.21086883544922 5.2995080947876 5.32137298583984 5.10229682922363 4.65365505218506 4.36057281494141 3.85978865623474 4.21072006225586 5.30786037445068 3.87897229194641 6.51177501678467 7.48841190338135 6.31860065460205 6.53446388244629 6.4965295791626 5.92089557647705 5.97172784805298 5.88043069839478 5.69597005844116 5.02614831924438 4.93934345245361 4.55135631561279 4.16953420639038 4.27780485153198 4.44619989395142 4.77268505096436 4.54340553283691 4.50304269790649 4.43677091598511 4.33320093154907 4.26976251602173 4.21228694915771 4.14511680603027 4.21794319152832 4.50293874740601 4.53679132461548 4.49019050598145 4.44172859191895 4.75616645812988 5.15282869338989 5.56215763092041 6.14080667495728 6.49254179000854 6.55857181549072 7.66672515869141 7.78596210479736 7.78099012374878 7.67165040969849 7.39168643951416 7.43435096740723 7.2910623550415 7.04916095733643 6.94626903533936 6.83038187026978 6.68287897109985 6.49668264389038 6.30264520645142 6.05519533157349 5.7059907913208
1.33271849155426 1.28177893161774 1.23369944095612 1.0927768945694 1.05149364471436 0.855748474597931 0.665814220905304 0.426564127206802 0.21926261484623 0.0530849881470203 -0.106388986110687 -0.223251059651375 -0.321945935487747 2.51267623901367 2.15144038200378 6.00093078613281 6.07905149459839 5.08632564544678 4.15118408203125 3.5796377658844 2.92212605476379 2.61513257026672 2.32134771347046 1.62629091739655 1.5143985748291 1.40689098834991 0.634428262710571 0.921105146408081 1.12630927562714 1.15355467796326 1.15393424034119 1.10069346427917 1.09274590015411 1.10741949081421 1.06779754161835 1.21315968036652 1.37781286239624 1.33320713043213 1.40121757984161 1.38171982765198 1.45261716842651 1.66474294662476 1.62633728981018 1.57995057106018 1.50127553939819 1.62400555610657 1.59287595748901 1.45417702198029 1.41829025745392 1.36575293540955 1.30800819396973 1.27143466472626 1.11264657974243 0.731016337871552 0.62381511926651 0.536324739456177 0.549490094184875 0.599701464176178 0.612292349338531 0.629320740699768 0.761670410633087 0.754615783691406 1.20947408676147 0.865655660629272 0.643295586109161 0.565622925758362 0.433187812566757 0.372682601213455 0.226880997419357 0.131751909852028 0.0265930611640215 -0.215753898024559 -0.557073950767517 -0.662864029407501 -0.718249619007111 -0.753036260604858 -0.766993045806885 3.29452610015869 2.81502676010132 2.15584063529968 1.91404676437378 2.03084874153137 2.06357312202454 2.08548307418823 2.30473828315735 2.12234091758728 2.05970644950867 1.98387849330902 1.92090260982513 1.8016871213913 1.66248714923859 1.41993749141693 1.38394021987915 1.24622368812561 1.17110061645508 1.19109201431274 1.18923568725586 1.23602879047394 1.17759966850281 0.992525219917297 0.942964613437653 0.947751641273499 0.992942035198212 1.19198966026306 2.04757857322693 3.27403473854065 4.54107999801636 2.50799679756165 1.58146727085114 1.33042407035828 0.96142566204071 0.902597665786743 1.63034319877625 4.29802179336548 6.30500030517578 5.90303802490234 5.10173034667969 4.45708179473877 4.42428350448608 3.9582941532135 4.52139806747437 3.48360395431519 3.33171963691711 6.32303953170776 6.73305749893188 6.0392107963562 6.14027166366577 7.15817785263062 7.24574041366577 6.66829967498779 6.27785158157349 5.95092010498047 5.43502140045166 4.92443656921387 4.75840187072754 4.68915128707886 5.05123662948608 5.28261470794678 5.5660924911499 5.33809757232666 5.28407430648804 5.16823768615723 5.01715993881226 4.86309719085693 4.7743034362793 5.06857204437256 5.12685775756836 5.08313894271851 5.19264221191406 5.49078416824341 5.90082740783691 6.26585149765015 6.94906520843506 7.63399457931519 8.93043231964111 9.08553504943848 8.67265510559082 8.58405208587646 8.46487140655518 8.39285659790039 8.1109676361084 7.97341442108154 7.74730157852173 7.57419300079346 7.44833850860596 7.22782468795776 6.97987794876099 6.71897220611572 6.34442043304443 6.10920667648315 5.82782316207886 5.51369762420654
1.35089659690857 1.19357180595398 1.15236020088196 0.990261673927307 0.960405826568604 0.868868112564087 0.77231377363205 0.6354660987854 0.379429936408997 0.193725556135178 0.0362054631114006 -0.10624485462904 -0.206193640828133 -0.171737760305405 -0.0834375321865082 5.68889236450195 7.0147385597229 6.1350417137146 4.74875020980835 3.84373044967651 3.27229881286621 2.23657011985779 1.96607792377472 0.769042015075684 1.16976809501648 1.49385726451874 1.37985002994537 1.43838465213776 1.36225199699402 1.27347242832184 1.28716373443604 1.20628261566162 1.20815479755402 1.37957286834717 1.5005624294281 1.49366807937622 1.5389848947525 1.51239192485809 1.5671067237854 1.75386571884155 1.74961340427399 1.65744078159332 1.78157389163971 1.72562921047211 1.68096828460693 1.54397714138031 1.49898993968964 1.44712841510773 1.38005888462067 1.34421062469482 1.17809927463531 1.11751532554626 1.09231114387512 0.897109627723694 0.593658030033112 0.647565543651581 0.680724620819092 0.652986109256744 0.792463600635529 0.790491044521332 0.712900638580322 0.70231556892395 0.8271604180336 1.03771376609802 0.583943784236908 0.522589206695557 0.381810754537582 0.29126164317131 0.180244281888008 0.0128741720691323 -0.0595771335065365 -0.226821079850197 -0.481899976730347 -0.675834596157074 -0.718183100223541 -0.820025622844696 -0.824017226696014 2.0839958190918 1.24366402626038 1.96917307376862 2.07594919204712 2.13989210128784 2.5825514793396 2.40475654602051 2.27435541152954 2.11838102340698 2.01494002342224 1.89301180839539 1.9691059589386 1.88301599025726 1.63295722007751 1.41252720355988 1.25651204586029 1.13290190696716 1.09790015220642 1.17987442016602 1.45513296127319 1.37659335136414 1.1613837480545 1.14359819889069 1.09705138206482 1.02489900588989 0.958204627037048 0.969686567783356 1.81406104564667 3.41038942337036 4.26413488388062 2.20183491706848 1.29726648330688 0.929164350032806 0.950289368629456 1.04978096485138 1.20429301261902 3.36768913269043 6.34649610519409 5.14195537567139 5.26609897613525 4.47334909439087 3.89641261100769 3.70139026641846 4.07480001449585 2.82810068130493 3.14227080345154 4.49239492416382 5.07179164886475 5.18739128112793 6.23962259292603 7.04091787338257 7.45528364181519 7.0086088180542 6.80997085571289 5.77385950088501 5.51109409332275 4.90303373336792 4.58336305618286 4.76578235626221 5.33658075332642 5.85575389862061 6.53374338150024 6.19538593292236 6.18276929855347 6.16117858886719 6.14309024810791 6.21165180206299 6.37411642074585 6.69197177886963 6.65101432800293 6.55322551727295 6.93931531906128 7.20854139328003 7.97537517547607 8.6174259185791 10.0891284942627 10.2357301712036 9.97326183319092 9.85977935791016 9.48488616943359 9.53921222686768 9.04135036468506 9.02819442749023 8.74250030517578 8.36367893218994 8.22836589813232 7.908034324646 7.60045623779297 7.29538774490356 6.87897348403931 6.46615791320801 6.12801456451416 5.76504278182983 5.44828081130981 5.1240496635437
1.2537876367569 1.08113324642181 1.04308950901031 0.956594347953796 1.03666543960571 0.95441859960556 0.869022369384766 0.791829645633698 0.574797034263611 0.351395279169083 0.20382684469223 0.0805349349975586 -0.0708859339356422 -0.178840264678001 -0.185297772288322 3.91472601890564 7.95556163787842 6.40505409240723 5.11833095550537 3.43019032478333 2.76084113121033 1.16666567325592 1.56831276416779 1.95363342761993 1.94959187507629 1.8970867395401 1.75809073448181 1.60560405254364 1.5703090429306 1.32407379150391 1.41770672798157 1.60075175762177 1.50675749778748 1.4399608373642 1.55278778076172 1.53729021549225 1.61588358879089 1.87445247173309 1.84992456436157 1.74005019664764 1.9029700756073 1.85422277450562 1.69008278846741 1.63261091709137 1.59541976451874 1.54353737831116 1.45900309085846 1.41879546642303 1.25364637374878 1.18801546096802 1.15189909934998 0.950341105461121 0.770969390869141 0.751361966133118 0.72709047794342 0.715697765350342 0.853863477706909 0.809811770915985 0.78282755613327 0.739297211170197 0.704073190689087 0.59002673625946 0.583927094936371 1.17770028114319 1.11447823047638 0.435626477003098 0.330831110477448 0.16191528737545 0.107575155794621 -0.0671751797199249 -0.138998374342918 -0.258086413145065 -0.404464900493622 -0.755727529525757 -0.758092105388641 -0.791684985160828 -0.257933527231216 -0.826181888580322 0.695757150650024 2.34464240074158 2.96704292297363 2.27651476860046 2.2807719707489 2.50504851341248 2.45280981063843 2.03986954689026 1.84603703022003 1.73557531833649 1.64557695388794 1.85064768791199 1.89324986934662 1.48890006542206 1.25970256328583 1.09356534481049 1.11767208576202 1.23936283588409 1.27797818183899 1.43584656715393 1.3715500831604 1.30543375015259 1.24495148658752 1.08933472633362 0.961245000362396 0.850684106349945 1.85290324687958 3.20137357711792 4.16254186630249 1.84201514720917 1.07695364952087 1.23391950130463 1.31038391590118 1.32573366165161 1.45224022865295 5.50892543792725 6.52692937850952 5.29402637481689 4.64819288253784 4.18351888656616 3.48598575592041 3.0884861946106 3.31571364402771 2.70152640342712 2.81369209289551 3.33607983589172 2.89004969596863 3.5354950428009 4.74801635742188 6.81571435928345 7.29952239990234 6.51699161529541 6.63142824172974 6.15496492385864 5.43778228759766 4.8365159034729 4.90671682357788 5.11965227127075 5.08221483230591 5.7600793838501 6.94394683837891 6.87960433959961 6.60840177536011 7.26134061813354 8.16174221038818 8.32707500457764 8.55186080932617 9.27509784698486 9.22803592681885 8.9458065032959 9.34709072113037 9.9047679901123 11.5410871505737 11.7329006195068 11.2518463134766 11.0954942703247 10.6986083984375 10.9654970169067 10.3296089172363 10.2215442657471 9.89234066009521 9.56848812103271 9.20789813995361 8.78701877593994 8.401442527771 8.04233360290527 7.56791353225708 7.04427528381348 6.65475177764893 6.21101808547974 5.7139196395874 5.45563650131226 5.22776651382446 4.96546506881714
1.2705671787262 1.16288387775421 1.2779643535614 1.17713272571564 1.0999493598938 1.06455862522125 0.991623103618622 0.972077369689941 0.865639388561249 0.593407988548279 0.377112954854965 0.203200981020927 0.102357774972916 0.0178027097135782 -0.0512428842484951 1.25679910182953 6.58105278015137 5.47904014587402 4.51114749908447 1.82590079307556 2.29580092430115 2.98333764076233 2.60314679145813 2.53200268745422 2.25898027420044 2.13659310340881 1.7944700717926 1.47638463973999 1.562464594841 1.67954337596893 1.57867658138275 1.7118376493454 1.69539999961853 1.64021289348602 1.71574175357819 1.98077774047852 1.92429208755493 1.82789552211761 1.98735868930817 1.95016038417816 1.79827404022217 1.75059831142426 1.68650209903717 1.59354710578918 1.55809378623962 1.5087057352066 1.33759927749634 1.25790691375732 1.21986258029938 1.01084208488464 0.841156721115112 0.859973251819611 0.808812141418457 0.782955527305603 0.93270480632782 0.906330287456512 0.792689621448517 0.768029928207397 0.917052149772644 0.615851283073425 0.60490357875824 0.507123827934265 0.440205782651901 0.472570061683655 1.0695925951004 0.964781165122986 0.253902167081833 0.0982260406017303 0.0273380056023598 -0.0740945562720299 -0.184162944555283 -0.279589474201202 -0.376359492540359 -0.71997195482254 -0.766016840934753 -0.792085766792297 -0.798093497753143 -0.900666058063507 -0.712119817733765 2.68070840835571 2.36260342597961 2.17969751358032 2.16855216026306 2.15348410606384 2.28910374641418 1.93266153335571 1.65087127685547 1.46841466426849 1.37293612957001 1.34833431243896 1.55529582500458 1.5715583562851 1.31887590885162 1.30439269542694 1.24624752998352 1.07851886749268 1.21036994457245 1.40518546104431 1.49502944946289 1.45874714851379 1.28598320484161 1.09651041030884 1.00499773025513 0.890290975570679 1.27476739883423 3.45457458496094 3.85669636726379 1.64277315139771 1.48601615428925 1.51620018482208 1.6248551607132 1.49394261837006 1.52942085266113 5.00178861618042 5.82901620864868 5.32223892211914 4.13680648803711 3.3226912021637 2.8441309928894 2.5183470249176 2.39110112190247 2.24468088150024 2.14835357666016 2.49048781394958 2.21607851982117 1.69747447967529 3.14134645462036 5.91707277297974 6.66354751586914 6.59320449829102 6.54571294784546 6.16936111450195 6.19614696502686 5.33776140213013 5.09262657165527 5.1511287689209 5.15720891952515 5.70182323455811 6.41508722305298 6.94066619873047 8.28556823730469 8.92892456054688 9.59143733978271 10.1829137802124 11.3008050918579 11.7977056503296 12.6926097869873 12.5114555358887 13.5216693878174 13.7872352600098 13.0402002334595 12.6757659912109 12.3442525863647 12.8010540008545 11.9800596237183 11.732572555542 11.3806619644165 10.810938835144 10.3665218353271 9.85691356658936 9.30806541442871 8.89835166931152 8.40583324432373 7.76380634307861 7.34638357162476 6.83252620697021 6.18010807037354 5.80264568328857 5.50936079025269 5.2238974571228 5.05494451522827 4.794593334198
