NCOLS 175
NROWS 32
XLLCORNER 353760
YLLCORNER 6700096
CELLSIZE 16 
NODATA_value -3.4e+38 
2.93704986572266 4.49562215805054 4.21242809295654 4.08357906341553 4.57258653640747 4.20368480682373 3.33957004547119 3.34022784233093 3.15690875053406 2.9448516368866 2.25888752937317 13.4783325195312 1.64345610141754 1.41855621337891 1.62167918682098 1.20678400993347 1.31479275226593 1.43993628025055 1.5122926235199 1.17385470867157 -0.186324551701546 -0.25591042637825 -0.138009771704674 1.34290099143982 1.74747669696808 1.98339021205902 0.638118028640747 1.9261292219162 1.86089110374451 1.82189786434174 1.80091691017151 18.9419040679932 39.2979431152344 2.9880645275116 2.79509997367859 2.36874532699585 2.23793148994446 5.31876850128174 5.01354551315308 5.87224721908569 5.09179735183716 4.85238790512085 4.20456266403198 5.81276369094849 5.64788341522217 5.97866201400757 6.44257783889771 5.31218528747559 5.593186378479 5.15087938308716 4.89461708068848 4.51213645935059 4.80033731460571 4.18280601501465 1.56052565574646 2.29172849655151 3.66433644294739 4.06736898422241 4.4902172088623 3.32688546180725 2.37530112266541 3.20003342628479 3.20138454437256 2.37422823905945 2.56760239601135 2.32184362411499 1.83398342132568 13.4345283508301 5.65466928482056 2.39400506019592 6.92991924285889 5.31624126434326 3.64361453056335 4.11689567565918 3.81386804580688 3.01396942138672 5.33444213867188 4.81939077377319 17.1644725799561 15.6721048355103 23.2968597412109 15.1159887313843 31.8068027496338 22.7508525848389 1.50756239891052 1.6500780582428 1.75982940196991 2.42457485198975 7.61018085479736 2.31559252738953 2.19883847236633 4.57683801651001 14.8112545013428 16.3785667419434 4.86719608306885 4.20193147659302 3.16660666465759 0.342115879058838 -0.529341697692871 -0.302349358797073 2.89115691184998 5.01718473434448 4.24247789382935 5.45125913619995 5.68941497802734 7.05426788330078 14.5993585586548 8.26691627502441 3.69588088989258 5.35923767089844 4.95129728317261 3.38942074775696 3.90343523025513 12.0341157913208 12.0807981491089 19.3561325073242 19.2256374359131 17.0725650787354 5.62179470062256 10.6243686676025 -1.54353559017181 -2.46245360374451 -1.93363463878632 -1.73651444911957 -1.23768866062164 -0.625018358230591 -0.599609017372131 -0.436322331428528 -0.494212538003922 0.391492962837219 0.537152349948883 1.12072479724884 1.9303343296051 1.6445232629776 1.84612381458282 7.66686820983887 1.46114683151245 0.933121621608734 0.742595851421356 18.2224063873291 3.01160454750061 1.00999844074249 7.99645042419434 7.47117710113525 7.40398216247559 9.09682178497314 2.78951072692871 -1.67737174034119 -1.51848721504211 7.97574949264526 4.8802375793457 12.4426870346069 2.09173631668091 -1.05620527267456 -0.905649185180664 0.284916520118713 31.1743507385254 1.13883900642395 2.84463167190552 2.51627230644226 2.775630235672 3.1487295627594 3.59060072898865 3.6446590423584 3.38600015640259 3.19098234176636 3.95298957824707 3.86866998672485 3.9257185459137 4.14847707748413 3.87167119979858 4.29975271224976 4.2518138885498 4.6400351524353 5.63464069366455
1.66387903690338 4.92433261871338 4.77102088928223 4.35249328613281 4.86644601821899 4.47426700592041 3.50630664825439 3.25789928436279 3.30768489837646 3.0339515209198 2.33026552200317 26.8849830627441 1.70173335075378 1.47780561447144 1.70404255390167 -0.0286751892417669 1.40403139591217 0.302760779857635 2.29885911941528 1.28116178512573 -0.169268772006035 -0.241213947534561 0.935499668121338 1.40264213085175 2.15445375442505 1.97559523582458 2.06847429275513 1.91380631923676 1.9035462141037 1.84252166748047 1.82062470912933 12.3498163223267 2.60276961326599 3.0015983581543 2.65111899375916 2.54782104492188 2.42348217964172 5.52427434921265 6.05793952941895 5.40560102462769 5.30259084701538 5.15415573120117 6.22352266311646 5.93294477462769 6.42828798294067 6.92578077316284 5.83365154266357 5.50299453735352 5.88189458847046 5.43416261672974 4.56580877304077 4.71131896972656 5.01943063735962 4.41420841217041 2.26125502586365 2.34382700920105 3.79983758926392 4.48911571502686 4.66600370407104 3.47935080528259 2.57244610786438 3.419513463974 3.43004083633423 2.73891019821167 3.12924218177795 3.17987132072449 3.84285616874695 2.47739028930664 2.34687924385071 4.87518644332886 3.89191150665283 3.78606796264648 3.92754745483398 4.41240930557251 3.92447233200073 4.47598934173584 6.57305192947388 5.92009449005127 2.89790916442871 2.53801226615906 5.9587459564209 1.81256747245789 1.59346604347229 1.72763526439667 1.6667240858078 1.97647202014923 2.0694637298584 2.23501348495483 2.27924537658691 4.36541700363159 7.31611728668213 2.50253462791443 21.4708003997803 13.5877180099487 19.6489791870117 11.6491441726685 29.0364933013916 2.93260431289673 0.422722429037094 0.641381859779358 5.54495477676392 20.9744281768799 18.8510932922363 14.3312664031982 17.8517608642578 8.87649631500244 6.98155355453491 15.5131855010986 5.83085441589355 6.54934978485107 10.9044895172119 5.65958786010742 23.8643856048584 16.3551483154297 23.8641567230225 28.977445602417 26.1320495605469 22.3969612121582 9.89680957794189 -2.09279727935791 -1.43058025836945 -1.66226851940155 -1.49289321899414 -1.39296126365662 -0.584299802780151 -0.674169301986694 -0.443044424057007 -0.264063745737076 -0.309064209461212 0.459832280874252 0.813007354736328 1.3574161529541 3.27224564552307 6.46481895446777 1.75501549243927 23.3055000305176 1.33098793029785 0.856873333454132 1.00100243091583 1.07985925674438 0.60909241437912 -0.0967606529593468 6.6394510269165 15.9941720962524 9.79777526855469 -2.29227900505066 -1.98895275592804 -1.56326532363892 -1.25257670879364 2.35803914070129 5.09640502929688 -0.713822543621063 -0.450341820716858 -0.342956244945526 -0.212739825248718 0.690505623817444 23.8755588531494 4.66319179534912 4.41880512237549 2.90696835517883 3.30531215667725 3.49807286262512 3.8399875164032 3.82221817970276 3.51134514808655 3.52625751495361 4.19675874710083 4.184654712677 4.1029052734375 4.42172145843506 4.16135168075562 4.54239892959595 4.43311643600464 4.80420064926147 5.80782604217529
1.60488331317902 5.5776219367981 4.26167726516724 4.59084939956665 5.13910913467407 4.72633934020996 3.68800711631775 3.42886996269226 3.45053672790527 3.031583070755 2.13150572776794 0.433931261301041 1.73874485492706 0.159118682146072 1.78957414627075 1.27722156047821 1.49586284160614 0.330583721399307 1.28970408439636 1.40181541442871 -0.173227623105049 -0.0694573223590851 0.980676710605621 1.63610327243805 2.22829437255859 2.15435910224915 2.10349631309509 1.98514461517334 1.95558321475983 1.77956473827362 1.97252058982849 0.964519262313843 1.48198056221008 2.90357851982117 2.54086256027222 2.65965366363525 2.67516708374023 5.74819421768188 6.31486368179321 5.63806247711182 4.80253458023071 5.51895666122437 6.61300992965698 6.32359313964844 6.86315393447876 7.39260101318359 6.1226692199707 5.81279802322388 6.17448949813843 5.67634916305542 4.46281766891479 4.9587345123291 5.271803855896 4.64128637313843 2.42633247375488 2.75256729125977 3.96237683296204 4.92866182327271 4.51521730422974 2.59417700767517 2.68197250366211 3.62848162651062 3.68634581565857 2.95624446868896 3.7084538936615 4.36805105209351 4.84886789321899 8.68968868255615 5.71948575973511 5.14403629302979 3.91379857063293 3.24167704582214 3.39220833778381 4.60867118835449 4.03047466278076 4.6761155128479 6.57133722305298 7.19898176193237 4.58818340301514 11.4729127883911 9.13878154754639 2.08810997009277 1.67329347133636 2.39517688751221 3.02261400222778 4.09519577026367 2.88560199737549 2.68450498580933 2.50995826721191 2.48588991165161 2.39092135429382 9.39287185668945 32.230785369873 17.451810836792 26.5144023895264 9.34479713439941 0.74878191947937 4.39391756057739 8.09627151489258 4.33043098449707 7.49912977218628 5.72966718673706 6.49139261245728 7.71992254257202 7.86764669418335 7.9408745765686 7.91090488433838 5.30286693572998 6.81196641921997 7.47093820571899 14.7355031967163 26.1559371948242 43.8112983703613 23.8179035186768 31.2302265167236 38.8305244445801 24.7298908233643 36.7471466064453 16.6202926635742 8.25936603546143 0.914353549480438 -1.29143929481506 -1.10001814365387 -0.63265335559845 -0.231640458106995 -0.305402129888535 -0.278799206018448 -0.223251149058342 -0.154944807291031 0.576921403408051 1.26838040351868 7.72969675064087 10.9787740707397 10.7028064727783 10.186053276062 1.87847781181335 1.36451852321625 7.04483366012573 1.48601508140564 1.12757682800293 0.734164893627167 0.363669455051422 -0.762663006782532 -1.33219397068024 -1.72464346885681 -1.64822447299957 -1.33835649490356 -0.917667090892792 -0.840333759784698 0.690028846263885 -0.5698401927948 -0.222049459815025 0.575894176959991 1.22367262840271 5.81265163421631 3.84459614753723 0.530606925487518 9.70828819274902 2.87357997894287 3.41283059120178 3.53233909606934 3.84583258628845 4.03136014938354 3.97503137588501 3.67721796035767 3.68637490272522 4.4298415184021 4.43550539016724 4.50722646713257 4.6888370513916 4.42664289474487 4.79833269119263 4.65848016738892 5.03484058380127 6.03287506103516
5.84835767745972 6.51241064071655 4.9011492729187 4.87171983718872 5.45393037796021 4.993736743927 3.87027907371521 3.606769323349 3.617995262146 3.2301914691925 2.34107375144958 1.53487491607666 1.80100727081299 1.84481775760651 1.73981928825378 1.34578490257263 1.62026596069336 0.394658774137497 1.31511676311493 1.45013606548309 -0.137055978178978 -0.0561260022222996 1.56581735610962 1.70721697807312 2.32545304298401 2.24064373970032 2.21418738365173 2.14531326293945 2.00981140136719 1.90486717224121 2.01928544044495 2.7872314453125 3.01957869529724 2.71088171005249 2.55502820014954 2.59030413627625 2.86251854896545 5.79448652267456 6.49042510986328 5.89678287506104 4.91597175598145 5.88512754440308 7.04768800735474 6.75673294067383 7.37424755096436 7.93376445770264 6.52170276641846 6.10321140289307 6.47626256942749 5.9721884727478 5.22118616104126 5.56289100646973 4.55030345916748 4.95239734649658 2.50028014183044 2.87939167022705 4.12520408630371 5.14919185638428 3.86142182350159 2.76117634773254 2.75952219963074 3.7965772151947 3.9180736541748 3.20137095451355 5.74889087677002 6.25208234786987 7.0704665184021 11.6286220550537 7.19732570648193 4.88791561126709 4.38081359863281 3.28640699386597 3.61817836761475 4.88671922683716 5.04731273651123 6.66439485549927 8.09632396697998 7.05682182312012 5.42680311203003 2.79273962974548 2.19700789451599 2.39245843887329 10.7735538482666 3.6903772354126 5.50739240646362 4.78604173660278 3.21557211875916 11.1290445327759 4.62889099121094 2.52453017234802 4.25487279891968 2.90444898605347 2.29329657554626 31.3885974884033 6.94969892501831 32.4679336547852 1.90825724601746 7.969970703125 8.58721542358398 7.74431943893433 9.75100421905518 9.04020309448242 9.73523044586182 7.94961786270142 15.8952016830444 11.2007732391357 8.91773414611816 6.33665800094604 8.46465873718262 7.38062286376953 4.73311948776245 13.3144435882568 -2.42040038108826 27.3067378997803 28.2839813232422 20.5106372833252 42.0209617614746 11.907187461853 18.936393737793 9.89857006072998 -0.645575225353241 7.55568265914917 -0.340651959180832 -0.0801386535167694 0.147121444344521 -0.0411368198692799 -0.0970025435090065 -0.218507707118988 0.257545202970505 0.650515079498291 9.80369663238525 2.94194483757019 16.8615264892578 24.9074268341064 15.6832513809204 2.62513756752014 1.56528973579407 1.63544106483459 1.65400123596191 1.51958930492401 1.06015968322754 0.662782251834869 -0.77141672372818 -0.65628856420517 -0.823459565639496 -1.12301087379456 -1.02852129936218 -0.695847988128662 -0.301920801401138 -0.208761066198349 0.0119266826659441 0.551711320877075 4.75417041778564 6.67316198348999 3.97750043869019 1.71112501621246 8.92361259460449 3.65576648712158 3.17190051078796 3.56092834472656 3.84641337394714 4.1051983833313 4.17957067489624 4.13405084609985 3.83430051803589 4.6189432144165 4.57149648666382 4.67870759963989 4.94280052185059 4.94831037521362 4.86600923538208 5.10027456283569 5.26816749572754 6.2119836807251 6.21000814437866
6.45343208312988 7.7968544960022 5.22998428344727 5.8981614112854 4.8805570602417 5.34123849868774 4.07244253158569 3.87542057037354 3.46742343902588 2.70869636535645 2.44234728813171 1.79958176612854 1.63765859603882 1.96731662750244 1.45574522018433 1.62956917285919 1.74196517467499 1.38535106182098 1.38136696815491 0.401997476816177 0.0011900314129889 -0.043282825499773 1.61967861652374 1.77006232738495 2.41794109344482 2.3268871307373 2.32836580276489 2.2522885799408 2.0820837020874 1.97225689888 2.09185814857483 2.871915102005 3.09719109535217 2.56484413146973 2.41416811943054 2.26116538047791 2.6937530040741 6.09246015548706 6.85199356079102 6.16780090332031 4.35545492172241 6.2229962348938 7.50564575195312 7.23461532592773 7.84116172790527 8.42752456665039 6.93231296539307 6.64611911773682 6.83799743652344 6.33358573913574 5.50716495513916 5.86132383346558 4.78987121582031 5.20800828933716 2.55542731285095 4.3847541809082 4.85610723495483 5.37745332717896 4.05643558502197 2.86313462257385 3.99379682540894 4.14429998397827 3.63217210769653 3.37994146347046 8.4488410949707 8.72756004333496 19.018913269043 13.2137937545776 9.89052391052246 6.70211458206177 3.46107506752014 3.62919306755066 4.9884181022644 4.69835996627808 5.72802543640137 7.60174608230591 8.54515933990479 7.32067346572876 5.03067779541016 2.80038142204285 2.94787836074829 12.6034030914307 3.1953010559082 14.1461009979248 6.52613735198975 5.86227989196777 11.0152864456177 8.02653694152832 6.59246158599854 9.90036010742188 5.74880170822144 5.64896059036255 3.33418035507202 7.70757484436035 19.7226676940918 1.35797464847565 27.8549671173096 10.9114675521851 1.07969725131989 8.0163745880127 18.5080299377441 14.9753952026367 10.6317834854126 12.1715354919434 8.0701961517334 8.2358283996582 10.2880048751831 10.4765424728394 10.3022527694702 8.04074668884277 5.76864385604858 40.5305061340332 1.82794690132141 2.26988244056702 5.47912406921387 9.88111019134521 11.9053926467896 8.05625247955322 29.0399780273438 14.5037755966187 1.6782329082489 3.73646306991577 21.3855876922607 0.19418603181839 0.806200683116913 0.651745915412903 0.659317970275879 0.472676753997803 0.747486650943756 1.39428508281708 21.6982555389404 10.3353204727173 36.3775749206543 22.0550632476807 21.0833969116211 3.16347885131836 4.95528125762939 2.15794038772583 1.95414447784424 1.9271125793457 1.84036898612976 1.59512746334076 -0.0750648081302643 0.182818651199341 -0.154676407575607 -0.18054535984993 -0.279599726200104 -0.02530905790627 0.725226283073425 0.54781585931778 0.790907740592957 1.36819911003113 2.31125283241272 8.61983299255371 5.3780665397644 1.84109103679657 20.4665431976318 2.61922359466553 3.6291286945343 3.96420884132385 3.98671197891235 4.27211427688599 4.22085618972778 4.27600240707397 3.91534948348999 4.81067132949829 4.78154325485229 4.91078472137451 5.22197008132935 5.20614099502563 5.49595642089844 5.34211015701294 5.63831281661987 6.55034780502319 6.50834512710571
7.08746957778931 9.30708694458008 5.54609870910645 6.29997777938843 5.78518438339233 4.56856870651245 4.16668128967285 4.15398550033569 3.71319055557251 2.79762244224548 2.55849575996399 1.90801608562469 1.74055540561676 2.11297488212585 0.0538595244288445 1.79709136486053 0.449068307876587 1.46494400501251 1.47786295413971 0.274753868579865 0.394852876663208 -0.0189866814762354 1.70949983596802 2.18958187103271 2.50980067253113 2.4272289276123 2.41978096961975 2.35842227935791 2.16477537155151 2.04390430450439 2.17312598228455 2.96750545501709 3.19671583175659 2.62592959403992 2.44169545173645 2.27269983291626 6.30001354217529 5.96838474273682 7.13644552230835 6.12950038909912 6.64613723754883 5.64800500869751 8.0322208404541 7.7502384185791 8.38441562652588 9.0299711227417 7.46922588348389 7.33607339859009 6.7979416847229 6.40719413757324 5.7646427154541 6.123948097229 5.57255220413208 2.53965330123901 2.64079546928406 4.5357403755188 5.49958944320679 5.68779182434082 4.29736661911011 2.9379255771637 4.13702058792114 4.29063892364502 3.3280611038208 14.3403282165527 14.9513721466064 16.0457935333252 35.2638740539551 16.4496994018555 12.4925470352173 6.76926279067993 3.59000158309937 4.88666009902954 5.8224196434021 4.32347393035889 6.68573427200317 8.86406230926514 9.08816909790039 7.25863218307495 5.54746389389038 6.13859462738037 4.10080003738403 2.59188032150269 3.84585499763489 2.08481574058533 11.157732963562 7.88970518112183 17.7101020812988 13.7604207992554 6.96163511276245 2.63742709159851 2.77043032646179 2.56892514228821 2.37435913085938 2.18742322921753 1.68168926239014 6.26232385635376 5.1037073135376 29.367712020874 5.33651971817017 15.5801134109497 10.7565603256226 16.2364330291748 20.9631843566895 13.848521232605 14.2939157485962 15.5079965591431 13.3162422180176 12.7494993209839 11.8035497665405 8.50348377227783 6.76828479766846 0.402551382780075 -1.90091073513031 -1.59837663173676 -3.55110311508179 -3.34057068824768 -3.3559148311615 -2.2428514957428 5.21498966217041 15.4966173171997 -0.298227667808533 5.82482528686523 0.293991595506668 9.59692668914795 1.15592992305756 0.945236802101135 1.32994103431702 1.30457806587219 1.32380282878876 1.65051877498627 2.27609992027283 31.8414325714111 55.9484825134277 38.5723304748535 14.2410755157471 13.4663438796997 2.77232718467712 2.43780207633972 7.35671520233154 2.38931632041931 2.22281885147095 1.87002146244049 0.191223189234734 0.70547878742218 0.121612630784512 0.25223770737648 -0.0694820731878281 0.498781383037567 1.24947166442871 0.932072758674622 1.80940163135529 2.18475580215454 2.7003231048584 15.023494720459 7.87990188598633 2.25502681732178 1.87691330909729 3.37543869018555 3.8001115322113 4.11144208908081 4.1386137008667 4.40181446075439 4.36800098419189 4.05587863922119 4.03298139572144 4.99475002288818 4.98193359375 5.13672018051147 5.47388505935669 5.30489301681519 5.78738927841187 5.65286064147949 6.01292133331299 6.95403480529785 7.92170238494873
7.85499906539917 11.9871740341187 5.92910242080688 6.66840076446533 6.06469821929932 4.55264568328857 4.39616394042969 4.48220872879028 3.9712393283844 2.70972347259521 1.73426389694214 2.02379322052002 1.54084694385529 2.28995180130005 1.62704384326935 1.93577098846436 0.509477853775024 1.53179287910461 1.55236446857452 0.160136327147484 0.552384793758392 1.24990355968475 1.78006339073181 2.65833735466003 2.47252368927002 2.61860013008118 2.45200538635254 2.46464514732361 2.24934101104736 2.11962962150574 2.26528668403625 3.07853937149048 3.30964422225952 2.71089553833008 2.41351675987244 2.49622440338135 6.57909965515137 7.25100231170654 6.57082462310791 6.18760442733765 7.13499116897583 8.6307954788208 8.24164867401123 9.1196985244751 9.97716903686523 8.17551231384277 7.43245077133179 7.77633571624756 7.16479969024658 5.86275577545166 6.02732276916504 6.42448854446411 5.93644952774048 2.59598350524902 2.77493238449097 4.72726917266846 5.99954462051392 5.4827127456665 2.94117116928101 3.0594596862793 4.29986524581909 4.42190599441528 3.6275486946106 25.9072952270508 27.9988574981689 9.42545127868652 3.7986376285553 30.788703918457 24.5406436920166 8.33676338195801 8.88565254211426 3.59233403205872 7.05045509338379 4.95515966415405 8.10050296783447 10.8220453262329 9.65335464477539 7.07803249359131 5.81344127655029 7.11411905288696 4.22477674484253 4.25739860534668 5.1942720413208 3.7942476272583 13.0893125534058 3.16328692436218 2.93184995651245 2.70860767364502 2.72345685958862 2.71732020378113 2.79202079772949 2.83012437820435 5.55238151550293 2.42537212371826 2.48331022262573 1.71714508533478 12.1595840454102 8.27998924255371 3.23613929748535 31.4080085754395 28.4256839752197 22.9615364074707 21.2580051422119 21.4234676361084 35.4026184082031 23.478572845459 23.8536777496338 18.2483825683594 14.5543146133423 9.53794860839844 5.42738008499146 3.24729180335999 1.43385338783264 -1.4238144159317 -2.69068741798401 -3.65763330459595 -2.29675602912903 -1.99230515956879 31.6985263824463 0.595981776714325 16.8386383056641 1.65539765357971 1.21768069267273 1.84849786758423 5.40248155593872 1.9951936006546 4.23825454711914 2.07263541221619 13.9963188171387 2.33918380737305 21.3908634185791 51.246395111084 2.43860650062561 23.4758548736572 21.1764602661133 13.3976955413818 3.41901874542236 2.59101581573486 2.92997193336487 2.56755137443542 2.17483711242676 1.82267248630524 0.658130526542664 2.55850172042847 0.820865452289581 7.19791030883789 0.690796673297882 1.89667248725891 1.91783130168915 1.84038078784943 2.54444432258606 2.76599049568176 5.52831983566284 10.4318227767944 10.9227132797241 2.41003942489624 2.67461085319519 3.53136658668518 4.22274112701416 4.25453519821167 4.36783599853516 4.54774904251099 4.51545524597168 4.19343852996826 4.16063404083252 5.1867413520813 5.32485580444336 5.31074810028076 5.73501062393188 5.56753635406494 6.06782531738281 5.93221092224121 6.34688949584961 7.33930444717407 9.75361156463623
18.9324798583984 5.80122947692871 6.36884784698486 7.13948583602905 6.45774126052856 4.7796459197998 4.69782209396362 4.79613971710205 4.3423023223877 3.02512788772583 1.88005411624908 2.11619567871094 0.37107440829277 2.46179556846619 1.7802482843399 2.09845924377441 0.575152337551117 1.61680889129639 1.62334656715393 0.170549169182777 0.59097158908844 1.32352769374847 2.03921127319336 2.75242805480957 2.66996359825134 2.70678162574768 2.55457520484924 2.57789969444275 2.22457313537598 2.45822024345398 3.2655565738678 3.46370911598206 3.25156950950623 2.72788381576538 2.45571208000183 2.53011417388916 6.87449645996094 7.60325622558594 6.89345836639404 5.53042316436768 7.48954391479492 9.31320476531982 8.93726062774658 9.81850719451904 10.7329568862915 8.99170589447021 7.82714557647705 8.18779754638672 7.5859694480896 5.91722583770752 6.36467313766479 6.77402353286743 6.32103872299194 2.76676297187805 3.12725138664246 4.93447589874268 6.29339551925659 4.81269788742065 3.04955244064331 3.12366724014282 4.4708456993103 4.52876710891724 3.68088126182556 3.26231551170349 2.29589676856995 28.3926334381104 2.6244101524353 2.78330302238464 7.32998275756836 10.479811668396 18.4410305023193 10.7334108352661 8.62486171722412 5.38409042358398 9.66304016113281 13.4389629364014 10.3096132278442 7.4981050491333 6.66481685638428 8.46475982666016 4.55666494369507 4.53423166275024 5.58584451675415 20.7204856872559 7.13323163986206 5.12232732772827 2.97344017028809 2.72594475746155 2.92536973953247 7.84682130813599 7.60718774795532 2.85077571868896 8.59217834472656 4.55159711837769 5.52071952819824 9.95113277435303 0.687829196453094 0.230167061090469 26.0778999328613 10.2073907852173 21.7018451690674 30.8758087158203 20.5552177429199 30.6086082458496 26.7520141601562 28.3913860321045 40.9665565490723 21.3507308959961 15.8541870117188 19.3701915740967 7.87660503387451 7.65526294708252 1.96857833862305 12.0982294082642 5.34315395355225 -2.741694688797 -1.78889143466949 -1.77218055725098 -1.93489909172058 -0.0667727515101433 2.05741190910339 8.79852294921875 3.41590189933777 7.60162305831909 8.84200668334961 10.6469020843506 5.45760345458984 3.50544595718384 2.65133547782898 2.64777112007141 38.7443618774414 2.58648276329041 2.77650260925293 3.16610765457153 38.1329612731934 16.366003036499 9.82263565063477 3.5276050567627 3.13243770599365 2.56081557273865 2.34568524360657 2.10311436653137 1.4158638715744 0.969329237937927 1.01233458518982 0.276018559932709 1.08562564849854 2.28144931793213 2.60705637931824 2.22957181930542 3.30183172225952 3.28860187530518 7.74788856506348 21.0510368347168 15.5831594467163 4.51901006698608 2.84973645210266 3.71813035011292 4.4056978225708 4.44406747817993 4.65050601959229 4.75897741317749 4.73041343688965 4.39227914810181 4.35517120361328 5.4113187789917 5.57162809371948 5.58631372451782 6.02746200561523 5.83797264099121 6.33185720443726 6.1907377243042 6.62988948822021 7.66711044311523 11.8987369537354
34.3270645141602 7.04464626312256 6.82498168945312 7.70002412796021 6.95468044281006 5.04153633117676 4.9649224281311 5.11619997024536 4.586510181427 3.16919851303101 2.22062349319458 1.99185419082642 2.49487161636353 2.41400551795959 1.87423360347748 2.2612133026123 1.73336398601532 1.70313358306885 -0.0813802629709244 -0.0763282850384712 0.619109928607941 2.01256012916565 2.13793563842773 2.87436842918396 2.7694137096405 2.80674123764038 2.82701325416565 2.64208674430847 2.42265343666077 2.59178805351257 3.39814877510071 3.59977245330811 3.09608268737793 2.81361961364746 2.51761436462402 2.59193181991577 7.26509809494019 7.9851770401001 7.20873498916626 5.67817163467407 8.17746162414551 10.0974979400635 9.73402309417725 10.6867208480835 11.6186332702637 9.61839008331299 8.71622657775879 8.8323802947998 8.1484317779541 6.78663015365601 7.25947046279907 6.23124885559082 6.82392692565918 2.84108471870422 5.22639083862305 5.80819892883301 6.65167713165283 5.07452249526978 3.19744253158569 3.14154767990112 4.56318807601929 4.72204542160034 3.78796553611755 5.9103102684021 9.33713912963867 9.11264133453369 2.8301157951355 14.9291687011719 12.4436140060425 11.3140068054199 3.32990741729736 21.8365898132324 11.1164350509644 12.2719497680664 17.5956268310547 11.0484418869019 10.0829601287842 7.9570746421814 8.20038032531738 10.4033346176147 4.58221292495728 6.23620319366455 4.36633920669556 38.068603515625 2.35382843017578 3.48019027709961 3.37189936637878 2.81899499893188 4.60466623306274 4.85570096969604 18.5640754699707 3.93774461746216 2.5773389339447 4.94332218170166 13.7999114990234 14.1859502792358 0.437368959188461 7.5758810043335 21.1855583190918 19.7286949157715 20.9690437316895 29.5959529876709 27.4052982330322 21.2185230255127 15.5993585586548 37.6360168457031 17.3800868988037 24.8384017944336 24.8584651947021 31.7627334594727 8.38053226470947 18.4271640777588 19.3157348632812 7.30264854431152 12.4392614364624 7.50428342819214 5.88083505630493 -1.08183789253235 21.9200801849365 2.15528202056885 5.62470960617065 12.3294134140015 8.62219905853271 24.2335433959961 11.310809135437 14.3201513290405 6.98577928543091 3.94975519180298 3.27923321723938 2.83649063110352 3.40614438056946 2.88612699508667 3.10794901847839 7.35438251495361 3.78265428543091 31.2799606323242 22.6138668060303 4.97375202178955 4.21201229095459 3.5413453578949 2.55607223510742 2.41234421730042 1.77682185173035 1.30699336528778 1.34698510169983 0.914411664009094 3.89622473716736 3.80863165855408 3.59220957756042 2.86536049842834 3.55073738098145 3.55532741546631 32.7511749267578 13.3345766067505 11.2782011032104 7.54461002349854 3.05988574028015 3.94616079330444 4.61781358718872 4.65222692489624 4.99101686477661 5.0233006477356 5.01781892776489 4.53143739700317 5.69300413131714 5.63567543029785 5.87088871002197 6.36631298065186 6.25949716567993 6.30771780014038 6.61216640472412 6.93055725097656 8.01290035247803 7.88116073608398 14.6986083984375
3.46693325042725 7.70640230178833 8.51027965545654 6.78180027008057 7.56795644760132 5.41877555847168 5.36367273330688 4.88690042495728 3.95161128044128 3.35952091217041 2.40481209754944 2.20687961578369 2.84719228744507 2.0670599937439 2.33953595161438 2.3412880897522 1.81867098808289 1.81117796897888 0.242005825042725 0.215088471770287 0.113957434892654 2.11583757400513 2.24840688705444 3.02192449569702 2.90000104904175 2.92913246154785 2.95745897293091 2.78478527069092 2.54230666160583 2.73710203170776 3.54786849021912 3.74477052688599 3.03767466545105 2.71340489387512 2.39988803863525 2.64561414718628 7.72777843475342 8.41765213012695 7.5980863571167 8.90873241424561 7.30612421035767 10.7068700790405 10.630747795105 11.7083311080933 12.7555131912231 10.4883995056152 9.21547985076904 9.24748134613037 8.55970859527588 7.07806062698364 7.60292530059814 6.61261796951294 7.29780769348145 3.16865754127502 5.48493623733521 6.11855792999268 6.98079347610474 5.25218820571899 3.22240209579468 4.77095222473145 4.95292377471924 4.29113626480103 3.78853011131287 4.10982847213745 2.65280318260193 29.9479370117188 3.53864860534668 39.3878555297852 14.802152633667 3.63943362236023 6.43622398376465 7.06201505661011 11.0729341506958 22.3040504455566 29.906925201416 11.7390871047974 9.70739364624023 12.9604864120483 16.9557571411133 7.45942306518555 5.16055393218994 6.51435518264771 4.6658239364624 2.19492363929749 3.01814913749695 4.01129531860352 7.613525390625 3.18008327484131 6.94820737838745 2.903977394104 2.97618365287781 13.3216724395752 2.54558944702148 2.29022645950317 1.76040160655975 0.780427873134613 1.19373559951782 13.9019317626953 17.6042575836182 11.3975210189819 17.6843338012695 12.6198244094849 25.3182888031006 26.7961292266846 32.2281112670898 17.3766860961914 30.7662372589111 29.6395301818848 16.2393913269043 8.49472332000732 8.28775787353516 4.95089101791382 32.1248931884766 12.3215885162354 9.85377502441406 10.7743816375732 2.11219382286072 0.172859266400337 -0.668211698532104 6.59032487869263 5.63085412979126 17.2290706634521 11.4568510055542 5.74014186859131 21.9026756286621 10.5523710250854 9.71710872650146 4.38971138000488 4.35613393783569 3.45731735229492 4.26422929763794 3.89041471481323 4.04108810424805 3.75681233406067 3.97235941886902 4.07189512252808 4.28623723983765 5.41441965103149 5.18313932418823 4.07603740692139 3.73512411117554 3.01626563072205 2.1771833896637 2.14808940887451 1.94337165355682 1.85944211483002 3.1572699546814 4.05560207366943 3.79711985588074 3.72474050521851 3.75201916694641 17.9177856445312 52.8939666748047 41.4683570861816 12.3031988143921 3.90057158470154 3.92478823661804 4.54782819747925 4.85150718688965 4.88466596603394 5.25145149230957 5.33688926696777 5.01383972167969 4.86695766448975 6.10551404953003 6.00079250335693 6.23175668716431 6.72470283508301 6.54130411148071 6.94858598709106 6.78298664093018 7.22578191757202 8.333815574646 8.19123077392578 18.7296314239502
7.51118040084839 8.48654079437256 9.25463676452637 8.32176685333252 6.37560796737671 5.7476282119751 5.74041843414307 5.2645411491394 4.13801383972168 3.77243137359619 2.79679417610168 2.58268451690674 3.18230843544006 0.11680193990469 2.56701493263245 0.623194873332977 1.96559190750122 1.95353102684021 -0.0791459456086159 0.6444011926651 0.123960383236408 2.30425667762756 2.82212591171265 3.15853095054626 3.07604432106018 3.06565809249878 3.10060501098633 2.80822324752808 2.65814208984375 2.89766001701355 3.73019504547119 3.92245364189148 3.1767373085022 2.77660512924194 2.4675726890564 8.3851432800293 7.73350811004639 8.96471214294434 7.46124839782715 9.91537761688232 11.9914588928223 11.7144660949707 12.9860572814941 14.4422302246094 11.9910888671875 10.3686876296997 9.9957857131958 9.23453807830811 8.50891780853271 7.37809753417969 7.90758943557739 7.68839931488037 2.98890852928162 3.51447176933289 5.63255071640015 7.12028121948242 7.20312166213989 5.36756610870361 3.28467607498169 4.93021631240845 5.08370113372803 3.81348633766174 3.9959545135498 4.34141063690186 3.85845923423767 2.62228393554688 4.25735998153687 2.53822088241577 19.4124221801758 14.1132946014404 10.4412479400635 26.0733947753906 11.6617698669434 4.77791738510132 7.22085762023926 12.1160249710083 9.01872158050537 19.516809463501 29.6145420074463 7.87761688232422 5.37565946578979 6.96789169311523 4.99796962738037 2.88376426696777 6.8586540222168 5.94616365432739 3.84648156166077 3.66237187385559 5.17362117767334 2.97665929794312 3.00105690956116 2.82620215415955 3.28727173805237 2.5032434463501 1.81667673587799 0.801139354705811 3.28042721748352 -0.507979273796082 -0.324192553758621 14.3915414810181 9.25885200500488 12.6371622085571 15.8890810012817 28.1256408691406 36.852653503418 26.1810531616211 26.0365772247314 24.8506526947021 17.4218673706055 7.90140104293823 8.95681953430176 2.78638911247253 -0.532954752445221 11.9030199050903 29.1958789825439 12.9154491424561 0.301370322704315 3.25210547447205 2.0795316696167 18.1241283416748 11.3292531967163 23.5347537994385 18.053731918335 14.6798572540283 25.5633335113525 16.1848659515381 6.26409864425659 4.60594034194946 5.09668397903442 4.33844900131226 5.01352787017822 5.00434398651123 4.45949983596802 18.212869644165 8.45040798187256 4.825852394104 5.16053485870361 5.66502571105957 5.46831893920898 5.17951965332031 4.34712839126587 3.58881759643555 2.93156790733337 2.69349217414856 2.86154961585999 7.55483675003052 14.0568408966064 4.3870005607605 4.08681154251099 4.03608369827271 10.6292543411255 35.3920288085938 2.26751065254211 2.55096507072449 25.9339084625244 4.05936336517334 4.2878794670105 4.77247333526611 5.07365417480469 5.14120054244995 5.4862642288208 5.61450862884521 5.31250095367432 5.23681497573853 6.49517393112183 6.35755205154419 6.61913967132568 7.0536961555481 6.77357053756714 7.24991607666016 7.07051610946655 7.54508876800537 8.66324615478516 27.8282432556152 38.8784408569336
8.3091926574707 9.48914241790771 10.2375345230103 9.10917282104492 6.36263561248779 6.1605167388916 6.20435047149658 5.74632263183594 4.1318531036377 2.78970217704773 3.17205810546875 0.494884103536606 3.49877381324768 2.30807828903198 2.82302093505859 0.892045438289642 2.16411161422729 2.11858558654785 -0.0178973991423845 -0.124916486442089 1.61847519874573 2.38715934753418 3.38572525978088 3.16193890571594 3.32983589172363 3.13870573043823 3.26498913764954 2.93321824073792 3.24421381950378 4.14935684204102 4.26165866851807 3.88974499702454 3.20411539077759 2.81875777244568 2.81384539604187 9.1325626373291 9.69703197479248 8.72696399688721 7.87398767471313 11.3896112442017 13.4346723556519 13.4075050354004 15.3380794525146 16.0281314849854 13.5587015151978 10.8954591751099 10.9225883483887 9.98487091064453 7.71275234222412 7.79576349258423 8.33704948425293 8.18673133850098 3.17012166976929 3.32035636901855 5.76226472854614 7.59027290344238 6.81853818893433 3.98020267486572 3.86146426200867 5.03144836425781 5.20268058776855 4.16567897796631 4.63388633728027 3.77000617980957 4.42367076873779 4.39603281021118 4.43476819992065 4.36179542541504 3.07611894607544 9.35568618774414 17.7707538604736 3.21331429481506 10.2852230072021 5.17955350875854 10.9610090255737 12.6836490631104 8.90149974822998 5.84765386581421 4.99414110183716 7.49877500534058 5.73180484771729 7.63260173797607 5.41167259216309 3.39216780662537 3.64972686767578 8.70231056213379 3.97094941139221 3.77337002754211 2.76134777069092 3.15034341812134 7.03000593185425 3.40496706962585 2.6698944568634 4.29463577270508 1.94564855098724 3.0781683921814 8.01761722564697 -0.0108675006777048 0.0172499883919954 -0.564137995243073 0.991043567657471 6.42902231216431 9.85414886474609 14.5249547958374 6.73817920684814 31.798999786377 43.0708808898926 18.3839797973633 25.2921123504639 13.2831411361694 6.4590048789978 2.95755219459534 2.8666877746582 -0.101397141814232 5.36676359176636 -0.306417018175125 4.96365213394165 4.82285118103027 4.02676057815552 6.57041072845459 26.6282424926758 20.0253925323486 34.6914825439453 26.5717906951904 2.89947652816772 30.6775302886963 8.38810634613037 6.72651529312134 4.8606276512146 6.25865793228149 5.31216812133789 5.30985069274902 5.60748815536499 4.60627365112305 4.42299747467041 5.29398679733276 5.56035232543945 5.8680100440979 5.72074556350708 5.29895496368408 4.85592651367188 4.18116998672485 3.97159814834595 3.84792971611023 3.18183565139771 2.83490824699402 4.27625560760498 4.46504878997803 4.26330852508545 4.30453538894653 25.7888164520264 10.9404449462891 4.37610530853271 3.06268310546875 3.43486547470093 3.86430549621582 4.47713375091553 5.21701431274414 5.2796802520752 5.5862603187561 5.70934438705444 5.85509586334229 5.56294012069702 5.77928161621094 6.801589012146 6.96367216110229 7.07214975357056 7.39253187179565 7.08338117599487 7.5628809928894 7.37550687789917 7.87085342407227 9.0137767791748 45.5231132507324 56.8717384338379
10.8309555053711 10.1086616516113 11.4373865127563 10.0687828063965 6.75218486785889 6.55307197570801 6.64189958572388 6.21287679672241 4.45057010650635 2.98591113090515 3.38696146011353 1.14894425868988 3.89897561073303 2.58728742599487 3.15827393531799 1.0656852722168 2.32679343223572 2.27720522880554 0.0163580998778343 0.137433603405952 1.71626031398773 2.57533669471741 3.52700161933899 3.4073920249939 3.48321604728699 3.59012675285339 3.43807983398438 2.99138903617859 3.42763757705688 4.40709781646729 4.54883718490601 3.76697897911072 3.36428284645081 2.95311808586121 2.91812419891357 10.0595188140869 10.5448808670044 9.53283786773682 6.96523952484131 13.510573387146 15.4906606674194 21.4119758605957 16.5410041809082 18.149341583252 14.8875913619995 12.3629903793335 11.8662300109863 10.8056125640869 8.14880847930908 8.14596843719482 8.75584602355957 8.75508117675781 2.95217490196228 3.37428712844849 5.87523889541626 7.83876085281372 5.84220266342163 4.36496067047119 3.98618412017822 5.07949066162109 5.28579378128052 4.22081470489502 4.73395204544067 3.67173624038696 4.59724855422974 4.54461479187012 4.61187267303467 5.3779501914978 14.5156984329224 11.3475589752197 3.53816366195679 3.3547739982605 25.0425987243652 8.68750667572021 14.0413627624512 11.8605327606201 9.23611164093018 11.704665184021 6.2334771156311 9.44265365600586 8.8026123046875 5.93722820281982 6.06593751907349 5.08824825286865 5.06414604187012 13.3699340820312 4.09780883789062 5.47560977935791 3.11832332611084 3.25519585609436 3.45455622673035 3.20365643501282 2.55217409133911 1.8518271446228 11.8428401947021 5.79052209854126 0.330873817205429 3.72588157653809 3.76499724388123 0.716683506965637 0.442218691110611 0.0243255570530891 13.6293153762817 24.3685665130615 22.1930465698242 4.27557134628296 7.41514778137207 10.8599004745483 12.455961227417 12.3647031784058 7.41311931610107 11.2718639373779 3.58521842956543 0.253178626298904 0.183004423975945 0.731416285037994 2.90953516960144 4.8423867225647 10.6897306442261 10.5707836151123 15.4611787796021 7.36404037475586 10.9283533096313 5.16233396530151 3.2642457485199 3.37932705879211 11.3272352218628 8.85290145874023 5.22526741027832 7.85296964645386 5.43725299835205 5.67061471939087 6.05514669418335 5.95565319061279 5.86153650283813 5.65372657775879 5.89939641952515 6.12255764007568 5.57964944839478 5.41218900680542 5.12602233886719 4.42888736724854 4.19552612304688 4.08882474899292 4.27780866622925 3.73367857933044 4.46463537216187 4.78879499435425 10.558895111084 4.57900142669678 3.68616437911987 3.0246422290802 15.0378570556641 4.03217840194702 4.16056156158447 3.79885458946228 4.65915250778198 5.41596555709839 5.48927927017212 5.91913175582886 5.94502115249634 6.11752128601074 5.78632926940918 6.05498123168945 7.09303283691406 7.4415111541748 7.88632440567017 7.50979566574097 7.63646936416626 7.88539600372314 8.33359527587891 9.5624475479126 9.32711791992188 6.2195782661438 5.40057706832886
12.5134630203247 13.1621389389038 10.171498298645 11.2911186218262 7.57303857803345 6.78175973892212 7.09913682937622 6.69545269012451 4.79100751876831 3.53476452827454 3.44917392730713 4.53481721878052 3.86875295639038 2.83657670021057 3.42752146720886 2.54412174224854 2.50812435150146 0.35408616065979 0.0895577147603035 1.38061261177063 2.49333667755127 2.69946980476379 3.62088084220886 3.53329229354858 3.63426756858826 3.77246880531311 3.63242197036743 3.12796115875244 3.61035847663879 4.66429281234741 4.8589768409729 3.89950370788574 3.31595087051392 2.7716863155365 3.03843641281128 11.1818962097168 11.586067199707 10.5140438079834 7.13930416107178 16.8099155426025 18.4840106964111 36.7195281982422 21.6110420227051 21.9086074829102 17.8966655731201 14.0816040039062 12.7490358352661 11.6521215438843 8.83261966705322 9.52866649627686 8.6284065246582 9.48794746398926 2.96527981758118 6.05943727493286 6.836021900177 8.07565593719482 5.93420028686523 3.86203551292419 5.21846008300781 5.42799139022827 4.64990091323853 4.2720742225647 4.84125995635986 3.83522057533264 4.73527765274048 4.63632535934448 4.79854822158813 22.2146015167236 12.6283025741577 3.44864797592163 3.5566246509552 5.10660314559937 4.28780078887939 12.7155828475952 16.4863262176514 11.6726064682007 7.23594903945923 10.9584884643555 6.4201545715332 9.41396617889404 10.472487449646 7.18028974533081 7.51451730728149 6.36154699325562 22.5003929138184 3.56880927085876 4.45161151885986 4.3510274887085 4.00967836380005 3.78445744514465 3.86913990974426 3.28462719917297 2.95219206809998 2.46974635124207 8.38337230682373 4.37553405761719 4.48308515548706 7.86368227005005 0.722459733486176 0.744038641452789 0.443015515804291 3.40399694442749 1.87029361724854 4.33574342727661 2.04971432685852 8.19968318939209 15.2118453979492 14.829291343689 16.4605197906494 16.9727687835693 10.4920072555542 20.8934555053711 3.50167560577393 6.75072813034058 1.49839890003204 3.41612124443054 3.76456022262573 8.87707138061523 22.9901466369629 7.53122234344482 0.713692843914032 5.01495742797852 6.09256649017334 40.4697761535645 10.1191396713257 20.8895053863525 15.939115524292 11.5485553741455 9.83524131774902 6.83503532409668 5.93038749694824 7.16773891448975 6.48734474182129 6.42185401916504 6.25711584091187 6.06308269500732 6.43176746368408 6.15000295639038 5.84211444854736 5.50467681884766 5.32442283630371 4.64522552490234 4.32431221008301 4.20740795135498 4.45689821243286 4.53865528106689 5.46085691452026 5.10694408416748 4.40569972991943 4.87449264526367 4.57670593261719 4.37348318099976 3.69092750549316 4.33580732345581 4.34453296661377 4.48498678207397 5.24561262130737 5.59271430969238 5.69258737564087 6.17097139358521 6.15881967544556 6.38817453384399 6.05341482162476 7.44705867767334 7.29682350158691 7.82931184768677 8.26364326477051 7.79046964645386 8.28244972229004 8.15632724761963 8.72219467163086 10.0210447311401 9.77646350860596 7.27091598510742 5.59194660186768
14.8950624465942 15.3612775802612 13.156665802002 9.6500940322876 8.5285758972168 7.63354206085205 6.934241771698 5.70029783248901 5.16481494903564 3.78637409210205 3.73519849777222 5.00294971466064 3.49555039405823 3.77874326705933 3.71288156509399 2.71765279769897 2.65502214431763 0.154340609908104 0.920630276203156 1.67124199867249 2.71893310546875 3.43011426925659 3.8474657535553 3.79059290885925 3.75338768959045 3.96388125419617 3.84067869186401 3.25039672851562 3.80624961853027 4.91412305831909 5.14205169677734 4.1664571762085 3.4390664100647 2.92099380493164 13.0726833343506 11.8543481826782 12.9083042144775 10.4690856933594 24.8124408721924 17.543550491333 28.3973865509033 10.2149562835693 36.6973686218262 27.5308170318604 22.8011283874512 16.5182247161865 13.3273506164551 11.4202928543091 9.34587097167969 10.132640838623 10.7161874771118 3.26986193656921 3.03986883163452 6.26587820053101 7.06217765808105 8.39412689208984 6.08913993835449 3.29207420349121 5.2925009727478 5.51332092285156 4.03150510787964 4.35298871994019 4.97725057601929 4.40150737762451 4.82614707946777 5.04003715515137 10.7715625762939 38.9924697875977 5.15111255645752 3.5856773853302 4.24678707122803 6.56100463867188 11.1342763900757 12.8633460998535 20.254524230957 12.7551870346069 8.38077259063721 30.2233963012695 16.0019950866699 9.0692195892334 12.9749250411987 9.83882904052734 10.3288412094116 15.5550270080566 40.4551010131836 4.2056622505188 4.50367736816406 4.39694929122925 4.49869585037231 4.01339054107666 3.92430329322815 3.66019034385681 3.47976469993591 1.86841142177582 0.896934032440186 13.8465852737427 8.8868465423584 3.30481362342834 2.32453989982605 1.13272511959076 0.537064671516418 7.22124576568604 4.58956956863403 6.22321510314941 6.51192903518677 18.0376529693604 3.24356961250305 13.1248168945312 21.4902935028076 15.663182258606 15.1457529067993 4.30345726013184 11.0278539657593 7.0832633972168 2.81908893585205 7.09575080871582 15.400749206543 9.08624458312988 8.2200345993042 28.4772777557373 3.99874782562256 5.86781978607178 7.03893518447876 3.04645657539368 37.6684341430664 9.04044437408447 14.0563840866089 14.7944993972778 12.1586685180664 9.09480476379395 6.29142236709595 8.98818588256836 7.68661212921143 6.90455341339111 6.67239141464233 6.53340482711792 6.83535766601562 6.53712606430054 6.16357088088989 5.75324869155884 5.17500162124634 4.81433296203613 4.54086923599243 4.49285507202148 4.61768007278442 5.00973987579346 5.6778621673584 5.34825086593628 5.25254392623901 4.90256214141846 5.12772226333618 4.52242851257324 4.41803789138794 4.69195938110352 4.56574392318726 4.81577682495117 5.38835668563843 5.76742315292358 5.93238925933838 6.42912530899048 6.63058996200562 6.24724769592285 6.3209433555603 7.75733852386475 7.60991764068604 8.25726127624512 8.72252178192139 8.16802215576172 8.59516906738281 8.50946235656738 9.15554332733154 10.52272605896 10.2635173797607 7.59104156494141 6.39472103118896
18.1443710327148 18.0987815856934 15.111967086792 9.91374015808105 8.9107837677002 8.49085903167725 7.66837072372437 5.78438854217529 5.54463672637939 4.06879138946533 4.04922676086426 5.54966831207275 1.11528325080872 4.34509611129761 1.44378662109375 3.09833025932312 2.94052934646606 0.222070157527924 0.79786479473114 1.9165141582489 2.82196640968323 4.09393692016602 3.95003437995911 4.11108446121216 3.89371204376221 4.21811771392822 3.59936881065369 3.38211584091187 4.00813770294189 5.16846084594727 5.40854120254517 4.4087872505188 3.62744140625 3.46814036369324 15.1518135070801 14.9495115280151 14.0138397216797 11.2053146362305 42.5401306152344 33.24658203125 46.5111045837402 22.8182353973389 23.00217628479 31.8535995483398 21.9018650054932 20.3298931121826 15.6480274200439 10.755916595459 9.9027099609375 10.7469730377197 11.8616666793823 3.28403639793396 3.17179989814758 6.52283620834351 8.86834049224854 8.83058261871338 6.32030534744263 3.29566311836243 5.39079523086548 5.61012125015259 4.4096827507019 5.12505340576172 4.20340299606323 5.03862619400024 4.97440004348755 5.1672797203064 21.0324668884277 3.26225900650024 5.05826807022095 4.12741613388062 5.30650186538696 10.9398946762085 13.808051109314 16.4166297912598 22.5049743652344 15.8563060760498 8.58496379852295 6.45723819732666 4.26441955566406 10.7767009735107 16.2276058197021 13.6554498672485 15.1270093917847 32.0643653869629 3.5545437335968 4.73907327651978 4.58158540725708 19.8440113067627 5.07003164291382 5.01464653015137 4.9582405090332 4.54234027862549 3.54800581932068 2.61881637573242 0.949586033821106 15.8997611999512 1.54615473747253 1.80102181434631 1.69487261772156 1.45700907707214 4.33885669708252 0.443694800138474 -0.301815271377563 -0.482954144477844 5.71563005447388 0.161915734410286 15.5059633255005 25.3273143768311 28.3614463806152 16.9055423736572 6.11986970901489 6.44961929321289 5.22779273986816 11.1097478866577 9.68912506103516 10.3581533432007 30.810188293457 15.0863552093506 6.20253896713257 0.249183565378189 16.8238697052002 1.35864067077637 6.30251121520996 3.26480531692505 5.94316148757935 41.7343559265137 24.7995300292969 18.5096492767334 13.9297037124634 10.5009984970093 10.2789649963379 9.25136566162109 7.32088851928711 7.52975082397461 6.84024381637573 7.00390481948853 7.29597949981689 6.94196844100952 6.30214738845825 5.72581672668457 5.36586284637451 4.96546316146851 4.86277914047241 4.62841987609863 5.0066990852356 6.05694055557251 5.65748643875122 5.43302488327026 5.51683378219604 5.49080562591553 5.17290067672729 5.29834318161011 5.16094350814819 4.87894773483276 4.8711462020874 5.08223962783813 5.83515310287476 5.94416856765747 6.27424812316895 6.67396688461304 6.88456583023071 6.48560523986816 7.13941955566406 8.10197830200195 8.43183326721191 8.73935127258301 9.29811954498291 8.7926082611084 9.10056591033936 8.92836952209473 9.64064121246338 11.0980739593506 10.8416004180908 10.2055358886719 9.82974815368652
22.8888645172119 21.8392448425293 17.8618278503418 11.7862462997437 10.177960395813 9.53851890563965 8.64737224578857 5.78205871582031 3.72404026985168 4.35272836685181 1.32028245925903 6.24506044387817 3.92934417724609 4.92399406433105 1.99275898933411 3.35913681983948 2.9888162612915 0.434569269418716 0.195731237530708 2.01547408103943 3.11985754966736 4.28929042816162 4.15290689468384 4.31053590774536 4.08133125305176 4.52894973754883 3.73721623420715 4.39824295043945 5.64158964157104 5.87154054641724 5.30468988418579 4.34616374969482 3.8181312084198 3.65077376365662 17.97878074646 17.2811813354492 16.5219058990479 10.0201921463013 1.64869391918182 34.6730880737305 10.4142847061157 23.1570606231689 23.0369281768799 50.0556602478027 28.7795658111572 23.1975364685059 19.1851463317871 12.2192468643188 10.656138420105 11.7347564697266 13.4057264328003 3.41529226303101 3.53598308563232 6.82517385482788 9.60385036468506 8.30013847351074 3.23136162757874 3.32177448272705 5.56528472900391 5.80043077468872 4.51072454452515 5.2585620880127 4.1272349357605 5.25169944763184 5.24651670455933 5.43493986129761 4.36183643341064 3.74340677261353 10.4254140853882 17.5427379608154 8.1776819229126 20.8605003356934 15.4160938262939 31.550651550293 32.5353965759277 19.890661239624 14.2990083694458 10.205283164978 5.00363731384277 13.5523557662964 21.2352142333984 22.3229312896729 30.9942569732666 3.94040751457214 4.40603399276733 4.95971584320068 5.30703783035278 4.45086336135864 5.17048788070679 5.98196744918823 5.19750833511353 5.00265550613403 3.91194677352905 2.56011438369751 1.08633279800415 1.30142509937286 12.8882989883423 2.05999898910522 2.58947134017944 2.06636095046997 0.877389490604401 0.726744413375854 -0.0477960221469402 3.64631366729736 -0.128789484500885 10.3828506469727 0.190630897879601 33.0430641174316 4.20359182357788 18.8630409240723 11.4559345245361 11.3329610824585 20.4384365081787 20.4736309051514 28.5954685211182 17.953784942627 5.07737922668457 24.9945793151855 15.4328746795654 7.9567699432373 1.03282034397125 10.6349277496338 7.79771661758423 5.27360153198242 3.62953782081604 3.93777871131897 15.1359548568726 14.0968265533447 16.6594200134277 12.3914108276367 11.4793682098389 10.5483245849609 8.66439437866211 8.17223739624023 7.42692565917969 7.76242113113403 7.6322717666626 6.96479082107544 6.50332736968994 6.04342985153198 5.2009162902832 5.05641222000122 4.99607801437378 4.77691555023193 5.2267804145813 6.38009071350098 5.97615098953247 5.71145105361938 5.79876089096069 5.76594161987305 5.45112895965576 5.55699110031128 5.43229627609253 5.31428003311157 4.80428695678711 5.43294143676758 6.11330127716064 6.15519237518311 6.68264102935791 6.88156700134277 7.13686609268188 6.7389497756958 7.65772819519043 8.4844913482666 9.35384941101074 9.5850248336792 9.9004602432251 9.48849201202393 9.85491275787354 9.683180809021 10.339563369751 13.8784093856812 13.089882850647 10.3359851837158 12.871148109436
24.7154369354248 27.8200244903564 22.093713760376 14.7875127792358 11.5199851989746 10.9384641647339 9.94161891937256 6.41808176040649 4.01444816589355 4.63181638717651 7.02946090698242 6.10065507888794 4.28257608413696 5.6373233795166 2.26631617546082 3.60032176971436 3.39921641349792 0.2273860424757 0.23505474627018 2.93972301483154 3.27948379516602 4.50060653686523 4.37741565704346 4.51262855529785 4.86725807189941 4.8181848526001 3.9907693862915 4.70254039764404 5.96544933319092 6.21302556991577 5.05083227157593 4.53023052215576 3.99563384056091 3.83390879631042 21.9435272216797 20.419261932373 20.2031421661377 10.4086961746216 1.93002593517303 0.443494558334351 2.02895474433899 3.89904046058655 0.583428561687469 2.72713422775269 46.1966133117676 27.580738067627 20.5458450317383 14.4189386367798 13.025107383728 13.6999931335449 15.6336336135864 3.48747062683105 3.58383345603943 7.14417314529419 10.2703723907471 7.28069686889648 3.39817142486572 3.38135719299316 5.83147859573364 6.11168146133423 4.72781229019165 5.50568628311157 4.37746620178223 5.54924345016479 5.60327100753784 5.78528833389282 5.41910696029663 4.86246824264526 20.1976642608643 32.6314353942871 11.2158355712891 20.6060161590576 22.834545135498 50.3167343139648 32.3910751342773 25.311164855957 17.7241268157959 17.9851512908936 18.872465133667 31.9425315856934 38.5345191955566 40.8810424804688 3.57241320610046 4.84336709976196 4.6840934753418 19.7921562194824 5.46273565292358 5.34315776824951 5.7099871635437 7.08614444732666 5.68382358551025 7.15605545043945 3.82648348808289 2.69958686828613 1.70569455623627 1.85073232650757 2.02147674560547 3.85388588905334 11.2336378097534 2.24286389350891 1.44704353809357 0.899057745933533 0.229799136519432 -0.322232395410538 0.246618658304214 0.0580352656543255 6.83930349349976 0.506648123264313 8.55683135986328 6.10279178619385 8.58925914764404 8.18886089324951 35.0216407775879 10.5518264770508 1.63519752025604 17.2885608673096 33.9815902709961 12.9330015182495 2.47452688217163 14.062479019165 1.07809460163116 32.0292015075684 2.55972790718079 10.7812471389771 3.65926814079285 7.04947280883789 44.5212593078613 19.1519241333008 21.2873878479004 16.1563549041748 13.8216495513916 12.6083860397339 10.093939781189 9.30500221252441 7.74877882003784 8.1368465423584 7.70443773269653 7.29022407531738 6.74642324447632 6.26940202713013 5.41490268707275 5.2423996925354 5.20836925506592 5.13164710998535 5.42775344848633 6.62644004821777 6.28096199035645 6.02723979949951 6.104660987854 6.04563331604004 5.85516881942749 5.65203523635864 5.69337224960327 5.575270652771 5.01614236831665 5.89348602294922 6.44684600830078 6.4849214553833 6.99151802062988 7.04041719436646 7.39557361602783 7.3191990852356 8.97146797180176 8.80766868591309 9.98320007324219 10.6650314331055 10.3276042938232 10.5513906478882 10.732045173645 16.2345714569092 20.5661029815674 18.7688655853271 18.465274810791 10.6741857528687 18.2114486694336
39.7231941223145 25.2459411621094 27.8001613616943 19.0787754058838 13.9104766845703 11.3574514389038 8.53354835510254 7.19918537139893 4.88476896286011 4.9864821434021 7.96706676483154 5.22440004348755 6.39536428451538 6.17874383926392 4.271324634552 3.99999141693115 0.495368272066116 0.288708060979843 0.27613952755928 3.10279846191406 3.44909238815308 4.73742532730103 4.54293966293335 4.7343282699585 5.16992235183716 5.17651891708374 4.27449512481689 5.02586364746094 6.38603353500366 6.61833238601685 5.34712982177734 4.36280727386475 3.64435815811157 4.00942611694336 27.7464981079102 25.2896862030029 25.3533363342285 10.9733457565308 7.87810850143433 2.47917771339417 10.4407653808594 5.14210176467896 2.90830588340759 6.69073390960693 13.1484050750732 44.5116119384766 24.6630401611328 17.894775390625 14.7981233596802 17.1547107696533 19.2219886779785 3.26496648788452 7.58004665374756 8.7012996673584 11.046537399292 7.80092668533325 3.46211886405945 6.16767263412476 6.52708292007446 5.5005087852478 5.01886367797852 5.84911298751831 4.62819385528564 5.96611547470093 5.58471536636353 6.13579416275024 5.64418125152588 5.75807905197144 4.6781644821167 4.31799411773682 7.72129726409912 5.31798601150513 51.0250434875488 40.9593124389648 36.4896850585938 21.4240188598633 22.6444511413574 24.6111698150635 36.5754127502441 52.9748802185059 7.51341104507446 2.90762495994568 4.15695238113403 5.06978940963745 11.6726417541504 5.10283756256104 5.5698299407959 5.53135442733765 6.80377960205078 7.97554969787598 6.7979793548584 8.78499698638916 4.94168710708618 3.64750933647156 1.92541086673737 2.07151865959167 2.03950119018555 5.83909320831299 1.96787858009338 3.43926501274109 2.09845495223999 5.36988353729248 0.403878748416901 0.244220420718193 0.61452704668045 0.52730131149292 0.407883882522583 0.624833762645721 0.711427688598633 12.7895984649658 20.148998260498 14.1964426040649 1.53448176383972 1.62325572967529 1.64109146595001 1.43213796615601 0.953646421432495 0.723024725914001 0.516118943691254 0.727987229824066 1.1368168592453 1.46293389797211 3.34410762786865 3.3626549243927 4.12156009674072 4.65111589431763 4.48117160797119 34.7343673706055 22.8954105377197 15.5785789489746 17.2963104248047 15.7626171112061 12.0610837936401 9.84259128570557 8.08582878112793 8.46978092193604 7.98018550872803 7.54950332641602 6.98497486114502 6.0357780456543 5.55608987808228 5.38369798660278 5.35459136962891 5.38578796386719 5.75094652175903 6.85828685760498 6.53258514404297 6.30274248123169 6.395103931427 6.3210654258728 6.08601713180542 5.88777542114258 5.9489107131958 5.82534122467041 6.1223726272583 6.76406955718994 6.85433387756348 6.8834753036499 7.29880571365356 7.22055625915527 7.61932039260864 8.17319488525391 9.42948722839355 9.39280319213867 10.6963310241699 11.4019823074341 11.0676431655884 11.5710783004761 20.3081283569336 32.6430702209473 39.1558380126953 31.2272052764893 35.6435966491699 29.2771835327148 15.9198923110962
58.399845123291 39.3536796569824 28.3137187957764 22.5978698730469 16.917781829834 13.3555107116699 8.84347438812256 8.17743110656738 5.41636180877686 5.66819763183594 9.5333423614502 1.1933525800705 7.38325214385986 2.20743203163147 4.54410552978516 4.21007823944092 0.498520463705063 0.367858231067657 0.313154458999634 3.64590907096863 4.55747270584106 5.02737617492676 5.056321144104 4.9853687286377 5.50851917266846 5.59311676025391 4.58761024475098 5.37588405609131 6.82563638687134 7.07595062255859 5.68646907806396 4.4873194694519 3.76784229278564 39.4955596923828 36.5603675842285 36.8274536132812 25.0794773101807 13.2203149795532 16.4064788818359 14.173677444458 23.6176738739014 9.73659896850586 6.62085723876953 19.1310863494873 10.0159730911255 12.6110515594482 25.5702571868896 18.7444553375244 25.4360942840576 28.5750045776367 2.75718235969543 3.03472399711609 7.96148061752319 12.3698234558105 11.9913692474365 8.41629981994629 3.50183606147766 6.42302322387695 6.83924198150635 4.85827445983887 5.33274698257446 6.23028659820557 5.68583822250366 6.36896800994873 6.51092052459717 6.39591836929321 5.86905717849731 6.00077962875366 5.93620777130127 29.8560886383057 8.82985496520996 32.5248680114746 26.4381675720215 6.20899438858032 52.699405670166 30.7869739532471 33.6753730773926 43.1813850402832 20.5730934143066 1.9846305847168 2.5012321472168 4.06242084503174 4.75744819641113 4.92298173904419 13.2910823822021 6.04265213012695 5.75419569015503 5.89272356033325 7.95139265060425 9.44552993774414 6.44179201126099 11.4708957672119 6.22344446182251 3.29578280448914 1.94121181964874 4.1838116645813 2.06904625892639 5.61590957641602 2.55500531196594 23.5233936309814 2.65752601623535 1.6891576051712 0.975446581840515 1.22507071495056 1.71740400791168 1.41639602184296 0.922567963600159 0.977292776107788 1.47454369068146 1.60652875900269 10.1989812850952 16.274169921875 2.01366138458252 1.78526985645294 1.68210232257843 1.58382368087769 1.15775954723358 1.0531975030899 0.852336585521698 0.956999361515045 1.43564999103546 2.00340509414673 3.43433022499084 3.88336277008057 4.81540727615356 4.83753633499146 4.99092578887939 24.553316116333 41.0558662414551 13.9684114456177 22.5918369293213 20.6003341674805 15.0239458084106 11.8420915603638 8.71538543701172 8.82747745513916 8.2551736831665 7.79873132705688 7.21646213531494 6.21628999710083 5.60202932357788 5.5127272605896 5.82901000976562 5.67587471008301 6.24033975601196 7.0799617767334 6.75179481506348 6.70257759094238 6.6028995513916 6.57768774032593 6.30052518844604 6.26082468032837 6.02941513061523 6.07318830490112 6.59948110580444 7.13788270950317 7.26579427719116 7.25679302215576 7.61216449737549 7.86249446868896 8.94087791442871 7.97067213058472 9.90878868103027 10.1222219467163 11.562123298645 13.2088375091553 11.9008150100708 21.0455379486084 32.4359588623047 10.6363363265991 18.9743175506592 25.7334251403809 22.259069442749 49.0280876159668 19.4073944091797
-1.44456350803375 56.7032890319824 46.1194839477539 22.7538738250732 21.8612289428711 15.9954528808594 9.56262874603271 5.52372980117798 6.53175735473633 1.56569540500641 11.6819639205933 5.91449117660522 8.70885562896729 2.75939631462097 4.91723537445068 4.69228744506836 0.521296679973602 0.337171524763107 2.69251203536987 3.8977255821228 5.42451095581055 5.35375022888184 5.40887498855591 5.26000547409058 6.35670948028564 4.89503383636475 4.93013143539429 5.78421258926392 7.35016870498657 7.59624242782593 6.06947755813599 4.73713111877441 4.37007188796997 57.7180595397949 54.7799339294434 55.5864486694336 26.4099273681641 24.6983242034912 32.4200248718262 7.0701961517334 20.0797672271729 14.0643243789673 12.2018918991089 0.445387780666351 10.724928855896 17.485595703125 42.0943069458008 18.5962734222412 42.3654251098633 46.4438438415527 2.81274604797363 3.79403162002563 8.48396587371826 13.8646221160889 11.1727933883667 3.39760613441467 3.54438138008118 6.74613952636719 7.21832847595215 5.58114814758301 6.5979437828064 5.37726163864136 6.61592388153076 6.80166959762573 6.90391063690186 6.80664730072021 6.27280759811401 6.09373140335083 6.30475330352783 5.35453939437866 9.90075206756592 50.3902549743652 18.3712139129639 2.05610585212708 3.05889081954956 47.0888442993164 51.698314666748 8.67066287994385 2.59245729446411 4.46338510513306 5.35860109329224 4.51448106765747 5.10644817352295 13.0201253890991 4.97811555862427 6.09650039672852 5.96231460571289 5.99091243743896 14.5748672485352 16.7567501068115 14.502911567688 9.61162853240967 5.92225885391235 3.43751096725464 1.96850597858429 2.27338361740112 2.39984488487244 2.21215748786926 20.5951251983643 2.47907829284668 11.7631330490112 2.25818061828613 1.73926842212677 2.26455855369568 2.52190327644348 1.98391711711884 1.67999505996704 2.08097910881042 2.41978287696838 6.27881765365601 1.94920110702515 1.54499304294586 2.07867836952209 2.20462965965271 2.32921481132507 9.10937786102295 9.24927139282227 1.43614745140076 1.68174743652344 1.19983530044556 2.35437321662903 2.70941281318665 3.96762084960938 3.94895648956299 4.16535425186157 4.89829254150391 12.1559915542603 4.59073781967163 5.74327564239502 32.2413597106934 29.5791797637939 16.2643013000488 19.872766494751 14.8047218322754 10.2302436828613 9.1827335357666 8.47834777832031 7.73987531661987 6.99979448318481 6.00813150405884 5.76875448226929 5.84001350402832 6.2400541305542 6.05672550201416 7.3638219833374 7.02473211288452 6.79780578613281 6.93318748474121 6.85794639587402 6.53612041473389 6.50744390487671 6.49263668060303 6.36640548706055 6.11918067932129 6.90994071960449 7.615638256073 7.59882164001465 7.92295455932617 8.000563621521 8.8618803024292 10.4289054870605 10.2194976806641 10.3425064086914 11.4950227737427 12.5252647399902 23.7127876281738 15.571816444397 11.7086343765259 10.162989616394 10.6875677108765 11.1722393035889 11.0982341766357 10.3467969894409 11.8908710479736 35.5431022644043
5.75352668762207 -1.25687050819397 11.2330169677734 31.1753520965576 24.7112617492676 19.7185039520264 11.2621822357178 6.5565447807312 7.65919828414917 2.30234241485596 14.956826210022 6.75226068496704 10.5352125167847 3.0962085723877 5.40371370315552 5.36957550048828 0.653151035308838 0.427787721157074 2.87559056282043 4.22592449188232 5.76415061950684 5.73913288116455 5.72076272964478 5.59748363494873 6.90531444549561 5.62790584564209 6.63201713562012 8.37591171264648 8.62603855133057 7.46495676040649 6.02853536605835 5.02521657943726 4.39355611801147 -0.300052523612976 22.0327243804932 3.39550280570984 24.4406852722168 41.5646095275879 51.0956954956055 51.6089286804199 2.00662636756897 24.1660118103027 13.4749441146851 2.6239128112793 0.913205921649933 3.35303163528442 5.80778694152832 23.4649124145508 11.1611547470093 1.29881703853607 2.94726252555847 4.1836838722229 9.35493278503418 16.0866107940674 10.5366468429565 3.47745728492737 3.62224864959717 7.16079473495483 7.68077039718628 5.91267919540405 7.02881145477295 5.54844379425049 7.02944803237915 7.25121879577637 7.30770540237427 7.27476119995117 6.53723526000977 6.31726408004761 7.55827665328979 8.84357833862305 15.3120946884155 2.75552725791931 22.2941493988037 2.28298306465149 5.5892767906189 3.09989285469055 2.91819977760315 3.34036064147949 8.44367790222168 5.22748136520386 5.75074672698975 4.69525909423828 12.5649738311768 14.0075950622559 6.37536859512329 6.30797100067139 6.21404647827148 15.4269409179688 23.901065826416 5.31641006469727 19.629186630249 10.6172399520874 4.62341165542603 3.49337983131409 2.9365439414978 2.53183531761169 2.83599805831909 2.59304571151733 2.76089072227478 2.87258696556091 14.4924716949463 2.5760281085968 2.45072269439697 16.7824935913086 2.60331606864929 2.5932924747467 2.70902538299561 3.16144609451294 3.19421696662903 2.77962398529053 2.45875930786133 2.36241436004639 4.74400615692139 2.30937910079956 2.3342068195343 2.21727919578552 2.32494831085205 3.62893962860107 1.89608645439148 2.90478467941284 3.47084331512451 3.49530100822449 4.54565906524658 4.7888011932373 4.8643364906311 5.27045965194702 5.300865650177 5.7664041519165 5.82682275772095 35.8544654846191 49.9124603271484 28.6366100311279 18.0415687561035 19.428466796875 12.264289855957 9.05720520019531 8.38962745666504 7.7646427154541 7.22672367095947 6.19845056533813 6.49982881546021 6.14990043640137 6.69250822067261 6.4488959312439 7.61036109924316 7.26668453216553 7.02944469451904 7.17966985702515 7.10411977767944 6.77385759353638 6.58430957794189 6.68350172042847 6.57773160934448 6.41299915313721 7.19125366210938 7.91696310043335 7.92297649383545 8.51372909545898 8.4016580581665 11.1410341262817 12.8197469711304 11.2268238067627 12.0745763778687 13.6187620162964 14.1164064407349 12.0568552017212 12.0735464096069 13.1093530654907 11.3929758071899 12.081711769104 13.4023723602295 12.7345390319824 15.6368722915649 11.6330995559692 14.3300590515137
-1.3765457868576 0.167847320437431 5.68390941619873 48.942512512207 27.0227279663086 25.2843112945557 13.330753326416 8.0444974899292 9.17954063415527 22.4742832183838 14.4434623718262 7.78196668624878 13.2748327255249 5.91713619232178 6.02753973007202 1.64702808856964 0.947733342647552 0.474726945161819 4.01211261749268 4.48873519897461 6.16245603561401 6.16182422637939 6.06374931335449 7.03678798675537 7.56374788284302 6.12793779373169 7.24589061737061 9.18027591705322 9.4894323348999 7.64401054382324 6.27822828292847 5.29133224487305 4.7348313331604 0.0355972461402416 -0.707364916801453 6.66958522796631 39.7712707519531 0.904571712017059 0.443899840116501 0.36205643415451 23.8383617401123 9.00597190856934 0.504684627056122 7.69978857040405 2.95997071266174 0.837005853652954 10.0642709732056 40.195369720459 18.7837772369385 2.82190322875977 3.01218557357788 10.6690187454224 12.4881553649902 19.5177001953125 12.3109970092773 3.70551776885986 3.72388625144958 7.67314100265503 8.19801330566406 6.21594572067261 7.42433547973633 5.88651132583618 7.47846746444702 7.77930307388306 7.91625642776489 7.88772058486938 6.7880711555481 7.28701257705688 8.08777332305908 9.51352024078369 26.8822994232178 3.90776634216309 0.206773981451988 2.41418671607971 3.70671224594116 5.00360536575317 7.59693145751953 5.96574068069458 4.90934896469116 5.10085582733154 5.88029479980469 5.3363995552063 26.3110485076904 5.54575061798096 6.73992729187012 6.89647674560547 6.80920886993408 23.4500560760498 5.18935012817383 5.06537628173828 4.32281351089478 8.29106521606445 4.48929834365845 2.83383679389954 3.35327744483948 3.1174693107605 2.92539501190186 2.8976936340332 2.84376120567322 3.13046431541443 3.28690481185913 3.11595273017883 2.75796818733215 2.60976433753967 2.87997078895569 2.83501100540161 2.99486184120178 3.41307330131531 3.70415496826172 3.26644921302795 3.13975644111633 3.00482058525085 3.00434017181396 3.07528901100159 9.28482627868652 12.2878437042236 2.45052123069763 2.32576274871826 3.23046803474426 3.92612957954407 14.4311571121216 4.92005014419556 12.4666061401367 13.7322473526001 9.64725303649902 5.54669046401978 5.7258095741272 6.02783823013306 7.80273580551147 5.65756130218506 6.69058179855347 48.8251953125 28.1053276062012 17.4640712738037 15.2048053741455 9.17732429504395 8.68228721618652 8.03762531280518 7.36906385421753 6.60384893417358 7.15458631515503 6.59535217285156 7.20160245895386 6.89999628067017 7.88026714324951 7.51683235168457 7.27827024459839 7.45338249206543 7.34801769256592 7.00755739212036 6.80065107345581 6.89321517944336 6.78088808059692 6.70864629745483 7.71953201293945 8.25148963928223 8.42762279510498 8.89584064483643 8.76392841339111 14.2577781677246 16.3981342315674 12.6621789932251 15.1435070037842 16.3521709442139 15.4791822433472 23.6386947631836 15.889045715332 17.6638317108154 14.7081050872803 16.7690277099609 14.4134540557861 13.1490240097046 16.9996433258057 12.9802236557007 19.1809997558594
-1.03883337974548 -0.981513559818268 10.516001701355 9.476975440979 34.905200958252 22.0295600891113 16.5652637481689 9.41137599945068 11.3581705093384 39.9179420471191 12.4570770263672 19.4071521759033 13.7145433425903 6.67806339263916 6.87450361251831 1.71991336345673 1.55969846248627 0.518770098686218 4.27138376235962 4.83062934875488 6.95838737487793 6.55546188354492 6.68310928344727 7.64433336257935 8.4639835357666 6.78349113464355 8.00086402893066 10.1790475845337 10.5843114852905 8.46700477600098 6.54050254821777 4.88262939453125 5.07788991928101 0.234602093696594 1.643226146698 -0.188794568181038 7.614089012146 3.54183983802795 2.64732623100281 0.93821120262146 0.1768549233675 0.322150945663452 0.934174299240112 20.6423320770264 14.5982637405396 1.08114540576935 17.8625450134277 31.0213584899902 20.8156681060791 2.92493629455566 3.1392936706543 12.3297567367554 14.1304321289062 24.1687870025635 14.9787950515747 3.81860423088074 8.24627208709717 8.81633758544922 7.26916885375977 6.59883689880371 7.88347482681274 6.25441455841064 8.4817943572998 7.47083330154419 8.59041023254395 9.04646110534668 7.05334615707397 7.82559394836426 8.71114063262939 13.6938352584839 10.2909708023071 4.96867322921753 4.13998174667358 2.92860150337219 14.1531400680542 16.9163722991943 9.7012357711792 9.33322906494141 9.33641624450684 7.78197526931763 5.60051727294922 6.01462078094482 5.30772972106934 10.8827495574951 7.79258871078491 7.25981140136719 7.58787775039673 5.42840480804443 10.470067024231 5.22374296188354 4.49384307861328 3.92601609230042 5.0184383392334 2.77524471282959 3.43124842643738 3.55475854873657 3.6158812046051 3.58394694328308 3.37257385253906 18.8058547973633 3.37918877601624 3.64912676811218 3.88967967033386 4.05607032775879 3.3618004322052 3.47024631500244 3.50802516937256 3.71322464942932 3.98283958435059 3.75324177742004 3.2688627243042 3.52762365341187 13.016263961792 15.7776746749878 26.6466636657715 2.5686366558075 2.31420564651489 3.38016271591187 6.09218406677246 5.47779226303101 5.57939100265503 5.46891260147095 4.69402313232422 5.38682460784912 5.75872182846069 5.64243125915527 5.84721326828003 6.80505037307739 19.2233180999756 7.19446992874146 9.81811428070068 7.28931474685669 47.8625869750977 20.1495590209961 19.7506618499756 9.51234912872314 9.25174140930176 8.32948780059814 7.29750299453735 7.26626777648926 7.95096969604492 7.15652227401733 7.78524541854858 7.42868614196777 8.16417598724365 7.79427576065063 7.54042291641235 7.71166276931763 7.61348438262939 7.26016712188721 7.05305624008179 7.10797262191772 6.9833812713623 7.71588373184204 8.51528739929199 8.58760929107666 8.76454925537109 9.25959777832031 19.5363845825195 18.2399559020996 20.8873672485352 14.990571975708 19.1452159881592 20.3230037689209 16.6157627105713 32.9650993347168 21.4283294677734 17.7886695861816 21.2119789123535 14.9436206817627 16.6639823913574 15.8592147827148 19.2613067626953 15.096531867981 20.7712345123291
-1.0020467042923 7.25295114517212 3.32957601547241 9.40058040618896 53.0814552307129 22.2906703948975 21.283052444458 11.3549299240112 14.8621826171875 -0.0256888810545206 1.30209171772003 35.3107757568359 3.99502182006836 7.73808717727661 8.01616382598877 1.68916261196136 1.83397567272186 0.795939385890961 5.49888896942139 6.77989292144775 7.60843181610107 7.33558559417725 7.2896580696106 9.96720123291016 6.84439611434937 7.64692735671997 8.99732398986816 11.3766527175903 11.7484426498413 9.51092720031738 7.39612531661987 5.20598745346069 5.48433351516724 0.283382654190063 -0.297520160675049 3.92059421539307 0.629967629909515 4.08481311798096 2.24333667755127 20.2538909912109 18.9674682617188 1.40415394306183 1.09235608577728 0.611028373241425 0.667363166809082 5.40596055984497 0.952679514884949 0.585138559341431 14.0532741546631 3.60673880577087 7.63632011413574 14.1833572387695 35.1035308837891 27.1368751525879 19.0207710266113 3.9028787612915 8.84751796722412 9.53178691864014 6.35704183578491 7.06544303894043 8.42403984069824 7.92333555221558 9.08234024047852 8.97999477386475 9.23794174194336 10.6327962875366 7.31278562545776 8.39353656768799 11.9029417037964 15.2596759796143 16.5498218536377 6.80044364929199 5.82572650909424 4.82278966903687 7.45757913589478 11.143253326416 10.5265188217163 9.56279182434082 9.31237506866455 15.4817295074463 6.2137188911438 11.6565132141113 6.78383159637451 9.16183185577393 9.57207298278809 8.64764022827148 7.9081883430481 6.15005970001221 5.60183477401733 5.75054407119751 5.90452289581299 5.64792442321777 4.18968152999878 3.67876935005188 3.37703847885132 3.64733695983887 4.00173473358154 3.98841881752014 3.91670870780945 4.10737180709839 3.79506373405457 9.03359317779541 4.11199998855591 4.31174421310425 4.22669076919556 3.58537912368774 4.30490207672119 4.40192604064941 3.943678855896 3.63685917854309 4.50656270980835 9.02186584472656 13.5894908905029 9.33779811859131 2.96760749816895 2.65770649909973 7.58956384658813 5.94404029846191 9.48247241973877 6.48599529266357 5.31018543243408 5.55752611160278 5.74620771408081 10.7595949172974 5.97672033309937 5.76280164718628 6.01137542724609 7.12868404388428 6.54135036468506 8.35783386230469 7.54547929763794 23.7771778106689 7.46517276763916 28.8841781616211 13.5922355651855 11.1510362625122 11.0935173034668 8.91632652282715 8.17465686798096 8.06768417358398 8.91447639465332 8.638840675354 8.12315273284912 8.0334587097168 8.46925830841064 8.24515438079834 8.07153606414795 7.96197986602783 7.87304735183716 7.50239706039429 7.37456274032593 7.13395214080811 7.39361333847046 8.10762023925781 8.82276248931885 8.99633884429932 9.62211799621582 9.64517688751221 35.3324928283691 31.5108623504639 22.834846496582 29.3094863891602 30.7693576812744 19.584451675415 18.3920440673828 16.6777515411377 21.7333393096924 14.7318859100342 15.0201597213745 20.2120552062988 18.6656761169434 18.7913227081299 21.9997711181641 42.8880462646484 34.6873741149902
-0.406697183847427 31.6242141723633 -1.09062945842743 -0.430461853742599 -0.671194672584534 29.3434295654297 12.4610395431519 22.8222103118896 2.63434505462646 0.00114703946746886 20.3284587860107 2.72929358482361 7.18276453018188 9.34566688537598 9.50833034515381 1.46150732040405 1.84389674663544 4.20989656448364 6.09134244918823 8.04016780853271 8.42121028900146 8.06804370880127 8.084303855896 11.6331901550293 9.16562557220459 10.8662042617798 13.5234546661377 13.9191589355469 11.9660224914551 9.50583839416504 7.70257425308228 6.49215221405029 5.6081485748291 0.964797139167786 0.0331137329339981 -0.0176005717366934 2.80732941627502 2.79975295066833 2.40208792686462 35.6821517944336 1.03378915786743 2.15995812416077 1.65724885463715 1.05498313903809 1.17912673950195 7.7949800491333 5.46988964080811 9.38322353363037 7.13293838500977 4.0135760307312 11.3346529006958 17.1827373504639 54.7993392944336 28.0992622375488 5.49476957321167 4.02561235427856 9.62816524505615 10.4026155471802 7.52440929412842 8.97157382965088 7.04623985290527 9.03823757171631 9.76947402954102 9.53940868377686 9.95403575897217 12.8690805435181 7.57711696624756 10.6701536178589 13.1129446029663 17.3729000091553 19.110372543335 14.1602907180786 11.3901844024658 5.24000835418701 27.2381076812744 13.5075550079346 11.2876443862915 10.5850505828857 10.8139314651489 4.39467191696167 6.9045672416687 7.08606672286987 16.0577697753906 15.9720163345337 10.3226699829102 9.99716663360596 9.28911876678467 6.50194454193115 6.1405086517334 6.02970886230469 6.68091487884521 6.69024324417114 4.54831743240356 3.93634629249573 3.49092793464661 3.88547945022583 4.09921312332153 4.534743309021 4.57407903671265 4.98978805541992 4.50515413284302 4.26271772384644 18.3994541168213 7.38109827041626 13.8571062088013 4.84503316879272 4.58577060699463 4.77053117752075 4.60319519042969 4.77938985824585 4.6353611946106 5.67215204238892 5.31286859512329 14.0294675827026 15.3820676803589 26.2224884033203 10.2421274185181 18.5646572113037 16.9240531921387 6.78454303741455 6.12957906723022 5.91694974899292 5.95541334152222 6.4936089515686 7.24400758743286 7.56697463989258 7.88541316986084 8.13980197906494 7.55201482772827 9.53036975860596 8.23213386535645 7.16192054748535 8.1835470199585 48.0599708557129 16.6175727844238 13.8132934570312 13.7000427246094 11.0575523376465 9.39443111419678 10.4210548400879 8.67331027984619 9.490159034729 8.90827083587646 8.91914939880371 9.11629199981689 8.16339778900146 8.3740406036377 8.26082229614258 7.87276792526245 7.63002920150757 7.59537649154663 7.51814651489258 7.69712162017822 8.456374168396 9.15990447998047 9.40782165527344 10.78244972229 10.1704587936401 19.3110427856445 50.2635307312012 39.4848327636719 48.030460357666 49.8750686645508 24.8878269195557 22.3763961791992 12.151668548584 12.5415191650391 15.8953304290771 18.9713268280029 30.2875156402588 31.4518566131592 34.006893157959 22.9622478485107 21.0686817169189 15.1535787582397
11.9243478775024 -1.44402730464935 3.7845311164856 17.391508102417 1.43120336532593 46.6285743713379 21.8473720550537 40.7839508056641 10.0606021881104 0.22794571518898 37.3827247619629 -1.03495705127716 15.5145301818848 12.1308860778809 11.9842500686646 0.694282054901123 0.531264185905457 4.51871633529663 6.79465866088867 8.80681705474854 9.72144985198975 8.91230392456055 11.260835647583 13.8344421386719 10.6784286499023 12.5369071960449 15.4355506896973 15.9836587905884 14.6717863082886 10.72105884552 8.68536853790283 7.21131896972656 5.96829605102539 4.82289266586304 4.05361032485962 3.43533039093018 3.11141443252563 2.97212243080139 2.45547533035278 1.20015895366669 3.0947573184967 2.86077189445496 2.50387167930603 1.49984860420227 1.47231924533844 1.07190573215485 1.04334151744843 1.26032042503357 3.14881873130798 3.33927750587463 7.58973741531372 19.3916797637939 10.530553817749 45.8016014099121 6.48086881637573 4.10057735443115 10.5932941436768 11.4539804458618 8.11232280731201 9.65530490875244 7.41545867919922 9.60232257843018 10.4479484558105 11.0230703353882 18.2152423858643 7.95209789276123 9.99333953857422 11.4013357162476 14.4364862442017 20.0964469909668 22.9309406280518 18.0219039916992 15.7307071685791 19.3235168457031 5.1062068939209 17.2155876159668 14.1236448287964 13.2232160568237 13.1901760101318 6.74644899368286 7.80558443069458 8.814621925354 6.32612180709839 28.6134662628174 12.6143741607666 11.8905649185181 11.0512838363647 8.0683708190918 5.85284519195557 5.95517826080322 7.84283447265625 6.43033838272095 4.95863103866577 4.23108720779419 3.8396954536438 4.00249433517456 4.20922374725342 4.73399066925049 4.75538015365601 5.13890314102173 4.83661937713623 5.01628923416138 4.72400808334351 4.75362348556519 16.6320037841797 5.60945606231689 7.86859369277954 5.49045705795288 5.92656087875366 4.92544031143188 4.78008365631104 4.38714122772217 3.55433177947998 3.0083475112915 2.85723805427551 2.56572794914246 2.43144726753235 3.80752539634705 4.70299100875854 7.14429569244385 6.64421081542969 6.07455635070801 6.87222051620483 7.10193920135498 8.04122161865234 7.34088611602783 8.09227752685547 8.75238132476807 8.52247905731201 9.49519729614258 9.92050457000732 9.47882843017578 8.18377113342285 8.82065963745117 30.5646648406982 17.8422756195068 17.7007236480713 14.4307651519775 11.6651792526245 12.0662364959717 9.9614315032959 10.4760761260986 9.73198413848877 9.73628902435303 9.94764137268066 8.83200263977051 8.70892524719238 8.57483673095703 8.18338108062744 7.92601203918457 7.82800674438477 7.81798315048218 7.98825883865356 9.03366661071777 9.64109516143799 9.84510231018066 12.0569171905518 11.8912239074707 8.07380390167236 6.854905128479 15.7184000015259 11.5169534683228 13.7828636169434 36.356201171875 25.900857925415 21.8605899810791 22.8527698516846 21.1167697906494 30.1603927612305 20.3632774353027 21.0114059448242 23.2068004608154 25.3705654144287 19.2184085845947 18.2250900268555
0.0388826914131641 -0.359395354986191 -0.832219243049622 -1.06467187404633 -0.41848960518837 0.061162531375885 36.1613426208496 0.628690302371979 13.518138885498 1.9118127822876 -0.91234165430069 1.59928035736084 11.9074945449829 18.9446868896484 -0.139708876609802 -0.228742778301239 0.52479499578476 5.98764848709106 7.57776355743408 11.1711797714233 11.2848205566406 10.9138240814209 13.146092414856 17.0688858032227 12.5750980377197 14.5514249801636 18.1758251190186 19.2196025848389 18.7833194732666 12.7127256393433 8.06407451629639 8.09339904785156 6.04528379440308 5.26159811019897 4.35836124420166 6.21114587783813 5.23530626296997 2.6530237197876 2.55685305595398 1.65106153488159 3.26633429527283 3.25126051902771 3.81769895553589 2.20533013343811 1.24758398532867 1.24734020233154 8.96086120605469 2.0717191696167 3.29847264289856 3.16202831268311 24.4660263061523 29.3043422698975 0.403790861368179 1.49786615371704 5.02829074859619 11.8697671890259 12.834454536438 10.0234231948853 8.67691326141357 10.1686811447144 7.71906757354736 11.5052518844604 9.58217144012451 12.1947898864746 31.0365600585938 8.79340839385986 10.438738822937 12.5364933013916 16.9439563751221 34.5244102478027 27.5160789489746 24.6162567138672 32.9117126464844 35.0975341796875 21.6883068084717 22.7945766448975 18.2053298950195 17.2112064361572 18.3590393066406 13.8959102630615 8.24349880218506 12.8679132461548 7.57178068161011 7.23847723007202 16.2511730194092 14.6803541183472 13.6527557373047 9.46510124206543 9.91856002807617 7.89784526824951 9.13686180114746 8.01923751831055 3.73049306869507 4.53819799423218 3.94615459442139 4.11441230773926 4.33921051025391 4.87420034408569 4.8376989364624 5.28718996047974 5.18310308456421 5.42818403244019 5.87287712097168 4.95607089996338 4.56087446212769 17.1092433929443 28.7715187072754 17.1651973724365 13.7153568267822 9.60311031341553 6.08436346054077 7.51970815658569 3.9432327747345 3.5252890586853 3.18163967132568 2.96749258041382 3.86585879325867 4.48125267028809 5.60015964508057 7.86924982070923 7.67102813720703 7.49978923797607 7.36773586273193 9.11588096618652 10.0682783126831 9.87660312652588 10.05224609375 9.71995162963867 11.0905818939209 11.2273721694946 9.9601993560791 10.7975625991821 9.68172645568848 10.385458946228 11.2661924362183 26.5056667327881 22.1049652099609 16.9774990081787 15.0301303863525 14.3363761901855 11.534592628479 11.671443939209 10.7090015411377 10.7062568664551 10.9221782684326 9.61566543579102 9.04176425933838 8.91216659545898 8.47982215881348 8.22062206268311 8.04587459564209 8.09039878845215 8.92428588867188 9.81451988220215 9.92555236816406 10.0963516235352 13.4771213531494 14.1618747711182 9.0488862991333 8.0109224319458 13.1763200759888 21.8429946899414 22.7371292114258 28.281135559082 24.2346858978271 21.9340572357178 25.7050342559814 26.1235389709473 23.0760517120361 22.3361644744873 22.7340450286865 24.1946678161621 19.0350322723389 22.7218894958496 21.8680458068848
0.513263761997223 0.182749226689339 0.17425249516964 0.764157950878143 -0.277716726064682 32.7798194885254 10.0161790847778 3.47969937324524 0.88825398683548 1.82614755630493 12.752516746521 -0.599912822246552 28.5208721160889 35.7378005981445 -0.14500381052494 -0.226923927664757 0.616534531116486 9.01780223846436 10.8362169265747 12.9327535629272 13.4896802902222 12.7578573226929 15.7864074707031 21.7603511810303 15.1345739364624 17.6764640808105 29.7044448852539 28.8086185455322 19.0371170043945 15.5521631240845 8.5522346496582 9.14926147460938 6.39207410812378 5.61697196960449 4.86106634140015 13.5462341308594 12.6079406738281 2.97164916992188 2.80193567276001 3.40859055519104 3.05191159248352 3.80233955383301 4.08525085449219 2.2734158039093 24.2790412902832 3.28926801681519 2.24872159957886 3.26051235198975 3.47737836837769 3.40893483161926 42.6119232177734 47.262866973877 0.527234375476837 7.98709964752197 6.81159019470215 13.4485664367676 14.4788150787354 8.8034839630127 9.0788516998291 10.3575439453125 9.99060344696045 12.5977535247803 12.2063894271851 13.8453950881958 6.11911153793335 9.12233066558838 11.2944593429565 14.3162984848022 34.9873809814453 52.6225509643555 46.1201858520508 43.012077331543 52.4778709411621 26.5658569335938 18.9224166870117 24.9071979522705 23.9046688079834 23.0043106079102 35.3166427612305 14.7014083862305 12.2150421142578 14.2934646606445 20.0753555297852 18.3463764190674 26.3188419342041 18.8244495391846 17.5698013305664 11.7932605743408 11.8326063156128 13.7531118392944 12.5837383270264 6.83268117904663 3.64941549301147 4.88947820663452 4.05956840515137 4.5204701423645 5.0547571182251 4.85688972473145 4.99864196777344 5.45159721374512 5.41184568405151 5.65338039398193 6.19194889068604 5.72528266906738 5.72523832321167 5.11112880706787 4.97212791442871 5.25487995147705 5.06047201156616 15.6037244796753 13.0114517211914 4.8550500869751 8.32786560058594 3.85402774810791 3.7115695476532 3.33937907218933 5.66180229187012 6.23477220535278 8.39745807647705 9.14975929260254 12.7535457611084 13.6071186065674 10.1235637664795 11.0303478240967 11.2913818359375 11.765305519104 12.4082822799683 12.2477102279663 13.0270900726318 13.060115814209 12.7671699523926 13.8649702072144 26.4189872741699 17.566291809082 18.613842010498 26.0048809051514 38.3126373291016 22.9594268798828 16.8052425384521 17.5766181945801 13.6387386322021 12.5446043014526 12.3152017593384 11.8854598999023 12.0685548782349 10.4491491317749 9.32283878326416 9.13684844970703 8.69248390197754 8.15015125274658 8.23210906982422 8.35583591461182 9.25082302093506 10.0836200714111 10.2127647399902 12.814887046814 19.0516700744629 15.6596326828003 26.8020801544189 23.6852722167969 27.4348449707031 36.6102447509766 16.3214130401611 19.2346229553223 25.9723148345947 26.894889831543 28.2477474212646 24.5596370697021 24.0453968048096 24.5924015045166 31.5391979217529 28.1255474090576 21.273473739624 21.7013263702393 20.5965251922607
1.29938411712646 1.68138897418976 1.76967298984528 1.77744233608246 0.599341630935669 0.62981778383255 0.4718237221241 1.8798588514328 2.3383412361145 1.58280396461487 -0.103009551763535 0.440870106220245 -1.1941442489624 -1.1643522977829 -0.116462223231792 -0.249884188175201 6.45788526535034 10.1666593551636 12.6432447433472 15.1691150665283 16.372673034668 15.1887245178223 33.1455383300781 16.0722312927246 19.70046043396 22.7492084503174 48.9747772216797 47.8287925720215 24.2075157165527 19.9627552032471 11.0371313095093 9.41736602783203 7.32551193237305 6.23002815246582 5.45153713226318 3.35527062416077 2.40383672714233 3.07736825942993 3.18270325660706 3.64402270317078 3.25026726722717 4.03465461730957 4.35785245895386 3.98912024497986 2.66034483909607 3.39597630500793 4.56392621994019 4.79133987426758 3.75960731506348 3.82040047645569 1.05592381954193 0.730622828006744 3.44144749641418 3.53348875045776 4.14035987854004 15.4452390670776 16.7947959899902 10.4625453948975 12.1452779769897 8.12132740020752 11.5402059555054 14.4163637161255 11.982629776001 16.0696830749512 8.52439498901367 9.98349189758301 13.4526643753052 29.5842933654785 53.46142578125 3.59860610961914 9.80078220367432 17.0800037384033 6.29162311553955 3.738116979599 20.8728179931641 32.9018402099609 31.3062400817871 31.3771877288818 18.6995754241943 16.3325996398926 16.9104499816895 14.4551725387573 44.3018646240234 43.7383422851562 15.903977394104 26.5894546508789 17.886043548584 16.3388118743896 23.8095874786377 24.1681289672852 15.5361976623535 8.5485315322876 5.38593196868896 3.8671407699585 4.1876802444458 4.65405941009521 5.23381996154785 5.18270111083984 5.64916563034058 4.99507665634155 5.59909391403198 5.88181686401367 6.5254979133606 6.05606985092163 5.84552717208862 5.95614385604858 6.1461443901062 6.01657915115356 5.72468948364258 4.78808784484863 4.81668901443481 19.589183807373 27.311487197876 20.3296070098877 7.25117158889771 4.66684246063232 7.01964235305786 8.54291915893555 10.5958366394043 18.2767372131348 20.7705497741699 18.6865978240967 14.0925245285034 12.6446943283081 11.8812732696533 12.5669202804565 13.1065511703491 13.1424684524536 13.9708671569824 13.7079563140869 14.6601514816284 21.8947925567627 10.7461214065552 10.9858255386353 9.43842315673828 8.43724536895752 8.44959545135498 39.6294288635254 17.6440544128418 22.1518287658691 16.5516624450684 14.7104959487915 14.0936822891235 14.0001811981201 11.0648031234741 11.3787851333618 9.62474918365479 9.17021179199219 8.81378936767578 8.52355670928955 8.2526216506958 9.00763988494873 9.48973846435547 10.3621826171875 10.788779258728 14.0410537719727 30.2270278930664 23.5283164978027 12.1526403427124 36.1766014099121 19.7176380157471 15.4420957565308 19.5883617401123 27.2840938568115 30.1634616851807 32.3732795715332 31.2176685333252 29.6047420501709 25.8431282043457 25.3061447143555 26.7773990631104 28.1162166595459 27.6198139190674 18.6643314361572 32.8988647460938
1.85482609272003 2.74376678466797 2.39179968833923 2.41444516181946 1.50793898105621 1.93936681747437 1.78390097618103 1.64128911495209 1.44253170490265 1.60365211963654 1.21366667747498 0.728925406932831 0.633363544940948 0.453214377164841 0.067748561501503 1.35394608974457 7.62767553329468 11.7714986801147 14.6282291412354 18.5419216156006 20.8747024536133 26.3511142730713 52.160285949707 30.5083084106445 34.5168342590332 40.8267402648926 17.6071605682373 10.9364557266235 30.6659660339355 17.6742916107178 12.7986373901367 9.88877296447754 7.99490022659302 6.51946640014648 6.11863660812378 5.25574159622192 3.96400356292725 3.62811470031738 3.2801787853241 3.92061853408813 3.51985740661621 4.24513244628906 4.62498617172241 4.24006366729736 4.1278395652771 5.45920133590698 4.90815210342407 5.11488389968872 4.45255184173584 5.19605350494385 4.63583898544312 1.34857094287872 3.99450850486755 3.95542049407959 4.23516941070557 18.3225708007812 20.0616397857666 11.8081302642822 13.825439453125 9.38862133026123 12.9480094909668 16.5819244384766 15.5229568481445 19.7398109436035 9.32413005828857 13.9270792007446 25.8721809387207 47.4007682800293 2.5759391784668 4.25214338302612 13.8258447647095 6.65474987030029 4.66037607192993 7.13985967636108 7.02972602844238 53.0831069946289 51.6288032531738 51.1034774780273 9.10171222686768 14.1596670150757 9.09670734405518 13.4607152938843 6.78554010391235 6.61526775360107 32.537166595459 31.7696781158447 19.3508224487305 16.4906978607178 11.6244087219238 6.88439178466797 9.72152042388916 8.90188694000244 5.9277982711792 4.07017517089844 4.53408527374268 4.80556917190552 5.58715152740479 5.4593768119812 5.82671403884888 5.14870929718018 5.84835004806519 6.50422334671021 6.76179456710815 6.36781358718872 6.19784879684448 6.02877950668335 6.20637321472168 6.05708503723145 5.79942274093628 5.66476774215698 5.06453514099121 4.61154270172119 4.04430150985718 4.05618190765381 4.88648462295532 6.66274833679199 21.9085750579834 12.135404586792 18.943359375 35.8462753295898 40.4484634399414 32.0675506591797 19.5321292877197 16.0472068786621 12.5449867248535 13.2245855331421 13.9981117248535 14.7987337112427 14.8133935928345 14.805736541748 13.1530513763428 11.5276432037354 11.97620677948 10.0996122360229 9.12727832794189 8.58744049072266 7.81912994384766 6.63086175918579 31.5848388671875 20.6920986175537 20.8045978546143 17.6633358001709 16.2641620635986 15.7880077362061 13.0655708312988 10.9980421066284 9.95191192626953 9.47373294830322 9.0361213684082 8.67220592498779 9.03191947937012 9.26033973693848 10.0751943588257 10.6477546691895 11.1719512939453 25.8257026672363 9.976149559021 12.0205698013306 13.5890607833862 33.5155181884766 15.884669303894 29.7750549316406 26.2626705169678 22.1993637084961 25.8152542114258 32.4959373474121 27.9530601501465 27.726619720459 27.5315418243408 23.8559093475342 29.1772842407227 12.8852024078369 40.2077598571777 5.59657192230225 -0.29656583070755
2.48639631271362 3.38952493667603 3.37956070899963 1.95572197437286 2.0064868927002 2.06099319458008 1.88787353038788 1.61549961566925 1.5434056520462 1.05033886432648 0.883482754230499 2.4398250579834 1.3025985956192 0.478738337755203 0.776558637619019 2.68921375274658 9.17734336853027 14.1034297943115 17.7639636993408 31.2651538848877 27.3344993591309 44.5797080993652 2.34965085983276 49.5943069458008 53.958683013916 60.0350952148438 20.057258605957 26.1988620758057 50.0469627380371 22.6234817504883 15.1888065338135 10.4503879547119 8.98513698577881 7.49463939666748 6.49538612365723 5.93210506439209 4.47992467880249 4.05455684661865 3.57766079902649 4.23348474502563 3.7252368927002 4.47051954269409 4.88706970214844 4.4920220375061 5.89211177825928 5.31443166732788 5.54785251617432 4.43822813034058 4.8175802230835 5.69004678726196 5.52791833877563 4.98068571090698 4.70852565765381 4.76149559020996 4.70559406280518 23.271032333374 24.9973125457764 13.5968589782715 16.1239109039307 11.316123008728 15.2575311660767 20.5403919219971 28.9526748657227 12.0169038772583 17.9669075012207 26.3270168304443 43.5640640258789 4.23826169967651 2.66376876831055 5.25866889953613 5.41551733016968 6.65783309936523 4.44368886947632 19.1436443328857 7.87085103988647 3.87940573692322 4.15745639801025 5.31629371643066 12.8468189239502 10.1943435668945 7.5868968963623 7.07082223892212 9.26613521575928 12.8269891738892 6.22614431381226 6.64193248748779 11.8224906921387 13.7446632385254 12.7964038848877 14.2460908889771 9.20555114746094 9.17242813110352 6.54583168029785 4.47372245788574 4.68107652664185 5.07387447357178 5.77408695220947 5.72272109985352 6.22273540496826 5.86534547805786 6.01122808456421 7.0033745765686 6.66850662231445 6.62423086166382 6.54101991653442 6.2880220413208 6.46719837188721 6.29041433334351 5.95692014694214 5.76981401443481 5.63340187072754 4.52965450286865 4.25750398635864 5.25842380523682 8.19460105895996 8.87918186187744 9.25249195098877 20.9473438262939 38.285228729248 8.83858203887939 8.25221347808838 8.12527275085449 20.571117401123 19.3420009613037 17.9322376251221 15.0168170928955 14.9007577896118 15.672924041748 23.257194519043 16.3146209716797 14.8579549789429 13.2929620742798 13.4350309371948 11.5351705551147 10.8397035598755 9.01945114135742 10.6411952972412 10.1737098693848 50.8177909851074 30.3600273132324 22.7901573181152 21.5792331695557 19.0172786712646 17.9539413452148 14.573260307312 10.5095319747925 10.2929048538208 9.80559921264648 9.31429672241211 8.93235301971436 9.32382583618164 9.56593894958496 10.6644592285156 11.4340038299561 12.2660722732544 41.7206726074219 10.1692924499512 11.363184928894 14.8584394454956 10.4726362228394 28.5938873291016 25.7500381469727 28.0612869262695 17.7791957855225 16.3853187561035 15.967303276062 19.6185989379883 27.9292640686035 26.1479110717773 18.0269050598145 33.7586669921875 23.8924942016602 5.79447650909424 12.1912269592285 4.43723297119141
