NCOLS 175
NROWS 31
XLLCORNER 353808
YLLCORNER 6701184
CELLSIZE 16 
NODATA_value -3.4e+38 
6.55630016326904 9.24597358703613 17.7441577911377 28.7978343963623 32.5336418151855 35.2098922729492 30.268138885498 24.4881820678711 18.7052097320557 15.8849668502808 19.006477355957 8.34078025817871 7.88282442092896 13.8671083450317 4.61977338790894 2.32017612457275 26.1733551025391 8.22568035125732 -1.47295224666595 1.27760219573975 3.33506655693054 1.70010578632355 16.9863395690918 19.4097518920898 6.66645240783691 8.16609001159668 14.6112880706787 7.94706726074219 13.2884206771851 17.5808849334717 44.6179275512695 19.3933734893799 43.320556640625 28.9569396972656 16.5101890563965 15.1101541519165 12.0496225357056 10.1656293869019 10.6873359680176 7.51257705688477 12.9414157867432 2.20383405685425 -1.03926146030426 7.88801050186157 8.06181812286377 22.3838500976562 18.3993301391602 28.8566474914551 5.30725002288818 9.19969367980957 4.84068727493286 4.338210105896 3.732745885849 21.4209747314453 19.8215274810791 12.2483434677124 12.2847757339478 8.70502185821533 2.50756883621216 2.50670719146729 5.39418792724609 12.5981473922729 45.4976615905762 -2.87849545478821 -2.84111976623535 -2.23041582107544 -2.20594906806946 -1.32513725757599 -2.71890735626221 -3.13130617141724 -2.32315802574158 -0.642564117908478 -0.698654890060425 0.288356125354767 -0.246945485472679 1.25203323364258 14.5853519439697 0.95295923948288 2.02419090270996 0.411786198616028 0.415353000164032 0.47484502196312 0.55083817243576 0.787141859531403 0.866605997085571 1.25546586513519 2.68020391464233 3.64188933372498 3.84121584892273 3.70871329307556 2.79084658622742 2.81467914581299 2.15914988517761 2.150395154953 2.20969796180725 2.14682126045227 1.67973649501801 4.53566265106201 1.67349219322205 3.58192753791809 1.65339982509613 16.4133472442627 29.5242557525635 1.17127573490143 4.87905073165894 4.91680908203125 2.36905121803284 2.26031351089478 2.59491395950317 2.1885130405426 2.50026106834412 4.27993679046631 3.29217290878296 3.23014664649963 3.10729074478149 1.93679165840149 2.71278214454651 3.09778928756714 2.66707587242126 3.02659630775452 2.53013467788696 2.81263566017151 5.30324029922485 1.22064030170441 2.55345177650452 14.015814781189 27.3773212432861 10.5205869674683 10.8761463165283 4.15220546722412 3.73068118095398 4.05229759216309 7.97045373916626 32.8912582397461 5.7592568397522 6.18911218643188 5.64266109466553 5.53294515609741 5.91343021392822 5.58303833007812 5.3338565826416 4.60223388671875 3.92248630523682 2.92523694038391 3.0177686214447 2.48527717590332 2.25821542739868 2.40202641487122 2.22717499732971 2.39264321327209 3.41105556488037 3.55304598808289 3.79312229156494 3.71081590652466 2.46208381652832 1.81655597686768 1.48049676418304 1.12585282325745 -0.45284640789032 -0.673872828483582 1.66894626617432 -0.109828762710094 -0.444419950246811 0.170064121484756 0.0375605784356594 0.0481791943311691 0.0579612068831921 0.0580343566834927 0.0627648085355759 0.0680628791451454 0.0714245364069939 0.0759672224521637 0.08094821870327 4.19927740097046 8.78775787353516
7.34087991714478 10.5466461181641 25.2213973999023 31.5033912658691 50.1435928344727 52.1020088195801 31.7660064697266 22.4033184051514 30.6722316741943 22.9235019683838 31.5988712310791 11.5611944198608 11.6244297027588 2.56065464019775 9.4743709564209 9.20174121856689 -1.17173779010773 5.01175546646118 24.3738346099854 15.1189193725586 19.8401927947998 25.0735969543457 3.1235682964325 7.38619136810303 11.181957244873 12.2594518661499 4.00278615951538 7.84358882904053 14.8363838195801 15.0123205184937 13.1213970184326 15.3606958389282 14.2074089050293 14.0390119552612 14.4252862930298 16.4225368499756 15.8653659820557 13.0254774093628 13.3816576004028 20.0121116638184 6.05174255371094 11.3335103988647 3.8693699836731 -0.986884832382202 4.29694652557373 -3.96088886260986 9.00935935974121 3.23378014564514 14.3626670837402 -2.36613965034485 0.329651981592178 3.40863227844238 7.66779375076294 14.3038778305054 12.5029916763306 24.1996250152588 34.2481117248535 5.66390895843506 3.0043408870697 -1.4122953414917 4.78091192245483 11.3708238601685 17.9828872680664 37.9500885009766 -2.57858109474182 -2.04502964019775 -2.12621688842773 -2.02620363235474 -1.98124194145203 -2.35793685913086 -0.721893966197968 -0.168411374092102 0.236437290906906 1.45001363754272 0.822130680084229 16.5926685333252 1.49934005737305 2.48332452774048 2.18253660202026 0.605174422264099 0.59495609998703 0.591051995754242 0.636265814304352 1.88161134719849 0.93194442987442 1.48867344856262 2.05360007286072 2.12077450752258 3.49596309661865 4.33305692672729 4.24773645401001 3.54846596717834 3.33899140357971 2.78775262832642 2.30745124816895 2.27650237083435 1.68960809707642 1.70400142669678 5.75971078872681 4.29686689376831 1.90531432628632 3.17230892181396 5.6698145866394 1.68450808525085 6.27501773834229 4.88974571228027 25.8416328430176 2.88285374641418 2.65486073493958 2.24321031570435 2.56243515014648 4.40638303756714 3.38735866546631 3.14749050140381 3.36492586135864 1.78632426261902 2.93963265419006 3.34161591529846 2.86456251144409 3.53030610084534 2.99591422080994 3.38502049446106 2.48122835159302 1.48251473903656 18.9668521881104 2.6314651966095 2.21621656417847 26.3843402862549 11.3093118667603 7.57998323440552 4.03403425216675 4.34074449539185 5.36568212509155 5.2264838218689 5.67628955841064 5.93204402923584 5.77474117279053 5.9923939704895 6.04525375366211 5.70742082595825 5.74339294433594 5.31198692321777 4.08148336410522 3.17668890953064 3.09043145179749 2.57396745681763 2.43282890319824 2.45260810852051 2.38787722587585 2.38971614837646 2.73693370819092 3.50524640083313 3.63488221168518 3.87563610076904 3.03517842292786 3.02244663238525 1.69161736965179 1.99491131305695 1.42762994766235 0.0215398781001568 -0.125503659248352 0.258428186178207 0.228468641638756 0.303407460451126 0.0725277215242386 0.0891010165214539 0.0793862268328667 0.0984668806195259 0.0689795389771461 0.0779623836278915 0.079540841281414 0.080069288611412 0.0818239822983742 4.90154886245728 7.85617065429688
10.3255014419556 14.8519859313965 28.9188461303711 44.948371887207 12.4689588546753 19.7317180633545 26.802375793457 16.0444965362549 7.16865015029907 18.6119117736816 20.0074806213379 41.8951835632324 15.0299415588379 9.20047092437744 2.78922605514526 9.18109798431396 4.15921449661255 0.129082769155502 -2.28731417655945 3.23179936408997 4.46455574035645 2.39460968971252 17.5098533630371 6.24966669082642 21.755802154541 20.5426025390625 24.0675468444824 9.01595783233643 12.8804655075073 37.625804901123 16.6495571136475 24.8209781646729 20.0639591217041 26.6619548797607 17.8265380859375 24.1725597381592 31.8611240386963 24.3580532073975 14.1158018112183 22.4116172790527 11.9539852142334 6.07051467895508 14.8666734695435 15.6441679000854 4.85748958587646 4.85267114639282 6.68458080291748 14.1175107955933 13.2902364730835 -3.54257369041443 -0.678405284881592 24.0127429962158 18.3052005767822 20.9729537963867 24.7922706604004 -3.04486465454102 -1.73728597164154 5.56374549865723 0.851089954376221 0.842642545700073 -3.42906618118286 -3.45609092712402 -3.3959949016571 13.3433294296265 29.6153869628906 -2.04306626319885 -1.5159147977829 -1.74906253814697 -0.817831099033356 -0.782930076122284 -0.959623038768768 0.0148328989744186 18.5477676391602 26.1992378234863 2.07730889320374 1.96136605739594 2.55063414573669 2.63932085037231 1.62208461761475 2.38344025611877 0.871475577354431 0.727211833000183 0.778636693954468 0.836982607841492 2.05177164077759 1.05531442165375 1.82128095626831 2.11560559272766 2.23429203033447 3.38725090026855 4.2334303855896 4.23260164260864 3.62360334396362 3.1390974521637 2.64341640472412 2.98898410797119 3.31151676177979 1.72425997257233 7.27933168411255 5.897780418396 2.79435420036316 2.38308167457581 0.805018603801727 1.74936878681183 8.83955478668213 5.64410352706909 4.90005588531494 3.74999213218689 2.71501970291138 2.29758858680725 2.6254243850708 3.02779173851013 4.58959674835205 3.36774587631226 3.47364282608032 1.84856808185577 2.3857274055481 3.27181458473206 3.75199484825134 4.19103956222534 2.9474995136261 3.82802557945251 4.45316314697266 1.49025523662567 2.52583980560303 3.17029595375061 1.96691393852234 1.42462253570557 17.9069042205811 9.75451946258545 5.54472160339355 5.10662603378296 4.61367177963257 5.81374216079712 5.73199033737183 5.95682144165039 6.06836891174316 6.13390254974365 6.18459177017212 5.91003084182739 5.88054990768433 5.44132471084595 4.62739658355713 3.99394559860229 3.16730189323425 2.64211988449097 2.57682609558105 2.66962146759033 2.74646067619324 2.88748860359192 2.89544892311096 3.57276058197021 3.69976449012756 3.96430134773254 3.65875101089478 3.38623738288879 2.54560375213623 2.24047327041626 1.84927153587341 0.377595067024231 0.177852928638458 0.343538641929626 0.455481737852097 0.489101827144623 0.124946512281895 0.142282530665398 0.135092213749886 0.170366287231445 0.0869654417037964 0.0900589302182198 0.0810559689998627 0.0790595561265945 0.0856930688023567 1.63849174976349 6.37372875213623
17.2317638397217 21.9785442352295 31.677827835083 10.4956512451172 8.02994918823242 18.658655166626 14.7124900817871 6.54727268218994 6.51399946212769 7.7018609046936 12.2077121734619 7.59055662155151 21.1443691253662 11.6275033950806 7.30244636535645 2.11656022071838 0.957913994789124 -2.99156069755554 -3.37107825279236 -2.51130080223083 6.672523021698 16.3226699829102 4.78863859176636 15.6684904098511 5.0541729927063 0.649397492408752 13.3588628768921 6.33251094818115 12.1080770492554 13.0434160232544 18.3449153900146 25.2775402069092 15.7671613693237 17.973445892334 32.2063903808594 41.5344085693359 49.652717590332 48.5428695678711 19.1985530853271 17.5093307495117 13.1782674789429 8.47112083435059 2.09218978881836 0.243498891592026 -1.12674117088318 14.127984046936 -3.71855688095093 -3.55304169654846 -3.55252408981323 10.2211437225342 0.65522438287735 6.77420616149902 26.0417823791504 9.76367664337158 -0.0670451074838638 5.18408346176147 -3.1907114982605 12.8855676651001 10.6345243453979 6.6794548034668 -3.16041207313538 -3.10179376602173 -2.90742349624634 -2.80769610404968 -1.99837636947632 -1.72675704956055 9.59265518188477 -0.559553146362305 -0.712137877941132 -0.183817878365517 -0.718694150447845 28.6966819763184 0.312238693237305 0.447926104068756 2.25767636299133 2.68255186080933 2.67540812492371 2.74912762641907 2.19292092323303 2.48971247673035 1.45074152946472 1.23883104324341 1.39723289012909 0.953027546405792 2.09051060676575 1.58986973762512 1.44469010829926 2.12805700302124 2.0809428691864 2.30690574645996 3.31614661216736 3.89782500267029 3.574551820755 3.15560793876648 2.73272013664246 2.72235035896301 3.07762217521667 3.40309238433838 9.81646347045898 2.27114939689636 11.3146238327026 1.68691766262054 3.26334714889526 1.80137491226196 2.45150232315063 18.3208103179932 1.9101927280426 4.54749345779419 4.74308395385742 2.80015230178833 2.37582087516785 2.71612286567688 4.73795032501221 3.63241410255432 3.59125280380249 3.47012448310852 2.63769912719727 3.60404372215271 4.12523460388184 3.52043271064758 5.45091104507446 5.12392902374268 5.73668527603149 5.55452108383179 2.92381048202515 4.42770338058472 3.10536789894104 1.72494637966156 3.48683977127075 32.3131256103516 7.32148885726929 6.64712953567505 5.74338960647583 5.49608612060547 6.26492118835449 6.24976587295532 6.46256732940674 6.58265781402588 6.13452243804932 6.37823486328125 6.02631330490112 5.7553596496582 4.96608638763428 4.23519134521484 3.14061975479126 3.27736949920654 2.87669396400452 2.93311476707458 2.73866486549377 2.93090271949768 2.96454405784607 3.63967967033386 3.7744677066803 4.0474328994751 3.99598836898804 3.71515107154846 2.92546892166138 2.99217772483826 2.95071625709534 1.15752267837524 0.64811247587204 0.351529687643051 0.465848088264465 0.499028772115707 0.323358744382858 0.144729882478714 0.156169533729553 0.18448793888092 0.138943195343018 0.203226894140244 0.116647124290466 0.114508867263794 0.0910792574286461 0.0839114040136337 8.27414703369141
15.8865566253662 7.05502653121948 5.24824237823486 3.0762026309967 5.07281970977783 16.1691188812256 11.4251918792725 2.95950508117676 8.48862838745117 9.94777584075928 14.4034471511841 13.7106666564941 24.4055480957031 17.5506267547607 9.22560405731201 2.21614956855774 -4.37852954864502 8.63416385650635 -4.59801864624023 -2.34095978736877 -4.13064670562744 -2.81544280052185 6.94098711013794 1.72813105583191 5.66654109954834 16.2828750610352 -0.123385809361935 6.11971473693848 20.5184745788574 2.13972949981689 9.2696008682251 3.53245043754578 9.02894306182861 5.13942909240723 28.3190422058105 24.7447299957275 4.83645009994507 6.44993305206299 21.5674934387207 16.5876407623291 28.8669700622559 10.414457321167 7.47948026657104 2.83793830871582 0.904194951057434 -3.19246125221252 -3.22928667068481 -3.2517352104187 -1.3587943315506 -3.09511756896973 -1.3502277135849 4.38392400741577 8.80337429046631 4.51913642883301 -3.12364101409912 -3.09237551689148 1.45716071128845 -2.75293040275574 -2.28512811660767 -3.40000057220459 -1.3748334646225 -2.72128319740295 -2.89164257049561 -2.518315076828 -1.48528516292572 -0.63825249671936 -1.45212161540985 6.30277109146118 -0.115497134625912 1.49439871311188 -0.560810744762421 -0.180149182677269 0.597396194934845 1.54224240779877 2.35500144958496 2.42736887931824 2.78355884552002 2.73118543624878 2.91456961631775 2.59317541122437 1.95883107185364 1.55140507221222 1.34505438804626 1.51580119132996 2.14786314964294 1.63777446746826 1.48671746253967 1.93998026847839 2.22908616065979 2.44126486778259 3.38071250915527 3.15910840034485 3.48516607284546 3.36511564254761 3.12378907203674 2.94181108474731 3.09131217002869 3.43147325515747 2.78503561019897 21.0814056396484 1.47578358650208 1.7875462770462 4.38416719436646 1.85566747188568 2.35717821121216 2.08753824234009 2.3062481880188 7.03237676620483 7.06939840316772 2.86050128936768 2.43666648864746 2.78834199905396 4.89673042297363 3.75242257118225 3.49722981452942 3.75592088699341 1.94224488735199 4.0102653503418 4.57647705078125 3.91622447967529 7.08924865722656 7.19721508026123 8.19171619415283 7.30486917495728 9.80980396270752 3.0970823764801 9.95069789886475 2.64504671096802 3.14699339866638 3.13076233863831 28.5776786804199 9.31649589538574 5.53112411499023 5.62414503097534 6.2894344329834 6.41315078735352 6.78935098648071 6.74603128433228 6.50489091873169 6.5326681137085 6.16887807846069 6.23367261886597 5.76709604263306 4.40440464019775 3.45051503181458 3.36668252944946 2.81694626808167 3.1643214225769 3.01343250274658 2.87518739700317 3.06095910072327 3.00062894821167 3.73149442672729 3.88798189163208 4.16391944885254 3.84465909004211 3.82229495048523 3.28679490089417 3.16709733009338 2.20811700820923 0.675315380096436 0.235283061861992 0.421763598918915 0.509401023387909 0.334598511457443 0.153836622834206 0.17270328104496 0.159359410405159 0.2200777977705 0.251479774713516 0.14667934179306 0.164517790079117 0.255925476551056 0.0913818553090096 11.7209587097168
3.34441137313843 14.3070907592773 7.23064184188843 4.814772605896 12.7120923995972 24.0232772827148 18.5891571044922 9.23544406890869 7.46235418319702 9.07845115661621 4.78352165222168 9.27731704711914 11.1887178421021 29.0946083068848 28.4304485321045 10.8402242660522 2.86545753479004 -5.04364490509033 3.01016044616699 2.01029992103577 -2.55562496185303 1.21299397945404 -3.40463852882385 -3.05213212966919 -3.35345816612244 -1.29207456111908 2.26851296424866 12.2670583724976 5.30811262130737 4.15478992462158 0.750008881092072 4.5088939666748 5.57327318191528 1.06983196735382 -1.21985268592834 7.0241551399231 4.13682126998901 10.1840925216675 6.58785772323608 14.6400184631348 23.968864440918 25.8296928405762 18.2617568969727 6.48505020141602 5.97814989089966 23.046329498291 19.4373111724854 5.04802417755127 -3.20961236953735 -2.59851980209351 0.825078070163727 8.47434902191162 10.674503326416 6.18242359161377 5.30602693557739 -2.99707007408142 -2.99767160415649 -2.74973845481873 -3.36879539489746 8.44252777099609 12.857442855835 13.8683137893677 -2.11764550209045 -2.01743960380554 -1.28837299346924 -0.284513294696808 0.678863525390625 -0.0137676913291216 16.2396125793457 0.173685908317566 0.442824184894562 -0.188425093889236 1.48023533821106 1.50019335746765 1.86610770225525 2.48298001289368 2.84157776832581 2.7835431098938 3.01022815704346 2.55102682113647 2.79737830162048 1.70618140697479 1.3888726234436 1.56796932220459 1.07957088947296 2.27442908287048 1.19080138206482 1.98468792438507 2.50179576873779 2.82840704917908 3.08824682235718 3.96356439590454 3.89805793762207 3.71950221061707 3.6585578918457 3.16201066970825 3.09605026245117 3.45262145996094 2.79754757881165 1.95088911056519 2.45579552650452 9.80469417572021 6.18778419494629 1.90083467960358 1.93212759494781 2.56932353973389 2.41795206069946 2.34744095802307 2.24875402450562 2.90858483314514 2.48245406150818 2.85074043273926 3.29530692100525 5.11825132369995 3.75731539726257 3.88901972770691 2.01704001426697 3.66100907325745 4.68308401107788 5.37438583374023 10.002459526062 7.04932403564453 13.2385053634644 14.0000381469727 7.4475884437561 3.19122219085693 3.01687479019165 3.12009429931641 2.01041340827942 11.3843231201172 3.34547352790833 13.9595861434937 13.5226430892944 12.0630445480347 6.41779565811157 6.36404418945312 6.9548921585083 6.90684080123901 6.67476797103882 6.69505596160889 6.41963863372803 6.40137147903442 5.9166407585144 5.02180910110474 4.30680227279663 3.45436453819275 2.89219379425049 3.01261901855469 3.44077110290527 3.45436096191406 3.62507581710815 3.51433849334717 3.81630277633667 3.97856187820435 4.26034212112427 3.93317222595215 3.90967488288879 3.54326844215393 3.43834924697876 2.34380674362183 1.42327308654785 0.265218019485474 0.373985767364502 0.493437856435776 0.530261337757111 0.183610647916794 0.211341500282288 0.223614752292633 0.278835982084274 0.185710087418556 0.223297506570816 0.226157963275909 0.186531811952591 0.318420141935349 4.06476306915283
9.67942047119141 27.0236721038818 8.35506439208984 5.8096137046814 6.03390741348267 17.3001461029053 16.0201416015625 5.52535343170166 10.1778621673584 0.229469522833824 4.14268827438354 2.49044942855835 9.37173938751221 6.6156587600708 18.2836589813232 11.8001127243042 2.57350969314575 6.09253263473511 -4.5287823677063 2.17162418365479 -4.05793142318726 5.60785961151123 10.2951040267944 1.28068208694458 9.52287864685059 -3.50583696365356 -2.36155915260315 2.91143298149109 1.37125194072723 3.83808660507202 0.085397019982338 3.75916290283203 27.3980979919434 -0.57985782623291 2.5398485660553 -2.42721271514893 2.74865412712097 10.7046012878418 6.9070200920105 -1.53805506229401 -4.07190179824829 -3.87835931777954 -0.815059781074524 1.61185836791992 4.09827899932861 0.27296507358551 6.1794285774231 -1.00711417198181 -2.46497249603271 -2.54712581634521 1.87183701992035 15.0252532958984 23.2037982940674 15.9827852249146 -3.17588233947754 17.246675491333 -2.92123103141785 21.7932453155518 -3.20043349266052 -3.39360070228577 -3.131756067276 -2.34977316856384 -1.82686078548431 -1.1772552728653 2.11859798431396 3.56483030319214 0.598892867565155 5.27207660675049 0.169601365923882 0.464216589927673 0.847293257713318 0.935382068157196 1.02238798141479 1.55557215213776 1.65296423435211 2.55298519134521 2.93536376953125 2.92095375061035 3.12719464302063 2.71344685554504 2.89355659484863 2.64146304130554 1.72930574417114 1.62602388858795 1.12031674385071 2.33755588531494 1.78508877754211 1.60755527019501 2.32454681396484 2.91082358360291 3.01398301124573 3.83627510070801 4.11526250839233 4.09198570251465 3.83335471153259 3.76165628433228 3.21319723129272 3.1928985118866 3.56328177452087 3.25717544555664 2.19803905487061 2.40927982330322 4.16271209716797 13.6139116287231 1.99313116073608 2.57349491119385 2.70809960365295 2.73854660987854 2.67207455635071 2.59731793403625 3.00124979019165 2.56142234802246 2.95037007331848 5.28973817825317 4.04516887664795 4.0281810760498 3.9163064956665 4.17069244384766 5.39523363113403 6.19020462036133 8.46236610412598 21.4010524749756 2.72691249847412 2.79529142379761 2.95304369926453 4.07857513427734 4.14310026168823 3.98100209236145 7.25135517120361 3.80507159233093 7.20916414260864 7.36940670013428 3.8142421245575 4.65431833267212 5.76118230819702 6.99930667877197 7.1288628578186 7.01653337478638 7.14451122283936 6.65695762634277 6.92016124725342 6.57107877731323 6.24401044845581 5.38946962356567 4.59768962860107 3.40533113479614 3.58112645149231 3.20575618743896 3.34972238540649 3.52928280830383 3.50722885131836 3.7128279209137 3.90351557731628 4.06903171539307 4.35694885253906 4.31027412414551 3.99960374832153 3.8240795135498 3.23011541366577 3.84862804412842 1.56927120685577 0.704742848873138 0.386086761951447 0.507620275020599 0.543515682220459 0.356159955263138 0.206701770424843 0.258470773696899 0.34113222360611 0.214463651180267 0.250239640474319 0.103350885212421 0.096756599843502 0.0952633991837502 0.093449093401432
11.399299621582 24.7845134735107 27.1526889801025 25.0273704528809 9.03384876251221 4.42553901672363 5.31919240951538 0.266726553440094 12.5697755813599 0.886348485946655 8.69052410125732 3.83960700035095 -0.152915090322495 -1.10581386089325 -5.17491865158081 6.95513963699341 14.6928186416626 17.1802368164062 7.81299829483032 -3.42443656921387 -5.03266286849976 -4.06960296630859 6.2114052772522 10.1695528030396 -3.03991150856018 5.06393146514893 8.52885246276855 0.323501646518707 7.40995454788208 4.40767765045166 21.5005779266357 -1.95308947563171 3.46900987625122 -1.25907254219055 0.938296914100647 -0.115264028310776 5.93376159667969 -4.41570711135864 -4.29634761810303 -3.8820698261261 14.748215675354 4.18701028823853 1.28043639659882 6.57189655303955 9.99100971221924 -1.21615922451019 -3.32808899879456 -2.95655965805054 12.7432670593262 3.4117329120636 4.13052034378052 0.336906045675278 19.5826892852783 25.470817565918 18.49587059021 -2.96996021270752 -2.67913341522217 -2.39175915718079 16.1876850128174 8.78059959411621 -2.14992427825928 -1.86346983909607 -1.28240466117859 6.00373029708862 25.6011486053467 7.2766284942627 11.6029968261719 0.117086723446846 0.207188114523888 1.01848828792572 0.884070158004761 0.967844426631927 1.07003438472748 1.63011860847473 1.7341982126236 2.68808197975159 2.70374441146851 3.07748746871948 3.00231552124023 3.33465266227722 2.95589661598206 2.6931300163269 1.78183889389038 1.55757522583008 1.73795461654663 2.40775465965271 1.83890414237976 1.65717899799347 2.36282348632812 2.84484195709229 3.08465552330017 3.63353729248047 4.19859743118286 4.12033128738403 4.24383401870728 3.81408905982971 3.25351905822754 3.24025988578796 3.59250950813293 3.01280665397644 3.34818148612976 2.63634872436523 1.84465408325195 1.54464137554169 2.15344548225403 2.52241492271423 2.69831037521362 2.7833993434906 2.71442699432373 2.63568210601807 3.06554555892944 2.62417268753052 3.02597618103027 5.47663068771362 4.17451286315918 3.90550827980042 4.23011779785156 2.14202165603638 6.34388732910156 7.73671054840088 8.296217918396 2.50705170631409 2.79259514808655 2.79823660850525 2.91288161277771 4.70814895629883 5.11882543563843 4.8606333732605 7.63674163818359 14.4668664932251 4.12919282913208 3.56355738639832 13.5788040161133 16.1419334411621 6.25393915176392 7.18006610870361 6.96855926513672 7.38781356811523 7.33613681793213 7.10415935516357 7.09756469726562 6.7003288269043 6.80284118652344 6.29275751113892 4.77003383636475 3.76290535926819 3.67844343185425 3.56218194961548 3.37817049026489 3.57900452613831 3.57991814613342 3.78788781166077 3.69503545761108 4.02701187133789 4.19681262969971 4.49287986755371 4.15036773681641 4.12483787536621 4.2809476852417 4.24026775360107 2.46596050262451 1.36470448970795 0.832516014575958 0.553429365158081 0.556127667427063 0.363376021385193 0.235439628362656 0.307433664798737 0.284119784832001 0.377121329307556 0.282702744007111 0.218646958470345 0.0983340814709663 1.53849911689758 2.2826292514801
6.85772800445557 27.5436248779297 3.28314733505249 8.3890209197998 7.41265106201172 8.57914638519287 16.3287181854248 -1.97650384902954 1.9563113451004 0.137571930885315 13.9005107879639 5.07117700576782 2.96384048461914 1.7590434551239 13.7597579956055 10.2269172668457 27.1540946960449 11.2199401855469 -1.71578228473663 -4.41053295135498 -4.9006462097168 -3.79009532928467 -4.30162286758423 -3.39221525192261 -2.09057950973511 2.82378149032593 -3.63282537460327 -3.58871006965637 -3.76272344589233 2.69296526908875 -4.2831244468689 2.7620415687561 -4.48393487930298 14.630687713623 -0.605187177658081 3.13588333129883 -2.79422068595886 -3.91914534568787 -4.06787347793579 -1.82932794094086 -4.01582670211792 -3.88576722145081 -3.84016633033752 -3.56674742698669 -3.27626442909241 -3.19999694824219 -2.69226145744324 0.814808487892151 -0.887255609035492 11.2568473815918 -2.22827219963074 11.7296123504639 -2.79281520843506 -3.20415043830872 -3.11193037033081 5.25133848190308 -0.472687542438507 12.094033241272 -1.98173344135284 -2.17142629623413 -1.92962872982025 -1.48556590080261 -0.76944774389267 9.15493297576904 -0.541252732276917 25.9736595153809 -0.0322793982923031 1.05756974220276 1.09438049793243 1.09171628952026 1.03361511230469 1.00745046138763 1.14007031917572 1.73984026908875 1.73182916641235 2.24856328964233 2.87383580207825 3.17046284675598 3.11063456535339 3.48135828971863 2.83289527893066 3.18370628356934 1.90511882305145 1.60387063026428 1.80145120620728 1.2651299238205 2.53393650054932 1.38992118835449 2.76792883872986 2.87943291664124 3.45541071891785 3.59456777572632 4.29660987854004 4.41438865661621 4.35580158233643 3.92209267616272 3.39853596687317 3.30088448524475 3.65494680404663 3.0420024394989 3.38359332084656 2.86439895629883 3.25474810600281 2.57697868347168 2.08050441741943 2.20393061637878 2.74214267730713 2.83163642883301 2.77749681472778 2.69587445259094 3.11941194534302 2.68893551826477 3.10118532180786 3.60123920440674 5.75005292892456 4.20609951019287 4.38751459121704 2.2207019329071 8.77122497558594 10.8733587265015 10.7685012817383 3.55455231666565 2.85366296768188 2.89972758293152 3.02053689956665 6.81950378417969 7.04731798171997 6.56957340240479 2.99992632865906 3.91793441772461 7.74830532073975 3.79924392700195 3.65860390663147 3.95130228996277 5.38197135925293 7.37301254272461 6.92581653594971 7.57546710968018 7.52641296386719 7.30871438980103 7.28716468811035 7.00031137466431 6.9969596862793 6.46471977233887 5.47322034835815 4.66335201263428 3.78394985198975 3.6320264339447 3.62047171592712 3.63102793693542 3.6674268245697 3.86953783035278 3.77419495582581 4.12532424926758 4.29638147354126 4.60146236419678 4.25033092498779 4.22635269165039 4.70938634872437 4.69406414031982 2.81492042541504 2.03648161888123 1.22693049907684 0.851976573467255 0.568608224391937 0.572243809700012 0.274656683206558 0.353170812129974 0.402743875980377 0.557226836681366 0.231583133339882 0.102774940431118 0.407440006732941 0.117224276065826 0.112160347402096
2.59040927886963 22.9261875152588 6.76816463470459 25.41721534729 11.2971487045288 9.61341762542725 11.555046081543 13.9771747589111 2.20192289352417 2.60236001014709 -0.190142676234245 18.954475402832 3.92205238342285 0.659767091274261 -1.85481262207031 -3.26519203186035 -5.27417230606079 0.912234008312225 -4.40571784973145 -3.79344892501831 12.610954284668 -3.41178274154663 -3.84093141555786 -3.29042363166809 0.515911221504211 -3.03151869773865 5.00599145889282 -3.68264555931091 12.503885269165 8.53174591064453 -3.92259979248047 -2.67440509796143 -3.06960082054138 -3.77884292602539 4.35869121551514 -3.88046431541443 -3.47491574287415 -3.53673386573792 -3.98344469070435 -3.72533893585205 -3.62986183166504 -3.61211585998535 -3.57560896873474 -3.21879720687866 -3.26487040519714 -2.7828094959259 -2.33200025558472 -2.39816808700562 9.9419584274292 1.98149263858795 11.6027402877808 -2.34485173225403 -2.68990755081177 -2.9138617515564 -2.60498571395874 -2.25562906265259 -1.95946574211121 -1.7862606048584 6.00454092025757 -1.18208003044128 -1.25611293315887 4.89077997207642 8.76663780212402 4.12859296798706 2.25142312049866 -0.331377267837524 38.697998046875 1.06344866752625 1.22899675369263 1.22285056114197 1.18781244754791 1.05904722213745 1.10273504257202 1.2202559709549 1.91003942489624 1.96818029880524 3.04902815818787 3.30405879020691 3.28461670875549 3.67473483085632 2.95943212509155 3.29601740837097 2.88957738876343 1.93582808971405 1.85288071632385 1.31480586528778 2.6248459815979 1.99862170219421 2.75419616699219 3.213702917099 3.23462796211243 3.6046838760376 4.19790887832642 4.52359580993652 4.63463401794434 4.23050737380981 4.11683893203735 3.49031925201416 3.44383788108826 3.80508303642273 3.44432735443115 2.90422892570496 2.9025502204895 3.34758257865906 2.63885998725891 2.22874999046326 2.88310098648071 2.88127517700195 2.91846179962158 2.87016534805298 2.80039167404175 3.25393724441528 2.81021189689636 3.22934341430664 5.96716022491455 4.54226970672607 4.56647253036499 4.48539161682129 9.90205097198486 18.9403285980225 13.0232906341553 4.71589612960815 2.77449488639832 11.9416275024414 8.85296058654785 10.5571041107178 13.891152381897 14.0763416290283 8.86178112030029 4.05203866958618 9.0932788848877 5.56107473373413 4.06876850128174 4.64938688278198 5.45997619628906 6.64102506637573 7.64415073394775 7.76957845687866 7.63572788238525 7.80057334899902 7.28024959564209 7.54504346847534 7.19626903533936 6.8006911277771 5.86409902572632 5.00255489349365 3.70806813240051 3.92540097236633 4.06203317642212 3.78238487243652 3.7583532333374 3.77363967895508 3.98080158233643 4.22570466995239 4.40044260025024 4.71306991577148 4.67781782150269 4.32808017730713 5.22302627563477 3.5066385269165 5.51003074645996 2.35698175430298 1.69206416606903 0.872346222400665 0.582321465015411 0.58943647146225 0.381519824266434 0.301302701234818 0.478872239589691 0.709731936454773 0.160973474383354 0.11131539940834 0.594492018222809 0.116340450942516 0.119983747601509
2.68133187294006 26.7055835723877 4.48082494735718 10.7016706466675 24.4342212677002 15.6775751113892 8.59462261199951 -3.38193678855896 3.68571972846985 0.924064040184021 0.338714271783829 -4.99699544906616 -1.00990009307861 2.14678335189819 -0.0987181812524796 3.92850208282471 -4.85982131958008 -1.47579765319824 -4.31898498535156 8.54876327514648 -1.98926627635956 -4.40471220016479 -3.34111547470093 -3.45195531845093 -3.20385456085205 -1.99047768115997 -3.08051156997681 -3.33189344406128 -3.45659995079041 0.166392058134079 4.63921594619751 -2.17544269561768 -1.91040122509003 -3.28920650482178 0.256626695394516 -3.44480419158936 -3.23621439933777 -2.93632221221924 -3.18107342720032 -3.67517900466919 -3.13488483428955 -2.77858877182007 -1.39407849311829 -2.22287893295288 0.838244795799255 -1.9915863275528 -1.93561267852783 1.71784043312073 -1.7686482667923 32.7417221069336 -2.41387581825256 -1.78209710121155 -2.11139726638794 -2.4859402179718 -2.03865599632263 -1.92344999313354 -1.65620899200439 -1.28161549568176 -1.33581244945526 1.42676424980164 -1.00758922100067 7.24221277236938 -0.614215493202209 -0.739930212497711 -0.507051289081573 0.33226278424263 -0.365969628095627 1.53177034854889 1.35722780227661 1.33737909793854 1.3393143415451 1.16327583789825 1.1627037525177 1.27335870265961 2.06288528442383 2.0893828868866 3.21199059486389 3.06820845603943 3.45561504364014 3.37682294845581 3.9512026309967 3.45386910438538 2.95641231536865 1.97990000247955 2.39684247970581 2.61168527603149 2.71283984184265 2.0777633190155 2.95223355293274 3.04500341415405 3.36093473434448 3.71577930450439 4.03505849838257 4.65467023849487 4.75235509872437 4.69703960418701 4.2133207321167 3.57171535491943 3.53510308265686 3.9032518863678 3.21489334106445 3.54523372650146 3.02904677391052 3.39788818359375 2.68412852287292 2.52693963050842 2.67418122291565 2.95793414115906 2.98746490478516 2.93939137458801 2.87575268745422 3.3423159122467 2.88684773445129 3.31221008300781 6.20736742019653 4.69923305511475 4.42811584472656 4.8400936126709 2.37408757209778 6.46875667572021 6.5666675567627 23.5606269836426 2.85296607017517 2.87496900558472 2.91639280319214 3.04437685012817 3.87300086021423 4.10194063186646 3.65504598617554 14.3321104049683 4.22477722167969 4.41426420211792 4.47713851928711 4.65900325775146 5.41074991226196 6.81835460662842 7.86430978775024 7.64950466156006 8.04830646514893 8.01078414916992 7.80505514144897 7.75085783004761 7.34012413024902 7.47513341903687 6.9103684425354 5.19304609298706 4.12439298629761 4.03830146789551 5.27172088623047 5.53149080276489 4.13526773452759 3.85605907440186 4.07109451293945 4.29091501235962 4.36616659164429 4.54842948913574 4.87419652938843 4.50373649597168 4.47935438156128 6.13037967681885 6.34533500671387 4.34354543685913 1.8330717086792 1.73937702178955 0.594065546989441 0.606989741325378 0.394125014543533 0.384953230619431 0.650921761989594 0.69407719373703 0.675979793071747 0.270325988531113 0.112730495631695 0.123309105634689 0.13088022172451
2.67872643470764 17.0751552581787 9.22835826873779 10.4763832092285 18.4232425689697 15.0460395812988 8.11611557006836 22.8979167938232 -1.86251270771027 -4.04685497283936 -4.4141993522644 7.16532039642334 -5.08098936080933 -5.23737239837646 0.739141404628754 9.93656730651855 -5.0695652961731 -4.98178100585938 -4.04880809783936 -4.27220439910889 -2.08468723297119 15.8933725357056 -1.39651894569397 1.66261315345764 -2.79082155227661 -2.65302777290344 -2.82041382789612 2.30964517593384 16.2796077728271 -3.33081865310669 -3.74078011512756 5.70101881027222 9.24498844146729 3.90733480453491 2.15660762786865 5.27812576293945 -1.87515699863434 -1.59918761253357 -2.60425686836243 -3.05031132698059 -1.36127269268036 -0.783314049243927 0.193664461374283 1.8803026676178 -1.24847042560577 -1.7991863489151 -0.233376801013947 -1.90276551246643 -0.550693869590759 -2.52530932426453 12.9698905944824 -1.74680602550507 -1.67333614826202 -1.45129430294037 -1.56165063381195 -1.49692964553833 -1.37706017494202 -0.862594842910767 -0.81675261259079 14.1472826004028 -0.899149715900421 -0.775654792785645 -0.355517119169235 3.58564424514771 0.138427898287773 1.82352066040039 1.35673463344574 1.73629093170166 1.54612338542938 1.48732447624207 1.43710744380951 1.29789435863495 1.20639026165009 1.33374214172363 2.18954563140869 2.16391706466675 2.72069811820984 3.397465467453 3.57614040374756 3.50074005126953 4.18775510787964 3.1784839630127 3.78192043304443 2.13590288162231 1.80011963844299 2.51151919364929 2.72270321846008 2.85006046295166 2.06286764144897 3.0676052570343 3.44634819030762 3.81461691856384 3.99381589889526 4.78176021575928 4.85810661315918 4.79318618774414 4.30162668228149 3.70077300071716 3.60973596572876 3.97558832168579 3.25661945343018 3.60148024559021 3.17793440818787 3.44554448127747 3.133784532547 3.01506733894348 3.19029426574707 3.41429471969604 3.04335832595825 3.00456738471985 2.95032048225403 3.42667460441589 2.96593976020813 3.41453075408936 3.95020318031311 6.55292510986328 4.79317760467529 5.02009391784668 5.1330680847168 3.13415598869324 14.0617561340332 12.4416131973267 17.7214679718018 3.42140364646912 4.51455116271973 3.27180552482605 4.07129621505737 4.57022619247437 4.74798965454102 4.31881761550903 14.2557811737061 5.01190519332886 4.97032785415649 5.05924415588379 4.944091796875 5.84948015213013 8.08963012695312 7.5748119354248 8.26756000518799 8.2277717590332 8.03219604492188 7.96773958206177 7.6843318939209 7.70927095413208 7.13203096389771 6.02054977416992 5.06885766983032 4.14582920074463 3.8589174747467 7.47063732147217 9.52123355865479 8.7809009552002 4.16486501693726 4.86813879013062 5.56105041503906 4.67388963699341 5.00285291671753 4.62229537963867 4.5977087020874 7.0471658706665 7.44178152084351 5.66124153137207 3.61114263534546 1.88312935829163 0.914360702037811 0.612068951129913 0.626186609268188 0.493738025426865 1.04655647277832 0.661556363105774 0.126976013183594 0.153280213475227 0.132124602794647 0.126071453094482 0.154604077339172
2.05447697639465 2.87954711914062 1.48874366283417 8.42547607421875 2.34133410453796 6.73923301696777 21.577995300293 1.6315712928772 -1.31672787666321 -3.8910984992981 -4.27520132064819 -4.57938957214355 2.66235876083374 -1.74214434623718 -4.87704706192017 -5.30392646789551 1.7257399559021 -4.75507640838623 -1.95462620258331 -0.105710349977016 15.7258682250977 -4.38794898986816 -3.01507472991943 -3.41992902755737 -2.77409625053406 -1.89214193820953 -2.41322708129883 0.0719624981284142 0.630073308944702 -3.14356780052185 -3.52942991256714 -1.93577015399933 1.87112879753113 -3.31888341903687 0.12538568675518 9.51566600799561 7.25725269317627 -2.75887560844421 -2.48909306526184 -1.37389230728149 -0.471966236829758 1.46648454666138 5.31900930404663 17.5238800048828 1.6470547914505 0.700092673301697 0.785896897315979 6.90498447418213 20.9051055908203 8.1869535446167 -1.86480188369751 1.63663244247437 3.34625101089478 6.42289590835571 0.758297979831696 -0.680647909641266 -0.470724046230316 19.5739974975586 -0.69218909740448 1.01528334617615 -0.83162522315979 -0.738950729370117 -0.0949230641126633 0.0208566803485155 2.41565012931824 2.21174812316895 1.55267608165741 1.96489286422729 1.58137691020966 1.70281064510345 1.57199394702911 1.49166059494019 1.31808018684387 1.40014839172363 1.42895913124084 2.31507229804993 2.29977512359619 3.56725668907166 3.69779372215271 3.78183078765869 4.46158933639526 3.39146852493286 4.01417827606201 3.23058247566223 2.16174840927124 2.5594642162323 2.77539753913879 2.92663955688477 2.25477361679077 3.14145112037659 3.53311419487 3.63479590415955 4.01376819610596 4.65219163894653 4.97556591033936 5.02537822723389 4.5755615234375 4.44349765777588 3.75722455978394 3.72272276878357 4.10540771484375 3.65815711021423 3.25986218452454 3.307861328125 3.80000138282776 3.90928626060486 3.96248650550842 4.00268602371216 3.87919139862061 3.33231496810913 3.12402176856995 3.07471919059753 3.56248712539673 3.08951687812805 3.55065083503723 6.83224725723267 5.14086866378784 5.24864530563354 3.35139870643616 3.74009966850281 3.29443430900574 3.11590957641602 3.11127758026123 3.94710755348206 4.15750789642334 27.81982421875 4.49077796936035 4.68453073501587 4.72555589675903 4.86991548538208 4.4516806602478 5.14679098129272 5.07417106628418 5.01262807846069 5.1960620880127 5.89675951004028 7.25709009170532 8.40194034576416 8.53367710113525 8.38928985595703 8.60854244232178 8.01694869995117 8.2880687713623 7.95752382278442 7.48512172698975 6.44414758682251 5.48435306549072 4.20791339874268 4.33243036270142 3.64806461334229 3.93607044219971 3.98784685134888 4.07389736175537 4.33320808410645 10.7728281021118 10.389331817627 5.14099979400635 5.1130838394165 5.09696578979492 9.41502952575684 11.7620286941528 9.66324996948242 4.6792893409729 1.97329437732697 1.69319045543671 0.625309467315674 0.641938626766205 1.1875786781311 0.415896564722061 1.04813480377197 0.170207038521767 0.345739990472794 0.142232283949852 0.153352022171021 0.153000578284264
2.14297127723694 3.00140333175659 4.22456789016724 21.7079887390137 3.43010997772217 4.09854412078857 6.70849275588989 7.84323453903198 27.8298740386963 8.76021671295166 -3.55651021003723 3.02340030670166 -4.64079761505127 -1.3425041437149 8.15317153930664 -5.23840999603271 -4.99244260787964 -1.91685736179352 -3.89623165130615 13.2053127288818 -2.71234726905823 -3.38643503189087 -3.80100345611572 -2.97520303726196 -2.31998944282532 -1.72266888618469 1.1344518661499 2.03439903259277 13.9692420959473 6.05516481399536 1.88784432411194 -1.33760488033295 -3.56321549415588 -3.11167240142822 -3.24661993980408 -3.56410002708435 -2.94951033592224 -2.47180509567261 -2.3112473487854 3.15077781677246 6.00124645233154 7.70709705352783 9.13854885101318 6.3263087272644 17.4917964935303 3.65706753730774 1.22255706787109 -0.789628505706787 -1.87136459350586 8.94920825958252 25.9201622009277 3.91800022125244 -0.958312034606934 13.3443641662598 17.513744354248 0.427515476942062 -0.590765595436096 -0.801247119903564 -0.310745060443878 -0.60112726688385 -0.572095513343811 -0.197898507118225 1.63589382171631 1.84379410743713 3.35489416122437 2.56435751914978 1.74616146087646 1.8740291595459 2.18594813346863 1.83985114097595 1.69750785827637 1.62697267532349 1.37852704524994 1.33812177181244 2.31481981277466 2.43338489532471 2.43288826942444 3.76300811767578 3.47197890281677 4.04339218139648 3.83746361732483 4.86304903030396 4.25346612930298 3.33361101150513 2.24506235122681 2.61167740821838 2.82778596878052 2.99772715568542 2.31354784965515 3.22701454162598 3.35238814353943 3.70963549613953 4.070876121521 4.42708492279053 5.05215930938721 5.10161352157593 5.02922296524048 4.51064443588257 3.81148219108582 3.79397964477539 4.18361568450928 3.49281811714172 3.76846718788147 3.69432830810547 3.72923111915588 3.88830208778381 4.00260877609253 4.05783176422119 4.09090995788574 4.20854568481445 3.42110466957092 3.13627815246582 3.64582514762878 3.15973997116089 3.64636611938477 7.13370895385742 5.35253429412842 5.43433046340942 5.34299612045288 3.77584385871887 3.84044218063354 4.05967903137207 4.16431951522827 4.43635225296021 4.16912460327148 3.74200558662415 20.9886512756348 9.53224754333496 4.81024026870728 4.98345136642456 5.0125880241394 5.16415452957153 5.40537452697754 5.22897863388062 5.3080735206604 5.89273738861084 7.47330808639526 8.67697525024414 8.45868682861328 8.82896709442139 8.80862426757812 8.69063377380371 8.55228900909424 8.16654777526855 8.31854057312012 7.66844463348389 5.69688844680786 4.5313982963562 4.47275924682617 4.63294792175293 4.28646850585938 4.27145719528198 4.310706615448 4.30259561538696 5.42282676696777 4.46607685089111 4.91268157958984 5.26586484909058 6.49120759963989 6.89346981048584 9.21300983428955 15.5421504974365 17.0604724884033 7.18653726577759 2.02159595489502 1.62505710124969 0.65195894241333 0.669085025787354 1.20371234416962 1.06609392166138 0.226294532418251 0.510269939899445 0.179032281041145 0.182137325406075 0.151044219732285
0.820812582969666 3.01452779769897 16.3083763122559 14.1365947723389 23.8945751190186 8.41140270233154 5.89301443099976 22.5313816070557 2.77483892440796 -3.49539494514465 0.119022339582443 1.72749590873718 6.66482543945312 1.84475922584534 -4.86173295974731 -4.65077352523804 -4.35451650619507 -4.04425764083862 -0.69978803396225 1.21067094802856 3.67252731323242 -0.168306306004524 -3.68992924690247 0.561221420764923 -2.55269289016724 -0.847012400627136 12.1347608566284 -1.51530790328979 20.2807674407959 2.3029797077179 2.05471611022949 -3.15664410591125 13.5091276168823 -3.06030058860779 -3.06805992126465 -3.14629697799683 17.1906757354736 -1.33657848834991 -0.407941192388535 5.19866371154785 13.0979385375977 7.29473495483398 17.3738880157471 29.4407386779785 5.50530767440796 14.2416334152222 7.87843465805054 16.7066879272461 3.15199184417725 3.68638181686401 -1.44934344291687 7.18953084945679 -0.947510182857513 -1.28428947925568 -1.34673798084259 -0.693701863288879 -0.367058426141739 -0.0988324284553528 0.959207952022552 -0.278126895427704 -0.143009454011917 1.23831450939178 0.974571347236633 8.86999797821045 3.99914288520813 3.57369899749756 2.09257531166077 2.12594699859619 2.39855861663818 1.99858343601227 1.81836402416229 1.76879119873047 1.5484824180603 1.73406887054443 2.45752716064453 2.73377180099487 2.84773969650269 3.30787348747253 4.06957912445068 4.32183837890625 3.97908282279968 5.14752197265625 3.58888244628906 4.6068811416626 2.41830039024353 2.0228271484375 2.71997594833374 2.9343101978302 3.15053296089172 2.47203087806702 3.35505771636963 3.74690794944763 4.11240339279175 4.25639295578003 5.11368370056152 5.15799808502197 5.10200071334839 4.57193994522095 3.93761730194092 3.85595989227295 4.2554817199707 3.53609824180603 3.82685804367065 4.00932598114014 3.87662124633789 4.10376977920532 4.27436923980713 4.11123847961426 4.18869638442993 4.59219837188721 4.31558179855347 3.27690482139587 3.72356963157654 3.23143219947815 3.74150109291077 7.44859170913696 5.55593776702881 5.24446725845337 5.76272392272949 3.83737063407898 3.89039039611816 4.10974454879761 4.03781318664551 4.43726015090942 4.54407644271851 4.20436143875122 4.49555826187134 14.2378530502319 9.65416717529297 5.3208794593811 5.34478807449341 5.39312934875488 5.50775480270386 5.54255962371826 5.42373943328857 5.41069507598877 6.42903470993042 8.97325611114502 8.372483253479 9.12774467468262 9.1063117980957 9.00373649597168 8.82431030273438 8.55657958984375 8.59163188934326 7.98193407058716 6.68123054504395 5.60542440414429 4.64685392379761 4.36096858978271 4.75202226638794 4.4060640335083 4.63049221038818 4.52434253692627 4.44921445846558 16.4746036529541 7.23588085174561 5.36905527114868 6.72212982177734 12.7729978561401 7.40750360488892 10.6379642486572 2.47672414779663 7.592453956604 2.05854225158691 1.76186180114746 1.66235077381134 0.65959769487381 1.22023570537567 1.0900354385376 0.351611346006393 0.240885093808174 0.284611642360687 0.248007729649544 0.224873915314674
0.87440299987793 2.37041878700256 8.29273414611816 3.39162254333496 0.423505544662476 10.9172039031982 16.6841983795166 6.54669666290283 13.9107151031494 0.676486194133759 3.03550910949707 0.835632383823395 -1.95727550983429 -4.25866508483887 -4.35381031036377 -4.27259969711304 -4.11046457290649 -1.81390726566315 -0.442261785268784 3.29721093177795 -3.90768432617188 10.081937789917 -3.2952036857605 -2.14535927772522 0.278478354215622 0.164314895868301 -0.61402440071106 2.1430401802063 -0.673671424388885 28.0456390380859 -2.87457633018494 -2.82599544525146 -3.35145282745361 -2.892578125 -2.9223268032074 -2.82806491851807 -2.36481404304504 -2.32394409179688 5.68039798736572 20.027774810791 8.57790470123291 15.5850477218628 7.02071380615234 9.89862632751465 23.5643901824951 11.9995861053467 -1.38697290420532 -1.39658105373383 6.6970911026001 -1.80915570259094 11.3646211624146 -1.31599712371826 28.8460578918457 2.4052197933197 -0.15893916785717 2.51622128486633 3.18834781646729 6.01322031021118 5.35474014282227 1.73180150985718 0.202740028500557 3.73368334770203 4.39168834686279 13.219126701355 5.1999397277832 4.14259767532349 3.2158579826355 2.33074617385864 2.5699417591095 2.02698397636414 2.16008067131042 1.96728014945984 1.82246017456055 1.55086326599121 2.16827893257141 2.59329581260681 2.85400438308716 2.99157619476318 4.28718614578247 4.61210918426514 4.59402847290039 5.42516279220581 3.76899480819702 4.85324764251709 3.60063552856445 2.40721225738525 2.77426362037659 2.99492979049683 3.2204761505127 2.46260952949524 3.38344097137451 3.78747367858887 3.8366584777832 4.22717809677124 4.91768312454224 5.28117656707764 5.30865335464478 4.84826183319092 4.71946096420288 3.98144888877869 3.97398400306702 4.38825511932373 3.87660455703735 3.77879691123962 4.28313207626343 4.39984273910522 4.48245429992676 4.38088035583496 4.53374099731445 4.47443866729736 4.70126295089722 4.17770004272461 3.32413220405579 3.85744452476501 3.36983394622803 4.2318811416626 7.92840623855591 5.74393844604492 6.05983209609985 3.73059034347534 4.04993629455566 4.14445924758911 4.06283044815063 4.29449462890625 5.01916790008545 4.74750471115112 4.80381679534912 4.76809406280518 4.99732971191406 5.37366199493408 5.47802019119263 5.48949575424194 5.67158317565918 5.66047477722168 5.54883575439453 5.5809531211853 6.43349933624268 8.03845024108887 9.38262271881104 9.43908214569092 9.33805751800537 9.55807685852051 8.95523071289062 9.22051048278809 8.95375919342041 8.30867195129395 7.15305137634277 6.09395551681519 4.54587316513062 4.90695142745972 4.86470222473145 4.65305471420288 4.7206711769104 4.74976873397827 4.67423248291016 4.34157514572144 5.98818683624268 5.44051361083984 5.4289288520813 4.67580461502075 12.3294906616211 3.67396855354309 22.0783405303955 1.97702062129974 2.27022957801819 2.0407280921936 1.68909597396851 1.32994878292084 1.24521672725677 1.11516344547272 1.14473676681519 0.266434073448181 0.271021962165833 0.262652307748795 0.257635414600372
0.932258367538452 2.48466968536377 3.40390801429749 2.59375905990601 3.48091626167297 0.64080011844635 8.33854293823242 6.67004060745239 24.2672843933105 29.2392177581787 -2.39451718330383 1.29128563404083 -4.03332662582397 17.2868614196777 14.8654527664185 -3.7878086566925 -3.80242824554443 -1.27677416801453 3.33369183540344 11.9044933319092 6.69275236129761 -3.76215028762817 -2.54159808158875 -3.42311120033264 -1.40356230735779 2.52710604667664 -0.622687041759491 6.44711208343506 7.64663314819336 -3.28071546554565 -2.71799778938293 3.64629459381104 -2.99841713905334 -1.62926757335663 -2.5932023525238 -2.64628052711487 -2.48922777175903 -1.71922934055328 -0.941439390182495 2.18439102172852 21.222677230835 12.2750120162964 15.5162982940674 -2.07715106010437 2.2582221031189 3.87718319892883 23.0337619781494 5.55999755859375 -0.885285973548889 -1.59355545043945 -1.36149108409882 -1.16733133792877 -1.27348029613495 -0.215724185109138 1.67503499984741 9.39872646331787 17.0376529693604 5.6513090133667 14.0014886856079 3.99169588088989 7.07408666610718 13.5354127883911 13.1879196166992 19.4862213134766 23.983003616333 5.30001163482666 3.49651050567627 2.37617778778076 2.75532484054565 2.17748737335205 2.33560466766357 2.11081695556641 1.98866009712219 1.65143060684204 2.3469123840332 2.68051886558533 3.06142783164978 3.13707065582275 4.53839826583862 4.52225017547607 5.01951694488525 5.72443866729736 4.47809886932373 5.09479427337646 3.69906210899353 2.51167845726013 2.8353705406189 3.05336308479309 3.26146793365479 2.48388719558716 3.4183943271637 3.52154135704041 3.88709306716919 4.28698062896729 4.68860626220703 5.35953664779663 5.37482833862305 5.3261775970459 4.77666282653809 4.02476787567139 4.02807998657227 4.45430040359497 3.98901557922363 3.97728419303894 4.54620599746704 4.79391956329346 4.71282005310059 5.15933036804199 5.22620677947998 5.03214120864868 4.94465637207031 4.52793025970459 3.39997339248657 3.9519579410553 3.4456729888916 3.99296236038208 8.33494567871094 6.13602161407471 6.36636018753052 6.37370204925537 4.11030960083008 4.09760427474976 4.15918636322021 4.21798276901245 4.53061294555664 4.57582187652588 5.01073598861694 5.35393619537354 4.84965324401855 5.55045413970947 5.59046077728271 5.6057276725769 5.65614748001099 5.90043640136719 5.72447633743286 5.71079444885254 6.4907546043396 8.30619621276855 9.70998668670654 9.51979541778564 9.89296245574951 9.87664604187012 9.8176097869873 9.58186817169189 9.19937515258789 9.35970783233643 8.66755104064941 6.34489250183105 5.1327691078186 5.0763144493103 4.96814012527466 4.77680015563965 4.84075260162354 6.38174724578857 4.75357532501221 4.65931940078735 4.63704252243042 5.24489450454712 5.89759731292725 4.82252216339111 4.62783908843994 30.9791774749756 2.43117880821228 3.09318804740906 2.30020046234131 2.13864994049072 1.71285974979401 1.35576987266541 0.698214292526245 1.31592571735382 1.1591089963913 0.273905545473099 0.564210057258606 0.271480828523636 0.268394291400909
0.999163746833801 1.01096177101135 3.4429669380188 3.33407020568848 1.51096725463867 13.6803312301636 -0.0502539947628975 -0.326853185892105 -0.348868906497955 0.206789910793304 -2.24890661239624 -2.12580275535583 -3.73462152481079 -4.12779808044434 7.55456590652466 16.17626953125 -3.11847472190857 8.10960483551025 2.89624333381653 7.13096141815186 -3.3420889377594 0.410656720399857 -2.01252579689026 -2.35667300224304 -0.040210135281086 4.90033578872681 2.75081062316895 10.089898109436 4.6345853805542 2.04220819473267 -2.32658004760742 4.95587635040283 14.9346885681152 7.71236658096313 -0.551310420036316 -0.684210360050201 -2.15405702590942 -1.68595230579376 -1.46468567848206 9.54051780700684 23.1490249633789 17.0852527618408 -0.231924638152122 7.04498434066772 2.22912263870239 18.6979942321777 16.5317687988281 15.0222721099854 -1.43610465526581 6.41170024871826 -0.518769204616547 -0.966426491737366 -0.384880691766739 0.445927500724792 2.6683874130249 15.8555812835693 8.698166847229 1.17309474945068 7.69134283065796 14.110502243042 37.2575225830078 41.4154357910156 20.8879795074463 15.8751621246338 18.4422149658203 6.09797763824463 5.14635705947876 2.78476190567017 2.62917709350586 2.94825863838196 2.4933009147644 2.24423742294312 2.19430637359619 1.88240337371826 1.92685508728027 2.70921230316162 3.25526833534241 3.36921000480652 4.78830909729004 4.89368534088135 5.35770416259766 4.81187629699707 6.18308210372925 5.33011627197266 3.84711217880249 2.68021655082703 2.23538947105408 2.92410206794739 3.12639927864075 3.37672543525696 2.55176115036011 3.50208497047424 3.92956209182739 4.33922815322876 4.49767351150513 5.4454550743103 5.44486713409424 5.39373254776001 4.82119989395142 4.14035606384277 4.06247615814209 4.50545883178711 3.78890419006348 4.07120418548584 4.31407976150513 4.99675035476685 5.29016828536987 5.18396711349487 5.28140449523926 5.34783744812012 5.15209102630615 5.05643558502197 3.79415512084961 4.04780387878418 3.5195050239563 4.09698152542114 8.73573303222656 6.4154052734375 6.09188318252563 6.85746002197266 4.23239326477051 4.27864789962769 4.53246355056763 4.46435880661011 4.55237436294556 4.91197776794434 5.14054775238037 5.53321075439453 5.24706935882568 5.66323184967041 5.72009372711182 5.7083854675293 5.76906442642212 6.07781600952148 5.95098304748535 5.83908700942993 5.99897861480713 7.16678047180176 10.0878562927246 9.38733863830566 10.2527008056641 10.2577848434448 10.191499710083 9.9088659286499 9.65453243255615 9.77016544342041 9.03652191162109 7.55966091156006 6.33336114883423 5.30018949508667 4.68012380599976 5.10084056854248 4.74337959289551 8.52604675292969 6.5183572769165 4.83479499816895 4.72691965103149 7.66917133331299 5.66715478897095 5.39603137969971 5.24986505508423 3.04917860031128 3.74418473243713 3.31258702278137 2.44764518737793 2.21815848350525 1.87883806228638 1.76788461208344 0.7548468708992 1.32936918735504 1.21358323097229 0.292828351259232 0.278882890939713 0.294829338788986 0.278747111558914
2.11338257789612 1.09812319278717 2.75959587097168 3.76263761520386 3.49292063713074 0.908347249031067 0.834854960441589 -0.0617668442428112 3.21422338485718 -2.19588470458984 19.7839450836182 -2.46569418907166 -3.48268461227417 -3.86461710929871 -3.84055352210999 -3.54339504241943 -1.00740373134613 -3.16949343681335 25.2228412628174 -3.2758162021637 -3.18615388870239 -3.49505758285522 -2.49606370925903 5.6463794708252 8.20014381408691 6.69614219665527 7.16239404678345 -0.317392528057098 -1.17318558692932 -1.79321324825287 3.12344598770142 -2.34878420829773 0.499836951494217 -2.8122022151947 -2.44691753387451 -2.45914721488953 -2.01968193054199 -1.50399231910706 0.910715341567993 12.2686347961426 3.90239000320435 -2.54138135910034 -2.5835976600647 -2.73538041114807 -2.34080719947815 0.762870669364929 -1.97732865810394 -1.21596205234528 -1.12033891677856 12.2859086990356 1.2686505317688 -0.794666826725006 9.55070304870605 16.8147201538086 4.91669321060181 2.12917876243591 0.143026396632195 17.4187812805176 26.0701675415039 43.0232620239258 5.05433988571167 1.31067931652069 5.70001840591431 3.99750924110413 1.89295649528503 7.40412092208862 5.89049816131592 4.09036636352539 2.87541747093201 3.17614579200745 2.64765024185181 2.10352396965027 2.38153791427612 2.20745468139648 1.87297773361206 2.51553058624268 3.44687986373901 3.61947679519653 4.29101848602295 5.30911684036255 5.72252750396729 5.76881265640259 6.54918193817139 4.1298189163208 5.77599048614502 3.94497108459473 2.63124775886536 2.97757887840271 3.18236637115479 3.45124983787537 2.58782482147217 3.54043340682983 3.98644661903381 4.02334833145142 4.47239923477173 5.23610925674438 5.61036348342896 5.59372186660767 5.10259962081909 4.96053791046143 4.14808940887451 4.1597056388855 4.64708757400513 4.48275136947632 4.53755807876587 5.04277992248535 5.14550399780273 5.40351819992065 5.33499050140381 5.40751504898071 5.42259979248047 5.12738513946533 4.3726954460144 3.86281228065491 4.17250919342041 3.92792749404907 4.80387735366821 9.4068078994751 6.71183443069458 7.25888109207153 4.44229173660278 4.46735906600952 4.71588039398193 4.93703126907349 5.08861637115479 5.25188493728638 5.36780261993408 5.2699122428894 5.68559169769287 5.73890781402588 5.7613959312439 5.90911197662354 5.89161491394043 6.26775884628296 6.07379865646362 6.17144680023193 6.19424533843994 7.09193849563599 9.02407932281494 10.6079359054565 10.6321992874146 10.6765899658203 10.8049802780151 10.2069282531738 10.4425077438354 10.1915130615234 9.43034553527832 8.13155364990234 6.9118275642395 5.10702466964722 5.64253234863281 5.2306809425354 5.0023980140686 8.50557041168213 18.2980194091797 7.39141321182251 5.54750204086304 8.6060094833374 14.7863349914551 11.6300039291382 5.41470813751221 4.90157270431519 4.70394992828369 3.38467526435852 2.48849606513977 2.4297571182251 2.20399785041809 1.83431386947632 1.4395204782486 1.37583160400391 1.22340846061707 1.25172173976898 0.300661236047745 0.299891084432602 0.296481788158417
2.22039413452148 1.15629172325134 2.89246249198914 3.92873239517212 3.92753624916077 1.77660429477692 1.17273831367493 0.563214004039764 0.272697359323502 -0.29400247335434 -1.96588504314423 -2.17509388923645 2.87443995475769 -3.16445350646973 -3.00292634963989 -3.16296219825745 -2.99628496170044 6.44003486633301 -3.06274127960205 22.7637348175049 -3.05390453338623 -3.16368293762207 -2.70488142967224 -2.14618396759033 -2.74040222167969 -0.922869384288788 12.8442344665527 8.97647285461426 1.16108798980713 5.89322376251221 -2.24588632583618 -2.15876054763794 -2.75727677345276 -2.66685557365417 -2.14828300476074 -1.69310176372528 -1.62585425376892 -1.29036450386047 1.05845236778259 11.0297737121582 5.34869527816772 5.54928016662598 -2.61173439025879 -2.54125070571899 0.730774223804474 -2.39770245552063 -0.56231963634491 -1.18061017990112 -0.271768689155579 0.969500064849854 29.5045108795166 -0.496796876192093 -0.260958909988403 -0.0913735777139664 19.6578464508057 11.6013011932373 19.9856376647949 36.1839485168457 14.0843868255615 0.613086521625519 45.2568664550781 1.88255095481873 5.65038681030273 21.7123546600342 38.9067153930664 16.0890884399414 8.23252582550049 4.55013608932495 3.16036057472229 3.44195055961609 2.69034385681152 2.83976531028748 2.52150416374207 2.37740278244019 1.96087324619293 2.56762742996216 2.92881011962891 3.7878782749176 4.0385274887085 5.55361413955688 6.01353740692139 6.28459072113037 7.00077819824219 5.53339576721191 6.08180809020996 4.02820634841919 2.73819851875305 3.0294132232666 3.24122834205627 3.53319907188416 2.63278222084045 3.59143090248108 3.70664858818054 4.10532140731812 4.53845024108887 5.00961589813232 5.70619869232178 5.67519235610962 5.62106513977051 5.01298475265503 4.15763998031616 4.1899094581604 4.69189977645874 4.43757724761963 4.64649963378906 4.89505910873413 5.13482522964478 5.44484043121338 5.56603717803955 5.77254819869995 5.31835412979126 5.53875732421875 4.7320671081543 3.93549346923828 4.2513599395752 3.6976637840271 4.33902168273926 9.90164184570312 7.17224788665771 7.66591739654541 7.88542032241821 4.8018946647644 4.84464693069458 5.0520601272583 5.29936599731445 5.35046720504761 5.44701671600342 5.53830099105835 5.72999858856201 5.61966037750244 5.91436386108398 6.04820489883423 6.03036451339722 6.07073974609375 6.57545709609985 6.39907360076904 6.37429761886597 7.24724340438843 9.36447525024414 11.0478239059448 10.8871603012085 11.1817979812622 11.3219051361084 11.2908086776733 10.8859252929688 10.6202220916748 10.814829826355 9.99717617034912 7.22229671478271 5.9749870300293 5.9272255897522 5.35853433609009 5.12780570983887 8.55081748962402 4.59459066390991 13.1326522827148 13.3612966537476 16.1132659912109 5.60545587539673 5.89701843261719 11.7843818664551 6.02205562591553 4.88931226730347 4.16060352325439 3.48849296569824 2.50917553901672 2.34539914131165 1.87534213066101 1.48947167396545 0.794606506824493 1.4362381696701 1.29089856147766 0.319929212331772 0.307609766721725 0.299158692359924
2.33247518539429 1.23616123199463 1.23307704925537 3.94621562957764 4.59069681167603 3.32809281349182 1.65220010280609 0.996803998947144 1.35109531879425 0.149692565202713 -1.53105103969574 -2.04160571098328 -2.33589315414429 -2.71007108688354 -2.87664461135864 -2.93242120742798 1.19072389602661 -2.40258288383484 -2.83418941497803 -3.1714448928833 -2.97227430343628 -2.23153233528137 -2.56149792671204 -1.91490161418915 -0.620003998279572 -1.01904487609863 -1.8909375667572 20.3001174926758 8.43261051177979 2.86362242698669 0.525696694850922 -1.87125897407532 -1.71779036521912 -2.23981118202209 -1.83145344257355 -1.38689875602722 -1.11479771137238 -1.01554429531097 -1.2858293056488 -1.13117671012878 -1.86144483089447 -2.04657936096191 -2.52507376670837 11.440465927124 -2.56451106071472 -1.9366260766983 10.7708377838135 13.860897064209 0.661131262779236 3.91948223114014 -1.16728603839874 -0.385640203952789 2.81052088737488 8.01925754547119 2.50157904624939 16.9211406707764 37.683032989502 7.02352285385132 2.97386121749878 1.23425495624542 1.28142607212067 50.7171630859375 47.1298980712891 5.58273601531982 6.02248620986938 11.4291877746582 9.72035503387451 7.7492561340332 3.86462497711182 3.44806575775146 3.72492694854736 3.04005312919617 2.66016292572021 2.51054930686951 2.23959851264954 2.11076712608337 2.95809054374695 4.07133150100708 4.35168123245239 5.93275547027588 6.63365030288696 6.7472825050354 6.09347820281982 7.64547348022461 6.42362880706787 4.1869535446167 2.88024640083313 2.38753080368042 3.10515737533569 3.32214903831482 3.65421724319458 2.65515279769897 3.69292330741882 4.16572380065918 4.61100482940674 4.76241827011108 5.80981159210205 5.77066469192505 5.71961832046509 5.0832257270813 4.2867579460144 4.21194744110107 4.72613430023193 4.50560092926025 4.56794738769531 5.02098560333252 5.25825834274292 5.47292900085449 5.49621629714966 5.66268730163574 5.89015817642212 5.59183788299561 5.2804217338562 3.97748804092407 4.29499387741089 3.77575707435608 4.42673444747925 10.4965133666992 7.55377292633057 7.30265951156616 8.47813510894775 4.77943086624146 5.0473256111145 5.35296535491943 5.24457406997681 5.4346661567688 5.52623701095581 5.65766620635986 5.81774520874023 5.68676996231079 5.9932918548584 6.16720771789551 6.15930223464966 6.22290563583374 6.80834627151489 6.63288879394531 6.64410495758057 6.87287282943726 8.06505584716797 11.5160226821899 10.6763315200806 11.6363582611084 11.8482112884521 11.8212060928345 11.343768119812 11.1402921676636 11.3262329101562 10.4788846969604 8.7209939956665 7.05842971801758 6.22940635681152 5.64564323425293 5.52544736862183 5.79512119293213 4.87301635742188 4.75202608108521 4.98596477508545 12.0215711593628 31.7411956787109 20.66579246521 5.71718502044678 6.23277711868286 5.07631301879883 4.34013509750366 3.72820544242859 2.68458986282349 2.41898202896118 2.0652129650116 1.94731938838959 0.898640632629395 1.47807765007019 1.33332753181458 0.337772160768509 0.315829336643219 0.304450005292892
1.2758367061615 2.50466752052307 1.33990228176117 3.24709153175354 4.35812520980835 9.07190799713135 2.4623715877533 1.31883919239044 1.4391496181488 1.14214980602264 -0.450955778360367 -0.89884090423584 -2.07217311859131 -1.77892255783081 -0.650779783725739 -2.30710029602051 -2.3140504360199 2.59703874588013 -2.48851156234741 -2.728511095047 -2.631103515625 -2.42773485183716 -1.67742764949799 -1.33110749721527 -2.49172592163086 -0.606068134307861 -1.80325889587402 -1.03698337078094 -0.498508989810944 16.4863014221191 -1.01651287078857 -1.58810186386108 -1.63634788990021 -1.42334604263306 -1.40007698535919 -0.670045852661133 3.00684189796448 1.5792533159256 -0.691078186035156 -1.03792762756348 -1.75807762145996 -2.18147110939026 -2.21295762062073 -2.47724771499634 -2.48054504394531 -1.52127802371979 -1.54494595527649 -1.03666758537292 4.4716477394104 -0.130787670612335 1.91122472286224 4.15479230880737 5.70028305053711 17.2607040405273 10.5417633056641 42.4876823425293 2.51815938949585 0.868552267551422 8.3388843536377 10.2204208374023 42.4173164367676 0.0666088461875916 1.01115918159485 45.6985702514648 3.51950550079346 30.8571872711182 14.9725379943848 9.04783248901367 5.53225088119507 3.86077380180359 4.09767532348633 3.30080103874207 2.82921433448792 2.82667422294617 2.50390863418579 2.218106508255 2.96330261230469 4.39378595352173 4.70336008071899 5.28786611557007 7.39258193969727 7.28130531311035 7.52037715911865 8.20473575592041 4.54256248474121 6.94534683227539 4.24014616012573 2.78270077705383 3.13932824134827 3.36599850654602 3.73131537437439 2.76068305969238 3.74511289596558 4.21786117553711 4.26094818115234 4.7360143661499 5.5685019493103 6.00706386566162 5.948646068573 5.41206836700439 5.21897411346436 4.30960130691528 4.34963130950928 4.87129592895508 4.76660966873169 5.18649244308472 5.20556545257568 5.34760284423828 5.57480812072754 5.68056392669678 5.90795278549194 5.61283016204834 5.32287549972534 4.55245161056519 3.98593044281006 4.50225830078125 4.52758693695068 5.50909996032715 11.6082887649536 8.24617481231689 9.19439888000488 4.69992923736572 4.98548316955566 5.15700721740723 5.47494173049927 5.5423731803894 5.64527177810669 5.77768564224243 6.19797849655151 6.02326059341431 6.08333587646484 6.15729761123657 6.39391136169434 6.37356376647949 7.07277822494507 6.57986116409302 6.99225664138794 7.07779836654663 7.93454742431641 10.2374849319458 12.1883306503296 12.1180562973022 12.4267740249634 12.400279045105 11.7977609634399 12.0023193359375 11.8772525787354 10.9914579391479 9.34317684173584 7.96462821960449 6.55251169204712 5.99145412445068 5.73996877670288 5.99350118637085 5.01758813858032 4.84245157241821 5.18238162994385 5.84893131256104 5.04106330871582 10.9293937683105 8.77922534942627 15.4564962387085 5.71022462844849 5.32876300811768 3.8515477180481 2.75620293617249 2.66731905937195 2.39917397499084 2.0033802986145 1.59303593635559 1.51570475101471 1.33350336551666 1.38289999961853 0.349538266658783 0.333280980587006
1.31262993812561 2.65144753456116 1.44406926631927 3.43533396720886 4.58722972869873 5.08783483505249 5.54571294784546 2.59092283248901 3.2295446395874 1.81344485282898 1.74156534671783 -0.825723826885223 -1.37146079540253 -1.48694610595703 -1.92446982860565 -2.12897229194641 -2.18044114112854 -2.06132507324219 -1.7757750749588 -1.74170982837677 -2.13416028022766 -2.04026770591736 -1.19930768013 -1.96879720687866 -1.31407761573792 -2.02828407287598 -0.894036114215851 -0.994657754898071 5.91914939880371 -0.212816923856735 -0.859199643135071 -1.15094316005707 -1.41808903217316 -1.03250801563263 -1.01501023769379 -0.74038690328598 -0.632498502731323 -0.774355590343475 -0.50501424074173 -0.365928590297699 -0.665010511875153 -1.49857926368713 -1.92298519611359 -2.22750329971313 -1.79459667205811 -1.26688504219055 -1.0770537853241 -0.716753602027893 2.65619206428528 16.336877822876 -0.425284594297409 21.988302230835 10.0944843292236 13.4463224411011 44.3295783996582 1.07041299343109 3.42808771133423 2.10533285140991 38.2469520568848 48.3491172790527 10.2769041061401 3.93464207649231 1.34512877464294 1.9315847158432 52.0981025695801 2.98602867126465 20.4895572662354 14.33287525177 6.16532230377197 4.46446180343628 4.56461429595947 3.51629495620728 3.60103535652161 3.04796552658081 2.86480808258057 2.34097695350647 3.19133329391479 3.17410922050476 5.02878379821777 5.31534099578857 6.97398042678833 8.62808227539062 8.21319103240967 8.7947826385498 7.08352279663086 7.38978958129883 4.33444547653198 2.89085555076599 3.17573976516724 3.40102910995483 3.80187058448792 2.80741500854492 3.80576705932617 3.90680384635925 4.32853078842163 4.80615520477295 5.35375213623047 6.11419820785522 6.04545783996582 5.98804235458374 5.30425310134888 4.36684226989746 4.39949226379395 4.94201421737671 4.61585664749146 4.8538498878479 5.26791095733643 5.38185453414917 5.6109938621521 5.7191014289856 5.94015169143677 5.46309757232666 5.72029590606689 4.90596151351929 4.09387111663818 4.57438850402832 3.98294162750244 4.73292112350464 12.5687570571899 8.82452869415283 9.87117290496826 10.6521263122559 5.06563568115234 5.24375581741333 5.56928062438965 5.64216423034668 5.71881723403931 5.84171676635742 6.72360229492188 6.13372135162354 5.99039125442505 6.33343410491943 6.54512310028076 6.51789045333862 6.56462001800537 7.43509578704834 7.27227687835693 7.42164468765259 8.26920795440674 10.6696500778198 12.7554740905762 12.654670715332 13.0559043884277 13.0238389968872 12.3731708526611 12.5617666244507 12.4778165817261 11.5464344024658 9.79369926452637 8.42779445648193 6.23219871520996 7.04852962493896 6.52417755126953 6.71670436859131 5.9003791809082 7.84224081039429 5.60339736938477 15.0835666656494 22.5610599517822 5.28767061233521 6.13332176208496 6.17217063903809 14.6432638168335 5.56668996810913 4.73022937774658 3.95696187019348 2.72011017799377 2.55800747871399 2.0463273525238 1.6330361366272 0.877897143363953 1.56974935531616 1.42073917388916 0.366992294788361 0.343846887350082
1.36086988449097 2.79764294624329 1.53456938266754 1.54049587249756 4.61585474014282 5.35050249099731 3.533935546875 2.92030334472656 5.69730710983276 2.51752328872681 2.06947374343872 -0.332699149847031 -1.01603317260742 -0.998135626316071 -0.894593179225922 -1.94504153728485 -1.94914591312408 -1.82114207744598 -1.56264638900757 -1.51022303104401 -1.81371593475342 -1.43692874908447 -0.990854024887085 -0.616231858730316 0.354572176933289 -0.748591721057892 0.860551416873932 -1.34120452404022 -0.423567533493042 0.0741480737924576 -0.134331256151199 3.17269563674927 -0.926442563533783 -0.712039411067963 -0.833899557590485 4.51392507553101 -0.22956457734108 -0.329097121953964 -0.255217760801315 -0.133318886160851 -0.497057676315308 -0.539107441902161 -0.847351312637329 -1.20836675167084 -1.18176901340485 -1.03854894638062 1.28526079654694 -0.342464566230774 -0.0592969618737698 12.4730892181396 6.68260860443115 2.75625872612 34.0932884216309 25.7535076141357 0.510220646858215 9.1914119720459 35.2844467163086 47.5421752929688 7.45835161209106 0.759433090686798 0.477141410112381 2.11080813407898 2.99688458442688 5.25047159194946 -0.0800642147660255 46.8757781982422 37.1435394287109 18.6671676635742 13.3793458938599 5.76203393936157 4.94774484634399 5.10163640975952 3.97466015815735 3.29188871383667 3.07277727127075 2.52101302146912 2.30885982513428 3.65464091300964 5.45832872390747 5.77777767181396 7.46296215057373 9.80362033843994 9.0281457901001 7.88028526306152 9.65803146362305 7.86570262908936 4.53391456604004 3.05896234512329 2.48416996002197 3.23659253120422 3.48075556755066 3.93686890602112 2.76693844795227 3.91459846496582 4.39594173431396 4.87688398361206 5.0543360710144 6.23814296722412 6.14469957351685 6.09786987304688 5.39311170578003 4.54543209075928 4.46717643737793 5.01394987106323 4.63639450073242 4.86024045944214 5.30792331695557 5.42121839523315 5.6543869972229 5.6590142250061 5.83865308761597 6.08061933517456 5.76997089385986 5.47909879684448 4.10696983337402 4.68085145950317 4.04801225662231 4.94672155380249 13.6689414978027 9.53248977661133 9.29497623443604 11.8774003982544 5.02409791946411 5.32350015640259 5.65994358062744 5.5542163848877 5.76858901977539 5.89784717559814 7.2862343788147 6.24999046325684 6.09361600875854 6.47467613220215 6.69203042984009 6.64032888412476 6.72608852386475 7.73421239852905 7.58288764953613 7.78674125671387 8.00474071502686 9.57687377929688 13.3712015151978 13.2989864349365 13.416090965271 14.0026340484619 13.9697914123535 13.1756477355957 13.1525011062622 13.3693342208862 12.3222990036011 9.26210021972656 8.11348247528076 7.45867967605591 7.01874113082886 7.76119232177734 8.74085903167725 8.96625423431396 7.87011003494263 5.4740777015686 5.89616823196411 14.4028062820435 16.6217098236084 6.51354837417603 6.42376708984375 8.85968208312988 4.91447448730469 4.19203042984009 2.91989660263062 2.61460542678833 2.23157000541687 2.11588549613953 1.04458951950073 1.61395490169525 1.45794081687927 0.380957841873169 0.360806494951248
1.5348709821701 1.55083405971527 2.99595189094543 1.63969528675079 3.86909937858582 5.16785192489624 5.70966720581055 4.93905258178711 3.81362843513489 3.2643735408783 3.17678427696228 0.690045237541199 -0.396094501018524 -0.374428957700729 -0.419548690319061 -0.738526463508606 -1.39901959896088 1.56639492511749 -1.22459876537323 -0.929622292518616 -0.54167914390564 -0.286311447620392 -0.190233081579208 0.068357490003109 2.0171070098877 -0.286741495132446 1.5761411190033 3.41550755500793 0.887236893177032 1.82266879081726 0.827186763286591 0.533218562602997 16.1195583343506 -0.562792122364044 -0.41282919049263 -0.823843538761139 0.0947557836771011 -0.0404960699379444 -0.0132656060159206 0.30311706662178 -0.201295375823975 0.182173997163773 -0.077227383852005 -0.455793857574463 0.692343235015869 2.41476511955261 14.0510272979736 8.48024272918701 0.315368354320526 -0.0899290591478348 43.7530632019043 41.2635154724121 5.09423112869263 12.2433996200562 47.9820251464844 46.6283111572266 24.262544631958 2.95402431488037 6.50027799606323 20.5962238311768 8.23929023742676 10.0404329299927 12.3134107589722 7.72440433502197 4.56812381744385 5.24118137359619 0.883384704589844 47.6176490783691 17.8328113555908 8.08349227905273 6.03678417205811 5.96730852127075 4.42524576187134 3.58755898475647 3.62941646575928 2.88465762138367 2.03291320800781 4.00387954711914 5.93216514587402 6.22712564468384 6.50735664367676 11.1621141433716 9.71213436126709 10.2777795791626 10.4071664810181 4.88741683959961 8.60941696166992 4.58315181732178 2.92634296417236 3.28191757202148 3.52554082870483 4.01425266265869 2.92856979370117 3.9735541343689 4.48404216766357 4.52825593948364 5.03382253646851 5.989670753479 6.46076583862305 6.32952356338501 5.79269361495972 5.57837820053101 4.56739234924316 4.61260604858398 5.14951848983765 4.89633989334106 5.35471725463867 5.37740421295166 5.51958274841309 5.77028465270996 5.88390684127808 6.13544273376465 5.82975435256958 5.53552389144897 4.71263027191162 4.76131391525269 4.16924428939819 5.04547691345215 6.93248653411865 15.7564134597778 11.0043516159058 13.4923181533813 4.92348098754883 5.23101806640625 5.42669630050659 5.77077436447144 5.87730693817139 5.99355840682983 6.14687299728394 8.67137908935547 6.48687028884888 6.62099695205688 6.64612770080566 6.94114208221436 6.89145231246948 8.05905628204346 8.25766563415527 8.18087196350098 8.41006088256836 9.50663280487061 14.0449562072754 13.143349647522 14.252347946167 14.811017036438 14.7734088897705 13.9452686309814 13.9113740921021 14.1184692382812 13.0133495330811 10.7650527954102 9.75052928924561 7.90917634963989 7.65470266342163 9.08678150177002 10.2218885421753 11.4270372390747 10.1584568023682 8.9904727935791 8.56608295440674 6.85975313186646 7.27868127822876 7.60020160675049 7.12235260009766 6.02438354492188 6.12917613983154 4.34597635269165 2.99488615989685 2.86852169036865 2.57978844642639 2.15720772743225 1.71385645866394 1.6398059129715 1.44203221797943 1.50833714008331 0.394143670797348
1.66153657436371 1.58583557605743 3.15988945960999 1.75082767009735 4.0893874168396 5.44538640975952 5.99699544906616 5.0882043838501 5.14356517791748 3.58381485939026 3.91054606437683 2.95719456672668 0.151926040649414 -0.348998248577118 0.282047092914581 0.00304640945978463 0.193233519792557 -1.25175714492798 2.98523306846619 -0.603193581104279 -0.201630160212517 -0.279631197452545 0.98073422908783 1.47040843963623 2.58764863014221 0.133634641766548 0.0753050222992897 8.43515110015869 1.53911316394806 2.09711742401123 2.70007109642029 1.05014598369598 -0.177419915795326 1.15430390834808 0.736344754695892 1.13871169090271 3.74982714653015 1.84535658359528 2.33123397827148 8.12744808197021 8.09767055511475 12.2924699783325 0.172890037298203 -0.00468325708061457 7.15750408172607 1.39505469799042 18.8322811126709 49.277400970459 47.48486328125 36.9994850158691 0.188830330967903 0.144009083509445 13.4086561203003 50.4996490478516 5.03095865249634 9.02389335632324 2.26657128334045 17.2892227172852 10.3992729187012 2.18095970153809 11.5981245040894 10.5830402374268 19.9304847717285 17.9911403656006 0.25257596373558 0.131029561161995 11.3162269592285 1.29445028305054 47.7941780090332 10.6279449462891 7.24234485626221 6.89886474609375 5.24626350402832 4.97488307952881 3.9890878200531 3.62861680984497 2.84747982025146 4.4583592414856 3.63368844985962 6.72038173675537 6.98668241500854 8.75395202636719 13.8437242507935 11.9432334899902 11.3314018249512 9.25847721099854 9.24006271362305 4.67326593399048 3.06730914115906 3.32531809806824 3.56777906417847 4.09438037872314 2.96503210067749 4.03995561599731 4.38256788253784 4.62694311141968 5.13300752639771 5.79875755310059 6.61130523681641 6.45903873443604 6.45483350753784 5.70711088180542 4.63642835617065 4.67674922943115 5.22707653045654 4.74592733383179 4.99667167663574 5.43820428848267 5.56577777862549 5.82033157348633 5.9310417175293 6.17949151992798 5.69181394577026 5.97074127197266 5.09251689910889 4.20104455947876 5.02715063095093 4.55572271347046 5.33777570724487 17.6946296691895 12.1874904632568 14.3971462249756 16.8339557647705 5.28388404846191 5.4847207069397 5.85141181945801 5.9659538269043 6.04996299743652 6.19628095626831 9.61306476593018 6.58508396148682 6.46721601486206 6.93577480316162 7.07817029953003 7.04613208770752 7.37291049957275 9.12364864349365 8.43822765350342 8.79835414886475 9.61635494232178 12.3960638046265 15.0553169250488 15.0723190307617 15.7058334350586 15.6673154830933 14.7437534332275 14.8230781555176 14.9788837432861 13.8668565750122 11.5373573303223 10.4399013519287 8.22544002532959 8.63871765136719 8.48753261566162 11.7671775817871 13.2738628387451 14.7694425582886 13.2192697525024 10.9273319244385 7.60722589492798 7.92758655548096 8.53560066223145 7.83131122589111 7.79854917526245 6.43166828155518 5.43718528747559 4.52970695495605 2.94327569007874 2.7733211517334 2.21197724342346 1.74464631080627 0.926414668560028 1.68923008441925 1.53348970413208 0.395199358463287
1.75018131732941 1.64643657207489 3.34397888183594 1.84574842453003 1.8795553445816 5.4486346244812 6.30020999908447 5.82866239547729 5.22353029251099 5.72756767272949 5.10571384429932 4.1534366607666 0.768288791179657 0.465096056461334 1.87310111522675 0.817149639129639 -0.460069924592972 0.687636971473694 7.83212947845459 0.335929811000824 0.0138707598671317 -0.108251571655273 0.644765496253967 1.74687731266022 2.29867815971375 3.18552184104919 0.445446938276291 2.61547255516052 1.14752018451691 2.65536499023438 4.04233837127686 2.8909637928009 0.949053704738617 1.26015293598175 5.81032800674438 5.49857044219971 7.10674810409546 6.40108203887939 10.0919485092163 13.530797958374 20.3295383453369 46.4779624938965 47.976936340332 38.2004013061523 34.5048065185547 39.6309394836426 36.1766700744629 -0.216693878173828 -0.0681301951408386 3.53787589073181 13.2730731964111 49.0946044921875 0.135840579867363 0.0363630242645741 6.21589517593384 1.58414828777313 13.0392589569092 4.02155542373657 3.20935797691345 2.26980519294739 16.0497589111328 20.5697689056396 5.92179012298584 0.134388625621796 1.14982509613037 1.9204432964325 0.841613590717316 2.51916861534119 1.32791817188263 47.2134246826172 11.2875509262085 8.14503574371338 8.12657928466797 5.78377056121826 4.41610670089722 4.01517534255981 3.08060479164124 2.55131840705872 5.11297130584717 7.59992551803589 7.75232982635498 9.42061519622803 17.1221809387207 14.6297903060913 10.7029113769531 12.8704061508179 9.99085521697998 4.88402318954468 3.22759962081909 2.60089421272278 3.39617681503296 3.6637270450592 4.2871618270874 2.88240504264832 4.20804882049561 4.73574018478394 5.25807189941406 5.41490316390991 6.76863718032837 6.61245393753052 6.60965299606323 5.84371662139893 4.88550329208374 4.76957750320435 5.33807945251465 4.78620338439941 5.01525640487671 5.49245452880859 5.61960124969482 5.8768310546875 5.86788463592529 6.0546407699585 6.33195638656616 6.00055503845215 5.68684434890747 4.20315408706665 5.17660808563232 4.64781951904297 5.5341682434082 19.9933376312256 13.8455076217651 13.4879398345947 20.6956386566162 7.0053186416626 5.53856325149536 5.92615795135498 5.83732557296753 6.10422849655151 6.26493453979492 10.848876953125 7.55155372619629 6.87297582626343 7.05217409133911 7.19543361663818 7.13480758666992 7.3150782585144 8.89427280426025 10.6974744796753 9.30377006530762 10.0813102722168 13.0236539840698 15.9192504882812 15.9830341339111 15.8250274658203 17.0724029541016 17.0288352966309 15.6569499969482 16.0218181610107 16.2924900054932 15.1048107147217 11.2635278701782 9.63054084777832 9.63460636138916 9.92581272125244 15.1993360519409 17.0990810394287 19.0172367095947 17.0413150787354 14.741626739502 14.1537275314331 8.31210422515869 8.95774936676025 8.21688747406006 8.19170761108398 6.7586874961853 5.70372533798218 4.8285174369812 3.21553826332092 2.85972690582275 2.43126511573792 2.29540681838989 0.717157542705536 1.72731578350067 1.56574976444244 0.461437612771988
1.90754985809326 1.83270609378815 1.85811281204224 3.58324217796326 1.98972594738007 4.85129404067993 6.13671779632568 6.70396327972412 6.70081615447998 6.88580846786499 6.50307607650757 5.33783960342407 1.88416230678558 2.34558892250061 3.53611993789673 1.08359026908875 0.483973622322083 2.02561736106873 6.82786703109741 19.2657985687256 1.92477428913116 0.272013574838638 0.601739645004272 2.2078104019165 2.63411068916321 3.5840163230896 0.655496656894684 2.9211573600769 0.737118244171143 4.31550073623657 6.02202367782593 5.19223928451538 4.50382328033447 5.64052629470825 9.45153903961182 7.32152557373047 9.09016609191895 8.57411766052246 10.8301210403442 21.6811676025391 9.77157306671143 0.149277895689011 0.268449157476425 4.03584241867065 3.48358106613159 0.595631122589111 7.99005746841431 0.598461091518402 10.0675668716431 50.3640670776367 0.587953448295593 2.91626739501953 2.45181703567505 0.0350359231233597 -0.194231882691383 6.40417146682739 1.73033928871155 1.36033987998962 -0.242791652679443 0.196315780282021 3.8633246421814 5.25680017471313 0.31807753443718 0.163733571767807 2.2800624370575 3.17579507827759 2.89153909683228 6.61412477493286 5.08187484741211 1.87041389942169 15.3928804397583 11.6066160202026 9.49292278289795 7.0468578338623 4.94707345962524 5.0018630027771 3.76059365272522 2.26519632339478 5.99737501144409 8.97746181488037 8.99944114685059 8.10430240631104 22.6025619506836 19.3112144470215 16.0362815856934 14.4241886138916 5.26620578765869 11.4054336547852 4.93841934204102 3.0869836807251 3.45419025421143 3.73074626922607 4.41540098190308 3.15827989578247 4.25787305831909 4.84700059890747 4.9425802230835 5.4514946937561 6.51004886627197 7.07848167419434 6.87825059890747 6.33262968063354 6.0782265663147 4.89739227294922 4.93936729431152 5.55620527267456 5.06955909729004 5.56060171127319 5.60133600234985 5.73355913162231 6.01348733901978 6.11321353912354 6.39716053009033 6.04590797424316 5.71683692932129 4.85770273208618 5.19779634475708 4.91057395935059 5.54707527160645 8.87471294403076 24.0484466552734 16.8646411895752 26.6900444030762 5.01134157180786 5.41244554519653 5.64860868453979 6.05491733551025 6.19204568862915 6.35409021377563 7.01150798797607 13.918285369873 8.02787590026855 7.19894886016846 7.42021465301514 7.51228427886963 7.46676683425903 9.27186298370361 12.1757116317749 9.85556221008301 10.1118297576904 11.4416007995605 16.8478698730469 16.0405578613281 17.3648986816406 18.2374057769775 18.1954727172852 16.9699020385742 17.1561374664307 17.4457130432129 16.1907730102539 13.5621137619019 12.5952663421631 11.0512247085571 11.3903398513794 21.0501098632812 23.4908542633057 26.0617809295654 23.4990539550781 19.0078735351562 18.2338771820068 8.72762584686279 9.42339134216309 8.63665008544922 8.6212043762207 7.12005424499512 6.33094692230225 5.05985975265503 3.32673311233521 3.13734316825867 2.82691621780396 2.36304831504822 1.85307025909424 1.77155303955078 1.54489433765411 1.63711190223694
1.9972585439682 1.95258915424347 1.88350117206573 3.77568531036377 2.0930495262146 4.88541173934937 6.4680871963501 7.0537371635437 7.0805869102478 7.30165338516235 7.00176239013672 5.82652616500854 5.58232402801514 3.22390484809875 1.252077460289 4.25354051589966 1.20203053951263 1.03227019309998 9.02539348602295 -0.758744835853577 2.31252479553223 1.60818266868591 0.77858978509903 2.68681383132935 2.56934118270874 3.90282702445984 0.688832342624664 0.752472937107086 3.2222626209259 4.80139207839966 6.82582426071167 5.96001529693604 5.11276769638062 6.42405557632446 12.0278930664062 9.185471534729 11.6079635620117 11.0311689376831 9.58762645721436 20.3712158203125 44.1256065368652 0.908408761024475 3.26295375823975 9.8301887512207 11.2923278808594 0.267235308885574 0.485619604587555 50.5772972106934 0.371775507926941 0.397786736488342 0.606711804866791 0.501335918903351 8.20376300811768 9.33727264404297 0.200783982872963 -0.177792653441429 -0.182928875088692 -0.214773282408714 -0.155434295535088 4.79933881759644 0.0895910710096359 0.0765367075800896 0.796217679977417 0.342300057411194 0.280544072389603 1.12400841712952 0.665054678916931 2.79664087295532 14.154200553894 14.9896230697632 40.5942840576172 15.5029067993164 12.63600730896 8.28001499176025 7.79855298995972 5.6345911026001 5.05338764190674 3.6970009803772 7.19240617752075 5.3559455871582 11.1679878234863 11.0841503143311 11.980278968811 41.3162040710449 36.3759422302246 16.4049797058105 14.6441345214844 12.8150634765625 5.06381988525391 3.27133798599243 3.51977682113647 3.80110263824463 4.55342054367065 3.2422251701355 4.35464143753052 5.0580940246582 5.0308895111084 5.61318016052246 6.43637752532959 7.25705146789551 7.0768985748291 7.09776258468628 6.2660551071167 5.04031896591187 5.11105298995972 5.74202108383179 4.94959688186646 5.20534706115723 5.67817497253418 5.81287097930908 6.10388278961182 6.20128440856934 6.48521280288696 5.93298292160034 6.2086501121521 5.25823974609375 4.31463289260864 5.45514345169067 4.58844614028931 5.88542413711548 29.2598762512207 19.3165607452393 27.5268516540527 45.909122467041 5.42028331756592 5.65758848190308 6.07578134536743 6.22173500061035 6.35056924819946 6.52306890487671 16.5473499298096 9.57796478271484 15.8248138427734 8.18670082092285 7.81742429733276 7.66519165039062 9.67859172821045 13.9914684295654 10.8230257034302 10.678689956665 11.4620246887207 14.8435754776001 18.2640037536621 18.4652233123779 19.2453575134277 19.4081859588623 18.0464649200439 18.3527698516846 18.7230033874512 17.4046840667725 14.8648071289062 14.453465461731 13.5519580841064 13.926155090332 17.4424877166748 40.6592445373535 44.1109161376953 47.4262390136719 44.066650390625 24.997932434082 9.1774730682373 9.82219123840332 10.1404542922974 9.07250499725342 8.24414730072021 7.65786170959473 5.31904888153076 3.44260835647583 3.23543930053711 3.07179117202759 2.4380464553833 1.91144394874573 1.00870215892792 1.84553027153015 1.67552077770233
2.20664215087891 2.04562640190125 1.94137620925903 3.98189496994019 2.17824673652649 5.16059637069702 6.82156085968018 7.42086744308472 6.56360483169556 7.60208988189697 7.82087898254395 7.50538635253906 6.01469755172729 2.43784189224243 3.84249544143677 5.17563104629517 1.32800245285034 1.23204398155212 1.74816656112671 17.4523639678955 0.416703343391418 0.243673712015152 0.462120592594147 1.46732914447784 3.70184183120728 3.32460474967957 4.36192512512207 1.03276264667511 3.71471071243286 5.27531814575195 5.8999080657959 7.48878860473633 6.51893281936646 6.04112100601196 9.00462341308594 16.3671855926514 11.3007650375366 15.9173889160156 14.891996383667 28.8282070159912 2.69532299041748 19.2114238739014 24.8705558776855 0.954767465591431 0.580552220344543 48.5870819091797 14.7058601379395 0.516012072563171 3.62562251091003 0.810828685760498 0.767877519130707 0.547563135623932 0.32785964012146 0.210730984807014 0.404275476932526 0.47887796163559 2.25735902786255 0.0572480708360672 0.108376741409302 0.051220178604126 0.277061402797699 0.364889800548553 0.471121042966843 0.42903807759285 2.47776317596436 0.853166580200195 4.16052150726318 0.0213271845132113 0.034410048276186 0.845636904239655 12.3626680374146 41.5286445617676 16.790620803833 14.5990676879883 9.11426258087158 6.67573881149292 5.59099864959717 4.06589841842651 2.84150838851929 8.93596172332764 14.5976486206055 14.41184425354 13.8622121810913 3.51347684860229 10.4162263870239 21.3706665039062 20.5788898468018 14.5967388153076 5.34614086151123 3.45548510551453 2.76229810714722 3.63489747047424 4.70527791976929 3.50209975242615 3.04943132400513 4.5814414024353 5.45002460479736 5.79034852981567 5.98960876464844 7.59981489181519 7.31084060668945 7.32859468460083 6.47455501556396 5.39986276626587 5.30550193786621 5.96711492538452 5.03772163391113 5.27110624313354 5.76386642456055 5.90077114105225 6.21228265762329 6.19606304168701 6.40425491333008 6.6546483039856 6.25500440597534 5.93929767608643 4.50619697570801 5.60137462615967 4.60183429718018 5.98937702178955 36.8588829040527 25.0821094512939 23.976131439209 7.76038694381714 5.29466438293457 5.67120599746704 6.10428047180176 6.02780055999756 6.34789419174194 6.51658058166504 20.5179481506348 21.2379627227783 9.42497730255127 8.61489200592041 7.73023796081543 8.85077476501465 8.65275478363037 10.6412744522095 17.380615234375 11.2479801177979 11.9690818786621 15.4947996139526 19.3759326934814 19.6229076385498 19.6422805786133 21.2420711517334 21.3511962890625 20.9467124938965 20.336254119873 20.7888793945312 34.6498756408691 15.2644395828247 29.8632297515869 28.240743637085 28.9107990264893 5.63282775878906 4.94064569473267 4.9924783706665 5.75165224075317 47.3134460449219 46.0991172790527 9.93109130859375 10.7634105682373 9.79003620147705 9.75425338745117 8.23671627044678 6.78992509841919 5.67314386367798 3.60077834129333 3.18810153007507 2.68254542350769 2.53684329986572 0.867758393287659 1.90941822528839 1.7286878824234
2.32389569282532 2.2235906124115 2.13444757461548 4.20996141433716 2.21471858024597 2.40896654129028 6.78276491165161 7.81895971298218 7.35561990737915 8.06304931640625 8.30478954315186 7.98734617233276 6.52489852905273 3.47951626777649 4.6037015914917 6.1933159828186 1.43688642978668 1.46867942810059 0.475850790739059 -0.66140353679657 1.643061876297 -0.0353379994630814 0.582258343696594 1.66467213630676 4.04038286209106 3.85506677627563 5.25227928161621 1.40018963813782 3.96694135665894 4.33864641189575 6.11612129211426 7.98104047775269 6.96897792816162 6.80245780944824 10.8404216766357 21.4986953735352 15.472071647644 20.7908916473389 19.5472164154053 28.2754898071289 43.7550354003906 10.1740856170654 7.71246290206909 47.4399528503418 0.76773738861084 0.429846733808517 2.38938784599304 4.71540069580078 5.16244554519653 0.434819430112839 3.11964583396912 1.66724812984467 1.84073948860168 0.855986297130585 1.28086495399475 0.663773000240326 0.385708183050156 0.258643746376038 1.73285210132599 1.18644738197327 13.7365608215332 1.37883543968201 1.51583003997803 5.58508777618408 3.83933091163635 0.352519869804382 0.232464388012886 2.39483213424683 0.863790810108185 0.227521926164627 9.62152099609375 15.3051128387451 41.9648666381836 19.2227344512939 12.8053274154663 7.8713493347168 7.56481170654297 4.97230625152588 2.60144138336182 11.6902599334717 20.2747402191162 20.1352100372314 9.78096389770508 14.3814382553101 27.1868667602539 46.0404472351074 39.6731834411621 8.46071815490723 18.3048477172852 5.39085674285889 3.29242610931396 3.69201016426086 4.02644824981689 5.00472211837769 2.5686366558075 4.61268329620361 5.7453179359436 5.49334526062012 6.06080055236816 7.33440399169922 8.00159740447998 7.6642894744873 7.07620620727539 6.76086139678955 5.4864182472229 6.19019174575806 4.92038202285767 5.3572998046875 5.86345100402832 5.94008255004883 6.05940055847168 6.38527154922485 6.45213937759399 6.7133526802063 6.3362512588501 6.0279278755188 5.1712589263916 5.68786478042603 4.69951725006104 6.23515272140503 14.3324251174927 57.8776397705078 43.5765151977539 3.46249604225159 5.14965677261353 5.52746152877808 5.79054880142212 6.23672294616699 6.38314867019653 6.53569364547729 10.8430194854736 27.8247375488281 6.7786078453064 7.7027645111084 10.5286493301392 9.20692157745361 14.207727432251 11.3678922653198 20.8041877746582 11.7706508636475 12.1647205352783 14.6887340545654 20.3578147888184 19.6276035308838 21.1798400878906 22.9866275787354 27.5516929626465 27.3299465179443 24.0245532989502 22.5847072601318 17.4231433868408 17.9261283874512 13.5630416870117 12.4196367263794 13.2459564208984 11.6342744827271 6.5614857673645 5.16320753097534 5.01772308349609 5.18942594528198 6.32704257965088 10.5528163909912 11.4349336624146 10.7662754058838 10.3466167449951 9.45750045776367 9.06599235534668 6.02114105224609 3.73658061027527 3.46721649169922 3.1176438331604 2.61597967147827 2.05744624137878 1.97565591335297 1.7107914686203
