NCOLS 171
NROWS 31
XLLCORNER 354064
YLLCORNER 6700656
CELLSIZE 16 
NODATA_value -3.4e+38 
1.07392144203186 1.00621140003204 0.974845230579376 1.07715332508087 0.957076549530029 1.01033341884613 0.933806955814362 0.819137930870056 0.775191366672516 3.91472601890564 7.95556163787842 5.02384471893311 3.74550414085388 3.14699578285217 2.92934560775757 2.59461569786072 2.29523348808289 2.5417811870575 2.64622139930725 3.05111360549927 3.11801195144653 3.3987729549408 3.46398997306824 3.42548441886902 3.40976667404175 3.2684760093689 3.2807183265686 3.32776355743408 3.45021390914917 3.49187183380127 3.52347469329834 3.62148809432983 3.65403151512146 3.74907469749451 3.67399978637695 3.58886933326721 3.53555798530579 3.4427490234375 3.47098517417908 3.40282130241394 3.44102692604065 3.36637449264526 3.28430271148682 3.18545246124268 3.1990385055542 3.2633261680603 3.38682699203491 3.47067451477051 3.53720164299011 3.58349275588989 3.5903468132019 3.5424473285675 3.61924481391907 3.55808472633362 3.77139115333557 3.65396332740784 3.55404591560364 3.602370262146 3.64880180358887 3.50730109214783 3.32849860191345 3.22288870811462 3.11665391921997 2.84804081916809 2.62331533432007 2.47510313987732 2.18976497650146 1.60787343978882 1.4662891626358 1.34244453907013 1.28423392772675 1.16880261898041 1.08173084259033 1.39873600006104 1.04765176773071 1.00301659107208 1.46183502674103 1.45554161071777 1.16609382629395 1.09132039546967 0.995930910110474 0.903578102588654 0.793423712253571 0.705514907836914 0.584812045097351 0.429257363080978 0.261484384536743 0.0766150131821632 0.0770581513643265 0.424666076898575 0.200205683708191 -0.366466671228409 0.00435766065493226 -0.130415409803391 -0.0522099509835243 -0.294344812631607 -0.288866311311722 -0.29950276017189 1.85290324687958 3.18709015846252 3.42906737327576 0.0501095615327358 -0.254493445158005 -0.322482049465179 -0.409612268209457 -0.510866940021515 -0.557753264904022 5.50892543792725 3.54628872871399 2.17586874961853 1.96787762641907 0.69775128364563 0.0938947051763535 0.92134040594101 2.01204299926758 -0.442713379859924 1.56719207763672 1.00621569156647 -0.00525924563407898 2.08324551582336 2.42846655845642 3.46106696128845 3.2402663230896 2.35639715194702 2.35166501998901 0.260733842849731 -0.400014281272888 -0.435963571071625 1.19538283348083 2.85022044181824 1.97652804851532 3.22949528694153 3.94504547119141 2.95324182510376 1.93517160415649 3.42213892936707 3.96721959114075 1.97932505607605 1.97141146659851 1.35743725299835 0.405819594860077 0.377655982971191 0.370702892541885 0.362971514463425 0.344404429197311 0.309707283973694 0.567966282367706 0.236689925193787 0.582280874252319 0.200205683708191 0.12386117130518 0.0624618344008923 0.030269106850028 0.0261921379715204 0.383167892694473 0.0230178125202656 0.0514692105352879 0.0174607150256634 -0.00834073219448328 -0.0206907168030739 -0.0233615152537823 -0.0303091630339622 0.180616930127144 0.293026208877563 0.175387278199196 0.0658721774816513 0.0175333730876446 0.0141289196908474 0.00898910500109196 -0.00290740560740232 -0.0164047051221132
0.938781321048737 0.99609237909317 0.938058257102966 0.833620429039001 0.746828317642212 0.855703294277191 0.795828104019165 0.694911777973175 0.612874448299408 1.25679910182953 6.58105278015137 5.47904014587402 4.82312536239624 3.55415964126587 2.71494507789612 2.68978595733643 2.53471708297729 2.24156928062439 2.05807018280029 2.36878776550293 2.39957451820374 2.69140219688416 2.78021860122681 2.92752194404602 2.93939828872681 2.8440043926239 2.89936971664429 2.9503173828125 3.00426411628723 3.10198354721069 3.22624063491821 3.28070068359375 3.32038569450378 3.40678524971008 3.33836579322815 3.35971832275391 3.45856046676636 3.3764169216156 3.34575510025024 3.26504969596863 3.30020618438721 3.23063635826111 3.0767285823822 2.87385439872742 2.88385391235352 2.93772315979004 2.96091198921204 3.03394675254822 3.1426727771759 3.22713994979858 3.29377794265747 3.340580701828 3.28664803504944 3.29726314544678 3.27483749389648 3.32448744773865 3.27998328208923 3.40528988838196 3.34280633926392 3.37595987319946 3.35031151771545 3.1955451965332 3.04905033111572 2.89017748832703 2.6895477771759 2.52831315994263 2.39379525184631 2.01572585105896 1.80051612854004 1.4740024805069 1.32870519161224 1.13101720809937 0.997047543525696 2.68070840835571 1.06275117397308 0.934534132480621 1.28306877613068 1.46797811985016 1.22960042953491 0.915850579738617 0.721560895442963 0.530794739723206 0.363608479499817 0.41713958978653 0.183307990431786 0.0559010021388531 -0.0625236183404922 -0.00669358531013131 -0.177147224545479 -0.454618602991104 0.148214772343636 0.240680783987045 0.457271456718445 0.0842298343777657 0.131631180644035 -0.376537948846817 -0.37472802400589 -0.379630386829376 1.27476739883423 3.45457458496094 3.69296050071716 0.31744521856308 -0.341512709856033 -0.408723413944244 -0.495265990495682 -0.579226791858673 -0.701328277587891 5.00178861618042 5.82901620864868 2.23356914520264 1.16911149024963 0.865833520889282 0.452490627765656 0.581816494464874 1.31595969200134 -0.16515351831913 0.994949281215668 0.636315226554871 -0.2956762611866 -0.612818360328674 2.14430618286133 4.12608671188354 2.1654634475708 2.25772452354431 2.48865246772766 1.08297502994537 0.91937381029129 0.34852659702301 1.12489688396454 1.65610539913177 1.27097165584564 3.0988233089447 2.54913282394409 1.94383609294891 2.20482993125916 2.69477486610413 3.53410911560059 2.51116275787354 5.39682531356812 2.38870310783386 1.6915647983551 1.28174436092377 2.95751976966858 0.610063076019287 0.327822923660278 0.311148136854172 0.442915290594101 0.307193577289581 0.748955905437469 0.240926668047905 0.182186678051949 0.109104447066784 0.0688170045614243 0.36844265460968 0.484098613262177 0.08029805123806 0.168554916977882 0.0093896659091115 0.0609525851905346 -0.0184566453099251 -0.0306707769632339 0.084721602499485 -0.00150264159310609 0.114309892058372 0.228960379958153 0.0679057091474533 0.0462028719484806 0.0293288305401802 -0.00485496688634157 -0.00723412726074457 -0.0214100107550621
0.843671679496765 0.864259243011475 0.801113843917847 0.809274256229401 0.642023742198944 0.616765022277832 0.592484831809998 0.576526761054993 0.50365149974823 1.61786019802094 9.0305871963501 6.12131404876709 5.42420673370361 4.00829458236694 3.16157054901123 2.65884351730347 2.29518508911133 2.31851577758789 2.19764542579651 1.98910295963287 1.80856335163116 2.12455439567566 2.16871881484985 2.34805774688721 2.34048962593079 2.34522581100464 2.57658982276917 2.62502384185791 2.70418500900269 2.7856297492981 2.83920454978943 2.93244910240173 3.04974365234375 3.08472752571106 3.02422428131104 3.07602667808533 3.14090275764465 3.1755313873291 3.2789032459259 3.1975269317627 3.16667103767395 3.1041464805603 2.94221711158752 2.68992233276367 2.60699701309204 2.68692088127136 2.67074537277222 2.70491790771484 2.74912810325623 2.83764457702637 2.91810059547424 3.01534461975098 2.932936668396 3.03759050369263 3.0910758972168 3.12234234809875 3.1015944480896 3.15516138076782 3.1276388168335 3.20950198173523 3.1412787437439 3.10780501365662 3.06365966796875 2.92661046981812 2.76551389694214 2.57543277740479 2.40077376365662 2.08067035675049 1.97252631187439 1.83325111865997 1.58726143836975 1.26860320568085 1.08824467658997 1.17966651916504 1.30801343917847 1.50169658660889 0.925997376441956 1.56450295448303 0.974724233150482 0.679781973361969 0.470004707574844 0.232039242982864 0.0587399713695049 -0.0371844284236431 -0.030790489166975 0.331738591194153 0.252674371004105 -0.0916747227311134 -0.586046874523163 -0.195165067911148 0.256253331899643 0.165413066744804 0.633337616920471 0.296905666589737 0.512523710727692 -0.431964099407196 -0.435110986232758 -0.318338185548782 0.567488193511963 2.16715478897095 3.03068947792053 1.28328597545624 -0.216714173555374 -0.478881627321243 -0.55192357301712 -0.635496318340302 -0.759498298168182 2.78607654571533 7.37386989593506 3.12037515640259 1.84043145179749 1.15024745464325 0.311617463827133 0.2398372143507 1.21058011054993 -0.129950955510139 0.318952888250351 -0.0451612025499344 -0.648615539073944 -0.720863938331604 0.477009385824203 2.4168758392334 2.59604358673096 1.93436658382416 0.858790993690491 3.75968170166016 1.28350567817688 1.359335064888 1.15381813049316 1.05802631378174 0.937837839126587 0.753189861774445 -0.684656918048859 1.22501266002655 2.01694083213806 2.60076022148132 1.37029814720154 3.88912272453308 6.71996164321899 3.77661538124084 1.95210468769073 0.314581692218781 9.1417407989502 6.87520551681519 1.25580239295959 0.295221209526062 0.268237859010696 0.661337852478027 0.764034330844879 0.434296101331711 0.241003260016441 0.220340818166733 0.72295081615448 0.176436886191368 0.194274961948395 0.572719633579254 0.187288194894791 0.0224393699318171 0.011747925542295 -0.00734001072123647 -0.0244933590292931 -0.0340833552181721 -0.0458916462957859 -0.0468867383897305 -0.0444576814770699 0.330017417669296 0.530977368354797 0.0265522133558989 0.0223548263311386 -0.0215454921126366 -0.042559701949358
0.667053699493408 0.662106812000275 0.731443643569946 0.585868120193481 0.441403448581696 0.430884003639221 2.15921592712402 2.95857405662537 3.86850643157959 4.34049415588379 2.93314790725708 1.29334163665771 3.3015923500061 4.49093246459961 5.03994798660278 2.80762124061584 2.34450888633728 2.1055805683136 1.96376514434814 2.05444955825806 1.84451425075531 1.74450671672821 1.5977201461792 1.74116373062134 1.70486950874329 1.78576827049255 2.08107662200928 2.18763637542725 2.4203040599823 2.48235154151917 2.56391620635986 2.62652182579041 2.68080615997314 2.71755695343018 2.71400451660156 2.81155967712402 2.84947800636292 2.9101870059967 2.97424745559692 3.01665544509888 3.1042115688324 3.03437376022339 2.91538429260254 2.58283448219299 2.36017847061157 2.47724080085754 2.42028999328613 2.53014492988586 2.48179769515991 2.502357006073 2.55505776405334 2.55084347724915 2.58651351928711 2.6936731338501 2.77902340888977 2.87422704696655 2.91946220397949 2.97089076042175 2.94951844215393 3.00937151908875 2.96327328681946 2.99890375137329 2.88105511665344 2.85590958595276 2.7912917137146 2.60090780258179 2.40798854827881 2.14431476593018 1.93080711364746 1.78635120391846 1.69150114059448 1.61073851585388 1.44706070423126 1.17007195949554 1.08460080623627 1.01847732067108 1.23192155361176 0.936813533306122 0.700441956520081 0.938998639583588 0.29887655377388 -0.024931812658906 -0.181222006678581 -0.297153472900391 0.0830140635371208 0.443092852830887 -0.627286851406097 0.0756647884845734 0.224384233355522 -0.157954558730125 0.05912209674716 0.174456149339676 0.592060685157776 0.442245960235596 0.767325878143311 -0.253070533275604 -0.332776725292206 -0.11691901832819 0.352050840854645 0.43142756819725 1.00356638431549 2.52460598945618 0.315812051296234 -0.498338937759399 -0.578478932380676 -0.648319184780121 -0.74351966381073 0.601471662521362 6.27256870269775 2.92322945594788 2.35109519958496 1.71720850467682 0.735618829727173 0.499407798051834 0.80517166852951 0.0141774406656623 -0.0919554233551025 -0.390393912792206 -0.713729798793793 -0.76011449098587 0.531906187534332 -0.168199762701988 0.721175253391266 1.41287970542908 2.22932720184326 4.42430591583252 -0.0260366797447205 0.27734449505806 -0.431004136800766 -0.871260285377502 -0.919048488140106 -0.987836301326752 0.32400706410408 0.806414484977722 0.64863532781601 1.7518755197525 -1.05557608604431 4.30477714538574 8.52737712860107 5.01751375198364 1.07846879959106 8.6374454498291 10.7271423339844 11.3196678161621 5.28450775146484 1.80334031581879 0.193527549505234 1.24957621097565 0.605869829654694 0.241119578480721 0.54171347618103 1.30333042144775 0.950948238372803 0.193490192294121 0.257728606462479 0.247647449374199 0.531305193901062 0.10561914741993 0.00900415051728487 0.192542314529419 -0.00931914523243904 -0.0335027761757374 -0.0413083955645561 -0.0502771101891994 -0.0620039701461792 0.179838284850121 0.423013240098953 0.0754753425717354 -0.0378025881946087 -0.0356540493667126 -0.048512127250433
0.459628969430923 0.511391520500183 0.42175105214119 0.436174988746643 0.492240488529205 0.541722476482391 1.29736471176147 0.364083349704742 0.411610037088394 0.359632551670074 0.342241317033768 0.784726023674011 2.28613448143005 3.7345449924469 5.02445459365845 4.34612274169922 2.55456066131592 2.20948028564453 2.07029604911804 1.8188384771347 1.768306016922 1.78195023536682 1.40643012523651 1.28375685214996 1.17305946350098 1.32678377628326 1.5482189655304 1.67360413074493 1.96424305438995 2.07495665550232 2.28889656066895 2.33821129798889 2.42293667793274 2.45846486091614 2.4394907951355 2.47697424888611 2.57262873649597 2.66708183288574 2.70438694953918 2.76187348365784 2.82141351699829 2.76667523384094 2.69062781333923 2.39350175857544 2.34379291534424 2.2271945476532 2.18634343147278 2.33296418190002 2.28441596031189 2.27090907096863 2.29772448539734 2.34520578384399 2.2951340675354 2.36597275733948 2.46295404434204 2.54262161254883 2.61225295066833 2.73164200782776 2.77679204940796 2.72628021240234 2.65240216255188 2.54139399528503 2.65108799934387 2.76389646530151 2.61473274230957 2.44491147994995 2.33708834648132 2.12263584136963 1.8983473777771 1.78821504116058 1.67920506000519 1.61563587188721 1.60057556629181 1.40231835842133 1.27622425556183 1.09743797779083 0.862759470939636 0.660606265068054 0.581529676914215 0.524093091487885 0.287671476602554 -0.192106455564499 -0.216158702969551 -0.274981290102005 -0.134431540966034 -0.53573077917099 -0.197924435138702 0.438803762197495 0.300662159919739 0.225381419062614 0.0327302627265453 0.206803575158119 0.556397020816803 0.522126197814941 0.895569741725922 -0.0542180240154266 -0.017335020005703 0.0675368756055832 0.52775377035141 0.05231923609972 0.0716896280646324 1.43080472946167 2.36947512626648 -0.282539844512939 -0.581935882568359 -0.649632155895233 -0.76787656545639 0.484426468610764 5.29923057556152 2.19511270523071 1.88741552829742 1.61855232715607 1.13169407844543 0.957806944847107 0.278773963451385 0.0774847790598869 -0.0121290804818273 -0.373036533594131 -0.556203722953796 -0.738288938999176 -0.167052298784256 -0.885560691356659 -0.943876683712006 1.09847402572632 1.22987353801727 1.16205191612244 -0.135852202773094 -0.73843914270401 -1.05910861492157 -1.15174448490143 -1.30753207206726 -1.42666172981262 0.772365629673004 2.20945382118225 -0.135865867137909 0.556438028812408 -1.6272314786911 -1.69097983837128 19.795581817627 9.50643444061279 8.82476425170898 10.9752368927002 9.5083475112915 13.312891960144 8.71566009521484 3.54773116111755 1.98539865016937 1.3397296667099 0.540702700614929 0.149641379714012 0.152699902653694 3.7646598815918 1.78701746463776 0.470483779907227 0.424010396003723 0.348827123641968 0.19347120821476 0.108435951173306 0.0380714684724808 0.0112339146435261 -0.0124162174761295 -0.02551587857306 -0.00867434032261372 -0.0531419441103935 -0.0589192993938923 -0.0710804089903831 0.352337688207626 0.0855139046907425 -0.0022539624478668 -0.0506369657814503 -0.0731626376509666
0.255522310733795 0.208404272794724 1.06944239139557 1.10724067687988 0.392523437738419 0.325282633304596 0.328309327363968 0.272797912359238 0.191704019904137 0.188355311751366 0.300132066011429 0.314182996749878 1.68680143356323 2.80860328674316 4.49898338317871 4.76622819900513 2.67465829849243 2.10426092147827 1.98843848705292 1.88196408748627 1.76925814151764 1.37749600410461 1.18195497989655 1.09417223930359 1.19242525100708 1.1400032043457 1.06670427322388 1.24825716018677 1.47068297863007 1.58986723423004 1.85928440093994 1.96968328952789 2.16237616539001 2.20771026611328 2.15374207496643 2.23777604103088 2.30961561203003 2.35331320762634 2.44683599472046 2.53641152381897 2.57054424285889 2.51086735725403 2.41088891029358 2.33008813858032 2.2728385925293 2.26223826408386 2.20864105224609 2.09192562103271 2.03015160560608 1.99702537059784 2.05889058113098 2.04339361190796 2.08389329910278 2.13831615447998 2.18295526504517 2.21935439109802 2.32416129112244 2.41607022285461 2.48887372016907 2.44461345672607 2.26889681816101 2.13395309448242 2.01484298706055 2.00228548049927 2.15126395225525 2.24930739402771 2.27730059623718 2.02332377433777 1.91164481639862 1.79058611392975 1.66280138492584 1.59765791893005 1.56131613254547 1.41614079475403 1.16717565059662 0.96650367975235 0.799408257007599 0.652423441410065 0.593522191047668 0.363217085599899 0.144442945718765 -0.00755418930202723 0.413164645433426 -0.378244757652283 -0.123038835823536 0.12705497443676 -0.157380819320679 -0.00441230228170753 0.00340143428184092 0.134008064866066 0.0805278792977333 0.155126884579659 0.615799784660339 0.612794876098633 0.92968475818634 0.423586964607239 0.0640261694788933 -0.0422515422105789 0.752752840518951 0.173786804080009 0.23185633122921 1.30315291881561 2.64582681655884 0.615486025810242 -0.333368897438049 -0.631611168384552 -0.727445065975189 -0.294064372777939 2.85697913169861 1.7965270280838 1.45925533771515 1.01273560523987 1.03896582126617 0.943357348442078 0.521898806095123 0.35019126534462 0.23448833823204 -0.322777509689331 -0.416756093502045 -0.668173313140869 -0.765575468540192 -0.806168675422668 -0.985636353492737 -1.08885765075684 -1.21536803245544 -0.913078010082245 1.02086865901947 0.690020620822906 -1.33277642726898 -1.51985085010529 -1.77193665504456 -2.00071263313293 -2.1688711643219 2.98054385185242 5.68870306015015 -1.81512999534607 -2.19845294952393 17.07590675354 14.0340194702148 11.0399951934814 14.6286087036133 12.1514749526978 11.3615064620972 11.8480453491211 9.30557918548584 5.48960781097412 3.45401191711426 1.69875288009644 1.14993262290955 -0.0361817441880703 -0.200214833021164 4.03934812545776 6.78702259063721 6.60956335067749 2.44354748725891 0.362965047359467 0.403848737478256 0.283395886421204 0.311330616474152 0.120470702648163 -0.022307027131319 -0.0354339815676212 -0.0416230447590351 -0.0365469977259636 -0.052920289337635 -0.0696910321712494 0.474537044763565 0.0763751268386841 0.0159918647259474 -0.0748592093586922 -0.0931989327073097
-0.0466203391551971 0.917448222637177 0.133646711707115 0.206691697239876 0.22159132361412 0.197152748703957 0.145212396979332 0.106011867523193 0.10395485907793 0.0972530245780945 0.0865368843078613 0.0732314363121986 1.57373046875 2.84233069419861 3.68464851379395 4.31390523910522 2.89051294326782 2.13844299316406 1.72631704807281 1.72420883178711 1.66606521606445 1.45030534267426 1.11298263072968 0.906147062778473 0.849248051643372 0.953823328018188 1.08425045013428 1.05754554271698 1.01956391334534 1.19104397296906 1.39919281005859 1.50662136077881 1.75779092311859 1.76709353923798 1.81430602073669 1.99692273139954 2.03609776496887 2.13920927047729 2.19601798057556 2.23263669013977 2.26752901077271 2.21756911277771 2.13045001029968 1.90994703769684 1.99986207485199 2.19499850273132 2.14815711975098 2.03733348846436 1.83918356895447 1.82233512401581 1.87654590606689 1.84723722934723 1.93712556362152 1.95095324516296 1.97813558578491 2.00441479682922 2.06248927116394 2.10538482666016 2.09056329727173 2.05458760261536 1.96990466117859 1.81157684326172 1.67072820663452 1.55566239356995 1.73137497901917 1.7643164396286 1.85526132583618 1.89479351043701 1.83231925964355 1.65347063541412 1.61555957794189 1.56400299072266 1.49746561050415 1.32705509662628 1.00934195518494 0.793905735015869 0.619482934474945 0.411668300628662 0.249289259314537 0.156165063381195 -0.0491080433130264 0.0933549404144287 -0.0907416343688965 -0.28177148103714 0.469701588153839 0.198921635746956 -0.341478109359741 -0.12511520087719 0.1037368029356 0.019985131919384 0.0966880694031715 0.33359631896019 0.460508763790131 0.545251190662384 0.778142929077148 0.472283214330673 -0.0276076216250658 -0.0166929811239243 1.00902879238129 0.47743284702301 0.524994611740112 1.44576704502106 2.32901310920715 1.30565142631531 0.218576043844223 -0.152557417750359 -0.500418722629547 -0.509492218494415 1.00044786930084 0.560669839382172 0.740596354007721 0.810975611209869 0.811098873615265 0.556241571903229 0.550118863582611 0.367537826299667 0.22745680809021 -0.0821574851870537 -0.159796595573425 -0.601800501346588 -0.65693461894989 -0.872754395008087 -1.02567422389984 -1.19833934307098 -1.39411556720734 -1.47217762470245 0.36527356505394 -0.842210948467255 -1.64047956466675 -1.92222392559052 -2.54594945907593 -3.08298373222351 -2.78594017028809 9.06871604919434 13.4762668609619 -2.84591841697693 -2.99516177177429 17.870662689209 26.3911380767822 21.0496978759766 18.0342445373535 16.873046875 13.9208860397339 11.4271955490112 8.31393527984619 6.22394800186157 4.37555742263794 2.81941318511963 1.3445817232132 -0.27138951420784 -0.407991766929626 -0.443611770868301 10.5418691635132 14.0042896270752 5.2518367767334 2.64925670623779 0.715022206306458 0.1645388007164 0.79958564043045 0.260405987501144 0.0470599941909313 -0.00537393242120743 -0.0432067103683949 0.0104228686541319 -0.0741377249360085 -0.0601262897253036 0.266675978899002 0.0924795791506767 0.0545114241540432 -0.0680055320262909 -0.0994389206171036
-0.0666079744696617 -0.14604814350605 -0.0491864681243896 0.025000536814332 0.0450995117425919 0.0489053055644035 -0.00564855942502618 -0.020487142726779 -0.0492399856448174 -0.122451916337013 -0.0771984234452248 -0.0261435974389315 1.56769716739655 3.00172805786133 4.18743944168091 3.80335426330566 2.48788332939148 2.47571301460266 2.4278256893158 1.71429347991943 1.34680616855621 1.46263563632965 1.21401655673981 1.01141655445099 0.895850121974945 0.738846838474274 0.800096809864044 0.925241351127625 1.02560329437256 0.993139505386353 0.969312846660614 1.12319135665894 1.31259179115295 1.29420876502991 1.39270842075348 1.62171494960785 1.73946893215179 1.91951632499695 1.92525041103363 2.01778864860535 2.05265092849731 2.02308535575867 1.94019627571106 1.71615207195282 1.66244149208069 1.78214633464813 1.8332200050354 1.78365576267242 1.63578355312347 1.47811019420624 1.66320276260376 1.70091378688812 1.78712546825409 1.75996720790863 1.82803499698639 1.84237241744995 1.87015640735626 1.88851535320282 1.93424665927887 1.90041518211365 1.77296841144562 1.57643818855286 1.41454327106476 1.26551055908203 1.24625647068024 1.39320254325867 1.45140182971954 1.47605061531067 1.47878313064575 1.49969553947449 1.52326536178589 1.43086504936218 1.18194031715393 0.928095936775208 0.818378567695618 0.587362051010132 0.362027794122696 0.259518086910248 0.345780968666077 -0.175166562199593 -0.311658471822739 -0.285827398300171 -0.0661708414554596 -0.248073056340218 -0.0927129089832306 0.431509524583817 -0.295336544513702 -0.288409143686295 -0.0520323663949966 0.156820759177208 0.121208354830742 0.619487702846527 0.27254980802536 0.45388388633728 0.47170951962471 0.275158882141113 0.0413226373493671 0.257154881954193 1.08927023410797 0.831407904624939 0.924249351024628 1.53190588951111 1.93382084369659 1.93922412395477 0.920818090438843 0.261645406484604 -0.199940636754036 -0.389342188835144 -0.589763879776001 -0.668540120124817 0.196532249450684 0.377321511507034 0.589835822582245 0.472617298364639 0.314071148633957 0.0898373872041702 -0.0482004955410957 -0.0602679848670959 -0.14237342774868 -0.359931379556656 -0.418551415205002 -0.772813081741333 -0.905571103096008 -1.19045674800873 -1.42357563972473 -1.53365564346313 -1.58902585506439 -1.67042911052704 -1.90469944477081 -2.34301900863647 -3.26817750930786 -3.47195839881897 2.49253821372986 7.35479116439819 6.61003541946411 1.56694638729095 0.145592004060745 5.35151863098145 23.6126823425293 29.7979984283447 29.4715766906738 16.9108180999756 14.1105260848999 11.9818449020386 8.77851009368896 6.8535327911377 4.86548852920532 2.64622497558594 1.00122010707855 0.33374696969986 -0.171824529767036 2.88454484939575 7.83003091812134 15.119517326355 9.24014186859131 5.95607995986938 2.80305314064026 1.59489631652832 0.534952163696289 0.498632192611694 0.239526689052582 0.0509258769452572 -0.0430018119513988 -0.0604404471814632 -0.0768524184823036 -0.0926462411880493 0.0280447546392679 0.223086506128311 0.196162268519402 -0.0420001037418842 -0.0789095386862755
-0.255320250988007 -0.265649527311325 -0.250107944011688 -0.224387466907501 -0.184107854962349 -0.163251936435699 -0.179286256432533 -0.158317059278488 -0.20242241024971 -0.290589183568954 -0.269522398710251 -0.28499037027359 1.70046353340149 2.44436573982239 4.56403541564941 4.21696424484253 2.23046350479126 2.46052360534668 3.38631153106689 3.0721538066864 1.70988321304321 1.58212506771088 1.21709561347961 1.17608451843262 0.996933221817017 0.91193962097168 0.860579252243042 0.80456554889679 0.765775144100189 0.867807388305664 0.945041000843048 0.911102116107941 0.910380899906158 0.887259304523468 1.04972231388092 1.22733569145203 1.36392641067505 1.5388571023941 1.63488829135895 1.81035304069519 1.84929919242859 1.81277120113373 1.67144298553467 1.48072052001953 1.34926891326904 1.29091608524323 1.36073768138885 1.34712505340576 1.31222712993622 1.16436350345612 1.18152153491974 1.36939036846161 1.58895254135132 1.61654150485992 1.68547487258911 1.65492260456085 1.61321330070496 1.62441825866699 1.62865900993347 1.60272681713104 1.50323688983917 1.25822520256042 1.13815498352051 1.01309025287628 0.920999526977539 1.01315903663635 1.02399682998657 1.12309610843658 1.14137876033783 1.02638053894043 0.865603983402252 0.759439885616302 0.61834192276001 0.548633635044098 1.09328496456146 0.634990334510803 0.279203146696091 -0.0484550818800926 0.538558185100555 -0.197554960846901 -0.329008460044861 -0.191859290003777 -0.364754498004913 -0.360246747732162 -0.477657824754715 -0.127737984061241 0.0126768313348293 -0.308503001928329 -0.422878414392471 -0.296605139970779 0.705058515071869 1.06518185138702 0.408615976572037 0.546767354011536 0.220122247934341 0.0855822041630745 0.51722252368927 0.844942450523376 1.25673079490662 0.941320300102234 0.990975260734558 1.58021426200867 1.7153537273407 1.42923474311829 1.11798417568207 0.49510732293129 0.050740048289299 -0.198195397853851 -0.414708912372589 -0.506878256797791 -0.314560860395432 0.182967126369476 0.130103394389153 0.0555439814925194 0.176505282521248 0.033127136528492 -0.102378569543362 -0.248479083180428 -0.308719456195831 -0.292964607477188 -0.357549726963043 -0.508943617343903 -0.642593026161194 -1.15049946308136 -1.33072173595428 -1.47972190380096 -1.56870234012604 -1.76662147045135 -2.04317355155945 -2.63624095916748 -3.2422239780426 -3.55462408065796 -1.10706317424774 3.53224492073059 6.94743204116821 2.39507150650024 2.90291213989258 7.30345773696899 18.5699901580811 32.4819183349609 33.3248252868652 23.55299949646 17.7153358459473 13.3191795349121 10.4331436157227 8.05661487579346 5.97323703765869 4.73275518417358 2.16319751739502 0.974705815315247 0.123451858758926 7.09842395782471 8.28977012634277 15.0533590316772 11.2702617645264 7.71694755554199 5.43352794647217 3.63156533241272 2.00703620910645 1.22633635997772 0.490111738443375 0.210778683423996 0.079362541437149 -0.0428042635321617 -0.0825000703334808 -0.0943537354469299 -0.101718209683895 0.165809214115143 0.32847386598587 -0.0337591618299484 -0.0735837817192078
-0.462309509515762 -0.521652162075043 -0.505904257297516 -0.434340208768845 -0.4324751496315 -0.431122153997421 -0.386288672685623 -0.334888011217117 -0.36652660369873 -0.457401812076569 -0.439368277788162 -0.460008084774017 1.82487368583679 0.719017267227173 3.07382917404175 5.41843366622925 2.31056070327759 2.62704277038574 3.7105770111084 4.10646295547485 2.47149991989136 1.64127779006958 1.45151364803314 1.16723966598511 0.897208631038666 1.36696684360504 0.931342720985413 0.807436108589172 0.802032589912415 0.737448573112488 0.689362704753876 0.766205906867981 0.775895476341248 0.865453481674194 1.54521512985229 1.05488073825836 1.03477466106415 1.13854587078094 1.24948477745056 1.46928095817566 1.49406254291534 1.45829117298126 1.34394121170044 1.2081470489502 1.09846520423889 1.00940942764282 0.986562728881836 0.985077023506165 0.939293146133423 0.855242669582367 0.780216693878174 0.866013824939728 1.11683833599091 1.29807901382446 1.52560770511627 1.50743234157562 1.4623908996582 1.34159171581268 1.17024028301239 1.10123777389526 1.0308690071106 0.945442497730255 0.831664264202118 0.728541553020477 0.692638874053955 0.72980010509491 0.761909961700439 0.772163689136505 0.737902641296387 0.557244062423706 0.380550742149353 0.239721938967705 0.158545017242432 -0.0347776003181934 1.22876751422882 0.72676146030426 0.845652639865875 0.129814356565475 -0.00841920264065266 -0.190147176384926 -0.274372339248657 -0.398531198501587 -0.467701703310013 0.365437477827072 -0.511978685855865 -0.629663109779358 0.203033357858658 -0.509352087974548 -0.549001514911652 -0.30803856253624 1.69013166427612 1.57359397411346 0.485355287790298 0.681142687797546 0.369043678045273 0.309718728065491 0.541139781475067 0.950852632522583 1.47790265083313 1.15335381031036 1.16819655895233 1.8316695690155 1.61537599563599 1.57048177719116 1.30247020721436 0.655667245388031 0.251018911600113 0.0404395647346973 -0.132153853774071 -0.265592366456985 -0.403661012649536 -0.370634347200394 -0.458099961280823 -0.398997664451599 -0.249326348304749 -0.333120673894882 -0.390605390071869 -0.247190117835999 -0.321166843175888 -0.422415107488632 -0.443757683038712 -0.417089015245438 -0.562178611755371 -0.917869567871094 -1.19850420951843 -1.36637771129608 -1.51566863059998 -1.74316596984863 -2.07818984985352 -2.68299245834351 -3.08936214447021 -3.42122554779053 -3.5884096622467 0.276729792356491 3.41574144363403 4.65412712097168 7.58000612258911 10.4401578903198 13.9901294708252 24.4849948883057 35.9749031066895 25.8819713592529 19.5360221862793 16.8374347686768 12.851936340332 10.1082677841187 7.18685150146484 4.96461725234985 3.18396401405334 2.65622329711914 1.03479254245758 8.05641555786133 8.99269104003906 15.8656778335571 10.8344736099243 8.37224674224854 6.06131887435913 4.80752897262573 4.0274076461792 2.7103168964386 1.86051094532013 1.49442219734192 0.853698313236237 0.227912127971649 0.0169342793524265 0.0196982640773058 -0.101154342293739 -0.103701770305634 -0.0764844119548798 0.167626023292542 -0.0473468601703644
4.65336751937866 0.233550190925598 -0.730780363082886 -0.348253399133682 -0.0368010550737381 -0.59350460767746 -0.584015369415283 -0.564216673374176 -0.546021461486816 -0.620425462722778 -0.602842152118683 -0.605209469795227 1.22150349617004 -0.33492186665535 0.0165700390934944 6.43696737289429 2.91344428062439 2.18184590339661 3.01762557029724 4.37025737762451 4.21006202697754 3.31633710861206 1.61914551258087 1.4109890460968 0.897680282592773 0.765600562095642 1.8783118724823 1.55057966709137 0.835834503173828 0.728561043739319 0.697773814201355 0.654604375362396 0.61350005865097 1.53430831432343 1.21840596199036 1.05543649196625 0.792213141918182 0.792840659618378 0.940892040729523 1.10117077827454 1.09283375740051 1.07699203491211 1.04994416236877 0.95490700006485 0.880002915859222 0.850946843624115 0.81545352935791 0.734063923358917 0.699424982070923 0.658446073532104 0.585764169692993 0.547532439231873 0.639270067214966 0.818946897983551 1.07980954647064 1.07728409767151 1.0411239862442 1.01092231273651 0.930662870407104 0.82341206073761 0.718329310417175 0.651604413986206 0.53676176071167 0.529869914054871 0.501725971698761 0.499245822429657 0.535887956619263 0.490503996610641 0.398228108882904 0.224672794342041 0.0252293664962053 -0.207231000065804 -0.382896989583969 -0.529813528060913 1.01921629905701 1.06332468986511 0.200205683708191 0.467925846576691 1.07416725158691 -0.25439578294754 -0.323704779148102 -0.323583602905273 -0.410025179386139 -0.523518323898315 -0.795663893222809 -0.849436461925507 0.220450103282928 0.417426466941833 -0.769627034664154 -0.761642336845398 2.30262327194214 2.85712909698486 1.10205173492432 1.02798342704773 0.540934920310974 0.26530995965004 0.367909908294678 0.967486321926117 1.44859290122986 1.38703596591949 1.56203234195709 1.97753763198853 1.71387982368469 1.74765837192535 0.886544704437256 0.601518392562866 0.391206085681915 0.210396692156792 0.0643755495548248 -0.0838824957609177 -0.254216909408569 -0.401678949594498 -0.541342198848724 -0.608120501041412 -0.656163692474365 -0.674362778663635 -0.716486573219299 -0.509875237941742 -0.540624976158142 -0.357390731573105 -0.41114205121994 -0.518757581710815 -0.629658758640289 -0.757693588733673 -1.00113618373871 -1.26568078994751 -1.44629001617432 -1.67902004718781 -2.03321886062622 -2.50643229484558 -2.94365382194519 -3.22866177558899 -3.45560741424561 -0.767066359519958 4.71787548065186 6.51234436035156 8.53878688812256 10.5058565139771 12.0197982788086 15.8422288894653 27.2331275939941 29.6764659881592 21.1550235748291 17.8527908325195 15.2583208084106 12.6218976974487 10.0344333648682 8.05899620056152 4.93674898147583 2.68812012672424 1.64869022369385 2.64911198616028 6.92985200881958 20.2444152832031 16.0196590423584 9.84787750244141 6.65009021759033 5.29754447937012 4.59383010864258 3.67658638954163 3.16707801818848 2.86443734169006 1.92028713226318 1.18368089199066 0.641016960144043 0.116825498640537 -0.0334613434970379 -0.0968532562255859 -0.111853189766407 -0.112218432128429 -0.0281813591718674
9.20773315429688 4.28830003738403 1.26781761646271 1.05548632144928 1.30450463294983 -0.0393965244293213 -0.660149574279785 -0.698911368846893 -0.699725270271301 -0.730213761329651 -0.775353133678436 -0.717728495597839 0.0955815762281418 -0.623420238494873 -0.551383376121521 5.58023023605347 2.87462520599365 2.09819483757019 2.1396815776825 2.90612769126892 2.64289617538452 3.67313957214355 5.97323179244995 3.59648633003235 0.994081556797028 0.759080708026886 1.13549315929413 0.697860538959503 2.04061198234558 1.95417869091034 0.7641721367836 0.667926490306854 0.653561651706696 1.94473659992218 1.53321528434753 0.637998163700104 0.673555076122284 0.73600572347641 0.806742310523987 0.77805107831955 0.752389311790466 0.733845889568329 0.770050346851349 0.751478493213654 0.705700576305389 0.706349730491638 0.693387627601624 0.635040760040283 0.582338333129883 0.549794435501099 0.478932470083237 0.39912223815918 0.390228033065796 0.442526638507843 0.607835114002228 0.709233820438385 0.708864033222198 0.688010334968567 0.602147400379181 0.51261579990387 0.375348597764969 0.36391007900238 0.349719226360321 0.360655635595322 0.359416157007217 0.387989789247513 0.332751363515854 0.296481907367706 0.164315938949585 -0.0126404743641615 -0.22369796037674 -0.468229979276657 -0.657138347625732 -0.740765154361725 -0.793051302433014 0.267099440097809 1.34147715568542 1.47615528106689 0.69854348897934 0.406539708375931 -0.244505628943443 -0.455140560865402 -0.39987376332283 -0.674869775772095 -0.876981377601624 -0.290062010288239 -0.182624980807304 0.127983868122101 -0.882617592811584 -0.968065977096558 3.52410697937012 2.86773037910461 1.41775965690613 1.44261348247528 0.872653126716614 0.336068779230118 0.316015988588333 0.753790855407715 1.13191556930542 1.30991125106812 1.71378421783447 1.95917248725891 1.88528478145599 2.32846736907959 0.881663739681244 0.543992519378662 0.432519823312759 0.355579286813736 0.194470405578613 0.0163871999830008 -0.157507970929146 -0.295724868774414 -0.456053614616394 -0.543586850166321 -0.619230091571808 -0.659808874130249 -0.693070769309998 -0.709431350231171 -0.73303234577179 -0.379110962152481 -0.614841759204865 -0.523449599742889 -0.624125421047211 -0.817049741744995 -1.02677035331726 -1.19540023803711 -1.3604633808136 -1.62108051776886 -1.92323756217957 -2.34927320480347 -2.73204874992371 -3.01901698112488 -3.23485159873962 -0.190452292561531 5.0610203742981 9.57065391540527 11.7914028167725 13.251202583313 14.0947198867798 15.2364854812622 18.1218566894531 25.2509136199951 20.8810691833496 17.3968353271484 15.7507905960083 13.4020652770996 10.779673576355 9.46108722686768 6.79588890075684 4.84845495223999 2.02325344085693 0.230709254741669 9.01058769226074 18.6991596221924 21.139497756958 21.5712451934814 14.2477989196777 6.17247724533081 5.01684474945068 4.07873106002808 3.63697457313538 3.29856824874878 2.57359004020691 2.36498022079468 1.53930020332336 0.961604058742523 0.517751395702362 0.0390039049088955 -0.0346539951860905 -0.0674698427319527 -0.121675327420235
7.35483121871948 10.3163537979126 4.66410160064697 2.57582640647888 2.15734696388245 0.803122997283936 0.304200112819672 0.592415809631348 -0.832004725933075 -0.811786949634552 -0.835529983043671 0.815264642238617 0.6043820977211 -0.727664947509766 -0.686839520931244 3.79465007781982 2.15306925773621 1.71664619445801 1.29781448841095 1.41627907752991 0.870290398597717 1.49940323829651 8.30983352661133 8.39703273773193 1.25386106967926 0.828516602516174 0.746246337890625 0.649857103824615 1.38228499889374 1.43062722682953 1.85133385658264 1.06120812892914 0.690131723880768 0.950556993484497 1.00925445556641 0.573540985584259 0.519440889358521 0.56914097070694 0.650065839290619 0.719926774501801 0.706886410713196 0.678881585597992 0.665374577045441 0.584742069244385 0.565270125865936 0.586871683597565 0.572091698646545 0.546706736087799 0.512888371944427 0.461993366479874 0.407730847597122 0.342615693807602 0.269030034542084 0.216303527355194 0.233074069023132 0.272011756896973 0.274860352277756 0.260771304368973 0.236316218972206 0.203215226531029 0.163609907031059 0.24236099421978 0.216078832745552 0.155613243579865 0.184810623526573 0.62187796831131 0.17801658809185 0.185154631733894 0.0700509399175644 -0.125936836004257 -0.35922235250473 -0.606763899326324 -0.740403175354004 -0.885462522506714 -1.05631852149963 -1.18266725540161 3.20303678512573 3.29448509216309 3.09957242012024 1.03250348567963 -0.029356149956584 -0.118968062102795 -0.598545551300049 -0.786088347434998 -0.974349856376648 -0.968567371368408 -0.0694356709718704 -0.447573184967041 -1.02001368999481 -1.02926898002625 2.90744924545288 2.50898146629333 1.92652082443237 1.94709706306458 1.01948857307434 0.692530035972595 0.427561908960342 0.574864089488983 0.818747341632843 1.15011763572693 1.61638605594635 2.0150580406189 2.01983332633972 2.20176076889038 1.05801248550415 0.574422538280487 0.488613933324814 0.364836513996124 0.227266550064087 0.123248994350433 -0.0570394173264503 -0.186614528298378 -0.346257448196411 -0.446211397647858 -0.541971206665039 -0.601838767528534 -0.656524658203125 -0.683789670467377 -0.698939561843872 -0.743365705013275 -0.792202055454254 -0.737338244915009 -0.86809515953064 -0.839312255382538 -0.963268280029297 -1.14286863803864 -1.30169987678528 -1.51152837276459 -1.79448592662811 -2.17687106132507 -2.48386764526367 -2.7530038356781 -2.94431376457214 0.250129669904709 6.52791213989258 10.2152709960938 11.4628849029541 10.8598537445068 11.9549427032471 13.0765600204468 14.882776260376 18.4100074768066 17.0768985748291 16.0801753997803 15.5724639892578 13.016019821167 10.6572427749634 9.29217433929443 6.90407466888428 5.64904403686523 3.31293392181396 1.46169352531433 10.7375068664551 15.8979663848877 14.3562488555908 16.6703624725342 28.5059146881104 21.3831977844238 6.04496240615845 4.67803144454956 4.325608253479 3.68168807029724 2.93108344078064 2.70926761627197 2.13052678108215 1.97718834877014 1.27374172210693 0.796312987804413 0.377260118722916 0.121852703392506 -0.048108696937561
0.1863132417202 10.7041816711426 8.45237350463867 6.90312957763672 3.84385395050049 1.96415269374847 0.73294860124588 0.617165684700012 -0.545102298259735 -0.917362034320831 0.273587971925735 1.82131195068359 1.90955543518066 -0.205098479986191 -0.807549178600311 2.32203030586243 2.03558325767517 1.13256645202637 0.151914805173874 -0.0325708203017712 3.01626348495483 4.53624868392944 7.64398241043091 10.683856010437 4.96430206298828 1.85702800750732 0.892052888870239 0.693386256694794 0.672770023345947 1.13631248474121 0.929575502872467 0.788017511367798 1.98673379421234 1.74479234218597 0.643093109130859 0.547269999980927 0.504530608654022 0.531402587890625 0.644703507423401 0.530910849571228 0.582394361495972 0.610888659954071 0.669141590595245 0.642893671989441 0.632428586483002 0.568455457687378 0.496432334184647 0.464159786701202 0.447640746831894 0.408645272254944 0.349635571241379 0.286644905805588 0.211024478077888 0.145837143063545 0.110285751521587 0.0945109948515892 0.0790236294269562 0.0611715465784073 0.0414315536618233 0.0262481421232224 0.045652974396944 0.229178950190544 0.325946778059006 0.191128447651863 0.138595908880234 0.618340313434601 0.20658466219902 0.0747530460357666 -0.0405505150556564 -0.267773002386093 -0.57156902551651 -0.853018820285797 -1.13750171661377 -1.33777379989624 -1.60563039779663 -1.7129989862442 3.20514750480652 10.0872049331665 5.53844261169434 1.70350706577301 1.94015192985535 0.666828572750092 -0.628680229187012 -0.790988266468048 -1.02930176258087 -0.56130063533783 -0.812615096569061 -1.0369747877121 -1.12254440784454 -0.554033994674683 1.91482698917389 3.1658046245575 1.65932655334473 2.62374377250671 2.18694734573364 1.03415596485138 0.718297958374023 0.449259519577026 0.612330436706543 0.879413425922394 1.39455842971802 2.22010684013367 2.51173543930054 2.12205696105957 1.34172296524048 0.728464066982269 0.575375735759735 0.441579610109329 0.290234327316284 0.159116730093956 0.0180867277085781 -0.0702940002083778 -0.235299050807953 -0.352431267499924 -0.470161288976669 -0.550079047679901 -0.592480897903442 -0.651624500751495 -0.682927548885345 -0.732316493988037 -0.791595160961151 -0.838286399841309 -0.937479794025421 -0.964401364326477 -1.02183640003204 -1.10014033317566 -1.28206694126129 -1.47899329662323 -1.75438737869263 -2.00888776779175 -2.28913116455078 -2.53908634185791 -2.64964485168457 0.717464864253998 5.81302070617676 8.66017913818359 9.03514671325684 9.88490676879883 11.4262351989746 13.0016775131226 15.3987073898315 14.8530921936035 14.3499069213867 14.6573143005371 14.1188764572144 11.3735704421997 9.98465824127197 8.50522041320801 6.93350219726562 5.19056558609009 2.98514795303345 2.16448402404785 11.5239400863647 17.682279586792 18.7814083099365 15.9951868057251 22.3687305450439 30.1984977722168 16.7419204711914 7.84064531326294 4.93983364105225 4.13521385192871 3.55581212043762 2.98092222213745 2.47071719169617 2.2642617225647 1.78693628311157 1.69728171825409 1.04846942424774 0.852210938930511 0.642301857471466
-2.18375205993652 6.33715867996216 15.3269052505493 13.4041986465454 6.08744192123413 3.42471933364868 1.55299913883209 0.962733805179596 1.21963286399841 0.607959628105164 1.24289834499359 2.31049394607544 1.96977710723877 0.171091139316559 -0.486352652311325 0.532479882240295 1.98742353916168 0.947079718112946 -0.220000073313713 -0.941653728485107 3.57340884208679 8.10895919799805 8.52509307861328 11.2375297546387 6.28976154327393 3.27550840377808 2.60644388198853 1.05898666381836 0.742678463459015 0.623241066932678 0.619700491428375 0.568710267543793 1.0022144317627 1.16928899288177 1.97710108757019 0.556533634662628 0.461169809103012 0.511620163917542 0.57870215177536 0.521440327167511 0.485769629478455 0.483073174953461 0.500060498714447 0.583955824375153 0.639523208141327 0.615921795368195 0.59836733341217 0.514864981174469 0.429840236902237 0.417563050985336 0.313988357782364 0.235424160957336 0.177299797534943 0.143601432442665 0.103777833282948 0.0273584499955177 -0.0677133798599243 -0.130922883749008 -0.142411887645721 -0.0368147157132626 0.0946799963712692 0.131492182612419 0.332353264093399 0.171184167265892 0.168642312288284 0.681006073951721 0.312825918197632 0.218463733792305 -0.126060396432877 -0.347757339477539 -0.614785611629486 -0.876791298389435 -1.13597011566162 -1.66434168815613 -1.90993368625641 -1.99630796909332 5.11661958694458 8.49996089935303 11.3345737457275 5.98631143569946 1.75566565990448 0.137801721692085 0.0390686765313148 -0.884203612804413 -1.1292370557785 -0.250488758087158 -0.423450350761414 -1.17049431800842 -1.31055295467377 -1.31339311599731 -1.03294050693512 2.43104362487793 4.17112064361572 3.20208358764648 3.10935187339783 2.94134783744812 1.4264087677002 0.567445755004883 0.779385805130005 0.738247931003571 1.02609884738922 2.36178398132324 2.92676949501038 2.38885307312012 1.59529674053192 0.910146057605743 0.651997148990631 0.529066801071167 0.369210809469223 0.23985593020916 0.107287086546421 -0.0225763469934464 -0.158401876688004 -0.275539517402649 -0.391945660114288 -0.487910628318787 -0.524961769580841 -0.590439438819885 -0.632189273834229 -0.688469290733337 -0.769908666610718 -0.83991551399231 -0.920681715011597 -0.947491109371185 -1.00398707389832 -1.09003031253815 -1.25470852851868 -1.48916435241699 -1.65074372291565 -1.8385214805603 -2.20590090751648 -2.44053602218628 -2.45558762550354 -0.197579950094223 2.45826125144958 7.18741703033447 7.09050130844116 7.80693912506104 11.5912046432495 14.0650901794434 14.615626335144 13.3142194747925 12.6388216018677 12.4658889770508 12.0626621246338 9.97979354858398 8.9901819229126 8.02022552490234 6.71378564834595 4.63200187683105 3.38341999053955 2.52614164352417 6.38385677337646 18.932674407959 21.9708366394043 24.9219665527344 22.102014541626 21.44065284729 18.3211841583252 13.1953706741333 10.3371801376343 5.60584592819214 4.91404104232788 3.38095855712891 2.98597526550293 2.49020576477051 2.1044008731842 1.9470911026001 1.54331684112549 1.46352624893188 1.39557147026062
-2.14973330497742 -2.25468683242798 11.664831161499 18.8254642486572 11.4276809692383 6.5949592590332 3.77898931503296 2.52004766464233 2.74809384346008 2.39936542510986 2.3463134765625 2.00159788131714 1.13655710220337 0.932362914085388 0.371190249919891 0.122735843062401 1.70134425163269 0.626579999923706 0.117627635598183 -0.958545207977295 1.07050752639771 5.88080453872681 10.7940120697021 11.0109233856201 7.10859680175781 4.32164287567139 3.18332672119141 2.01319694519043 1.76828587055206 0.829894244670868 0.688695311546326 0.626586973667145 0.535897552967072 0.706711173057556 1.07534170150757 0.968387603759766 2.56849193572998 0.644483149051666 0.430695176124573 0.485473990440369 0.485673278570175 0.487754821777344 0.462914168834686 0.423331528902054 0.4856918156147 0.547471821308136 0.586073100566864 0.573963761329651 0.474886417388916 0.368287801742554 0.290948569774628 0.222834959626198 0.195435613393784 0.11132825165987 -0.0467982813715935 -0.125102013349533 -0.138585492968559 -0.14272740483284 -0.152027070522308 0.190220072865486 0.0721790567040443 0.156606569886208 0.252428501844406 0.181977465748787 0.183351993560791 0.647692918777466 0.389101356267929 0.2703478038311 0.119900539517403 -0.291323572397232 -0.553421556949615 -0.835142493247986 -0.997255146503448 -1.54135489463806 -2.01015520095825 -2.15378451347351 4.64386796951294 5.88419723510742 12.1504955291748 10.0391454696655 5.0153660774231 2.67247748374939 0.736250340938568 -0.116084232926369 -0.75150203704834 -0.919770300388336 -1.2014102935791 -1.32843923568726 -1.55047726631165 -1.63954997062683 -1.69197952747345 -0.68612802028656 1.85140216350555 3.9265820980072 5.32221364974976 5.14788198471069 4.61387491226196 3.47156047821045 1.7835373878479 0.918554425239563 1.13684511184692 2.2916853427887 3.16056132316589 2.31259298324585 1.60240590572357 1.02754497528076 0.705702781677246 0.559873104095459 0.448600679636002 0.324519842863083 0.18571500480175 0.0447661466896534 -0.0903906971216202 -0.247762143611908 -0.353146970272064 -0.413250595331192 -0.317231714725494 -0.5159672498703 -0.572214245796204 -0.659980833530426 -0.734200716018677 -0.833975195884705 -0.536017596721649 -0.936217248439789 -1.02229607105255 -1.15204870700836 -1.31825923919678 -1.46662795543671 -1.54380810260773 -1.71378111839294 -2.07309246063232 -2.30305528640747 -2.35841798782349 0.890440583229065 -1.15635800361633 11.1272563934326 11.9978713989258 10.266881942749 13.3254995346069 15.2728662490845 14.0469875335693 12.8952827453613 11.3158769607544 11.1530246734619 10.2239809036255 9.06882476806641 8.10790348052979 7.29114484786987 6.37077951431274 4.96443462371826 4.00865697860718 3.45692276954651 3.27984547615051 8.84647560119629 23.8664474487305 29.3838863372803 21.7311210632324 20.0263042449951 16.8098468780518 14.3549547195435 11.5636444091797 9.41054916381836 7.72105598449707 5.96484804153442 4.04047775268555 2.8366482257843 2.55044364929199 2.12924122810364 1.84835958480835 1.74736714363098 1.59551477432251
-1.16913294792175 -2.16238188743591 2.20440697669983 17.385368347168 14.6554622650146 10.6080560684204 7.15385675430298 4.76100015640259 3.32065677642822 3.069993019104 2.49151945114136 1.78740584850311 1.3515876531601 1.16497135162354 0.936385691165924 0.858112633228302 1.01947796344757 0.692677855491638 0.626259326934814 -0.467705637216568 -0.210799887776375 3.5771632194519 10.8493633270264 9.87362766265869 8.02002334594727 5.56095170974731 3.68106913566589 2.7932665348053 2.16329836845398 1.50133895874023 1.36451411247253 1.24227702617645 0.633916735649109 0.56451153755188 0.481349527835846 0.431742578744888 0.944543242454529 1.23178505897522 2.61944985389709 0.464877128601074 0.393794119358063 0.46082004904747 0.448480248451233 0.456511527299881 0.440792083740234 0.426790207624435 0.433355301618576 0.463734924793243 0.459884166717529 0.384928643703461 0.283963769674301 0.247345015406609 0.126661255955696 -0.0468857474625111 -0.115511439740658 -0.131399095058441 -0.133501157164574 -0.143523931503296 -0.0357082225382328 -0.123612575232983 0.106605470180511 0.285690784454346 0.172775939106941 0.191586092114449 0.186235472559929 0.534556090831757 0.512662589550018 0.288874924182892 0.160126104950905 -0.165515258908272 -0.513985633850098 -0.676657974720001 -0.916284024715424 -1.23466241359711 -1.79291021823883 -2.13457727432251 -1.0360814332962 3.79367089271545 10.9259252548218 11.3562812805176 7.27654075622559 4.20490503311157 2.7023241519928 1.74317979812622 0.247750863432884 -0.131707400083542 -0.700457274913788 -1.3867472410202 -1.69584167003632 -1.81571233272552 -1.89848375320435 -1.9908299446106 -1.86818671226501 10.6078042984009 6.76332855224609 5.43273019790649 4.33889722824097 4.04565525054932 4.48239278793335 3.43230676651001 2.2065212726593 2.25074124336243 3.01326656341553 2.07675170898438 1.61923885345459 1.05455923080444 0.765014111995697 0.581282675266266 0.470796346664429 0.363323450088501 0.243542030453682 0.0974101275205612 -0.0511896945536137 -0.217885509133339 -0.302186965942383 -0.372968822717667 -0.429557889699936 -0.49999076128006 -0.577743232250214 -0.66845041513443 -0.76208359003067 -0.868660569190979 -0.99109160900116 -1.07515740394592 -1.12891602516174 -1.25484156608582 -1.3635880947113 -1.42862224578857 -1.470383644104 -1.59896790981293 -1.82655048370361 -2.07611489295959 -2.20211338996887 1.43244588375092 2.51181054115295 9.1561336517334 13.8935422897339 12.5631132125854 11.5841045379639 10.8129205703735 11.1502561569214 11.5276069641113 10.6609268188477 9.3619966506958 8.97844696044922 8.19205188751221 7.42966842651367 6.78744697570801 6.00222539901733 5.13728666305542 4.60647010803223 4.39762163162231 4.62990951538086 7.06124973297119 17.8813533782959 25.2816257476807 22.1204128265381 19.5671577453613 17.3913249969482 14.6474475860596 12.5044956207275 10.4052238464355 9.52008628845215 8.05241966247559 6.67993497848511 5.07786893844604 3.39365553855896 2.43362426757812 2.23419761657715 2.11620450019836 1.75052237510681
-0.0997860506176949 -0.350829392671585 -1.73034560680389 7.01325845718384 17.0669441223145 11.3269748687744 8.70992565155029 7.30402612686157 5.75647497177124 4.15754127502441 3.81688499450684 2.87074160575867 2.19228076934814 1.54938042163849 1.32354056835175 1.02261900901794 0.768873512744904 0.749530911445618 0.434388875961304 0.00824544113129377 0.0314354263246059 2.11551976203918 8.01322174072266 11.6351251602173 7.92706680297852 5.90669059753418 4.36782312393188 3.58161544799805 2.47404623031616 2.23034453392029 1.95357704162598 1.5171514749527 1.14225769042969 1.01271069049835 0.566018104553223 0.499942809343338 0.426032602787018 0.427561908960342 0.43189200758934 1.23801136016846 3.33910036087036 0.566135942935944 0.377867549657822 0.690553307533264 0.415917277336121 0.404209971427917 0.409323155879974 0.378497302532196 0.366125166416168 0.365566045045853 0.291508227586746 0.226327687501907 0.0781193450093269 -0.069439135491848 -0.124660350382328 -0.129672303795815 -0.130812436342239 -0.135340690612793 0.167585045099258 0.267937362194061 0.284706473350525 0.318397253751755 0.316863924264908 0.307786464691162 0.271847099065781 0.550455331802368 0.757041454315186 0.373561590909958 0.331626117229462 -0.0173899810761213 -0.368671476840973 -0.601609766483307 -0.830634236335754 -1.06812751293182 -1.45292437076569 -1.8439599275589 -2.06766891479492 1.40000188350677 5.01176643371582 10.5310554504395 9.19197273254395 5.733558177948 4.5052490234375 3.00587129592896 1.72407472133636 1.11885964870453 0.44981437921524 -1.13242185115814 -1.83578968048096 -1.9688435792923 -2.18984937667847 -2.3450870513916 -0.621577441692352 5.68423938751221 13.213062286377 9.51812744140625 5.63375473022461 3.38704681396484 6.14223337173462 6.1267032623291 4.6375846862793 2.33457732200623 2.46656394004822 1.79968190193176 0.891960442066193 0.654797255992889 0.437715977430344 0.357149422168732 0.31569916009903 0.246666669845581 0.102322153747082 0.0205215625464916 -0.0411690510809422 -0.127275601029396 -0.174440965056419 -0.227376163005829 -0.281279355287552 -0.38477149605751 -0.449111998081207 -0.529764115810394 -0.603850781917572 -0.695925652980804 -0.82925146818161 -1.02632427215576 -1.18538022041321 -1.29546070098877 -1.35811281204224 -1.40828013420105 -1.46676743030548 -1.56249058246613 -1.69361639022827 -1.84562492370605 -1.97451448440552 0.234319597482681 4.04235887527466 6.29653835296631 8.15918922424316 6.89317798614502 9.01094245910645 8.24847507476807 11.6159782409668 8.59389877319336 8.85426330566406 8.45613574981689 7.59852647781372 7.0415506362915 6.78341960906982 6.19426155090332 5.83278226852417 5.26809072494507 4.87581539154053 4.70684099197388 5.14670705795288 8.25080299377441 14.2016296386719 19.9807586669922 19.5962352752686 18.2581729888916 17.3343944549561 15.0383777618408 12.9789428710938 11.579309463501 10.693265914917 9.06491947174072 7.89355230331421 6.63555765151978 5.49154138565063 4.14771366119385 2.91025018692017 2.44094061851501 2.01751494407654
1.10751640796661 2.31292748451233 0.655020475387573 0.192637741565704 8.52495956420898 13.6571311950684 9.86926651000977 8.18592357635498 7.11379528045654 6.05785846710205 5.1895637512207 4.72188997268677 3.38974618911743 2.63644528388977 2.07592058181763 1.3571937084198 1.0360666513443 0.856171011924744 0.591229557991028 0.356972724199295 0.227571040391922 1.35481452941895 5.02697038650513 8.30754661560059 6.8974437713623 5.7241849899292 4.49091577529907 3.7767071723938 3.11529088020325 2.8542754650116 2.52517223358154 1.84877467155457 1.61388504505157 1.26668548583984 0.973475813865662 0.88401460647583 0.527189612388611 0.464277654886246 0.40351128578186 0.684038281440735 0.989828169345856 1.59252643585205 2.69680571556091 0.528832852840424 0.402491897344589 0.341540575027466 0.372764140367508 0.379911094903946 0.37117275595665 0.347467362880707 0.301466733217239 0.269951730966568 0.115497782826424 -0.0501887761056423 -0.127440825104713 -0.125418141484261 -0.126627519726753 0.0193597599864006 0.139537841081619 0.216389641165733 0.217623665928841 0.232633516192436 0.334573656320572 0.432754784822464 0.462809771299362 0.668290019035339 0.82807457447052 0.515220522880554 0.392952978610992 0.221170976758003 -0.262797027826309 -0.472569733858109 -0.718392074108124 -0.949429631233215 -1.19012534618378 -1.59211087226868 -1.85567820072174 -2.00737047195435 1.78331983089447 7.33700037002563 8.87177753448486 6.72482109069824 5.50134611129761 3.95419716835022 3.04625988006592 2.18792366981506 1.26307916641235 -0.114797465503216 -0.992993235588074 -2.04677033424377 -2.39978647232056 -2.58885884284973 -1.31875860691071 6.17171096801758 8.59964179992676 15.4599914550781 9.27485942840576 3.77510499954224 7.56757640838623 8.19295501708984 4.11537551879883 2.90139746665955 3.68885207176208 3.23984408378601 1.24752259254456 1.04725193977356 0.553379118442535 0.468151748180389 0.465577721595764 0.414312064647675 0.278028547763824 0.153847008943558 0.0359275601804256 -0.0368168018758297 -0.0892171710729599 -0.159676477313042 -0.241653010249138 -0.342192977666855 -0.395964086055756 -0.480078995227814 -0.572496116161346 -0.694957375526428 -0.931072592735291 -1.16904997825623 -1.29365348815918 -1.32299566268921 -1.07131326198578 -1.42450201511383 -1.48209464550018 -1.55297160148621 -1.62970232963562 -1.71707653999329 -1.79927694797516 -1.72054028511047 1.06440162658691 2.59827780723572 2.46567630767822 0.618999481201172 7.30399513244629 11.3962717056274 13.049488067627 11.1324901580811 11.3116292953491 7.181077003479 6.57710313796997 6.07800674438477 5.95653581619263 5.60221910476685 5.39150428771973 5.03445863723755 5.14930629730225 5.01377773284912 5.54347658157349 8.74203014373779 11.860818862915 14.9596738815308 15.2383031845093 15.4188089370728 14.9151964187622 14.3237972259521 13.4024419784546 12.1449756622314 11.3891172409058 9.76106262207031 8.91738796234131 7.52495670318604 6.69925594329834 5.60232925415039 4.66785907745361 3.5713267326355 2.78227210044861
1.61691999435425 2.50597548484802 3.35052728652954 2.04508328437805 4.33744478225708 10.1952171325684 10.0081911087036 8.62181568145752 7.63967943191528 6.92963600158691 6.20571231842041 5.8695969581604 4.92473220825195 4.21375226974487 3.09455966949463 2.34617519378662 1.82810831069946 1.18424618244171 1.06649208068848 0.694531083106995 0.423863291740417 0.968940258026123 3.13529229164124 4.49411344528198 6.64952659606934 5.06545114517212 4.12312698364258 3.38462829589844 3.20719718933105 2.89962530136108 2.65623736381531 2.36412215232849 2.08954811096191 1.57954776287079 1.37058651447296 1.08922219276428 0.866983950138092 0.796569526195526 0.518755078315735 0.611590027809143 1.4043607711792 1.0818065404892 0.83552223443985 0.935584425926208 1.79405927658081 0.386389434337616 0.329933553934097 0.311873733997345 0.361052304506302 0.341241061687469 0.321571290493011 0.289964407682419 0.177023157477379 -0.00106875540222973 -0.100102514028549 -0.103737585246563 0.0678354948759079 0.21096482872963 0.262512594461441 0.212113335728645 0.280906707048416 0.380066394805908 0.517867088317871 0.585415363311768 0.581041693687439 0.988544464111328 0.88054621219635 0.513814032077789 0.432027846574783 0.197881504893303 -0.21364951133728 -0.421403586864471 -0.609586298465729 -0.801381766796112 -1.02701044082642 -1.34427833557129 -1.67578172683716 -1.86769640445709 -1.11092400550842 3.7864625453949 6.42573118209839 7.68926572799683 5.37299966812134 4.52281522750854 3.72374987602234 2.84533548355103 2.07743763923645 0.930828750133514 -0.104943111538887 -1.28262782096863 -2.4446005821228 -2.71078300476074 -2.76553559303284 6.61847305297852 9.33977794647217 14.1909093856812 10.3768081665039 7.58425378799438 6.12355661392212 10.8606548309326 5.4214882850647 3.7491557598114 3.4790461063385 2.57853937149048 1.7562427520752 1.59191226959229 0.80540519952774 0.536640048027039 0.677099764347076 0.784862577915192 0.400043815374374 0.276600062847137 0.14368548989296 0.0508067235350609 -0.0199251528829336 -0.109389424324036 -0.196520105004311 -0.279234945774078 -0.359389543533325 -0.472090840339661 -0.593093872070312 -0.797876298427582 -1.09575963020325 -1.24966502189636 -1.37904500961304 -1.426513671875 0.14234085381031 -1.49036180973053 -1.56057977676392 -1.37195003032684 -1.6057026386261 -1.67237436771393 -1.74706077575684 -1.82317185401917 -1.87030327320099 -1.66290259361267 -1.43423473834991 -1.81827414035797 9.05670070648193 11.353497505188 17.660701751709 11.1007137298584 9.54883098602295 6.74193716049194 6.19899606704712 5.39855527877808 5.01104497909546 4.87616872787476 4.82842874526978 4.75609540939331 5.0034008026123 4.99129915237427 5.67089414596558 7.30427074432373 10.4054107666016 11.7126264572144 11.4882640838623 12.278995513916 12.3954601287842 12.5337047576904 11.8071966171265 11.6239671707153 10.9497375488281 10.1636724472046 9.51171875 8.34763622283936 7.57253074645996 6.41686534881592 5.79191398620605 4.84571695327759 4.40255737304688
2.22862601280212 3.27369999885559 4.00322198867798 2.72985792160034 3.00398802757263 6.2613000869751 7.22862958908081 8.32582187652588 7.74538421630859 6.96077156066895 6.44531106948853 6.04581737518311 5.6678614616394 5.15097856521606 4.26209497451782 3.68356442451477 2.71952223777771 2.07549929618835 1.9433319568634 1.51342225074768 0.939880311489105 0.668541729450226 1.76234900951385 2.4564380645752 4.18383884429932 4.03541088104248 3.54888391494751 2.87957692146301 2.86564898490906 2.57610869407654 2.47164487838745 2.37030124664307 2.20639443397522 2.04047989845276 1.81334519386292 1.41957151889801 1.25234723091125 1.02247166633606 0.859075546264648 1.55247712135315 1.29403698444366 1.08473777770996 0.869338750839233 0.73170793056488 0.632084250450134 1.58529210090637 1.0722690820694 0.353807985782623 0.299833804368973 0.282286256551743 0.295089185237885 0.258998811244965 0.211539372801781 0.0596500709652901 -0.0635755211114883 -0.101753830909729 0.15627433359623 0.312746524810791 0.349613726139069 0.40533858537674 0.514263033866882 0.629450917243958 0.849677801132202 1.24316692352295 1.44171977043152 1.45483982563019 0.951387643814087 0.569881439208984 0.429109901189804 0.275801688432693 -0.189537465572357 -0.387030303478241 -0.586787819862366 -0.747228622436523 -0.930965542793274 -1.17246353626251 -1.44174420833588 -1.66588020324707 -1.77053415775299 1.11905825138092 5.1891942024231 5.87665462493896 5.13394784927368 4.51440048217773 3.54943776130676 2.98541474342346 2.41974711418152 1.53040742874146 0.601284682750702 -0.360637456178665 -1.87993955612183 -2.72018003463745 -2.82399487495422 7.24111604690552 9.07529640197754 11.6308660507202 10.2582578659058 8.41592407226562 6.54843187332153 9.42796516418457 5.47863292694092 4.6301064491272 3.53524017333984 2.51113367080688 2.15887427330017 2.30280065536499 1.76877105236053 1.03041303157806 1.26170074939728 1.41567838191986 0.950838983058929 0.349716663360596 0.310443699359894 0.195636674761772 0.0848080143332481 -0.0194265134632587 -0.152266249060631 -0.228601694107056 -0.338852941989899 -0.482532143592834 -0.685207724571228 -0.938820600509644 -1.15813994407654 -1.24398827552795 -1.41458106040955 -1.53014671802521 -1.21799445152283 -1.05506300926208 -1.2587925195694 -1.68931889533997 -0.399423003196716 -0.0212009064853191 -1.72500193119049 -1.83269584178925 -1.90069651603699 -2.00703358650208 -2.18637013435364 -0.62327116727829 8.34992790222168 16.5081939697266 17.4394073486328 11.4976663589478 8.76448917388916 5.90193462371826 3.38541865348816 8.93785667419434 5.80270576477051 4.25791645050049 4.1004524230957 4.21036958694458 4.45082807540894 4.40324449539185 5.35814046859741 8.04193782806396 9.19908142089844 9.63223743438721 9.64720344543457 9.79474258422852 9.85861587524414 9.82740306854248 9.63391494750977 13.1159496307373 10.0353679656982 9.6280403137207 9.05485439300537 8.61010837554932 8.08119297027588 7.22821092605591 6.55727481842041 5.65977573394775 5.42600250244141
2.47559118270874 3.01892924308777 3.84138894081116 2.90226125717163 3.16499018669128 3.85717082023621 4.82085800170898 5.29160976409912 6.09660196304321 6.83476209640503 6.37164211273193 6.03723382949829 5.64598274230957 5.15735864639282 4.80686855316162 4.47645425796509 3.70042681694031 3.26836538314819 2.46919393539429 2.30942893028259 1.77043986320496 1.43107974529266 1.32088470458984 2.04087924957275 2.92201566696167 3.4955153465271 2.70678901672363 2.24035811424255 2.34072089195251 2.10577726364136 1.91902542114258 2.11428189277649 2.08916902542114 2.03128266334534 1.92471277713776 1.82661509513855 1.6405131816864 1.32648861408234 1.32518458366394 1.41306757926941 0.981762111186981 0.784772217273712 0.744143307209015 0.630401015281677 0.602101624011993 0.586960971355438 1.0282838344574 0.970244884490967 0.536827087402344 0.313598573207855 0.264027774333954 0.220447868108749 0.165891125798225 0.0325706377625465 0.0910928174853325 0.285940498113632 0.406224370002747 0.59021657705307 0.616397321224213 0.712566137313843 0.804681420326233 1.11468577384949 1.57735157012939 2.56966590881348 2.25118923187256 1.50419902801514 1.0630978345871 0.692351102828979 0.392188370227814 0.315930783748627 -0.0608174279332161 -0.290117532014847 -0.539821147918701 -0.719604134559631 -0.876227974891663 -1.07809841632843 -1.28026652336121 -1.47400271892548 -1.60532319545746 -1.09646308422089 1.64238655567169 5.08883714675903 4.10185956954956 3.67428612709045 3.33579158782959 2.75101113319397 2.09518504142761 1.57517468929291 0.986833214759827 0.308353006839752 -1.34438276290894 -2.14277172088623 -2.63302397727966 8.10709762573242 7.63832521438599 8.34126281738281 9.43152809143066 7.91479825973511 7.02527046203613 6.2724609375 6.75629663467407 6.04117727279663 4.20301389694214 3.84656047821045 2.81628799438477 2.82975292205811 2.80871224403381 1.66972804069519 1.84134483337402 1.95786261558533 1.07065773010254 0.562267541885376 0.427220940589905 0.267553836107254 0.234688311815262 0.119545266032219 -0.0462948568165302 -0.152101889252663 -0.302807956933975 -0.465756505727768 -0.746390759944916 -0.981717228889465 -1.16001451015472 -1.26137733459473 -1.40005171298981 -1.55760204792023 -1.6302455663681 -1.66856575012207 -1.73816132545471 -1.90444087982178 -1.97611832618713 4.37414121627808 2.98691964149475 -0.507415175437927 -1.91065442562103 -1.99342918395996 -2.16479659080505 2.47233152389526 9.09687423706055 16.2652320861816 13.3344306945801 10.2420301437378 5.95584058761597 4.02893733978271 2.31165075302124 9.81559753417969 11.1419849395752 3.98762917518616 3.83605599403381 4.20803737640381 3.69343423843384 3.42275381088257 5.13995456695557 14.1783132553101 7.92053413391113 7.45673704147339 7.5211124420166 6.87604570388794 8.15110206604004 7.89199542999268 8.08917713165283 11.161735534668 9.14002323150635 8.61035060882568 8.31642627716064 8.20550918579102 7.8029260635376 7.43424797058105 7.02775716781616 6.38202524185181 6.09152984619141
2.9072790145874 3.00821614265442 3.27874779701233 2.79248332977295 2.84060120582581 2.68635058403015 3.02350759506226 3.51475691795349 4.12245988845825 4.62296199798584 4.99066209793091 5.7612829208374 5.36654853820801 5.11795234680176 4.78600406646729 4.46141767501831 4.23778295516968 4.01883983612061 3.31736540794373 3.13409161567688 2.80926728248596 2.18028402328491 1.73388338088989 1.77523303031921 2.75351929664612 2.83745980262756 2.1803195476532 1.64649868011475 1.64568591117859 1.5905020236969 1.42444944381714 1.74241876602173 1.64437174797058 1.83965671062469 1.87422001361847 1.82238292694092 1.7609601020813 1.72139263153076 1.70589995384216 1.53698039054871 1.1656037569046 0.935723662376404 0.766409337520599 1.81832337379456 1.19269287586212 0.504291296005249 0.471572697162628 0.869143187999725 1.53247916698456 0.596123516559601 0.427240371704102 0.273051887750626 0.232341438531876 0.350859940052032 0.708357632160187 0.862021565437317 1.139692902565 1.34668171405792 1.60576748847961 1.60282528400421 1.66247498989105 1.73257648944855 2.08701658248901 1.92737400531769 1.33631718158722 1.16996347904205 0.911236941814423 0.804231464862823 0.61990761756897 0.445906937122345 0.182356938719749 -0.0866354256868362 -0.445998758077621 -0.69519704580307 -0.847432136535645 -1.0258150100708 -1.20423066616058 -1.35608792304993 -1.48491203784943 -1.5687700510025 -0.869808912277222 3.79989981651306 3.34018325805664 2.89252376556396 2.607577085495 2.19338011741638 1.87407886981964 1.23961877822876 0.845190644264221 0.159153863787651 -0.852435648441315 -1.5667884349823 -1.97067856788635 7.12829828262329 6.2205753326416 7.19984102249146 8.12945556640625 7.2167181968689 6.86252212524414 6.20677042007446 7.14282369613647 5.48338556289673 4.91723489761353 4.39679002761841 3.85538864135742 3.14625191688538 3.04640936851501 3.89617967605591 2.4702045917511 2.8518693447113 1.36808121204376 0.887749075889587 0.583160519599915 0.372650563716888 0.337993025779724 0.185417592525482 0.0892950668931007 -0.0689016431570053 -0.29439577460289 -0.546942234039307 -0.839355051517487 -1.04117453098297 -1.15129995346069 -1.26117062568665 -1.41043961048126 -1.62661623954773 -1.7690954208374 -1.84742438793182 -1.95323121547699 -2.02708601951599 -2.12126660346985 0.0165836997330189 3.89245414733887 7.17542219161987 2.85805559158325 -1.92345345020294 1.02488350868225 2.74639010429382 7.38961362838745 9.9374303817749 8.7999210357666 6.05641651153564 3.96115851402283 6.85809135437012 3.08653664588928 3.59747958183289 4.1651554107666 6.16417646408081 4.19265699386597 8.8456916809082 4.6605052947998 3.07966184616089 2.81645703315735 14.8996686935425 15.0169067382812 8.75037479400635 7.21639251708984 6.37635564804077 5.77227926254272 6.63344764709473 6.6591420173645 10.6235609054565 9.51343727111816 7.72906351089478 7.41402053833008 7.35681343078613 7.06665229797363 7.07754230499268 6.84784412384033 6.52169513702393 6.21343755722046
2.90292501449585 3.637535572052 3.08336520195007 2.70258712768555 2.58884644508362 2.5314302444458 2.51791000366211 2.65417003631592 2.926194190979 3.13797426223755 3.58599495887756 4.08844661712646 4.17189741134644 3.96686005592346 4.51487684249878 4.48234891891479 4.27615833282471 4.02536106109619 3.84277105331421 3.65623593330383 3.49455118179321 2.93580317497253 2.65214109420776 2.10627937316895 1.98049807548523 2.02246522903442 1.72075390815735 1.25698125362396 1.20694124698639 1.1913423538208 1.07053637504578 1.28045225143433 1.25783538818359 1.54752087593079 1.51917016506195 1.68166851997375 1.75475108623505 1.73697185516357 1.68769407272339 1.60396766662598 1.39279866218567 1.08351647853851 0.842367887496948 2.12422585487366 2.33719563484192 2.09691500663757 0.83284193277359 0.47489869594574 0.940814971923828 1.0799435377121 0.466035604476929 0.562338709831238 0.373150676488876 1.07610261440277 1.65229964256287 1.53424084186554 1.25324833393097 1.77436637878418 1.80319762229919 1.57553851604462 1.50214171409607 1.48949229717255 1.43707668781281 1.21093487739563 1.03462672233582 0.86843466758728 0.753238022327423 0.683259010314941 0.594626903533936 0.462742567062378 0.150711253285408 -0.191112980246544 -0.424177438020706 -0.694187164306641 -0.871515274047852 -1.03046083450317 -1.19168305397034 -1.31486618518829 -1.41181230545044 -1.48197734355927 -1.3904834985733 0.0943978354334831 2.88672494888306 1.99787282943726 1.75169861316681 1.79179704189301 1.6589560508728 1.01349544525146 0.432647526264191 -0.0428401902318001 -0.906543016433716 -1.5025634765625 -1.460902094841 4.63906383514404 5.46702861785889 6.11615562438965 6.08607625961304 7.94146585464478 6.35448217391968 6.23641777038574 5.645592212677 5.18106174468994 4.80621671676636 4.34443616867065 3.6815938949585 3.44239902496338 5.55599498748779 4.91978883743286 4.40518617630005 4.51627922058105 1.76140117645264 1.41367244720459 1.11668431758881 0.832771062850952 0.55140745639801 0.273827314376831 0.149576187133789 -0.0464589484035969 -0.41692253947258 -0.698676109313965 -0.95707643032074 -1.07178020477295 -1.17135798931122 -1.28240728378296 -1.43487286567688 -1.69416999816895 -1.88323473930359 -2.04060530662537 -2.24366092681885 -1.85170233249664 0.530335366725922 0.705522894859314 4.08976030349731 10.2934112548828 8.84275722503662 4.21454572677612 3.2334988117218 5.47256183624268 5.24591732025146 3.96305990219116 5.04536294937134 4.56575107574463 3.42510461807251 5.41976070404053 4.05771160125732 3.51230096817017 2.4067976474762 2.97751951217651 4.83559799194336 11.3737697601318 7.96855783462524 3.18493723869324 2.87406802177429 2.7948169708252 15.2885265350342 18.1688671112061 8.42049789428711 7.19118595123291 5.41169357299805 5.22039031982422 6.34514713287354 8.50358200073242 9.97579383850098 6.96106719970703 6.67720890045166 6.56056118011475 6.38858509063721 6.28359365463257 6.14068365097046 6.18708944320679 5.89946603775024
3.71802687644958 3.69993615150452 3.80200219154358 3.01048445701599 2.67847228050232 2.44755172729492 2.26782870292664 2.14794135093689 2.37066888809204 2.27977180480957 2.54171967506409 2.89908337593079 3.07614374160767 2.95425367355347 3.37295627593994 3.61990022659302 4.15566730499268 4.11979198455811 3.89992260932922 3.66521692276001 3.49009966850281 3.38397026062012 3.24838709831238 2.78351545333862 2.5473484992981 2.05705332756042 1.65772271156311 1.57808876037598 1.31960546970367 1.05385792255402 0.913359344005585 0.982395827770233 0.985536634922028 1.19161999225616 1.18547356128693 1.44969749450684 1.44203007221222 1.58882570266724 1.53930497169495 1.54649245738983 1.27559196949005 1.06629133224487 0.945793330669403 1.03431975841522 2.61816835403442 2.74040699005127 3.38806772232056 1.69527721405029 0.648651540279388 1.23911726474762 0.497558295726776 0.502675354480743 0.424856811761856 0.567556500434875 0.354336142539978 0.346959441900253 0.605890870094299 0.872780323028564 1.0220490694046 1.08936989307404 1.0207359790802 1.02774298191071 0.970399916172028 0.890796899795532 0.808498859405518 0.709136426448822 0.678616762161255 0.605082988739014 0.528757214546204 0.374599397182465 0.207923173904419 -0.230933025479317 -0.563607335090637 -1.07573688030243 -1.12318658828735 -1.20621907711029 -1.27986896038055 -1.33790683746338 -1.40108907222748 -1.45354354381561 -1.50904774665833 -1.48216021060944 1.19415390491486 1.24836337566376 1.3491667509079 1.2881121635437 1.10736072063446 0.846587300300598 0.136419862508774 -0.486281484365463 -1.16088664531708 -1.50708377361298 -1.48452210426331 0.64900416135788 5.16870784759521 7.79391002655029 7.77234697341919 6.02935647964478 5.63127946853638 5.38083457946777 5.06255674362183 4.7466721534729 4.32594871520996 3.64115309715271 3.38166642189026 2.23390483856201 1.71805691719055 5.84705066680908 16.2093467712402 17.5795478820801 3.15066027641296 2.07129859924316 1.53786373138428 1.17664647102356 0.876596093177795 0.609566807746887 0.263269931077957 -0.15277361869812 -0.562615215778351 -0.800463974475861 -0.98003214597702 -1.03931534290314 -1.20484781265259 -1.34980618953705 -1.54408943653107 -1.8179943561554 -2.04767417907715 -2.25765442848206 -2.48565483093262 -2.48861145973206 0.806974470615387 6.00349760055542 10.6820611953735 13.4599885940552 9.18356990814209 8.40022277832031 5.78274011611938 3.9154007434845 2.53182315826416 2.17884349822998 1.95598065853119 4.90251302719116 4.19906997680664 4.1878981590271 6.97276210784912 5.46403217315674 3.48421239852905 2.74120712280273 3.97098541259766 8.12586784362793 7.06803417205811 4.78369188308716 1.87294793128967 1.97753763198853 12.2854175567627 18.6060581207275 12.2947559356689 9.23466110229492 6.57494688034058 5.84798574447632 4.63282489776611 5.89429426193237 10.6041879653931 6.90426015853882 5.60180759429932 5.6897497177124 5.7793869972229 5.59178256988525 5.54265308380127 5.51674747467041 5.32231664657593
4.54437446594238 4.1397533416748 3.54562854766846 3.30124831199646 2.95248484611511 2.5589964389801 2.3251633644104 2.11293053627014 2.08439922332764 2.01986217498779 2.12479209899902 3.0053379535675 2.56811738014221 3.19290518760681 3.17239618301392 2.89022350311279 3.06750082969666 3.3225405216217 3.56905579566956 3.58799266815186 3.43706583976746 3.30455994606018 3.15822982788086 3.10422706604004 2.99399995803833 2.58542728424072 2.31949901580811 1.87172591686249 1.83185625076294 1.5057225227356 1.2121570110321 0.885144889354706 0.787627637386322 0.891369044780731 0.909801959991455 1.10365998744965 1.13307154178619 1.36548519134521 1.31158423423767 1.22754693031311 1.0800713300705 0.954378843307495 0.734355390071869 0.693013370037079 2.74251937866211 2.68756437301636 4.40411329269409 5.17370796203613 2.02534532546997 0.776819288730621 1.11629414558411 0.600044548511505 0.689406037330627 0.432886004447937 0.390429645776749 0.341396182775497 0.268644422292709 0.2163937240839 1.20593762397766 0.638275504112244 0.674310386180878 0.717018961906433 0.738835692405701 0.709869384765625 0.696703195571899 0.640442907810211 0.585558891296387 0.51811957359314 0.474586844444275 0.375858783721924 0.239855825901031 -0.218043059110641 -0.797337412834167 -1.52046597003937 -1.59419441223145 3.35395312309265 -0.568348705768585 0.761125147342682 1.47571849822998 -1.37970471382141 -1.58357381820679 -1.62273633480072 1.06358420848846 2.64931654930115 0.696549355983734 0.527769148349762 0.765993595123291 0.613731026649475 -0.0547393746674061 -0.604229152202606 -1.04209780693054 -1.81803572177887 -2.02988171577454 -1.80202233791351 4.36153793334961 8.41648387908936 10.7249526977539 6.56185626983643 5.02488660812378 4.55186033248901 4.34627389907837 3.92898273468018 3.62158298492432 3.22560954093933 2.47624588012695 1.66631925106049 1.0676167011261 0.0858408212661743 8.75233364105225 39.3097229003906 10.3633050918579 5.92596006393433 2.36397480964661 1.7032243013382 1.1819703578949 0.84634667634964 0.497659116983414 -0.0993475243449211 -0.598148822784424 -0.838555872440338 -0.995247185230255 -1.09883069992065 -1.3238331079483 -1.46279895305634 -1.66863512992859 -1.90117740631104 -2.13448357582092 -2.40339040756226 -2.63103723526001 -2.72062230110168 1.97939324378967 10.2508239746094 14.4974803924561 12.0949211120605 11.6412191390991 9.67600440979004 6.96231269836426 5.94916582107544 3.4466495513916 1.92084097862244 0.512229919433594 8.12672519683838 10.0550918579102 6.95101261138916 6.57056617736816 5.43864774703979 4.32942724227905 2.73441410064697 2.70492196083069 6.44075775146484 4.75996065139771 3.54988694190979 2.38799071311951 1.93391919136047 12.4883489608765 15.4819040298462 13.2385387420654 11.1915473937988 8.77039813995361 6.9132924079895 5.32678461074829 5.12208843231201 5.58686017990112 5.00047397613525 10.092170715332 6.99113416671753 5.01810836791992 5.02660036087036 5.08613348007202 4.97096681594849 4.84260320663452
4.04557466506958 3.77808928489685 3.82195615768433 3.48463654518127 3.20115971565247 2.85085558891296 2.48592972755432 2.21382474899292 2.10764789581299 2.02774548530579 2.56378841400146 3.01439356803894 3.75576257705688 2.15852761268616 2.10613059997559 2.27340316772461 2.30421805381775 2.52563285827637 2.70910668373108 2.84611439704895 3.17429614067078 3.04684448242188 3.12046003341675 2.9935154914856 2.88316750526428 2.85705065727234 2.75158953666687 2.39338755607605 2.3045117855072 2.05416631698608 1.63607323169708 1.34215807914734 1.12528777122498 0.848895668983459 0.737967550754547 0.858816742897034 0.901036322116852 1.06341123580933 1.03701221942902 0.947908997535706 1.00105285644531 0.743561983108521 0.500416696071625 0.503775060176849 0.491371959447861 3.40855431556702 4.32471704483032 5.33235692977905 4.92704296112061 2.67780494689941 1.12331354618073 0.688685774803162 0.601415514945984 0.570352494716644 0.444070607423782 0.394965410232544 0.316630512475967 0.363142639398575 0.694787442684174 0.893818140029907 0.482314854860306 0.484403967857361 0.489278703927994 0.497919380664825 0.510907292366028 0.510782957077026 0.506009042263031 0.485773891210556 0.457095861434937 0.402187705039978 0.301138043403625 -0.182954728603363 -0.952236711978912 -1.5972466468811 -1.80838716030121 -0.356667876243591 0.89255154132843 1.12847447395325 2.62257146835327 -0.472119301557541 -1.7943320274353 -1.44452476501465 0.91060608625412 3.45276427268982 4.5722336769104 2.26352119445801 0.204795524477959 0.035952091217041 -0.0306280050426722 -0.894203364849091 -1.22652566432953 -2.05185699462891 -2.20515847206116 -2.25551390647888 1.8363094329834 10.0322303771973 9.41121482849121 7.55062580108643 5.44426345825195 4.16409778594971 3.65152287483215 3.0934681892395 2.61896395683289 2.11964917182922 1.20085513591766 0.675155580043793 0.439136505126953 -0.327734351158142 -0.443962723016739 28.5894393920898 35.4465484619141 16.2409687042236 5.61801528930664 2.59625720977783 1.90578293800354 1.28994762897491 0.665882527828217 0.0299194920808077 -0.548494935035706 -0.943710625171661 -1.18484461307526 -1.31137657165527 -1.43388783931732 -1.58092045783997 -1.78474581241608 -2.0346314907074 -2.21748661994934 -2.44279980659485 -2.63511967658997 -2.71909070014954 6.30478477478027 10.6666803359985 13.2516374588013 11.8503513336182 11.5839462280273 9.74278545379639 8.23548603057861 6.78424024581909 5.10422801971436 3.82080626487732 2.55454087257385 3.6121768951416 10.1961574554443 10.1583871841431 7.64249801635742 5.0203652381897 3.67644357681274 3.028475522995 2.6569938659668 2.59821200370789 3.29926419258118 2.78211545944214 3.27442955970764 3.57320475578308 9.2439079284668 13.1088485717773 11.4870386123657 10.2716407775879 9.71209907531738 8.52553939819336 7.18423414230347 5.82950925827026 5.46340560913086 4.24080228805542 13.5542306900024 9.78494262695312 5.72340106964111 4.70456123352051 4.77668905258179 4.68690204620361 4.59442710876465
3.82513833045959 3.15787649154663 3.30294704437256 3.0046706199646 2.96003007888794 2.96887421607971 2.69370007514954 2.54142999649048 3.92365908622742 3.28238296508789 3.94023537635803 1.95735549926758 1.78267729282379 1.71408700942993 1.79760539531708 1.83535897731781 1.94985127449036 2.10224080085754 2.67119407653809 2.14676928520203 2.39293241500854 2.38611364364624 2.50004076957703 2.75986361503601 2.84659886360168 2.74902391433716 2.63611721992493 2.61862301826477 2.53101062774658 2.43485641479492 2.09945607185364 1.8912672996521 1.5473906993866 1.30136859416962 1.10425186157227 0.856988489627838 0.948285043239594 0.838710367679596 0.746227562427521 0.659790992736816 0.629674553871155 0.54700243473053 0.24254085123539 0.209340944886208 0.227345481514931 2.02524971961975 4.69145774841309 4.69039916992188 4.81316375732422 5.61645078659058 2.43068242073059 1.59415864944458 0.822969853878021 0.644885301589966 0.571666896343231 0.531164228916168 0.406148135662079 0.284102946519852 0.189588606357574 1.41384899616241 1.13748681545258 0.511559963226318 0.388264149427414 0.363026529550552 0.381575673818588 0.415990650653839 0.443948477506638 0.432446718215942 0.419214338064194 0.37509223818779 0.320514440536499 -0.0372084565460682 -0.98517507314682 -1.59316194057465 -1.85037541389465 -1.97852206230164 -1.61649525165558 1.73278224468231 1.65793430805206 0.358962714672089 -0.905662298202515 -2.00422668457031 -0.757341921329498 5.92501497268677 6.29728078842163 5.55995988845825 2.39905333518982 0.304265946149826 -0.344146281480789 -0.989560306072235 -1.55813205242157 -2.21820616722107 -2.4647114276886 -2.60073137283325 -0.201708316802979 10.2275409698486 8.56189632415771 7.66417217254639 5.54497766494751 4.66978073120117 3.21944785118103 2.25957345962524 1.56389129161835 0.617280900478363 -0.396760404109955 -0.926258683204651 5.53703546524048 -0.633750796318054 -0.947914898395538 13.6830415725708 39.9607391357422 22.0193500518799 13.0711326599121 8.90356159210205 3.29667258262634 1.74496221542358 1.17930638790131 0.396805316209793 -0.431757390499115 -0.848650097846985 -1.09276533126831 -1.33375108242035 -1.61604225635529 -1.74594223499298 -1.92907655239105 -2.13773202896118 -2.33268237113953 -2.45314526557922 -2.52704167366028 -1.44982159137726 6.81400108337402 10.4086046218872 12.0634822845459 11.3967885971069 10.9408149719238 10.3458662033081 9.39151477813721 7.25925254821777 6.98029851913452 5.56980752944946 4.80190467834473 7.33814239501953 8.80140209197998 10.2402267456055 8.064377784729 6.38401651382446 4.48682737350464 3.00106835365295 1.84145295619965 2.31022119522095 6.7459774017334 6.56217861175537 5.437340259552 6.66386699676514 8.33645248413086 10.0028648376465 10.1412382125854 9.95433044433594 12.3400783538818 9.65469932556152 8.67091655731201 7.42052412033081 6.53643655776978 6.03630495071411 7.38314008712769 9.91673755645752 8.30300235748291 4.64241027832031 4.53080940246582 4.48352384567261 4.4542555809021
3.49425578117371 2.86020565032959 2.82423067092896 2.70489263534546 2.64163661003113 2.96104145050049 3.22576975822449 2.95804166793823 2.46604251861572 2.35214805603027 1.97247469425201 1.82930982112885 1.69037246704102 1.58131039142609 1.58050060272217 1.65789341926575 1.66583704948425 1.72986054420471 2.72657322883606 1.81209337711334 1.92045116424561 1.93660748004913 2.03221106529236 2.07815623283386 2.27143001556396 2.51578688621521 2.60915803909302 2.51132845878601 2.43175053596497 2.34169793128967 2.33586597442627 2.26891112327576 1.99464547634125 1.80938935279846 1.48870456218719 1.24209105968475 1.22549653053284 1.03295314311981 0.771429419517517 0.593474268913269 0.501362442970276 0.318298280239105 0.0211207643151283 -0.0686539933085442 0.00959665793925524 0.359714031219482 3.69206261634827 5.03153038024902 5.37080144882202 6.1618537902832 3.75761651992798 2.4789662361145 1.69654452800751 1.09893608093262 0.872473001480103 0.636010527610779 0.537055492401123 0.500763893127441 0.45631405711174 0.596854984760284 0.816518485546112 0.640667378902435 0.262624174356461 0.287909597158432 0.277848452329636 0.3368119597435 0.361717343330383 0.412654340267181 0.397633016109467 0.354300796985626 0.279769390821457 0.0628855898976326 -0.853484213352203 -1.55920398235321 -1.87271916866302 -2.04104828834534 -2.15652179718018 -0.820003867149353 0.62419992685318 -0.0801863670349121 -2.21074247360229 -2.44804334640503 2.63751173019409 13.4563970565796 8.95563888549805 7.13752460479736 5.3122730255127 2.35670566558838 0.694673240184784 -0.707960724830627 -1.75927972793579 -2.12427258491516 -2.3762629032135 -2.50140309333801 -0.227498739957809 6.54478645324707 8.39225673675537 7.17372798919678 5.54209661483765 4.39527320861816 2.89704465866089 1.70568788051605 0.677081406116486 -1.21879935264587 -1.49331939220428 -1.67843413352966 0.0829457566142082 -0.255338102579117 -1.58016169071198 3.61478686332703 39.2742729187012 31.3710880279541 20.0078239440918 12.3475542068481 6.54976940155029 4.71205854415894 1.32417404651642 0.708269000053406 0.13047881424427 -0.545852661132812 -0.768226027488708 -1.28601253032684 -1.54551112651825 -1.84558200836182 -2.02077698707581 -2.19359087944031 -2.34301543235779 -2.40407967567444 0.41152548789978 0.0111307930201292 4.15838813781738 8.21728324890137 10.5810108184814 10.0757503509521 10.4094944000244 10.0229845046997 9.23054122924805 8.34313678741455 7.71731281280518 6.74608659744263 6.50893783569336 6.77678394317627 7.14236545562744 7.11265134811401 6.84570693969727 5.78734636306763 5.03617095947266 3.62725782394409 1.60014069080353 1.81622171401978 13.4276065826416 8.53375053405762 7.4921350479126 7.93568992614746 8.83629989624023 9.28030014038086 9.64011669158936 11.4808893203735 12.3085203170776 12.0194358825684 9.91513442993164 8.65110397338867 7.97159862518311 7.53338384628296 6.81800508499146 7.94687747955322 6.80114984512329 6.66250801086426 5.93944644927979 4.22928810119629 4.26531457901001
2.96911358833313 3.46468043327332 3.28253889083862 3.41961169242859 3.02919745445251 2.33469796180725 1.65118741989136 1.64434742927551 1.72713029384613 2.441570520401 1.85404634475708 1.83648586273193 1.7923424243927 1.64873659610748 1.60869419574738 1.65134191513062 1.65285694599152 1.60160958766937 2.07645153999329 1.68336129188538 1.6520791053772 1.69144725799561 1.76525235176086 1.79172956943512 1.87456238269806 1.92434537410736 2.09276652336121 2.29951095581055 2.42958474159241 2.3472011089325 2.25246214866638 2.18002223968506 2.18531656265259 2.13590407371521 1.88158071041107 1.70623219013214 1.40886211395264 1.34736561775208 1.091832280159 0.920930087566376 0.64251035451889 0.307732790708542 -0.038794431835413 -0.174534901976585 -0.156708374619484 2.48268055915833 2.13310647010803 3.96297788619995 5.84153509140015 8.08828639984131 4.62865161895752 3.16366696357727 2.40208768844604 1.8538008928299 1.42700207233429 1.22241902351379 0.800129950046539 0.663794338703156 0.548714697360992 0.486523568630219 0.587235689163208 0.426217257976532 0.430818319320679 0.397413492202759 0.210991457104683 0.198397174477577 0.191120609641075 0.356230765581131 0.287251472473145 0.322726339101791 0.317804962396622 0.109185211360455 -0.595710098743439 -1.36151146888733 -1.82019412517548 -2.02821063995361 -2.21134638786316 -2.36343050003052 -2.41741228103638 -2.44628620147705 -2.51708054542542 -2.64624166488647 0.283696413040161 12.9368839263916 13.4766807556152 9.64273834228516 6.9606499671936 4.02998685836792 2.29854035377502 0.578279912471771 -1.20988297462463 -2.07868909835815 -2.27544713020325 -2.31284022331238 3.23505115509033 5.6982364654541 7.08538770675659 5.22526788711548 4.8380970954895 3.46308302879333 1.99445068836212 1.22091257572174 -0.00982274301350117 -1.87890338897705 -1.92262494564056 -1.99381375312805 -1.3090101480484 1.05276882648468 -0.861413180828094 5.88057470321655 40.7001686096191 28.8731842041016 23.1249618530273 13.3987789154053 10.3114061355591 5.82302904129028 2.61031532287598 1.97942698001862 0.461437940597534 -0.168553456664085 -0.340466320514679 -0.748301565647125 -1.21314179897308 -1.76051068305969 -2.07300639152527 -2.24966883659363 -2.34412384033203 -0.572705924510956 0.149772047996521 0.132176399230957 1.36698055267334 4.72362804412842 6.60289096832275 16.383996963501 12.2727928161621 9.16931629180908 9.07829666137695 8.74408149719238 8.38486003875732 8.34191703796387 7.79991626739502 7.08366346359253 6.38487386703491 6.02041530609131 5.05807685852051 4.47331571578979 3.36581683158875 2.49267983436584 2.72228455543518 7.2553653717041 9.51101589202881 11.1406002044678 9.65979957580566 8.64833831787109 9.67277145385742 9.75921058654785 10.1865711212158 11.4991664886475 11.7391862869263 10.1163444519043 9.34796524047852 8.88384914398193 8.57082462310791 8.22243881225586 7.41018295288086 7.08698415756226 6.33689308166504 5.89825248718262 5.25803279876709 4.89798402786255 4.42350673675537
3.53067207336426 3.9395055770874 2.86689519882202 2.35569643974304 2.08849263191223 1.76425611972809 1.48654568195343 1.38582301139832 1.29066061973572 1.42466187477112 1.9774694442749 1.70199429988861 1.6923760175705 1.76189279556274 1.71847140789032 1.62823379039764 1.76493620872498 1.52568984031677 1.51404535770416 2.56088471412659 1.52198839187622 1.5657731294632 1.55323588848114 1.5815601348877 1.64880907535553 1.68415868282318 1.7698312997818 1.78755033016205 1.96810209751129 2.17492008209229 2.03993511199951 2.14519453048706 2.0989077091217 2.04003071784973 2.05661106109619 2.0039439201355 1.76665532588959 1.71673321723938 1.54717326164246 1.23633992671967 0.953596889972687 0.558665037155151 0.158359333872795 -0.106487564742565 0.141808092594147 2.93652486801147 2.77597808837891 3.66728949546814 5.65818643569946 8.27378463745117 5.41770792007446 3.82818126678467 2.8761670589447 2.39354181289673 1.98353898525238 1.7141660451889 1.31271183490753 0.989912211894989 0.703644990921021 0.63589483499527 0.531760275363922 0.470786392688751 0.439472496509552 0.270926862955093 0.302925378084183 0.25738999247551 0.196258679032326 0.275295495986938 0.168995872139931 0.199839800596237 0.173235192894936 0.0280286818742752 -0.370736837387085 -0.971611678600311 -1.64169585704803 -1.97521770000458 -2.18485283851624 -2.35734438896179 -2.52623438835144 -2.62363243103027 -2.69661211967468 -2.78659129142761 2.31417489051819 8.42838096618652 5.3555269241333 15.4740762710571 11.5412244796753 6.14032888412476 3.76206970214844 2.15029454231262 0.518830180168152 -0.7805455327034 -1.34290480613708 0.212620377540588 4.79899597167969 4.99978065490723 2.69876170158386 3.84887552261353 3.59185910224915 2.27571153640747 1.44846606254578 0.458829939365387 -0.884234666824341 -2.01338458061218 -2.41201448440552 -2.32090520858765 -2.00217866897583 0.133953422307968 2.60285973548889 16.8944339752197 33.0654907226562 26.4965763092041 21.4466361999512 15.5758447647095 11.6779308319092 5.73283624649048 3.47022485733032 2.881183385849 2.29361438751221 0.221887573599815 -0.0996118858456612 -0.537602305412292 -0.960673153400421 -1.4180371761322 -1.84105587005615 -2.25530004501343 -2.37578129768372 -0.665640294551849 2.16149377822876 0.788099467754364 -0.583797037601471 1.18462312221527 4.75165796279907 18.6184139251709 18.0760555267334 11.7490758895874 10.041953086853 8.88167858123779 8.92824172973633 8.63837242126465 8.23003673553467 7.64232969284058 7.05675983428955 6.56596422195435 5.65520572662354 4.77468109130859 3.58339858055115 3.09511923789978 5.7029595375061 6.55404567718506 9.98407077789307 10.005033493042 9.13883590698242 9.91080570220947 9.63977813720703 9.4506368637085 9.62827682495117 9.45186710357666 9.39276790618896 9.58144664764404 9.32578563690186 9.12102508544922 8.56711483001709 8.05480861663818 7.66547441482544 7.30599451065063 6.66928577423096 6.38923358917236 5.65279531478882 5.26770687103271 4.7236762046814
