NCOLS 172
NROWS 32
XLLCORNER 353872
YLLCORNER 6700512
CELLSIZE 16 
NODATA_value -3.4e+38 
1.65159583091736 1.58654594421387 1.43787062168121 1.29213178157806 1.32765507698059 1.48811912536621 3.30793690681458 1.98532843589783 0.99514502286911 0.912321984767914 1.44985568523407 1.59331965446472 1.63181221485138 1.82529437541962 2.0261869430542 2.29379177093506 2.72061705589294 2.85786485671997 2.86894297599792 3.42154002189636 3.65301823616028 2.87925791740417 2.74097943305969 -0.136149242520332 -0.0662607699632645 0.0119896456599236 0.125421062111855 0.219548344612122 0.261970072984695 0.31988313794136 0.395769625902176 0.933468341827393 1.41156458854675 2.50781083106995 2.26251006126404 2.53452301025391 1.60236799716949 0.524946987628937 0.476123243570328 0.481569200754166 0.493241190910339 0.52272242307663 0.55709183216095 0.578020453453064 0.605580627918243 0.665955185890198 0.705833375453949 0.742883741855621 1.81570315361023 0.83045881986618 0.860965549945831 1.01304137706757 1.04866528511047 1.08096516132355 1.22522068023682 1.45540153980255 1.60067534446716 1.3027583360672 1.38197541236877 1.39974141120911 1.58238315582275 1.63833820819855 1.62914478778839 1.69084060192108 1.8000351190567 1.81746482849121 1.97296559810638 2.20275521278381 2.38937139511108 2.67560410499573 2.91513276100159 3.23677349090576 3.54197192192078 3.93238711357117 4.50296258926392 5.14630937576294 6.24867677688599 7.34174680709839 7.98427963256836 8.7166109085083 9.49313259124756 7.0289888381958 4.19405651092529 3.02562212944031 0.914184212684631 -0.585657060146332 -0.464359998703003 -0.132382497191429 0.217718064785004 -0.0835922136902809 0.817258656024933 0.409025758504868 0.191859290003777 0.364754498004913 0.360246747732162 0.670967102050781 0.127737984061241 -0.0126768313348293 0.308503001928329 0.989254593849182 0.296605139970779 -0.468620866537094 -0.144200518727303 -0.08778215944767 0.0676886588335037 0.110197313129902 0.0486298836767673 0.059403121471405 0.196082442998886 0.300223380327225 0.471108436584473 0.522195041179657 0.553364038467407 0.832783699035645 0.723419427871704 1.19064009189606 1.63578808307648 1.83683669567108 1.92686140537262 1.78326487541199 1.13789653778076 0.470316261053085 0.230039536952972 0.435470819473267 0.794177174568176 0.933836400508881 1.25225234031677 1.42862045764923 1.08899712562561 1.29968619346619 2.06530785560608 3.35182094573975 3.75551605224609 6.14324474334717 7.42804384231567 7.56646203994751 5.98623037338257 7.53759956359863 11.2969856262207 19.7540397644043 25.1850147247314 25.5562801361084 13.7453899383545 1.10706317424774 -2.89163398742676 -2.64986324310303 -2.23960137367249 -1.97614324092865 -1.71285843849182 -1.39421164989471 -0.815065979957581 0.0945490226149559 0.983542799949646 1.61167681217194 2.1171178817749 2.48270177841187 2.66492247581482 3.05030512809753 7.90352773666382 7.12051057815552 3.21250104904175 2.78983092308044 2.93258690834045 3.20698285102844 3.61141133308411 4.21719789505005 4.75651264190674 5.01510810852051 5.27968406677246 5.47677278518677 5.76072406768799 5.95246601104736
0.969658195972443 1.01636254787445 1.00812017917633 0.889498114585876 0.855765104293823 1.75119316577911 0.625458836555481 0.526668429374695 0.955520033836365 1.13733458518982 1.15913701057434 1.27855658531189 1.34324491024017 1.35987770557404 1.4364150762558 1.59514725208282 1.89747738838196 1.9609032869339 2.46422910690308 3.49228858947754 3.9083354473114 3.54419302940369 2.69996786117554 -0.236535027623177 -0.141031831502914 -0.0966441035270691 -0.00766231957823038 0.116177156567574 0.171581223607063 0.232162728905678 0.31736496090889 0.45425146818161 0.996780455112457 1.39531290531158 1.22453474998474 1.4985032081604 1.03287696838379 1.80710363388062 1.69961738586426 0.710177838802338 0.741402983665466 0.720137238502502 0.570631861686707 0.629509568214417 0.655925810337067 0.692725837230682 0.799874007701874 1.05375707149506 2.68467473983765 0.920038342475891 0.949981689453125 1.05108189582825 1.14653944969177 1.17131984233856 1.20183753967285 1.27834236621857 1.3739812374115 1.46455919742584 1.57214450836182 1.57906305789948 1.56594681739807 1.55688416957855 1.5884428024292 1.68341052532196 1.88537979125977 1.95937657356262 2.15865564346313 2.32480931282043 2.44709014892578 2.65720152854919 2.91441488265991 3.14473366737366 3.52172040939331 3.85811495780945 4.33886766433716 4.95422267913818 5.94826745986938 7.20684576034546 8.06907558441162 8.8499059677124 8.53544807434082 8.95943737030029 6.72915029525757 3.5926628112793 1.32494342327118 -0.530678749084473 -0.405157566070557 -0.319155275821686 -0.104331478476524 0.231692418456078 0.373920232057571 0.65597003698349 0.509559631347656 0.527822077274323 -0.118426896631718 1.58217990398407 1.9358948469162 -0.203033357858658 0.546439528465271 1.15653538703918 0.30803856253624 -0.371401071548462 -0.183919847011566 -0.0989577174186707 -0.15220995247364 -0.114348508417606 -0.0301001146435738 -0.0067515904083848 -0.00205758446827531 -0.0677340924739838 0.0760201066732407 0.212673828005791 0.0718563348054886 0.311391443014145 0.691287219524384 1.03120672702789 1.53279709815979 1.59135210514069 1.62116241455078 1.63895606994629 1.35482680797577 1.25503778457642 0.869785070419312 0.986796438694 1.07810008525848 1.34452176094055 1.1414703130722 1.14158535003662 1.63962852954865 2.5676052570343 2.77344107627869 3.88773512840271 4.53922557830811 5.40460252761841 6.37267017364502 7.27569150924683 9.63846492767334 14.6246509552002 16.0783214569092 19.8000717163086 25.5978698730469 17.7995834350586 15.167031288147 7.33630180358887 -0.276729792356491 -2.66592121124268 -2.31084942817688 -1.96089589595795 -1.61957681179047 -1.25203621387482 -0.775070607662201 -0.00728485500440001 0.956001579761505 1.65378129482269 2.04997515678406 2.34348678588867 2.52663564682007 5.62548875808716 6.5793137550354 4.94321918487549 3.73967313766479 2.80132150650024 2.96782541275024 3.31582474708557 3.62848234176636 4.28271484375 4.78615999221802 5.03009128570557 5.32101488113403 5.49415969848633 5.66526699066162 5.79126644134521
0.463254690170288 0.581102013587952 0.602474689483643 0.448014736175537 0.326195865869522 0.281263709068298 1.34083545207977 0.955891907215118 1.89812517166138 2.45051527023315 0.856865286827087 0.168598219752312 0.716177105903625 1.1552791595459 0.84195750951767 1.09022545814514 1.38182580471039 1.75122952461243 2.13140773773193 2.86480069160461 3.4252016544342 3.71603178977966 2.37619829177856 -0.295325189828873 1.04570877552032 -0.0165700390934944 -0.170384615659714 -0.016799334436655 0.0640689209103584 0.114435128867626 0.1822230219841 0.274903029203415 0.376781046390533 0.545172452926636 0.876756429672241 4.42404794692993 0.472060889005661 0.507319152355194 0.633013665676117 1.58845555782318 1.72483921051025 1.06937420368195 0.635776340961456 0.647979855537415 0.701311528682709 0.777478933334351 1.08877158164978 2.19327664375305 0.920412659645081 0.966793954372406 1.04610061645508 1.08095765113831 1.15582573413849 1.2463253736496 1.28094303607941 1.31510579586029 1.47042763233185 1.52604627609253 1.55392563343048 1.66966545581818 1.60905158519745 1.59487164020538 1.75329637527466 1.81755971908569 1.89348292350769 2.08187341690063 2.24318909645081 2.33418107032776 2.50025820732117 2.64566278457642 2.89446210861206 3.13466358184814 3.45064926147461 3.80418181419373 4.20393753051758 4.85202360153198 5.55422067642212 6.86426496505737 7.84471607208252 9.0145149230957 9.25993728637695 9.09377098083496 7.9851975440979 6.5985369682312 2.33097696304321 -0.557980954647064 -0.506695806980133 -0.200205683708191 -0.340557783842087 -0.266943007707596 0.479263186454773 0.758694052696228 0.323583602905273 0.59842574596405 1.23679614067078 2.65136122703552 1.54589760303497 -0.220450103282928 -0.38787430524826 1.0460364818573 2.25589680671692 -0.495893478393555 -0.468322515487671 -0.321364432573318 -0.219314977526665 -0.161506608128548 -0.157559603452682 -0.280474752187729 -0.271310836076736 -0.359501749277115 -0.266874700784683 -0.0676148682832718 0.0850227251648903 0.314444780349731 0.602340221405029 0.944378316402435 1.00338065624237 1.1051470041275 1.11865830421448 1.13533866405487 1.35353231430054 1.30933785438538 1.7038756608963 1.68236565589905 1.28305506706238 1.36227285861969 2.03916049003601 2.2043788433075 2.28660225868225 2.94034481048584 3.38165926933289 3.7602801322937 6.0044264793396 8.1358060836792 8.6463737487793 12.1055469512939 12.9107732772827 15.107307434082 16.5689659118652 18.796911239624 20.5752773284912 19.2593441009521 13.3580045700073 9.95734786987305 0.767066359519958 -2.47194004058838 -2.13103008270264 -1.73519146442413 -1.37381732463837 -1.03350281715393 -0.601509928703308 -0.0693824738264084 0.630246162414551 1.41206240653992 1.89348340034485 2.17595648765564 2.47334456443787 6.81905126571655 3.34038019180298 5.62367582321167 6.37055397033691 2.73040795326233 2.86343383789062 3.12349891662598 3.37215232849121 3.99861788749695 4.64942264556885 5.03832721710205 5.23648643493652 5.33754253387451 5.51164865493774 5.53279256820679
0.203547358512878 0.403889715671539 0.200827926397324 0.128345236182213 0.525609314441681 0.442846983671188 4.03449583053589 3.29780721664429 1.63875734806061 8.92668533325195 -0.550733804702759 -0.515324354171753 -0.310149908065796 0.170831441879272 0.315560400485992 0.617281794548035 1.1486542224884 1.52227449417114 1.90108561515808 2.45502758026123 2.91648268699646 3.40726113319397 1.16803276538849 0.217220470309258 2.90570521354675 1.34931397438049 -0.281353831291199 -0.137364149093628 -0.0496462620794773 -0.000312374118948355 0.0498162508010864 0.129266873002052 0.205196380615234 0.295872330665588 0.449332505464554 4.31678485870361 1.10796439647675 0.477700710296631 0.555866658687592 0.593829154968262 1.00996899604797 2.08252620697021 1.83315706253052 0.739051043987274 0.749864459037781 0.909756422042847 1.54113364219666 2.14029550552368 0.973680078983307 0.992759168148041 1.07724988460541 1.16722846031189 1.19313776493073 1.32857859134674 1.38044357299805 1.41839945316315 1.44014990329742 1.4640634059906 1.52174603939056 1.54639208316803 1.71614849567413 1.78045439720154 1.91468071937561 1.97913539409637 2.01968955993652 2.13430047035217 2.24951195716858 2.34292840957642 2.50069952011108 2.63683438301086 2.83792495727539 3.09382367134094 3.38441443443298 3.72628831863403 4.11526536941528 4.76407861709595 5.44506549835205 6.51813554763794 7.71704292297363 8.80008602142334 9.53783702850342 9.83576965332031 9.37802696228027 7.41015577316284 3.17009449005127 2.19517254829407 -0.267099440097809 -0.684073984622955 -0.580820143222809 -0.416966408491135 -0.32551097869873 0.244505628943443 0.455140560865402 0.875009298324585 2.35736536979675 3.10085272789001 0.290062010288239 0.182624980807304 0.203552007675171 1.54163873195648 2.48475289344788 -0.728019297122955 -0.534457147121429 -0.390500664710999 -0.338681787252426 -0.382025480270386 -0.336068779230118 -0.316015988588333 -0.464934080839157 -0.368765234947205 -0.275414228439331 -0.187888443470001 -0.0516947545111179 0.154621124267578 0.367731124162674 0.669179499149323 0.718210101127625 0.678945600986481 0.876698076725006 0.980055391788483 1.23779284954071 1.36796033382416 1.60097575187683 1.68887603282928 1.84808611869812 1.94845008850098 2.3065128326416 2.59095120429993 2.72749400138855 2.95782065391541 5.06449127197266 6.91930103302002 9.31184387207031 9.99502563476562 10.7413368225098 12.3081769943237 13.4486694335938 14.7409477233887 16.1362037658691 17.8752307891846 19.2641582489014 17.2841567993164 13.6312141418457 9.45558834075928 1.48217844963074 -1.52731812000275 -1.90701508522034 -1.47852408885956 -1.10795545578003 -0.735592782497406 -0.297483265399933 0.100213587284088 0.574810147285461 1.2488796710968 1.75495111942291 2.08401417732239 2.47136902809143 6.95274877548218 4.59287881851196 7.31811952590942 7.07262182235718 9.4977970123291 9.62434864044189 2.36815810203552 2.70315957069397 3.2567994594574 3.90715074539185 4.51599550247192 5.02772378921509 5.12333965301514 5.24781894683838 5.36623048782349
0.0620783492922783 0.874524116516113 0.403384298086166 1.42948043346405 0.399095147848129 1.76526367664337 5.6404242515564 5.49317121505737 2.18709754943848 5.71087169647217 6.29888677597046 -0.820851683616638 -0.65804398059845 -0.433577477931976 -0.119360998272896 0.156747072935104 0.75526887178421 0.977136313915253 1.4452291727066 2.06947612762451 2.35131049156189 1.67521381378174 1.49055743217468 2.4715301990509 4.54957866668701 2.80871224403381 -0.359521925449371 -0.216870874166489 -0.158331722021103 -0.125491678714752 -0.0834622383117676 -0.0242056511342525 0.0305693652480841 0.0958670973777771 0.29344779253006 1.67162418365479 0.572473764419556 0.506078481674194 0.5279261469841 0.585127353668213 0.648086905479431 0.705972492694855 1.09293329715729 1.21413028240204 0.887491345405579 1.30786168575287 2.56381583213806 1.12238430976868 0.988619446754456 1.07793843746185 1.12088489532471 1.24772214889526 1.28812003135681 1.3024206161499 1.31570327281952 1.35918724536896 1.41124868392944 1.45761656761169 1.62869167327881 1.6595356464386 1.76345705986023 1.85558974742889 1.94393491744995 2.0909526348114 2.13489007949829 2.18997502326965 2.26161861419678 2.34971141815186 2.4741895198822 2.64871191978455 2.80942273139954 3.00975275039673 3.32064080238342 3.73168635368347 4.10152721405029 4.52509498596191 5.43014287948608 6.25111055374146 7.38706159591675 8.72028541564941 9.83047294616699 10.0777235031128 11.302264213562 6.7230339050293 7.30025911331177 5.21134567260742 2.71632385253906 -0.791619122028351 -0.709797203540802 -0.561005651950836 -0.227523699402809 0.243437543511391 0.525108695030212 1.3462051153183 2.57003235816956 2.32811284065247 1.06586468219757 0.0694356709718704 0.580620527267456 1.78522968292236 1.12699973583221 -0.754944801330566 -0.636625587940216 -0.635936617851257 -0.55452835559845 -0.549356579780579 -0.520635724067688 -0.427561908960342 -0.423934906721115 -0.41083887219429 -0.389563828706741 -0.245531797409058 -0.131291761994362 -0.0167811252176762 0.189823418855667 0.440318942070007 0.798684239387512 0.644085049629211 0.787038147449493 0.96395468711853 1.16044330596924 1.32746744155884 1.77060735225677 1.85600030422211 2.12434959411621 2.32627487182617 2.38576817512512 2.60938119888306 4.40022420883179 5.9563684463501 7.83841753005981 8.37882041931152 9.33699512481689 10.4598112106323 11.1251420974731 11.8926334381104 13.1450176239014 14.1509590148926 15.4365968704224 16.7329959869385 18.0834865570068 16.46728515625 14.3350601196289 8.76970767974854 3.02803993225098 -1.54549789428711 -1.66293179988861 -1.31264126300812 -1.09145605564117 -0.677566289901733 -0.162320792675018 0.218849122524261 0.653966188430786 1.20587813854218 1.71768820285797 2.1124587059021 3.81911683082581 8.80974388122559 5.20818901062012 8.28613185882568 10.0476350784302 16.0145225524902 9.68187522888184 1.88147556781769 2.08637189865112 2.54837203025818 2.98880481719971 3.43442320823669 4.30024480819702 4.98077821731567 5.06505918502808 5.07705736160278
0.838496148586273 -0.0211669746786356 1.43696165084839 1.35153937339783 1.69763875007629 2.97749733924866 5.6290602684021 8.96400928497314 4.91733407974243 3.98069190979004 3.95581316947937 -0.1863132417202 -0.939405858516693 -0.709131240844727 -0.530730545520782 -0.131147027015686 0.472875565290451 0.829719603061676 1.04678189754486 1.39836263656616 1.46805715560913 1.48361921310425 1.93991148471832 3.55471992492676 4.91793584823608 5.02158069610596 -0.384595066308975 -0.276583194732666 0.9715695977211 2.21320486068726 0.854721128940582 -0.217094913125038 -0.109102413058281 0.0392844527959824 0.249443545937538 0.498881995677948 1.49447524547577 0.535948276519775 0.571521162986755 0.577715158462524 0.687480568885803 0.729881346225739 0.806206941604614 0.88198846578598 0.952926933765411 1.91321682929993 2.24456262588501 1.1358482837677 1.04842185974121 1.17239773273468 1.21496760845184 1.22938704490662 1.22515964508057 1.28917694091797 1.32378470897675 1.46782350540161 1.51904511451721 1.57596755027771 1.65079867839813 1.71231245994568 1.77890133857727 1.89500451087952 1.97028040885925 2.09331703186035 2.15616464614868 2.20714139938354 2.2544002532959 2.37830829620361 2.47038149833679 2.60664510726929 2.76644229888916 3.07467174530029 3.31126713752747 3.80774545669556 4.19572353363037 4.61836862564087 5.20426464080811 6.14641427993774 7.25843811035156 8.60076522827148 10.2715940475464 10.6440010070801 11.4847068786621 13.4268827438354 9.66443252563477 11.3874502182007 4.71632862091064 -1.1666613817215 -1.02258539199829 -0.731378257274628 -0.397449642419815 -0.0236671157181263 0.405491322278976 1.22733271121979 2.32643556594849 2.18026351928711 0.56130063533783 0.812615096569061 1.31778919696808 2.43857049942017 0.554033994674683 -0.984232306480408 -0.929938673973083 -0.837388575077057 -0.792155385017395 -0.645453095436096 -0.515512526035309 -0.481414407491684 -0.254709750413895 -0.365086853504181 -0.305971056222916 -0.210463553667068 -0.0959030538797379 0.0580744817852974 0.230831921100616 0.451727479696274 0.688271284103394 0.910448551177979 0.953635692596436 1.16965186595917 1.62798488140106 1.73667585849762 1.98413145542145 2.19063329696655 2.24313402175903 2.42530488967896 3.94785833358765 5.2704005241394 6.76827812194824 7.24976873397827 7.90880584716797 8.84694766998291 9.35218334197998 10.0827722549438 10.5900945663452 11.4990453720093 12.3271961212158 13.4058933258057 13.9566650390625 14.9127149581909 14.2883939743042 14.8366413116455 12.8867864608765 7.82519149780273 3.42102408409119 -0.768516182899475 -1.72675335407257 -1.38117516040802 -1.1247330904007 -0.722959816455841 -0.169249907135963 0.292256444692612 0.763711512088776 1.23193740844727 1.73701226711273 2.23457598686218 10.3305673599243 4.8598484992981 5.78022003173828 8.90148735046387 15.204984664917 18.0992374420166 7.12143850326538 1.49184858798981 1.78901493549347 2.23419809341431 2.74994587898254 3.18519806861877 3.6954927444458 4.61265516281128 4.85562801361084 4.92550420761108
0.204194471240044 1.69355750083923 1.08712637424469 1.66083693504333 2.33119511604309 4.28200721740723 5.11893510818481 6.15824842453003 13.2863311767578 3.64349460601807 2.61191129684448 8.00459480285645 -1.25175559520721 -1.11507403850555 -0.784458100795746 -0.480764776468277 0.094664141535759 0.446650147438049 0.894782245159149 1.19831168651581 1.54209959506989 2.16111159324646 2.8430449962616 4.03284978866577 5.47716236114502 4.60597610473633 0.314771354198456 1.18322122097015 1.85418725013733 5.03546142578125 5.1315393447876 -0.376824706792831 -0.255203038454056 -0.0200544185936451 0.224547609686852 0.513436615467072 2.17926788330078 0.618654489517212 0.637605667114258 0.651485919952393 0.696033775806427 0.756741642951965 0.78535407781601 0.840039074420929 0.928180813789368 0.990507662296295 1.31676936149597 1.70447611808777 1.16465592384338 1.17473196983337 1.17571520805359 1.22891044616699 1.23930203914642 1.39347207546234 1.43297779560089 1.48793137073517 1.56469011306763 1.62799859046936 1.6748389005661 1.75438499450684 1.79676854610443 1.91247320175171 1.97939193248749 2.04116821289062 2.16409039497375 2.22018933296204 2.24059581756592 2.33013415336609 2.45316219329834 2.64637613296509 2.83026647567749 3.14041757583618 3.42349076271057 3.6932590007782 4.29270505905151 4.688645362854 5.17752361297607 6.15133285522461 7.189133644104 8.63467693328857 10.1632404327393 11.9594755172729 12.6664590835571 12.4520130157471 23.330394744873 12.5313386917114 5.78969860076904 -1.45224022865295 -1.18337154388428 -0.94809353351593 -0.544032573699951 -0.115873597562313 0.451479822397232 0.24922876060009 1.95685291290283 1.81431126594543 0.250488758087158 0.612268149852753 1.74300456047058 3.15887260437012 1.68050944805145 1.03294050693512 -1.20079660415649 -1.05161881446838 -0.930148065090179 -0.804122507572174 -0.645283460617065 -0.454129576683044 -0.367808490991592 -0.304736435413361 -0.228302747011185 -0.154272988438606 -0.0591631755232811 0.125096321105957 0.429280698299408 0.75740659236908 0.996073186397552 1.38080954551697 1.51296865940094 1.56534206867218 1.79704809188843 1.99794661998749 2.25315999984741 3.57435154914856 4.69375991821289 4.82127046585083 6.01630449295044 6.39902305603027 6.83900785446167 7.66192150115967 8.07498836517334 8.55301380157471 9.04228782653809 9.48213577270508 10.0271444320679 10.8436145782471 11.6208648681641 12.3427801132202 12.4568614959717 12.419376373291 12.7207794189453 16.8713703155518 11.4925384521484 4.41292715072632 2.10903477668762 -0.552135407924652 -1.87223672866821 -1.48556101322174 -1.24693977832794 -0.932941555976868 -0.423598915338516 0.209232196211815 0.789453983306885 1.2446357011795 1.67622566223145 2.08429932594299 10.1124811172485 5.37076139450073 7.42447280883789 11.7713508605957 17.3747062683105 14.5493259429932 5.73025274276733 1.40598177909851 1.56318950653076 2.04333996772766 2.51806402206421 3.16416931152344 3.75661373138428 4.2291088104248 4.52550840377808 4.67192554473877
1.52603602409363 1.07630777359009 1.28116130828857 2.72888159751892 3.4782395362854 3.70512557029724 7.10006809234619 8.31556701660156 11.4466314315796 9.70953559875488 4.34310007095337 5.52595138549805 5.44250440597534 -1.37380075454712 -1.12416291236877 -0.714584290981293 0.108679629862309 0.588048458099365 0.914635837078094 1.34311890602112 1.93435287475586 2.61918187141418 3.39830851554871 3.64549040794373 4.66369581222534 3.45474672317505 2.27632546424866 3.23326635360718 4.57931518554688 5.63461923599243 6.39898061752319 -0.36786937713623 -0.288316279649734 -0.105541944503784 0.194427296519279 0.500273466110229 1.35865235328674 1.61042129993439 0.663838088512421 0.702758193016052 0.716500043869019 0.761750400066376 0.81648313999176 0.854817688465118 0.946739554405212 0.987488210201263 1.03798604011536 1.08746600151062 1.15200233459473 1.87580108642578 1.1966290473938 1.32199740409851 1.36019706726074 1.40938055515289 1.47926068305969 1.5263010263443 1.590705037117 1.65580904483795 1.68554556369781 1.767258644104 1.81313920021057 1.87427031993866 2.0124785900116 2.06217408180237 2.09691691398621 2.16614770889282 2.21736478805542 2.34599637985229 2.4984016418457 2.70008158683777 2.91528248786926 3.11422252655029 3.53109335899353 3.81082487106323 4.28878784179688 4.69119310379028 5.18145608901978 5.99312591552734 6.95736598968506 9.15184020996094 10.8600597381592 11.954891204834 16.0840034484863 17.3559951782227 23.8136940002441 22.7073421478271 8.53322887420654 -1.52942085266113 -1.38541185855865 -1.23958218097687 -0.926628410816193 -0.403664797544479 0.0780672132968903 0.898252844810486 1.160968542099 1.81087219715118 1.54521512985229 2.30670118331909 3.03088021278381 4.20765733718872 3.91061973571777 2.23261427879333 0.68612802028656 -1.3104602098465 -1.26714694499969 -1.12852501869202 -0.906140685081482 -0.710387468338013 -0.487493008375168 -0.310908854007721 -0.207230120897293 -0.083786740899086 0.12186212092638 0.416923880577087 0.69116884469986 1.1552015542984 1.32494187355042 1.48784792423248 1.70460772514343 1.81195330619812 2.06899309158325 3.28858661651611 4.33435249328613 5.33042621612549 5.65630483627319 5.81056642532349 6.04091024398804 6.78176164627075 7.13248872756958 7.49790239334106 7.86686611175537 8.19106388092041 8.62291526794434 9.01645660400391 9.38940715789795 10.0358285903931 10.6561222076416 10.4765720367432 10.5882549285889 10.6762924194336 12.9790210723877 16.5323276519775 11.1181020736694 4.07076978683472 2.4420530796051 6.99935722351074 -2.30599784851074 -1.80213403701782 -1.36557996273041 -1.02231502532959 -0.534569680690765 0.0963012203574181 0.72891229391098 1.19258666038513 1.58501744270325 4.16773271560669 8.09281158447266 7.78089714050293 8.36436080932617 11.7809343338013 15.4053602218628 8.45648384094238 2.50904250144958 1.62759864330292 1.57973778247833 1.73201048374176 2.34302949905396 3.06302452087402 3.53531885147095 3.93678760528564 4.29956579208374 4.51863813400269
1.28695380687714 1.92649364471436 2.61418724060059 3.01324081420898 4.59507703781128 4.97238492965698 5.04687213897705 6.51194429397583 9.38904762268066 11.7535943984985 6.21108436584473 6.78084993362427 8.28391170501709 -1.34423041343689 -1.2897036075592 -0.908264875411987 -0.244386240839958 0.474955230951309 0.956418633460999 1.33395636081696 1.89817452430725 2.25501894950867 2.97137475013733 2.83791375160217 2.8924446105957 3.39601039886475 4.14425420761108 4.58758592605591 5.58517503738403 6.95588970184326 5.30434989929199 2.40193057060242 -0.222991868853569 -0.0864726454019547 0.208917498588562 0.504531919956207 1.08763253688812 2.02616381645203 0.698881149291992 0.71961522102356 0.770763218402863 0.799260377883911 0.873418509960175 0.899711549282074 0.917953968048096 0.915961086750031 0.970415055751801 1.00134241580963 1.0495970249176 1.20481860637665 1.30742108821869 1.60962963104248 1.3984489440918 1.44397723674774 1.51139616966248 1.55770540237427 1.60014450550079 1.66652965545654 1.69748568534851 1.72574734687805 1.85315251350403 1.91240501403809 1.95317733287811 2.06020355224609 2.1229076385498 2.20134735107422 2.25252032279968 2.38587236404419 2.58086085319519 2.6942834854126 3.01044583320618 3.19357013702393 3.51790237426758 3.80765962600708 4.16516637802124 4.86012125015259 5.3564600944519 6.49059009552002 7.81387424468994 9.26572513580322 12.7404527664185 14.4507474899292 14.9615488052368 19.605676651001 22.6399803161621 25.4699306488037 17.1837692260742 1.0360814332962 -1.54517352581024 -1.46015965938568 -1.15434944629669 -0.794007420539856 -0.220071643590927 0.324307441711426 0.62427145242691 1.66796147823334 2.24708676338196 2.91709589958191 5.21994829177856 6.34529542922974 5.62138938903809 4.28014993667603 4.86907052993774 1.86818671226501 -1.67039394378662 -1.28557777404785 -1.01976203918457 -0.86701625585556 -0.70462304353714 -0.476196229457855 -0.164552256464958 0.14825776219368 0.336072564125061 0.756400108337402 0.986628532409668 1.2100533246994 1.4663200378418 1.57300269603729 1.84011352062225 2.9719455242157 3.95103120803833 4.86531591415405 5.19534206390381 5.36820983886719 5.95748901367188 6.10506057739258 6.31130361557007 6.5732102394104 6.92841386795044 7.22807788848877 7.49068450927734 7.78755044937134 7.84078311920166 8.14480495452881 7.83389472961426 8.19356918334961 8.74621963500977 8.43246269226074 8.96729183197021 10.0450439453125 11.7642469406128 13.9512004852295 11.747218132019 6.25676250457764 5.8041205406189 1.02724623680115 -2.31252193450928 -1.96966898441315 -1.54709303379059 -1.1668895483017 -0.827234447002411 -0.34957629442215 0.762667775154114 2.33399438858032 3.14182257652283 5.49083614349365 6.70837640762329 8.00523471832275 8.56478023529053 9.17043590545654 9.90751361846924 5.52685689926147 3.4405152797699 1.65362107753754 1.73362386226654 1.82693493366241 2.22870588302612 2.82271957397461 3.35533761978149 3.79073905944824 3.99980854988098 4.23495197296143
2.05266618728638 2.3502094745636 3.19860601425171 3.61029291152954 4.08669471740723 5.04033613204956 4.95857286453247 5.1905460357666 6.21349334716797 7.62549066543579 6.4896411895752 7.76439046859741 6.08105087280273 7.85898780822754 -1.27143466472626 -1.11264657974243 -0.731016337871552 -0.0336541943252087 0.571808695793152 0.771260261535645 1.37713265419006 1.8092885017395 1.98394560813904 2.67909693717957 3.36662650108337 3.92054486274719 4.58199310302734 5.2033805847168 4.65852022171021 5.9355673789978 5.7475848197937 3.96847033500671 -0.131751909852028 -0.0265930611640215 0.215753898024559 0.557073950767517 1.31671440601349 2.4515106678009 0.947697937488556 0.766993045806885 0.831283330917358 0.853990852832794 0.87255859375 0.851669430732727 0.903465747833252 0.91887354850769 1.02742683887482 1.05913424491882 1.08701109886169 1.13301336765289 1.20937728881836 1.27910029888153 1.4494606256485 1.50897932052612 1.5252879858017 1.60323715209961 1.61474597454071 1.64659821987152 1.74689662456512 1.77487754821777 1.81379342079163 1.92581593990326 1.9822074174881 2.0747344493866 2.14481401443481 2.25251817703247 2.32369780540466 2.41407990455627 2.65701341629028 2.78632855415344 3.03278684616089 3.2539119720459 3.4676501750946 4.02615404129028 4.54043340682983 5.46385049819946 6.53210592269897 7.1922435760498 9.23043155670166 10.8035640716553 12.2479391098022 15.6283693313599 16.7685222625732 17.6744041442871 20.1801872253418 22.5635185241699 18.9966812133789 11.33385181427 -0.0253263395279646 -1.41852819919586 -1.30134403705597 -1.0624361038208 -0.376496076583862 0.402744382619858 1.06237959861755 2.1007616519928 2.86986112594604 4.24266529083252 8.16598606109619 7.60950708389282 6.65127849578857 10.6345930099487 7.47576713562012 0.621577441692352 -1.95456862449646 -1.81389594078064 -1.3312771320343 -0.884107828140259 -0.530969381332397 -0.389687806367874 -0.162808284163475 0.365909904241562 0.637083113193512 0.819852530956268 1.08718883991241 1.34922480583191 1.58658885955811 2.58924746513367 3.50195598602295 4.30138492584229 4.63845348358154 4.81862258911133 5.37214994430542 5.57009124755859 5.7540135383606 6.05247497558594 6.29901599884033 6.57238578796387 6.82400894165039 7.09927892684937 7.11694431304932 7.40797567367554 7.30830574035645 7.54344749450684 7.27839183807373 7.07150506973267 7.10220718383789 7.37540578842163 7.57416915893555 8.6474494934082 8.61099243164062 9.90626239776611 9.72843647003174 6.33156681060791 3.87494039535522 -1.02283680438995 -2.34362959861755 -2.14072585105896 -1.81933403015137 -1.45385777950287 -1.16460633277893 -0.122331656515598 1.62452399730682 3.09055519104004 4.23953056335449 5.50201654434204 6.25981187820435 6.76329755783081 6.84805297851562 6.53160285949707 6.69896507263184 4.17248392105103 2.05096483230591 1.56611931324005 1.69411337375641 1.94033563137054 2.34071683883667 2.83354020118713 3.13019371032715 3.46310901641846 3.76569652557373 3.80038070678711
2.71764588356018 2.71819090843201 3.06645178794861 3.60872364044189 3.94623804092407 4.72411680221558 4.41290664672852 4.95564126968384 5.38120603561401 6.32261991500854 5.33573293685913 6.92758512496948 8.81633472442627 5.51887989044189 5.74438524246216 -1.09231114387512 -0.897109627723694 -0.559745609760284 0.204459264874458 0.639738321304321 1.33267617225647 2.15126800537109 2.60174345970154 3.00810503959656 3.48943591117859 4.10997724533081 3.93216276168823 4.35834884643555 4.54254341125488 4.58509683609009 5.62356519699097 3.33576321601868 -0.0128741720691323 0.0595771335065365 0.226821079850197 0.481899976730347 1.34132087230682 2.43411159515381 1.38328158855438 0.824017226696014 0.83032500743866 0.813221633434296 0.860843122005463 0.876309216022491 0.976645290851593 0.998805522918701 1.02725279331207 1.09033668041229 1.11581826210022 1.14676582813263 1.20933759212494 1.26191747188568 1.33874690532684 1.43896746635437 1.56524205207825 1.67241144180298 1.68810176849365 1.70072400569916 1.71878898143768 1.81126022338867 1.86278474330902 1.95463371276855 2.02916789054871 2.1336817741394 2.1519455909729 2.31638240814209 2.39908695220947 2.49815535545349 2.66988706588745 2.84985685348511 3.007737159729 3.44815158843994 3.80100655555725 4.5401873588562 5.4446873664856 6.48180723190308 7.66184186935425 8.43537521362305 9.32946586608887 11.5772008895874 13.074857711792 14.249680519104 15.867359161377 17.0064258575439 16.4559898376465 18.8085269927979 18.8292694091797 13.4316644668579 5.67758464813232 0.033467922359705 -1.38677704334259 -1.18780493736267 -0.261685997247696 0.761373579502106 1.66395950317383 2.82674431800842 4.09719610214233 5.87292194366455 7.42473030090332 8.15384578704834 8.08195209503174 16.7201061248779 9.5990514755249 1.31875860691071 -2.21243023872375 -1.90036427974701 -1.47950756549835 -0.967148959636688 -0.417490482330322 -0.20538891851902 0.0458625741302967 0.381874769926071 0.678710460662842 1.08973598480225 2.14377641677856 3.06109833717346 3.18822979927063 3.93084526062012 4.22490262985229 4.3878812789917 4.91963720321655 5.12170457839966 5.29081630706787 5.5789098739624 5.75686740875244 5.91983032226562 6.15267324447632 6.39102554321289 6.39374971389771 6.63795042037964 6.56340742111206 6.66458034515381 6.52462100982666 7.48440170288086 8.99458312988281 5.83985090255737 5.53871965408325 5.9259295463562 6.22520780563354 6.14171552658081 6.62901735305786 5.7817530632019 6.04269075393677 4.99175357818604 3.26901030540466 -0.00554611347615719 -1.70270192623138 1.58556509017944 9.45452499389648 -2.08709764480591 -1.31869769096375 0.120093464851379 1.22807228565216 2.72689747810364 4.14073944091797 4.94329071044922 4.80312299728394 4.69534063339233 4.88550901412964 4.07224702835083 3.45640254020691 2.57102560997009 1.62379336357117 1.4815057516098 1.5918208360672 1.87555694580078 2.23795986175537 2.61372900009155 2.9757513999939 3.06197166442871 3.35297393798828 3.54267024993896
2.87789964675903 4.76259279251099 6.06149435043335 2.67181301116943 3.50534629821777 3.90755724906921 3.97227692604065 4.48599767684937 4.35119485855103 5.14622259140015 6.36910676956177 4.69435024261475 5.73544406890869 8.55895042419434 4.66027307510376 -0.418000161647797 -0.751361966133118 -0.241416543722153 0.459722816944122 1.2294008731842 1.65636992454529 2.07039093971252 2.54729580879211 3.03650331497192 3.0911865234375 3.37230038642883 3.74895572662354 3.60835123062134 4.05734872817993 3.44940233230591 4.1993727684021 3.15053725242615 0.218234568834305 0.138998374342918 0.258086413145065 0.404464900493622 1.10596668720245 2.14090943336487 1.89933967590332 0.791684985160828 0.826181888580322 0.839642763137817 0.935793340206146 0.949642896652222 0.975529551506042 1.03098392486572 1.04965114593506 1.07756769657135 1.13019323348999 1.16607975959778 1.22058629989624 1.2854700088501 1.36126434803009 1.45462679862976 1.51346695423126 1.58644306659698 1.717414021492 1.82647037506104 1.767693400383 1.86139702796936 1.92925214767456 2.02844047546387 2.05415415763855 2.17733764648438 2.21857571601868 2.32356214523315 2.45424818992615 2.55779123306274 2.68010854721069 3.05024433135986 3.3461651802063 3.89219903945923 4.65701723098755 5.38032865524292 6.38604974746704 6.89154195785522 8.24274063110352 9.11245822906494 10.004768371582 10.8865957260132 12.5424509048462 14.0299520492554 13.7172708511353 14.3294115066528 14.8011255264282 15.4241304397583 16.9991321563721 15.8157024383545 8.51468467712402 2.77599167823792 -1.22242259979248 -0.526633083820343 0.27987602353096 1.3065345287323 2.46492624282837 3.82482743263245 4.79992485046387 6.46484994888306 7.51627063751221 10.7469129562378 11.4945793151855 17.0579299926758 13.2745952606201 2.83728861808777 -2.02225255966187 -1.80601716041565 -1.34945940971375 -0.822125792503357 -0.510899126529694 -0.196071684360504 0.0831413194537163 0.719219386577606 1.7365550994873 2.56266331672668 3.26313948631287 3.62030291557312 3.79149270057678 3.96707940101624 4.42596101760864 4.58866453170776 4.74453115463257 5.06757307052612 5.27306318283081 5.41224718093872 5.60943794250488 5.61523389816284 5.81060886383057 6.00935649871826 5.93583345413208 5.98106527328491 5.92126941680908 5.78713369369507 6.87435722351074 10.8732900619507 6.8026065826416 5.58380222320557 4.23726272583008 4.4206018447876 4.88143348693848 3.96072125434875 3.58976364135742 3.52689576148987 3.07772970199585 3.08652400970459 3.37738156318665 2.72995328903198 2.18025135993958 4.59636688232422 7.98817157745361 -1.62406468391418 -1.09017062187195 -0.0638737976551056 1.44070410728455 1.84021782875061 2.6022801399231 2.98145198822021 3.01128053665161 2.74922227859497 2.57597613334656 2.22459411621094 1.19648826122284 1.12328684329987 1.2401739358902 1.39107000827789 1.50598216056824 1.69718790054321 2.02897715568542 2.3643274307251 2.61339449882507 2.86226797103882 3.08959412574768 3.20389986038208
5.18786668777466 6.75241708755493 3.71197819709778 2.15886473655701 2.58174085617065 3.06865429878235 3.16843748092651 3.7560703754425 4.64341115951538 3.82454037666321 4.98078632354736 5.96389293670654 3.71993279457092 5.35763168334961 5.21032428741455 1.05079519748688 -0.0159638896584511 0.593731462955475 0.813972949981689 1.24008357524872 1.70363783836365 1.86055421829224 2.05501961708069 2.49170565605164 2.90821146965027 2.7907292842865 3.19649934768677 2.86301589012146 3.07505345344543 2.84599757194519 3.20012497901917 2.59565615653992 0.83892810344696 0.184162944555283 0.279589474201202 0.376359492540359 0.71997195482254 1.97054600715637 2.49947834014893 0.816411912441254 0.900666058063507 0.912780702114105 0.936447262763977 0.986704409122467 1.00817930698395 1.04483616352081 1.07202649116516 1.10343074798584 1.14147460460663 1.20106244087219 1.24806821346283 1.35901665687561 1.41968011856079 1.46113514900208 1.53324401378632 1.58096766471863 1.685138463974 1.79099583625793 1.89460325241089 1.96264493465424 1.97256112098694 2.1077675819397 2.1282045841217 2.16777205467224 2.26388430595398 2.33668303489685 2.60693883895874 2.85278820991516 2.99339056015015 3.44317984580994 4.10436820983887 4.64745187759399 5.49016523361206 5.87576007843018 6.89656257629395 7.62268686294556 8.26837158203125 9.1806468963623 9.94142532348633 10.847526550293 10.9016132354736 12.1178846359253 12.7753305435181 12.4422092437744 12.9795551300049 13.2337656021118 14.9188928604126 13.7402105331421 10.0509061813354 5.04286241531372 1.46303629875183 0.268486648797989 1.14960336685181 2.14947724342346 3.26112341880798 4.84167528152466 5.65676164627075 8.05852699279785 9.20877265930176 11.2529630661011 13.0924854278564 17.4599456787109 14.5863838195801 4.88892507553101 -1.79768574237823 -1.51050114631653 -1.25908648967743 -0.818464875221252 -0.408719927072525 0.0816192254424095 1.07201159000397 2.0525050163269 2.72437524795532 3.08380603790283 3.26721334457397 3.71302127838135 3.89525151252747 4.09882164001465 4.25847196578979 4.50812721252441 4.71070289611816 4.88503551483154 5.10784578323364 5.13516330718994 5.27014970779419 5.25273895263672 5.26535272598267 5.45769453048706 5.38625144958496 5.24183368682861 5.26601266860962 6.39527034759521 9.88236427307129 9.29729080200195 3.95975160598755 7.21129655838013 5.30793905258179 2.43132042884827 2.37185192108154 1.9705296754837 4.01761293411255 0.857593476772308 1.01963949203491 2.30817413330078 4.90739440917969 2.95683860778809 4.53799962997437 8.29926681518555 0.62327116727829 -1.63689005374908 -1.15432143211365 -0.416209131479263 0.579574644565582 1.07763111591339 1.91894781589508 5.74737358093262 0.731969833374023 0.963415682315826 1.10875976085663 1.05435073375702 1.05719721317291 1.10033309459686 1.06186401844025 1.14081466197968 1.27010333538055 1.53800356388092 1.83386623859406 2.14565324783325 2.37083268165588 2.58113384246826 2.757479429245 2.86586046218872
5.79420375823975 5.16351699829102 4.00207567214966 3.27792882919312 2.06458330154419 2.1888222694397 2.86721062660217 2.56055116653442 3.23118615150452 3.89475035667419 3.12319779396057 3.48064589500427 3.45989632606506 3.38209390640259 3.96145486831665 1.61875128746033 0.74245810508728 0.830707132816315 1.00623190402985 1.14177262783051 1.30660510063171 1.67188596725464 1.6459755897522 2.06513786315918 2.4217677116394 2.25045871734619 2.33273935317993 2.30105018615723 2.37770676612854 2.35664176940918 2.68534255027771 2.40554308891296 1.61207938194275 0.808413326740265 0.300240814685822 0.425744444131851 0.695489048957825 1.61992943286896 2.76356244087219 1.0934624671936 0.906483471393585 0.953444600105286 0.966205060482025 0.99589204788208 1.01492512226105 1.05056190490723 1.0981103181839 1.12907159328461 1.16425180435181 1.23834097385406 1.31614649295807 1.38399791717529 1.41714930534363 1.43508577346802 1.5405136346817 1.60466945171356 1.7280113697052 1.7961573600769 1.88913059234619 2.06357789039612 2.32680296897888 2.14883279800415 2.21191430091858 2.22738265991211 2.43231296539307 2.63601112365723 2.95843148231506 3.51183199882507 3.73884916305542 4.09687185287476 4.83387422561646 5.1865439414978 5.9336109161377 6.54907751083374 7.0481595993042 7.83973121643066 8.42269420623779 8.45185470581055 9.0072546005249 9.70130157470703 10.502592086792 10.9830665588379 11.8166332244873 11.6729650497437 11.622838973999 11.6578807830811 11.6332769393921 11.9054555892944 9.7843189239502 6.61984300613403 4.63773393630981 1.33998930454254 2.43697047233582 3.60548090934753 4.22003746032715 5.94583368301392 7.11657190322876 8.31930446624756 10.0450429916382 10.8004302978516 13.4174280166626 19.7076244354248 13.1674299240112 3.44242000579834 -1.55301141738892 -1.0711053609848 -0.639159142971039 -0.264843732118607 0.562512159347534 1.40398752689362 2.00416922569275 2.39449501037598 2.65790128707886 3.17080664634705 3.34303140640259 3.45548892021179 3.77246999740601 3.98453497886658 4.20850610733032 4.31648206710815 4.53437948226929 4.63696432113647 4.77720165252686 4.79262685775757 4.76452112197876 4.7767186164856 4.67115592956543 4.85174036026001 4.82791471481323 4.77941083908081 5.68735790252686 8.50730991363525 9.52285766601562 7.25899505615234 4.49291467666626 6.42287158966064 7.46561431884766 3.5217661857605 1.8331161737442 2.94029879570007 7.52851057052612 3.46093082427979 -0.354426145553589 0.250944226980209 2.2429986000061 4.69961261749268 4.3366551399231 7.72269535064697 -1.54813897609711 -1.78575241565704 -1.67249751091003 -0.612167358398438 -0.426222652196884 5.46982192993164 1.3237556219101 5.81849765777588 0.256060808897018 0.524162530899048 0.79815810918808 0.897662818431854 0.807519853115082 0.894642114639282 2.39190769195557 0.861789882183075 0.997205317020416 1.33750891685486 1.62320053577423 1.90549647808075 2.10709857940674 2.23726844787598 2.48248553276062 2.73716711997986
4.21254825592041 3.27996325492859 3.47965979576111 2.71747231483459 2.04784274101257 1.4814418554306 1.62249076366425 2.43100333213806 2.01654839515686 2.09327411651611 2.31453561782837 1.7500171661377 2.32210350036621 2.07441782951355 2.65722870826721 1.86299955844879 1.00195217132568 0.926535487174988 0.829703748226166 1.06627750396729 0.982046544551849 1.25353252887726 1.32790243625641 1.4288684129715 1.71904945373535 1.75116455554962 1.67996263504028 1.7922283411026 1.96540510654449 2.07936573028564 2.07876181602478 1.97235214710236 2.01976227760315 1.34964299201965 0.342259168624878 0.469428241252899 0.922493159770966 1.78776288032532 2.76744651794434 1.32580351829529 0.934462666511536 0.964291036128998 0.979875981807709 1.00747716426849 1.04145979881287 1.07383251190186 1.13066494464874 1.17811930179596 1.21946358680725 1.2696887254715 1.3516491651535 1.99386954307556 2.23373293876648 1.38404262065887 1.50198781490326 1.6024055480957 1.75343906879425 1.84520816802979 1.91044628620148 2.00980448722839 2.18187952041626 2.86551642417908 3.15109610557556 2.55250430107117 2.80016183853149 3.28380131721497 3.58029079437256 4.18461847305298 4.48362827301025 4.71020984649658 5.3185977935791 5.82090091705322 6.15978097915649 6.64683628082275 7.13956451416016 7.24740409851074 7.61311626434326 8.1328296661377 8.18192768096924 8.88958072662354 9.68972969055176 10.1808500289917 11.0480794906616 13.5908117294312 11.4557771682739 10.005880355835 9.5145092010498 9.45551776885986 8.49351406097412 7.35305738449097 4.17098474502563 3.10570168495178 3.49437880516052 4.74088144302368 5.387375831604 6.00878381729126 7.66479682922363 8.52828979492188 10.1595754623413 10.9717264175415 13.2147951126099 16.1269111633301 13.0289258956909 2.40491700172424 -0.883890926837921 -0.0419069714844227 0.668958365917206 0.91762763261795 1.46828818321228 1.88726305961609 2.08197140693665 2.52690148353577 2.8053126335144 2.93754577636719 3.23890542984009 3.34930181503296 3.47920942306519 3.68304252624512 3.90587091445923 4.06814193725586 4.20135498046875 4.31604480743408 4.30878257751465 4.3441014289856 4.22435617446899 4.25666522979736 4.41073322296143 4.50551414489746 4.72657251358032 5.26711845397949 6.77242136001587 7.87290191650391 8.30873680114746 4.75779008865356 5.17784118652344 6.92850589752197 10.3314666748047 7.09722661972046 3.59821438789368 4.52697658538818 4.09647369384766 4.3492603302002 -0.0165836997330189 -0.494775056838989 0.344876229763031 3.08458709716797 5.62754011154175 2.84404134750366 -0.797956585884094 -1.48084855079651 -1.74878978729248 -1.58034670352936 2.64089226722717 5.80100250244141 -0.638440132141113 1.2558159828186 -0.0887502133846283 0.125635802745819 0.317377001047134 0.457893937826157 0.53613418340683 0.724291026592255 2.66640973091125 2.39348959922791 0.64507657289505 1.01021552085876 1.49021649360657 1.75409615039825 2.00458574295044 2.22791361808777 2.39252257347107 2.56956243515015
3.95014405250549 3.81438398361206 1.46684610843658 1.74185383319855 2.32413148880005 1.19086360931396 0.684804797172546 1.13923346996307 1.77891325950623 0.983431458473206 1.39230692386627 1.12371778488159 1.09691798686981 1.53947865962982 1.9258850812912 2.12876462936401 1.81489109992981 0.98128080368042 0.771134793758392 0.873888731002808 0.795944333076477 0.73097038269043 0.915827512741089 0.907893896102905 1.1302717924118 1.2454628944397 1.21380579471588 1.46820199489594 1.52334594726562 1.66693699359894 1.77723181247711 1.580690741539 1.75108826160431 1.296595454216 0.768998742103577 0.886119604110718 1.30205714702606 2.12368869781494 2.62142634391785 1.03911232948303 0.965300023555756 0.984798312187195 1.01992416381836 1.03952860832214 1.08475065231323 1.12886190414429 1.15991675853729 1.20766294002533 1.25219476222992 1.30097162723541 1.44835925102234 3.35512399673462 3.48722577095032 1.34715938568115 1.42105770111084 1.55729794502258 1.67563724517822 1.84152901172638 1.94085741043091 2.00323009490967 2.22546482086182 2.45595240592957 2.71530961990356 3.19656777381897 3.44628381729126 3.96311450004578 4.22702121734619 4.62913990020752 5.00584506988525 5.28549814224243 5.56375598907471 5.90592575073242 6.23786067962646 6.31218242645264 6.58529567718506 6.95919179916382 6.92131376266479 7.36502075195312 7.78182506561279 8.14071846008301 8.84138298034668 9.60367965698242 9.672926902771 10.6723260879517 12.1999263763428 8.2164945602417 7.76331377029419 7.3673939704895 6.58734464645386 5.80031108856201 5.00398778915405 4.23335123062134 4.25840950012207 5.23963499069214 6.01702165603638 6.62333488464355 7.8322057723999 8.7377347946167 10.2197294235229 11.2066297531128 12.73206615448 16.9840393066406 11.0990037918091 2.41803503036499 0.428417831659317 0.869718730449677 1.20772385597229 1.39155292510986 1.58076500892639 2.046471118927 2.23707365989685 2.40199303627014 2.66941499710083 2.83962655067444 2.87681293487549 3.01104855537415 3.09212136268616 3.1577479839325 3.45195388793945 3.63015222549438 3.68674492835999 3.88552927970886 3.79724478721619 3.85137748718262 3.90515446662903 3.94254684448242 4.08318042755127 4.52734470367432 5.8147120475769 8.51505947113037 9.50630187988281 6.12304353713989 4.26577711105347 4.15162086486816 6.10223388671875 7.48350238800049 12.4861869812012 9.09455680847168 7.49811220169067 9.99232959747314 1.85170233249664 -0.530335366725922 -0.705522894859314 -1.66223859786987 -1.50603663921356 0.267204284667969 1.21576189994812 1.47109174728394 1.12829172611237 -0.513725757598877 0.138789176940918 -0.180566668510437 0.251852422952652 1.99442887306213 -0.939985692501068 -0.644758284091949 -0.457064270973206 5.28174495697021 -0.225607916712761 -0.0674902126193047 0.129816070199013 0.44991409778595 0.632793366909027 2.21619200706482 0.424044638872147 0.584205389022827 1.08884429931641 1.60079658031464 1.87900185585022 2.12552213668823 2.27099347114563 2.41268587112427
3.27097105979919 1.37832093238831 1.58039021492004 1.09058177471161 1.57986044883728 0.984240293502808 0.435326755046844 0.723015666007996 1.0040602684021 0.812189519405365 1.00790071487427 0.788551568984985 0.872568845748901 1.60059404373169 1.62914669513702 1.91134345531464 1.98089468479156 1.25261330604553 0.786478400230408 0.574901103973389 0.591243803501129 0.391354411840439 0.562543630599976 0.554163694381714 0.670288145542145 0.866347372531891 1.02544617652893 1.15175771713257 1.50937807559967 1.40195262432098 1.46215689182281 1.27477240562439 1.25658226013184 1.2114874124527 1.11424612998962 1.33372712135315 1.71091902256012 2.46764588356018 2.36077976226807 2.07134294509888 1.90548515319824 1.09180963039398 1.07268869876862 1.10531711578369 1.12646126747131 1.1675136089325 1.19078600406647 1.26406800746918 1.30276918411255 1.34288239479065 2.45751547813416 4.86258792877197 4.56928825378418 2.04766535758972 1.31556928157806 1.42324483394623 1.57044982910156 1.79710054397583 2.07966899871826 2.22436571121216 2.43215203285217 2.89901375770569 3.11352682113647 3.63951539993286 3.88529133796692 4.27140378952026 4.62470674514771 4.72460794448853 4.97213697433472 5.23958015441895 5.5191388130188 5.57810592651367 5.75298261642456 6.06456184387207 6.03838014602661 6.28586959838867 6.65539503097534 6.84830141067505 7.34497356414795 7.53350114822388 7.99682807922363 8.64571857452393 9.52892208099365 15.2124509811401 22.5573596954346 4.459388256073 4.09539270401001 4.05228233337402 3.98978638648987 4.08971452713013 4.13702726364136 4.80542659759521 4.9547176361084 5.39389562606812 6.01511240005493 6.67021465301514 7.68353080749512 8.69418430328369 10.2100591659546 11.9057359695435 13.0830001831055 13.6927909851074 12.1650123596191 6.02889728546143 0.928863346576691 0.964857280254364 1.30446875095367 1.53372633457184 1.77308106422424 1.95890784263611 2.23847413063049 2.38296675682068 2.4332480430603 2.54129958152771 2.55864572525024 2.48155808448792 8.2516975402832 2.10709190368652 2.01497292518616 2.24558329582214 2.66726636886597 3.33209204673767 3.46314835548401 3.54748177528381 3.62211036682129 3.76525855064392 4.14508295059204 4.85846281051636 8.43685531616211 11.5436372756958 8.23537445068359 3.90273356437683 4.34717512130737 5.11565399169922 6.99187469482422 9.07023525238037 12.2827053070068 12.0140256881714 9.90833473205566 10.4909620285034 2.48861145973206 -0.806974470615387 -2.3583300113678 -2.45328569412231 -2.0635929107666 -1.57528209686279 -0.590277671813965 -0.489180952310562 0.174927622079849 0.975127041339874 4.80825328826904 -0.0270202271640301 -1.04021775722504 -1.26211738586426 -1.0477854013443 0.864609658718109 3.89667415618896 3.30964922904968 4.80035877227783 -0.45546093583107 -0.290087014436722 -0.0425252988934517 0.187775403261185 5.44234180450439 0.139308705925941 0.313781470060349 0.685566008090973 1.23919308185577 1.65377485752106 1.91880857944489 2.10196757316589 2.22956132888794
1.35052990913391 0.980744540691376 1.56650686264038 1.22949504852295 0.614699184894562 0.39833402633667 0.417131066322327 0.570883691310883 0.646847546100616 0.767958760261536 0.768007934093475 0.710787117481232 1.19740200042725 1.22097373008728 1.35125184059143 1.1887104511261 1.40342092514038 1.43519330024719 0.873614013195038 0.351765692234039 0.406879633665085 0.291944712400436 0.311740189790726 0.513109445571899 0.583248555660248 0.943098306655884 1.13380146026611 0.975982010364532 0.848185479640961 1.667884349823 0.669752717018127 0.733038723468781 0.83881664276123 0.985850512981415 1.1377021074295 1.26519191265106 1.50449514389038 1.57536458969116 1.396360039711 1.62828600406647 2.15652203559875 2.2071213722229 1.12238931655884 1.13773155212402 1.15388762950897 1.20994472503662 1.23677718639374 1.32013070583344 1.45684731006622 1.96848392486572 3.46985292434692 5.62094259262085 5.09696865081787 4.6370415687561 1.42018353939056 1.31311988830566 1.5567421913147 1.79198145866394 2.31497526168823 2.63983631134033 2.80660700798035 3.29382514953613 3.54649829864502 3.84067344665527 4.2091178894043 4.36874771118164 4.56627225875854 4.72294187545776 4.74380302429199 4.81198787689209 5.09582901000977 5.34780836105347 5.34745311737061 5.51333665847778 5.81270408630371 5.90129852294922 6.2649188041687 6.44017696380615 6.63435554504395 7.01788425445557 7.21870899200439 8.5889139175415 15.235785484314 25.2400398254395 30.463062286377 3.74956178665161 2.32548546791077 3.07092666625977 3.20541429519653 3.91823792457581 4.26996803283691 4.6374626159668 4.81724119186401 5.01395845413208 5.58733463287354 6.44113254547119 7.40235090255737 8.38500595092773 9.88676834106445 11.3481636047363 12.7492446899414 13.8678646087646 15.1148195266724 9.12883758544922 4.26797819137573 1.05772066116333 1.18589055538177 1.52045297622681 1.83100521564484 2.02588319778442 2.09478282928467 2.19818925857544 2.25535798072815 2.16160464286804 2.4789035320282 6.7734317779541 5.71729612350464 7.5573205947876 8.25027942657471 0.75959575176239 0.972884297370911 2.70235443115234 3.0711522102356 3.34067964553833 3.45076990127563 3.68441319465637 4.23461484909058 6.27581357955933 8.83382129669189 9.9340763092041 8.19421291351318 4.90104818344116 4.71710538864136 6.47040367126465 6.77046871185303 9.50228881835938 11.4203443527222 11.7029523849487 12.0124835968018 10.407600402832 4.55252456665039 -1.97939324378967 -2.94395923614502 -2.86475372314453 -2.59411931037903 -2.25907921791077 -1.17084443569183 0.281022787094116 1.8860821723938 3.16086101531982 5.05414009094238 3.51545166969299 -1.75004720687866 -1.12078547477722 0.921900749206543 1.81694161891937 3.8688063621521 5.60598802566528 8.33329200744629 -0.730004131793976 -0.648132681846619 -0.47224086523056 -0.289976596832275 1.72623133659363 -0.00779569568112493 0.0766824260354042 0.428906947374344 0.98080050945282 1.40827345848083 1.78301894664764 2.32245397567749 2.63896656036377
0.951279699802399 0.949822008609772 1.45285224914551 0.612408518791199 0.398596942424774 0.463237851858139 0.479813009500504 0.582786321640015 0.661302804946899 0.618564426898956 0.674343347549438 0.738283395767212 1.0198769569397 0.938156843185425 0.939865946769714 1.00281739234924 0.930078685283661 1.13248705863953 0.540267288684845 0.370047897100449 0.305868208408356 0.315174072980881 0.394210040569305 0.504538357257843 2.2850296497345 1.38030540943146 0.217506930232048 0.302846729755402 0.400981813669205 0.585391819477081 0.704446852207184 0.703461408615112 0.821471989154816 0.876994609832764 0.986390948295593 1.01786971092224 1.07442927360535 1.13259387016296 1.22274148464203 1.29809439182281 1.36020588874817 1.26591980457306 1.13560962677002 1.17662179470062 1.19695734977722 1.26721727848053 1.30043411254883 1.37884533405304 2.14324331283569 2.62868976593018 4.1175971031189 5.04879999160767 6.68612813949585 8.22298431396484 3.27504229545593 1.39059638977051 1.74696898460388 1.99565398693085 2.51162600517273 2.87707161903381 3.13285398483276 3.4720630645752 3.81242346763611 3.96468687057495 4.12923049926758 4.30185842514038 4.35320281982422 4.39651012420654 4.54856204986572 4.56386804580688 4.69482231140137 4.93311882019043 5.14563369750977 5.18541860580444 5.4630184173584 5.62080574035645 5.6620135307312 5.99542760848999 6.08598136901855 6.4673957824707 9.70578289031982 12.1498041152954 21.5124893188477 32.227710723877 27.8833560943604 10.012996673584 2.14255595207214 2.6215546131134 2.83477735519409 3.17342162132263 3.66571640968323 3.86612892150879 3.91685056686401 4.08718538284302 4.55999803543091 5.40223836898804 6.62874698638916 7.84748268127441 8.98358249664307 10.5383596420288 12.267276763916 13.5218181610107 16.4181156158447 10.959529876709 6.14929580688477 1.1667652130127 1.23650300502777 1.47320568561554 1.72217559814453 1.91166424751282 1.97646284103394 1.90534794330597 2.20664405822754 2.26881313323975 5.48801422119141 9.91008472442627 8.32628440856934 2.97566676139832 9.4180212020874 2.32732200622559 -0.0208667311817408 1.18697714805603 2.77096390724182 2.83282518386841 3.08187508583069 3.68007659912109 4.74590492248535 5.85138177871704 9.48194313049316 11.7005424499512 7.72492170333862 5.55722618103027 5.48768901824951 5.78326368331909 6.76613569259644 9.68166255950928 11.6627349853516 9.27940940856934 10.5804567337036 8.56301879882812 4.24773645401001 -3.13987731933594 -3.26994109153748 -3.02756476402283 -2.67665886878967 -1.91741514205933 -0.958730638027191 0.809928119182587 2.69142556190491 5.07304620742798 6.20505857467651 0.249677613377571 -0.707512676715851 -0.833337426185608 0.991165220737457 3.25285005569458 4.48498916625977 6.13567590713501 6.69636869430542 2.06073522567749 -0.827540636062622 -0.721131205558777 -0.580858826637268 -0.4385786652565 -0.280446380376816 -0.0557606518268585 0.27994892001152 0.928047239780426 1.54862821102142 2.19171190261841 2.81747150421143 3.10461664199829
0.448236405849457 1.18027746677399 0.991848826408386 0.733956813812256 0.612390220165253 0.497895300388336 0.481704771518707 0.475060492753983 0.591036319732666 0.444056063890457 0.643767356872559 0.695930480957031 0.707694888114929 0.803810000419617 0.733282923698425 0.813898205757141 0.935795307159424 0.999275267124176 0.296604245901108 0.339063704013824 0.949115633964539 0.638827264308929 4.80673408508301 2.39921689033508 0.0965781733393669 0.106788240373135 0.133291929960251 0.21135887503624 0.325201153755188 0.443622201681137 1.00099897384644 0.608664870262146 0.726746201515198 0.788179337978363 0.83323872089386 0.835316896438599 0.841574311256409 0.899752676486969 0.892691254615784 1.04002213478088 1.1537504196167 1.17631757259369 1.1780698299408 1.23298382759094 1.26329529285431 1.33557784557343 1.63110113143921 1.92452645301819 2.66555213928223 3.47133231163025 3.76421761512756 5.3542013168335 6.00886249542236 11.1884250640869 3.06120228767395 1.9272712469101 2.01418137550354 2.25350141525269 2.5597882270813 2.99528241157532 3.25080347061157 3.55003452301025 3.74397206306458 3.91919302940369 3.9453067779541 4.00176477432251 4.16675281524658 4.16548204421997 4.21377372741699 4.33625364303589 4.32785797119141 4.58407354354858 4.86506462097168 5.01629590988159 5.00025844573975 5.26239967346191 5.33600282669067 5.53400325775146 7.05373191833496 7.93858814239502 13.4652070999146 15.9325284957886 22.6991634368896 35.3468627929688 26.7577743530273 12.0633373260498 5.88395404815674 2.2201931476593 2.40792202949524 2.64481711387634 2.82276105880737 3.02758455276489 3.07368421554565 3.03321290016174 3.16321468353271 4.14423799514771 5.11525774002075 6.62530660629272 7.86345767974854 9.5501766204834 11.1759033203125 12.8085422515869 14.2644033432007 11.6649360656738 7.50187206268311 1.17783784866333 1.16481232643127 1.43142640590668 1.52733683586121 1.6973329782486 1.75002729892731 1.64792990684509 3.69132804870605 5.40188932418823 11.5518989562988 12.4186906814575 10.8743171691895 -0.197541192173958 5.20686101913452 6.04275798797607 -0.356650412082672 -0.263065338134766 1.47179329395294 2.84164118766785 3.07365202903748 3.74530124664307 4.3828182220459 6.769700050354 9.03373241424561 11.7334156036377 9.51095199584961 5.56899929046631 4.9595422744751 6.90395069122314 6.61816930770874 8.7415246963501 10.0808353424072 9.4522647857666 6.31819915771484 4.93119192123413 1.44982159137726 -3.19202399253845 -3.34534072875977 -2.98480558395386 -2.28612542152405 -1.57270014286041 -0.453795433044434 1.59398627281189 3.04995274543762 3.39421463012695 5.05512809753418 4.07713985443115 0.797508060932159 1.29135644435883 2.04671263694763 3.67787027359009 4.2117018699646 5.15561532974243 5.12595748901367 7.63454866409302 0.715384185314178 -0.901609897613525 -0.674724221229553 -0.387312412261963 -0.0150822065770626 0.452080577611923 0.936666131019592 1.45461308956146 2.04836249351501 2.39547610282898 3.142418384552 3.50366616249084
0.328579246997833 0.414935171604156 0.448719054460526 1.00844836235046 2.48836612701416 0.384448796510696 0.420794695615768 0.39262443780899 0.40326201915741 0.44545042514801 0.488557100296021 0.605519771575928 0.6380774974823 0.773787438869476 0.87595933675766 0.947313964366913 1.74070632457733 2.52710270881653 1.37906002998352 4.79430913925171 0.17429880797863 2.53987574577332 0.174565434455872 0.838181972503662 0.0658249035477638 0.0962387472391129 0.129274234175682 0.187055453658104 0.290202915668488 0.374952763319016 0.622028231620789 0.537176430225372 0.598245859146118 0.621704161167145 0.648409724235535 0.675051033496857 0.686879634857178 0.725830972194672 0.819470584392548 1.00528883934021 1.14968180656433 1.21539235115051 1.23456573486328 1.2943662405014 1.44540286064148 1.56893038749695 1.93723106384277 2.49100422859192 2.89716911315918 3.8791298866272 4.4442286491394 6.11310720443726 7.5111346244812 11.8707580566406 3.31321954727173 2.06495332717896 2.16095304489136 2.43445158004761 2.6205620765686 2.85920405387878 3.12953686714172 3.44416618347168 3.59400534629822 3.6423659324646 3.79923677444458 3.79295706748962 3.84379291534424 3.99671697616577 3.9833710193634 4.08765649795532 4.20041418075562 4.17104005813599 4.40474557876587 4.62763357162476 4.71655988693237 5.07563543319702 5.56625604629517 6.14906311035156 9.83855819702148 11.1268835067749 14.2695007324219 16.8333644866943 22.7766895294189 32.2546615600586 30.6200103759766 14.4399995803833 7.80932998657227 5.08043432235718 1.9080171585083 1.96349477767944 1.98436081409454 3.33340978622437 10.9297180175781 1.11160278320312 1.42063641548157 2.94325757026672 4.2454981803894 5.73276901245117 7.28484869003296 8.8544750213623 10.398998260498 12.1764755249023 12.5907440185547 12.8612909317017 6.68591213226318 1.2358546257019 1.12291383743286 1.26596939563751 1.34620070457458 1.3815643787384 1.44752204418182 4.64802074432373 4.70748233795166 7.16915559768677 21.6911506652832 6.54408550262451 6.1142110824585 -0.0829457566142082 0.255338102579117 5.20108985900879 -1.10695254802704 -1.30296003818512 0.362660557031631 2.70796179771423 3.37955904006958 3.7801034450531 5.29669761657715 5.89211797714233 7.36970520019531 9.97711849212646 9.95729541778564 7.23665285110474 5.10642242431641 5.81889629364014 6.16846990585327 7.70528364181519 8.80780982971191 8.19132232666016 3.04579210281372 2.52500510215759 0.977933466434479 -3.35016775131226 -3.26960158348083 -2.87994503974915 -2.4067976474762 -0.875513553619385 0.347555041313171 0.24014350771904 1.17340755462646 1.03811073303223 0.525589406490326 1.27705919742584 1.76929473876953 2.63407158851624 2.92038011550903 3.96284103393555 4.31466007232666 5.49557876586914 6.18545579910278 9.48360443115234 -0.721893966197968 -0.494993329048157 0.14461275935173 0.294278234243393 0.677634298801422 1.1517196893692 1.64250767230988 1.87521970272064 2.41855049133301 2.87193202972412 3.31841683387756 3.66999197006226
0.310119390487671 0.382596284151077 0.39335310459137 1.67075192928314 1.46915030479431 0.807069599628448 0.390296101570129 0.306833237409592 0.19946500658989 0.375667005777359 0.327501147985458 0.521170318126678 0.669291436672211 1.22062873840332 1.73828935623169 1.93801927566528 5.71300888061523 8.23208236694336 1.10653066635132 0.677195370197296 -0.0954527258872986 -0.0291975345462561 -0.00645477371290326 0.0171314347535372 0.0493774749338627 0.0887807235121727 0.121869601309299 0.161429151892662 0.238927453756332 0.33225080370903 0.439143985509872 0.500061869621277 0.491782963275909 0.50460958480835 0.511245310306549 0.561996877193451 0.604099571704865 0.643186569213867 0.762093007564545 0.950804531574249 1.13306248188019 1.26922678947449 1.29786360263824 1.42170488834381 1.82807016372681 2.02630853652954 2.21548843383789 2.82156944274902 3.24020481109619 3.95527625083923 4.33813142776489 6.53947687149048 8.33159351348877 11.987232208252 3.82289743423462 2.21687841415405 2.25920128822327 2.38907074928284 2.52480125427246 2.68197846412659 2.85410284996033 3.21726655960083 3.44384980201721 3.46480846405029 3.50789403915405 3.64500284194946 3.63967847824097 3.74706339836121 3.85588264465332 3.76904296875 3.92165517807007 3.99735498428345 4.07995223999023 4.27112150192261 4.49760437011719 6.95105409622192 7.58661699295044 8.34838581085205 10.2423257827759 11.6436252593994 14.3075771331787 17.0148143768311 22.7885646820068 29.3251819610596 32.5385856628418 21.0271110534668 9.90555095672607 7.05065155029297 5.95988082885742 2.56299781799316 3.54963612556458 4.20974969863892 5.73869132995605 0.321814149618149 0.291579812765121 1.87466442584991 3.44080543518066 4.86997985839844 6.46826314926147 7.86769914627075 9.52567481994629 11.2763385772705 11.6732997894287 10.3951978683472 5.893874168396 1.54330027103424 1.25688111782074 1.17342698574066 1.13392019271851 1.81780326366425 3.29130959510803 5.55955362319946 9.09851264953613 10.8856725692749 20.6299266815186 8.62979507446289 4.08334493637085 1.3090101480484 -1.05276882648468 0.861413180828094 -1.59680497646332 -1.52632820606232 0.787809610366821 2.35664248466492 3.39791774749756 3.963711977005 13.8935470581055 4.25747156143188 4.8342227935791 7.49354648590088 6.62292098999023 5.37575721740723 6.69154500961304 7.20166969299316 7.14083337783813 8.48272323608398 6.50921583175659 4.51693058013916 0.572705924510956 0.323082804679871 0.01016332115978 -1.36698055267334 -3.34266710281372 -3.30883860588074 -2.6645188331604 -1.65958917140961 -0.977508902549744 -0.0951146334409714 0.00818737782537937 0.379989922046661 0.965802311897278 1.86872375011444 1.90581464767456 2.43466210365295 3.54367232322693 4.77772998809814 5.34383010864258 7.83576917648315 5.72038650512695 2.64658498764038 -0.0796636939048767 0.342036664485931 0.654370546340942 0.934003472328186 1.34816038608551 1.59313130378723 2.05080199241638 2.36578345298767 2.67428255081177 2.99576950073242 3.31442975997925 3.58211755752563
0.230958238244057 0.249112650752068 0.269865840673447 0.465439558029175 0.732680261135101 1.21611607074738 1.64036798477173 0.164467096328735 0.162705406546593 0.271951198577881 0.28425058722496 0.531483173370361 0.957218170166016 1.38732898235321 3.75772309303284 3.17172050476074 5.17824697494507 4.45210123062134 0.405146420001984 0.499424457550049 -0.146721377968788 -0.0991823151707649 -0.0582322217524052 -0.0080996435135603 0.0314849838614464 0.0806473940610886 0.117745704948902 0.155450060963631 0.19682714343071 0.254191696643829 0.310031563043594 0.764389395713806 0.385486662387848 0.433184176683426 0.492862731218338 0.535618662834167 0.581200480461121 0.773151218891144 0.834567010402679 1.07816171646118 1.20424437522888 2.01076054573059 1.57691836357117 1.66090071201324 2.03402376174927 2.32498264312744 2.53946495056152 2.98660588264465 3.34461283683777 4.30937719345093 5.07884359359741 7.29964971542358 10.1830167770386 9.6631441116333 4.91285943984985 2.1288378238678 2.19013667106628 2.3068265914917 2.35815000534058 2.54130434989929 2.71875333786011 2.97806859016418 3.18881940841675 3.31795859336853 3.33267378807068 3.42521572113037 3.50507950782776 3.44150876998901 3.57156229019165 3.63166522979736 3.66247463226318 3.821120262146 3.78925681114197 5.72817611694336 6.16762542724609 7.2658839225769 8.20073795318604 8.94897174835205 10.2087564468384 11.7927522659302 14.0238056182861 16.6553955078125 19.92138671875 25.9107036590576 29.2954025268555 29.4913063049316 15.9723863601685 7.87268733978271 7.64485454559326 9.41004467010498 6.69860553741455 3.67386054992676 3.42878150939941 0.0393923223018646 0.234007105231285 0.940433621406555 1.57347905635834 3.50206422805786 5.33658981323242 6.96059083938599 8.26235580444336 9.7096996307373 10.7652292251587 8.79798889160156 5.10359382629395 4.99362087249756 3.59853434562683 2.66583728790283 2.53870534896851 4.04592657089233 6.78888750076294 7.01553535461426 10.8337907791138 12.6059579849243 12.768684387207 12.7000617980957 6.48553562164307 2.00217866897583 -0.133953422307968 -1.82125234603882 -1.68491351604462 -0.800900161266327 1.04209327697754 2.47734332084656 3.48568487167358 7.60738658905029 14.6505651473999 3.96488237380981 4.51014518737793 4.81313037872314 6.09930038452148 6.42848300933838 7.11059713363647 8.5125207901001 9.17802143096924 8.26312255859375 4.32565450668335 2.63072323799133 0.665640294551849 -2.03453493118286 -0.788099467754364 0.583797037601471 -1.18462312221527 -3.30855226516724 -3.20352554321289 -2.17581105232239 -1.00956439971924 -0.538011848926544 0.260834336280823 0.76760721206665 1.38021838665009 2.03872728347778 2.63824558258057 3.27995872497559 3.62016010284424 5.60177755355835 7.49189472198486 7.39372682571411 3.7833354473114 0.275822967290878 0.617805957794189 0.989979207515717 1.19052755832672 1.42041063308716 1.77756905555725 2.00832438468933 2.26923584938049 2.51051259040833 2.76793313026428 3.05694127082825 3.34679341316223 3.58919930458069
0.411839663982391 0.134369015693665 0.208937421441078 0.297709375619888 0.649984002113342 1.26839160919189 0.103181689977646 0.193167999386787 0.198689207434654 0.210632413625717 0.276418149471283 0.527498841285706 2.73665881156921 3.23619484901428 2.16800093650818 3.04214572906494 3.70658564567566 4.11329889297485 1.17783677577972 0.750034868717194 0.228714495897293 -0.166615530848503 -0.1058604195714 -0.0482462458312511 0.00192800222430378 0.0617306232452393 0.108700253069401 0.14514023065567 0.182024583220482 0.217898532748222 0.251440435647964 0.646736800670624 0.388533622026443 0.448250472545624 0.657158672809601 0.723800718784332 0.77097624540329 0.967016935348511 1.0551244020462 1.14059126377106 1.44604110717773 1.75699329376221 1.74134576320648 1.96013915538788 2.15954494476318 2.43239378929138 2.63896751403809 3.14685916900635 3.5562527179718 4.84550619125366 5.75631189346313 7.75754308700562 8.72038269042969 8.01568603515625 5.89380741119385 2.13930368423462 2.09120225906372 2.19179344177246 2.26988005638123 2.38545727729797 2.59332370758057 2.82983350753784 2.98870158195496 3.10713505744934 3.21996259689331 3.15131592750549 3.2675416469574 3.31993055343628 3.33924698829651 3.46253776550293 3.41837525367737 4.89607763290405 5.19718217849731 6.00071477890015 6.7692494392395 7.29655790328979 8.36605930328369 9.15105152130127 10.0551280975342 11.8803663253784 13.4489908218384 16.005163192749 18.8679866790771 22.554162979126 27.3488159179688 27.7239246368408 24.7598266601562 14.9032917022705 11.5243072509766 7.38723421096802 6.52121734619141 5.31202936172485 2.23392391204834 0.194548264145851 0.2956722676754 0.306373685598373 0.64326137304306 1.86933100223541 3.66388893127441 5.22817850112915 6.78651857376099 7.81992721557617 7.83118724822998 5.32838010787964 3.58532953262329 4.33319282531738 4.49744081497192 4.63967752456665 5.63434076309204 6.24909067153931 10.7102346420288 10.9405422210693 7.823166847229 11.2878007888794 10.6338014602661 9.83220195770264 3.60275888442993 1.95655274391174 6.66909456253052 -1.58706665039062 -1.41142416000366 -0.13576777279377 1.47885477542877 2.87064099311829 4.53686666488647 10.569580078125 9.17349529266357 4.1261043548584 4.37071466445923 4.53927993774414 6.49422025680542 10.8376359939575 5.97239398956299 7.3560004234314 7.78943109512329 5.82079601287842 4.49083757400513 1.7599139213562 -1.48151350021362 -0.745139181613922 -0.118489950895309 -0.810306787490845 -2.19502258300781 -3.16426301002502 -2.85449409484863 -2.08750891685486 -1.20395469665527 -0.411501944065094 0.467451989650726 1.18136990070343 1.89840984344482 2.47134256362915 3.05404329299927 4.19303226470947 5.02198123931885 5.75981998443604 7.95608758926392 8.95180511474609 5.56580781936646 2.99790787696838 1.14242506027222 1.38586711883545 1.60846126079559 1.77291345596313 1.98111712932587 2.1797149181366 2.37434887886047 2.62870788574219 2.90063858032227 3.13264083862305 3.22289276123047 3.91764616966248
0.156402036547661 0.069981150329113 0.126188412308693 0.538398087024689 0.0883353725075722 0.0350969061255455 0.125913619995117 0.198514133691788 0.201069131493568 0.179150775074959 0.214391961693764 1.71228814125061 3.89055037498474 2.30028533935547 2.37206244468689 2.61743545532227 3.04891705513 3.39506459236145 1.72819662094116 1.69223356246948 0.812615096569061 -0.198296621441841 -0.155917897820473 -0.0898782461881638 -0.0344747677445412 0.0267775803804398 0.0826814547181129 0.125128448009491 0.165244534611702 0.209484398365021 0.269542932510376 0.380087941884995 0.57806932926178 0.634417057037354 0.817513942718506 0.910264432430267 0.927270889282227 1.0023193359375 1.2634379863739 1.33598792552948 1.56389701366425 1.80842733383179 1.8794287443161 2.04508066177368 2.27927327156067 2.57861018180847 2.80610728263855 3.51847457885742 3.99586963653564 5.0366587638855 5.91142749786377 6.94540405273438 8.40454292297363 8.01564025878906 6.38091564178467 2.65332412719727 2.0805184841156 2.05411171913147 2.16251659393311 2.27652812004089 2.44508814811707 2.74118328094482 2.76092433929443 2.88286066055298 2.98856353759766 3.06525135040283 3.08444976806641 3.16694593429565 3.11773252487183 4.25472736358643 4.48334550857544 5.1176552772522 5.77988052368164 6.14697360992432 6.92308187484741 7.44598340988159 8.44639015197754 9.2217264175415 10.1305513381958 11.5002822875977 13.0429830551147 14.3516626358032 16.9032878875732 19.8817844390869 22.8990516662598 26.6700820922852 24.9265060424805 21.9183502197266 14.99729347229 9.01598358154297 10.4383478164673 8.9224853515625 5.79220819473267 4.40931987762451 1.9332138299942 0.930394113063812 0.807921826839447 1.61174666881561 3.11608743667603 3.74555325508118 4.67025566101074 5.45662832260132 7.0478196144104 5.48552370071411 3.81563234329224 5.02297019958496 5.43587589263916 5.5789680480957 6.97096395492554 7.85129690170288 11.2975215911865 19.1229782104492 11.9958591461182 6.94570922851562 6.4212794303894 4.63447666168213 3.75217962265015 5.06725120544434 3.76910758018494 -0.926590144634247 -0.58140766620636 0.926175951957703 2.14639830589294 3.10573196411133 4.63991260528564 7.48366355895996 6.67701864242554 4.31500291824341 4.60178375244141 7.17912006378174 11.1619720458984 8.51564693450928 6.26882982254028 5.282470703125 5.3211030960083 5.27115297317505 4.05480289459229 1.1233948469162 -0.45647993683815 -0.210140123963356 -0.129415094852448 -0.763324379920959 -2.9365599155426 -2.82607984542847 -2.5219247341156 -1.92413747310638 -1.34193205833435 -0.509262323379517 0.650031685829163 1.44106566905975 2.32550168037415 2.90166449546814 3.53001475334167 3.90287256240845 4.74660587310791 6.01619482040405 5.13900184631348 4.71117401123047 3.46407794952393 2.54212594032288 1.53755688667297 1.6084930896759 1.73588120937347 1.85677564144135 1.99813616275787 2.15408658981323 2.36259031295776 2.58365845680237 2.90046310424805 3.47947883605957 3.82362723350525 4.13778877258301
0.106416188180447 -0.00737150385975838 0.0358490124344826 0.151944026350975 -0.0256074331700802 0.10466606169939 0.131644561886787 0.107680641114712 0.675770163536072 0.837100684642792 1.12469553947449 2.403648853302 2.15461468696594 2.12384676933289 2.22155928611755 2.30142164230347 2.41433691978455 3.56278133392334 2.45175623893738 1.2618100643158 1.03049612045288 -0.0860466584563255 -0.18679615855217 -0.123066499829292 -0.104562982916832 -0.0154960807412863 0.0471135638654232 0.101034760475159 0.146985203027725 0.196391388773918 0.37384432554245 0.443221479654312 0.700652480125427 0.784930646419525 0.849623262882233 1.06484007835388 1.13042056560516 1.19377946853638 1.36916565895081 1.54638361930847 1.62651908397675 1.85346043109894 2.00498294830322 2.16380858421326 2.51604270935059 2.87523531913757 3.14838147163391 3.65980339050293 4.24651765823364 4.74449110031128 5.37338876724243 6.16564416885376 6.61248302459717 7.24331760406494 5.58273410797119 3.05248093605042 2.10350918769836 2.10562324523926 2.11694073677063 2.23806571960449 2.28496885299683 2.52075147628784 2.6740517616272 2.69809198379517 2.81920504570007 2.92312812805176 3.60089874267578 3.79402852058411 3.94368481636047 4.4443998336792 5.03476572036743 5.30359554290771 5.90875244140625 6.29453659057617 6.97675561904907 7.57128620147705 8.16678333282471 9.04550552368164 9.87755393981934 10.861065864563 12.1697101593018 13.7548589706421 14.8425264358521 17.4928855895996 20.2413196563721 22.5951595306396 25.1471385955811 22.1526069641113 15.4219455718994 11.6308155059814 11.6006765365601 10.6656017303467 9.8637866973877 7.75982618331909 6.36165475845337 3.49353098869324 1.40748226642609 1.79414677619934 2.15019297599792 2.90294051170349 3.49103569984436 4.78466558456421 6.61804056167603 5.4224681854248 5.56418180465698 5.90782737731934 6.56600189208984 6.82792329788208 7.0104866027832 11.1360111236572 13.3847303390503 18.8524074554443 15.7427606582642 5.63159036636353 4.63432788848877 4.37968254089355 2.88024568557739 4.12530088424683 2.81392383575439 0.351238250732422 0.606843113899231 1.6295599937439 2.77502346038818 3.45628786087036 4.18730211257935 5.79527997970581 4.90016746520996 6.08309078216553 8.14515781402588 10.8073778152466 11.8664531707764 6.09027814865112 5.24347448348999 6.62414693832397 7.25851535797119 6.72307968139648 4.76647233963013 2.20020580291748 0.313381850719452 -0.0756307020783424 0.886105418205261 -2.88631892204285 -2.7652485370636 -2.60286140441895 -2.34536075592041 -1.72218489646912 -1.09369671344757 -0.210317030549049 0.822050392627716 1.61795723438263 2.07111215591431 2.4812650680542 2.96574521064758 3.53958463668823 3.13985228538513 2.85507965087891 3.26512026786804 4.04913663864136 3.87996959686279 2.87579679489136 1.78510189056396 1.80222153663635 1.87612533569336 1.92382168769836 1.98348307609558 1.99216055870056 2.24665832519531 2.78596878051758 3.095059633255 3.51714706420898 4.27154493331909 4.72487258911133
0.00583321461454034 -0.0458102636039257 -0.0386811085045338 -0.0538628660142422 -2.93169578071684e-05 0.083795465528965 0.501341998577118 0.614397168159485 0.834636807441711 0.972153007984161 1.31322336196899 2.95494484901428 1.97398543357849 1.99261951446533 2.12777924537659 2.53664612770081 2.76559948921204 3.46919226646423 2.25929307937622 2.12792277336121 1.96589922904968 0.658373951911926 -0.19599874317646 -0.167838871479034 -0.145964115858078 -0.0627133697271347 0.00924830790609121 0.0625828951597214 0.0672627314925194 0.186651825904846 0.432732224464417 0.578323841094971 0.707864463329315 0.973916947841644 1.03097665309906 1.16069185733795 1.32348656654358 1.38397884368896 1.43838393688202 1.6001992225647 1.72682547569275 1.96772885322571 2.22108674049377 2.44613313674927 2.67082333564758 3.10885047912598 3.36671733856201 3.72428703308105 4.00688457489014 4.36251211166382 4.40622520446777 5.15519094467163 5.44941329956055 6.29788446426392 5.2363805770874 2.44855952262878 2.05312490463257 2.11541891098022 2.05020475387573 2.14138603210449 2.25837516784668 2.31855463981628 2.4589102268219 2.47377467155457 3.13299322128296 3.33957123756409 3.74790620803833 4.25764083862305 4.46187925338745 4.66411161422729 5.13849592208862 5.47608184814453 5.9542932510376 6.47085952758789 6.86894226074219 7.49537992477417 8.04997062683105 8.69574451446533 9.42623805999756 10.2423915863037 11.0483198165894 12.4121780395508 14.1272058486938 15.664571762085 18.232292175293 20.392204284668 21.4540843963623 20.0722351074219 14.5920124053955 11.1581602096558 10.8170166015625 10.1651229858398 10.4331960678101 9.45458984375 7.14271450042725 5.32911920547485 2.67944192886353 1.87317228317261 2.18726086616516 2.77094984054565 3.61473369598389 4.88179302215576 6.4084267616272 7.34073877334595 7.13034248352051 6.20650672912598 6.90655136108398 8.32682418823242 9.85934829711914 10.9373836517334 14.2463092803955 18.7418613433838 11.3342456817627 6.49403285980225 5.08011341094971 4.57002449035645 2.55166172981262 1.16929173469543 1.45493757724762 1.24303090572357 1.63815295696259 2.0969877243042 3.04152703285217 3.52463746070862 4.19029378890991 5.45036125183105 6.592857837677 7.55663537979126 10.4164905548096 16.1646213531494 9.07979869842529 5.49254417419434 6.5715970993042 7.7941427230835 8.71326160430908 7.93820667266846 6.77119541168213 2.71526074409485 0.775683403015137 0.906503617763519 -1.0332555770874 -2.69321990013123 -2.63984417915344 -2.50007939338684 -2.08131098747253 -1.24847793579102 -0.52927041053772 0.208429783582687 0.721955895423889 1.18773221969604 1.56321465969086 2.10748505592346 1.7931672334671 1.61574947834015 1.71542954444885 2.07263422012329 2.35442185401917 2.55856966972351 2.45439529418945 2.1580593585968 1.87507832050323 2.29162883758545 1.97978603839874 1.87385761737823 1.92081320285797 2.30246567726135 2.48935532569885 2.85549640655518 3.55278158187866 3.97352695465088 4.37264823913574 4.91856145858765
-0.0972490385174751 -0.0853746235370636 -0.10524570941925 -0.120599150657654 0.221167847514153 0.457435548305511 0.660670697689056 0.753720939159393 0.793769836425781 0.86570417881012 1.13246250152588 1.8915034532547 2.64972543716431 2.13526129722595 2.36578989028931 2.49716758728027 2.6422872543335 2.69153594970703 2.84739971160889 3.09754300117493 2.08975267410278 1.25604808330536 -0.212187647819519 -0.183240652084351 -0.158615335822105 -0.10225722938776 -0.0410639680922031 0.0128032704815269 0.134501934051514 0.275771647691727 0.450567424297333 0.712077915668488 0.832926332950592 1.04615712165833 1.18734431266785 1.23709785938263 1.36830365657806 1.46149015426636 1.53209841251373 1.71452081203461 1.92580211162567 2.18641448020935 2.33849215507507 2.68063592910767 2.81223583221436 2.95443916320801 3.21261882781982 3.48414874076843 3.47264814376831 3.71242785453796 3.9679057598114 4.22919702529907 4.70824861526489 5.9408860206604 5.26592636108398 3.39324045181274 1.97428214550018 2.00806212425232 2.06999206542969 2.05948686599731 2.14718675613403 2.20870995521545 2.54727172851562 2.67417788505554 3.06135582923889 3.65098404884338 3.93653559684753 4.33339214324951 4.63524484634399 4.85213613510132 5.18037891387939 5.6279091835022 5.93295288085938 6.41018342971802 6.85136222839355 7.26949405670166 7.7627911567688 8.25204086303711 8.92099571228027 9.81324481964111 10.675347328186 11.7408323287964 12.9578247070312 14.6437120437622 14.8455352783203 17.2214241027832 18.3326282501221 17.9889354705811 13.8783378601074 11.9865751266479 10.5519466400146 9.77907466888428 10.4488773345947 10.7712373733521 8.97068309783936 7.52685451507568 6.15693950653076 3.59929490089417 3.7595956325531 4.3406548500061 4.82840156555176 5.74585962295532 6.46120309829712 7.30225706100464 7.86783504486084 6.97791624069214 7.935715675354 8.56528186798096 10.3838186264038 11.5893030166626 13.0207691192627 15.6808090209961 9.26539993286133 5.6281213760376 4.86929750442505 4.72080373764038 3.36254525184631 1.18380784988403 1.53913056850433 1.74580836296082 2.09426951408386 2.536297082901 2.92049980163574 3.69689726829529 5.03942012786865 6.10126686096191 7.69803047180176 9.0301513671875 11.3331232070923 12.9692401885986 9.11352252960205 6.13888502120972 7.35195207595825 8.01939010620117 9.6880989074707 9.85248374938965 8.12648391723633 3.66689515113831 1.3776923418045 0.284523218870163 -0.304096281528473 -0.760319352149963 -2.35249590873718 -2.12541532516479 -1.63249444961548 -1.01663386821747 -0.290369600057602 0.20480240881443 0.348582178354263 0.464296221733093 0.549566209316254 0.388084232807159 0.815854251384735 1.09596073627472 1.27387285232544 1.51454603672028 1.61252129077911 1.71171367168427 1.86991083621979 1.98110210895538 1.97027683258057 2.76344180107117 3.10152363777161 2.25250220298767 2.26185536384583 2.42874979972839 2.97589659690857 3.34552073478699 3.80214977264404 4.23162603378296 4.69896268844604 5.08820295333862
-0.122227303683758 -0.149464428424835 -0.139025568962097 -0.0410032272338867 0.364844411611557 0.495577067136765 0.614123940467834 0.736832737922668 0.824390113353729 0.906275689601898 1.15548229217529 1.60712599754333 3.9224488735199 2.20030784606934 2.22675561904907 2.36859536170959 2.58330607414246 2.81324291229248 4.20226335525513 2.38605761528015 2.1952817440033 1.56569063663483 0.321958065032959 -0.0803502947092056 -0.198948100209236 -0.150729611515999 -0.00993572827428579 0.0706704556941986 0.177280306816101 0.41768017411232 0.596136212348938 0.758855581283569 0.950219810009003 1.06405305862427 1.23514652252197 1.30617833137512 1.44884943962097 1.52647745609283 1.6719286441803 1.91739928722382 2.02573919296265 2.30631589889526 2.42558526992798 2.4796838760376 2.717777967453 2.73258829116821 2.75955677032471 3.01273202896118 3.27630162239075 3.16239166259766 3.3443660736084 3.6095085144043 3.99913668632507 4.55831480026245 5.29026508331299 3.88642144203186 2.06220936775208 1.99221324920654 2.03931450843811 2.11579632759094 2.38487362861633 2.70032238960266 2.59372544288635 2.93034148216248 3.15557098388672 3.56768083572388 4.01547384262085 4.33712339401245 4.74818086624146 5.01522302627563 5.23075866699219 5.56066465377808 5.92927742004395 6.24199438095093 6.60529708862305 7.04222774505615 7.62981653213501 8.14952850341797 8.72928237915039 9.22682285308838 9.91089344024658 10.900484085083 11.1819267272949 11.9921245574951 12.8031072616577 14.0956563949585 13.1841115951538 13.0032777786255 11.8156766891479 10.645806312561 10.2512445449829 9.9732141494751 9.57744979858398 9.69388675689697 8.58452224731445 7.75505208969116 7.66840124130249 6.1657075881958 4.83068418502808 5.37505769729614 5.88011455535889 6.15380716323853 7.44194269180298 9.10408020019531 10.2894439697266 7.21732997894287 8.16617870330811 8.72912216186523 9.02727222442627 10.0395708084106 10.8919630050659 11.8382377624512 8.45011234283447 5.11439371109009 4.32436084747314 5.04653263092041 4.46372985839844 3.30725026130676 2.04591822624207 2.14326524734497 2.07977485656738 2.39865398406982 3.30810523033142 4.54283237457275 5.72806310653687 6.71114110946655 8.13203907012939 9.75511646270752 10.5197353363037 12.0885076522827 7.30724000930786 7.11895561218262 7.6039719581604 9.08803844451904 11.5806379318237 11.4499635696411 8.93339538574219 5.90285634994507 3.48277020454407 1.5198335647583 2.88819742202759 0.334518671035767 -1.86011111736298 -1.6480541229248 -1.2529102563858 -1.03341245651245 -0.560255467891693 -0.298043042421341 -0.2530457675457 -0.213135257363319 0.0896088629961014 0.0422140881419182 0.686109900474548 1.06244540214539 1.30833745002747 1.45228791236877 1.53799843788147 1.53199124336243 1.67198181152344 1.9827526807785 2.25983238220215 2.38853454589844 3.41964221000671 2.66328811645508 2.80879068374634 3.04672360420227 3.46568059921265 3.83611226081848 4.12638092041016 4.489173412323 4.74473237991333 4.82621335983276
0.0919603109359741 -0.0195699855685234 0.0559673123061657 0.201082482933998 0.347042948007584 0.481291443109512 0.61665678024292 0.713800728321075 0.883485317230225 1.10722327232361 1.3107545375824 1.57785665988922 2.79256343841553 2.1950204372406 2.20009708404541 2.53676247596741 3.11247158050537 3.44565892219543 3.41361784934998 2.79877901077271 2.71889972686768 2.40000796318054 0.803846836090088 -0.222321212291718 -0.163770437240601 -0.138369292020798 0.0466149970889091 0.179979264736176 0.296857684850693 0.450373083353043 0.556701004505157 0.740554571151733 0.95721310377121 1.08363556861877 1.27856290340424 1.37038111686707 1.59233129024506 1.7077442407608 1.79015517234802 2.01072072982788 2.09921097755432 2.13705229759216 2.27142643928528 2.30375552177429 2.35748291015625 2.58011627197266 2.53498458862305 2.60850620269775 2.78914952278137 2.76085352897644 2.95047640800476 2.88876342773438 3.36193037033081 3.30759119987488 3.93118166923523 3.8623034954071 3.02518892288208 2.28027033805847 2.35771250724792 2.40045714378357 2.56286597251892 2.87112259864807 2.88335108757019 3.01300954818726 3.29891872406006 3.53540015220642 4.04334926605225 4.43515539169312 4.69735622406006 5.05801916122437 5.33763074874878 5.53181266784668 5.68834352493286 6.00814723968506 6.52724552154541 6.94671058654785 7.38243055343628 7.80103588104248 8.23759460449219 8.58525657653809 8.7275447845459 9.19171333312988 9.53353881835938 10.004994392395 10.4812698364258 11.1031293869019 10.7877244949341 9.05665111541748 9.13943958282471 9.15386581420898 8.8052396774292 9.02807426452637 8.20154190063477 7.46724462509155 7.08913278579712 6.0105996131897 6.44865751266479 6.63078355789185 5.80564737319946 5.91117858886719 6.59207773208618 7.29219198226929 8.76447296142578 10.0807685852051 11.6416645050049 7.53361511230469 7.44406986236572 7.18030691146851 7.19067049026489 7.51354885101318 7.62444400787354 8.2446870803833 5.79599380493164 4.76882028579712 3.86511301994324 3.75989270210266 5.06079006195068 5.84939384460449 4.69482088088989 3.34593462944031 2.47775888442993 2.97699809074402 3.62970352172852 4.7464075088501 5.84391212463379 6.9790940284729 7.47995328903198 9.00601387023926 9.16186237335205 11.2405529022217 7.24578809738159 7.33844709396362 7.99008846282959 9.94149017333984 14.1242771148682 15.2232675552368 12.2635698318481 10.1409006118774 5.78128719329834 4.22551822662354 3.47124195098877 2.65847229957581 -0.737890422344208 -1.25827050209045 -1.29964625835419 -0.92471045255661 -0.61512702703476 -0.82009756565094 -0.85761958360672 -0.62553346157074 -0.33674356341362 -0.185885146260262 0.469102531671524 0.919318914413452 1.14997339248657 1.25778865814209 1.3418642282486 1.75919413566589 2.08290958404541 2.17656183242798 2.3421905040741 2.76265120506287 3.40908050537109 3.32356786727905 3.34782266616821 3.57319402694702 3.80477690696716 3.98862361907959 4.21768569946289 4.31654787063599 4.36027145385742 4.40860795974731
0.399423003196716 0.0693835020065308 0.10907781124115 0.218645185232162 0.334360182285309 0.523041129112244 0.684545695781708 0.776629030704498 0.970593690872192 1.18782484531403 1.4152797460556 1.67158210277557 2.0997200012207 3.26443552970886 2.44090032577515 2.61799073219299 2.83525681495667 3.03589272499084 3.08698964118958 3.27950811386108 3.31361436843872 2.39857602119446 1.17414999008179 0.0366234704852104 -0.0504098609089851 0.00915745459496975 0.0501804128289223 0.222668692469597 0.334275990724564 0.475020915269852 0.574161767959595 0.832958281040192 0.97633284330368 1.08945918083191 1.33884799480438 1.43051278591156 1.6753146648407 1.75688660144806 1.83248054981232 1.83937513828278 1.94265413284302 1.99254858493805 2.03749012947083 2.1883487701416 2.16484260559082 2.16165781021118 2.13090300559998 2.2671594619751 2.51870679855347 2.40431022644043 2.48922967910767 2.47818875312805 2.47681999206543 2.59647011756897 2.47132277488708 2.39692616462708 2.65540599822998 2.58632349967957 2.75035452842712 2.78579187393188 2.84775710105896 3.0092077255249 3.11643767356873 3.11507821083069 3.39857506752014 3.68690991401672 4.00098752975464 4.45925712585449 4.77280616760254 4.98189544677734 5.25772476196289 5.64336013793945 5.84013652801514 6.10913610458374 6.29903125762939 6.52907466888428 6.966721534729 7.43257141113281 7.55352735519409 7.74202680587769 7.80986309051514 7.98616743087769 8.02107620239258 8.34961986541748 8.50730419158936 8.65057468414307 9.05940437316895 8.19185543060303 7.56458520889282 7.67154502868652 7.59594297409058 7.81319952011108 7.43667125701904 5.62212514877319 5.18619966506958 5.47448635101318 5.62590217590332 6.05272388458252 6.32183599472046 6.89319896697998 7.11103534698486 7.6980619430542 9.15814113616943 10.6186676025391 12.417387008667 11.8131704330444 20.2135543823242 6.02000761032104 3.72125291824341 3.30158448219299 3.11257600784302 3.68550968170166 3.34967088699341 2.80584263801575 2.4294421672821 3.66036629676819 4.46966218948364 6.92426729202271 8.1779842376709 5.91159677505493 3.32983613014221 3.55429482460022 3.93194603919983 4.82771587371826 5.51751184463501 6.05856704711914 6.58320474624634 7.34286594390869 9.45340156555176 10.2455272674561 8.7571907043457 7.69449663162231 7.92202186584473 10.3301544189453 12.1375408172607 14.8573617935181 14.7641191482544 12.8545169830322 9.25314044952393 5.07006406784058 4.1174488067627 4.11527299880981 3.26416420936584 -0.964830577373505 -0.922783970832825 -0.865675032138824 -0.461313128471375 -1.01995277404785 -1.06369090080261 -0.746065378189087 -0.489729911088943 -0.212963208556175 0.446809142827988 0.900794744491577 1.16799676418304 1.59363329410553 1.89487969875336 1.99655258655548 2.19090270996094 2.62939262390137 2.83907175064087 3.03498697280884 3.31645464897156 3.56528210639954 3.73219656944275 3.78669929504395 3.74076914787292 3.72120046615601 3.78359413146973 3.96323490142822 4.08214235305786 4.28109216690063
0.707184851169586 0.87995970249176 0.14582371711731 0.234851285815239 0.405444264411926 0.603460729122162 0.771848678588867 0.88230288028717 1.01279973983765 1.26726102828979 1.49803447723389 1.80464351177216 2.18552231788635 3.86210346221924 2.44004464149475 2.45953989028931 2.65582489967346 2.87114405632019 3.2138843536377 3.23280930519104 3.47594308853149 2.58572363853455 1.45642900466919 0.400283545255661 0.00103699264582247 0.114058174192905 0.12563419342041 0.218882709741592 0.356931388378143 0.46635964512825 0.587049603462219 0.794402658939362 1.03281509876251 1.15673160552979 1.34984338283539 1.48342788219452 1.54249346256256 1.60611426830292 1.68449950218201 1.72794187068939 1.75642025470734 1.88223946094513 1.86244297027588 1.82596051692963 1.8051290512085 1.84837067127228 1.84781169891357 1.95167410373688 2.06663584709167 2.07661581039429 2.03165411949158 2.12852668762207 1.95601034164429 2.19244384765625 2.2790846824646 2.43132209777832 2.71450662612915 2.72398209571838 2.84281659126282 2.99490451812744 3.05714702606201 3.1181583404541 3.2747220993042 3.3509829044342 3.44033217430115 3.74859976768494 4.16830587387085 4.43360424041748 4.68793487548828 5.13183164596558 5.40633583068848 5.56428527832031 5.54973173141479 5.59953927993774 5.70267152786255 5.98279523849487 6.19721412658691 6.59906959533691 6.75250291824341 6.89617586135864 6.86930799484253 6.82888078689575 6.83813810348511 6.80017042160034 6.94996643066406 6.84912443161011 6.93536233901978 7.12483692169189 6.86193370819092 6.71013975143433 6.51888227462769 8.00365924835205 8.28368377685547 6.90288734436035 5.50036430358887 5.80892181396484 6.03071880340576 6.54014587402344 6.7350435256958 7.13431453704834 7.34564590454102 7.59349489212036 8.47707843780518 10.4112005233765 14.1761417388916 14.9110441207886 26.8271217346191 11.1017665863037 4.22483062744141 1.0883082151413 1.24897849559784 1.69416177272797 2.04363822937012 2.28508830070496 2.0417594909668 2.41732120513916 4.79732751846313 5.0601110458374 7.49338388442993 7.44166088104248 4.02340507507324 4.13844108581543 4.4381742477417 4.80187797546387 5.28544950485229 5.70152997970581 6.43364095687866 7.00429773330688 7.68413925170898 9.66987419128418 7.92915773391724 7.94856548309326 8.52587604522705 9.16898727416992 10.6825037002563 11.3808879852295 12.2966175079346 13.3165912628174 11.1267671585083 4.65993928909302 2.45416951179504 2.9206874370575 3.32506561279297 1.51333808898926 0.0536745972931385 0.545490086078644 0.0340032838284969 -0.868470013141632 -0.789650082588196 -0.739555358886719 -0.455007493495941 0.236914232373238 1.02878642082214 1.4422835111618 1.72440731525421 1.81017899513245 1.97216057777405 2.3947491645813 2.6364119052887 2.86455607414246 3.16905856132507 3.42135524749756 3.61945748329163 3.70966649055481 3.67358541488647 3.59910821914673 3.54757380485535 3.64204430580139 3.70648741722107 3.84725427627563 4.02961778640747 4.04223346710205
