NCOLS 173
NROWS 32
XLLCORNER 354000
YLLCORNER 6700352
CELLSIZE 16 
NODATA_value -3.4e+38 
-0.554286181926727 -0.520637989044189 -0.501515209674835 -0.424558848142624 -0.357838481664658 -0.238593637943268 -0.0264756642282009 -0.079741358757019 -0.00316612794995308 0.152349501848221 0.298783987760544 0.392986565828323 0.465033292770386 0.578791916370392 0.625952243804932 0.658005356788635 0.650478422641754 0.671046257019043 0.669718444347382 0.60341876745224 0.744552075862885 0.944644391536713 0.954262256622314 0.871726155281067 0.584547340869904 0.445143491029739 0.492908746004105 2.55948042869568 0.7683385014534 0.859655380249023 0.758045792579651 0.660982251167297 0.586838901042938 0.598041832447052 0.644104957580566 0.68793511390686 0.687745928764343 0.701631724834442 0.71393895149231 0.722387731075287 0.700005710124969 0.732300817966461 1.54001879692078 1.92898631095886 2.13977885246277 2.39102220535278 2.63745713233948 2.23137307167053 1.55271732807159 0.92702180147171 1.01748216152191 1.05554950237274 0.971579670906067 0.719798564910889 0.732570290565491 0.628730177879333 0.64682936668396 0.637857019901276 0.582273960113525 0.508216798305511 0.454956650733948 0.396152943372726 0.0263138376176357 0.0232046134769917 0.0217667613178492 0.0220462251454592 0.0265972390770912 0.0315940827131271 0.0355914384126663 0.0470721758902073 0.0559749491512775 0.04752092435956 1.95648145675659 5.01880311965942 7.25192594528198 7.34225082397461 6.37644720077515 5.6325855255127 4.92529582977295 3.91874504089355 3.13083457946777 2.9524040222168 2.76716947555542 2.82885789871216 3.25733590126038 2.94315457344055 1.99447631835938 1.54028868675232 1.86616683006287 2.4719569683075 3.14727282524109 3.13051080703735 4.6439061164856 8.18982315063477 7.17895603179932 5.87768220901489 7.37795448303223 6.93259811401367 6.1839165687561 7.52257633209229 6.40425539016724 5.00206804275513 6.22101736068726 7.28705978393555 8.34071063995361 8.87546634674072 9.43805122375488 9.72037410736084 10.0262393951416 10.5607252120972 10.0541706085205 5.69673252105713 3.21176528930664 3.62932324409485 4.07442140579224 4.55405330657959 4.72788333892822 4.73213052749634 5.35286903381348 5.85217952728271 6.1928825378418 6.42000246047974 6.75460863113403 7.25963497161865 7.6905689239502 9.95880794525146 8.791748046875 7.94721841812134 8.58052349090576 9.40261077880859 10.8639869689941 10.7920665740967 10.1453981399536 9.12327194213867 8.07840442657471 6.16795492172241 3.51336359977722 3.14743518829346 5.05220651626587 9.47736740112305 9.05801391601562 7.37112903594971 5.60504531860352 5.6491231918335 4.2278208732605 7.94398307800293 9.84884548187256 12.6799612045288 9.66256618499756 7.99465179443359 6.05948877334595 4.40841579437256 2.15803289413452 1.80416369438171 2.30557918548584 2.30976271629333 0.961525797843933 -0.189577355980873 -0.247337460517883 0.394294261932373 5.29791688919067 3.43948006629944 4.09003973007202 5.30253505706787 5.36537170410156 3.87256026268005 2.86919260025024 2.00118350982666 1.67195439338684 1.36543405056 1.11228609085083 0.885778367519379 0.75737202167511
-0.507106006145477 -0.47019436955452 -0.400207996368408 -0.339275002479553 -0.27381557226181 -0.0693372413516045 0.240444466471672 0.284826725721359 0.166445821523666 0.214574426412582 0.350748538970947 0.426267772912979 0.487882792949677 0.602541446685791 0.658937096595764 0.710994124412537 0.72524505853653 0.736808121204376 0.74216216802597 0.66261214017868 0.79868346452713 1.03137314319611 1.05011546611786 0.991464853286743 0.869534432888031 0.690591037273407 0.601276338100433 0.628616690635681 2.42807102203369 0.877123773097992 0.850602626800537 0.743039429187775 0.654756486415863 0.665917634963989 0.721261024475098 0.736557185649872 0.751781046390533 0.760141253471375 0.756114482879639 0.736413538455963 0.745932638645172 0.775108337402344 1.65142750740051 2.12137174606323 2.34213590621948 2.70675349235535 2.72077059745789 2.3812153339386 2.0330708026886 1.32965421676636 1.08653664588928 1.10435509681702 1.03304147720337 0.760035336017609 0.611299335956573 0.556661009788513 0.663616418838501 0.667479753494263 0.642231225967407 0.576654314994812 0.499647676944733 0.442602515220642 0.272500097751617 0.0385211631655693 0.0388564169406891 0.0395070463418961 0.0443069376051426 0.0506865605711937 0.0600326880812645 0.0791408941149712 0.0761651992797852 0.0638208389282227 0.857311606407166 4.86185264587402 7.49324607849121 8.00262451171875 7.58155393600464 6.55001783370972 5.82373523712158 5.20274877548218 4.1375732421875 3.70005774497986 3.28646183013916 3.62127423286438 3.27899432182312 3.06979560852051 2.06815481185913 1.57397222518921 1.52303862571716 2.53944325447083 3.49476051330566 3.26269054412842 3.75624537467957 7.67160511016846 5.82992601394653 1.34610164165497 2.60831260681152 1.9774831533432 2.2485454082489 4.93256187438965 5.05411291122437 4.73005437850952 5.56396532058716 6.89902877807617 8.38424873352051 9.31103610992432 10.1439352035522 10.376877784729 10.5973768234253 11.5848245620728 11.9051961898804 7.78027868270874 3.34520173072815 3.38831543922424 4.11590623855591 4.86940813064575 5.10605001449585 5.11044120788574 5.55993843078613 5.86530113220215 6.43283319473267 6.78170871734619 7.22179841995239 7.73430490493774 8.31210994720459 8.4830436706543 7.58600759506226 7.89676761627197 8.29244995117188 9.81416893005371 11.7407732009888 11.5451173782349 11.0478439331055 10.6426038742065 10.0421314239502 8.28839492797852 5.06045246124268 4.54064321517944 4.77629470825195 7.4755597114563 10.7601585388184 3.46719145774841 4.18730354309082 0.528733789920807 4.86527681350708 10.0856266021729 11.4367122650146 15.1041421890259 18.381067276001 10.116081237793 8.02002143859863 6.54087972640991 3.39627361297607 2.52551364898682 3.64950299263 4.65221166610718 4.35769176483154 1.95034432411194 0.878651738166809 1.12852573394775 1.22480618953705 3.39141631126404 8.97749805450439 7.3707799911499 9.06629180908203 4.99351072311401 3.62002778053284 2.45949769020081 1.84532189369202 1.61261713504791 1.28550672531128 1.08035969734192 0.98093718290329
-0.447226941585541 -0.369148373603821 -0.27134245634079 -0.22681437432766 -0.14411872625351 0.0397109054028988 0.231244131922722 0.476595103740692 0.542629599571228 0.372608631849289 0.373251646757126 0.471090167760849 0.5694859623909 0.619622945785522 0.729977309703827 0.778548777103424 0.817144751548767 0.793962478637695 0.797975420951843 0.757264673709869 0.815657496452332 1.0761342048645 1.13762199878693 1.08924376964569 0.971224129199982 0.81761246919632 0.699488282203674 0.674251079559326 0.771214962005615 0.867180168628693 0.896437346935272 0.813571155071259 0.757462203502655 0.693130195140839 0.724991858005524 0.743731498718262 0.781142890453339 0.813584566116333 0.806477308273315 0.796191394329071 0.774035096168518 0.77540510892868 1.46163761615753 2.21674585342407 2.76977229118347 3.18411684036255 3.2160632610321 2.92926335334778 2.30497002601624 1.87763500213623 1.36265671253204 1.17150735855103 1.15110766887665 0.974820077419281 0.699362814426422 0.562931776046753 0.614502191543579 0.685252964496613 0.691795766353607 0.61531937122345 0.552187263965607 0.564356684684753 0.503207385540009 0.0673236176371574 0.0702802836894989 0.0691870301961899 0.0810907185077667 0.100591391324997 0.127344712615013 0.13465704023838 0.10672914981842 0.086834542453289 0.538330078125 4.17479467391968 7.34534740447998 9.53063774108887 8.87631416320801 7.77335453033447 6.84664440155029 5.80878973007202 5.29447031021118 4.67883777618408 4.52437925338745 4.16451501846313 3.8512852191925 3.90145301818848 2.71133637428284 1.72053384780884 1.53872168064117 2.02521705627441 3.10699939727783 2.94233012199402 4.47005701065063 7.482262134552 5.37914085388184 0.318432152271271 0.0376866161823273 -0.17218454182148 -0.0951313227415085 2.64089226722717 3.49008369445801 4.67482233047485 5.7047381401062 8.49923896789551 8.62955570220947 9.87591457366943 10.7152070999146 11.6184396743774 11.1951189041138 12.7592468261719 13.3740615844727 11.2672872543335 4.98088121414185 3.46634078025818 4.38078880310059 5.15719842910767 5.38111400604248 5.64393472671509 5.73430490493774 6.23049974441528 6.93561553955078 7.25815916061401 7.64739370346069 8.02687931060791 8.25026988983154 7.70229005813599 7.39267444610596 7.92006397247314 8.56855869293213 9.81141471862793 11.4802856445312 12.7400817871094 13.0238447189331 12.295877456665 15.187873840332 11.0123977661133 5.83077383041382 2.03720021247864 3.18640923500061 1.90393817424774 1.31641018390656 0.0289771556854248 0.150207996368408 1.81094908714294 7.20771169662476 12.3680992126465 15.9564008712769 15.4042434692383 15.4710054397583 14.6301298141479 9.40914058685303 7.61542320251465 4.6200909614563 2.99016308784485 3.93106961250305 8.66553688049316 8.88044548034668 5.23514699935913 3.87408351898193 5.74168014526367 6.60367298126221 8.36205673217773 6.57320690155029 7.06605625152588 5.79390382766724 7.80985260009766 3.86020398139954 2.93277835845947 2.19254493713379 1.81070947647095 1.63119864463806 1.34044921398163 1.10820996761322
-0.416181772947311 -0.337232112884521 -0.222898930311203 -0.165996134281158 -0.0609808042645454 0.100664295256138 0.296749025583267 0.682183682918549 0.745837152004242 0.634963274002075 0.497507482767105 0.537400364875793 0.620244979858398 0.66478556394577 0.766427755355835 0.821386992931366 0.857008337974548 0.835805594921112 0.845878124237061 0.852181196212769 0.778049111366272 0.954851984977722 1.18889486789703 1.20780670642853 1.16437637805939 0.919194877147675 0.775766551494598 0.779743552207947 0.805801868438721 0.870967209339142 0.937567353248596 0.8496955037117 0.819913744926453 0.734649956226349 0.7405886054039 0.764160513877869 0.783057332038879 0.811093032360077 0.848873496055603 0.843734264373779 0.806454479694366 0.794529259204865 1.24306380748749 2.57779121398926 3.0741069316864 3.55415964126587 3.88381552696228 3.37310647964478 2.7927942276001 2.11634111404419 1.51830470561981 1.38160240650177 1.30241453647614 1.14277052879333 0.829900979995728 0.615131378173828 0.599484145641327 0.746912956237793 0.756215393543243 0.72620415687561 0.651565849781036 0.640686273574829 0.584488987922668 0.140870198607445 0.109982155263424 0.128118768334389 0.170410975813866 0.262803554534912 0.249375462532043 0.199237287044525 0.168504044413567 0.124001614749432 0.100396037101746 2.77987837791443 6.93185710906982 11.0102596282959 10.8554229736328 9.7615213394165 8.30924510955811 6.94508790969849 6.54014348983765 6.0184268951416 5.73465156555176 5.06792402267456 4.57147598266602 4.47320938110352 3.74560117721558 2.37524676322937 1.65248847007751 1.15076434612274 1.54371535778046 2.52312731742859 4.15246629714966 8.21276950836182 4.11070251464844 0.386304408311844 0.161913737654686 0.160944730043411 0.777938067913055 1.93996095657349 3.27034473419189 4.72215366363525 5.79296255111694 6.78581809997559 8.7655725479126 10.4447946548462 11.1987085342407 12.5552558898926 12.4235992431641 14.1596708297729 15.8955202102661 14.043553352356 7.51302623748779 3.88772702217102 4.40010786056519 4.98501348495483 5.87875413894653 6.18317079544067 6.18577814102173 6.72830581665039 7.23810529708862 7.57364416122437 8.75273036956787 9.71408557891846 8.17808055877686 8.04474449157715 7.80827713012695 8.59480857849121 9.12263298034668 9.69992160797119 11.6568822860718 14.4754362106323 14.157172203064 11.6399507522583 10.1349859237671 14.3033771514893 13.4468355178833 5.95712423324585 0.447113484144211 0.362036287784576 0.237459272146225 0.329811245203018 0.485812216997147 3.56063365936279 8.87559223175049 13.69384765625 14.0090866088867 6.05740118026733 1.49716448783875 7.76025009155273 14.5959787368774 12.3942985534668 9.62946128845215 5.00734710693359 3.9350061416626 4.3868727684021 9.98416805267334 9.23575019836426 3.1473240852356 2.05632853507996 2.36568403244019 2.34244608879089 4.97224760055542 5.62073993682861 4.31450271606445 4.90681505203247 5.91761159896851 4.21694898605347 2.83022499084473 2.45748925209045 2.01388192176819 1.74093592166901 1.30795156955719
-0.384832292795181 -0.283533483743668 -0.197926566004753 -0.118814237415791 0.0103684952482581 0.17175105214119 0.388245224952698 0.765449464321136 0.911923348903656 0.788644313812256 0.619488179683685 0.627774298191071 0.650775492191315 0.682980239391327 0.794000923633575 0.853089869022369 0.887474715709686 0.884352624416351 0.889057040214539 0.908882260322571 0.852660179138184 1.01216721534729 1.27512192726135 1.30278241634369 1.27857828140259 1.18796646595001 0.99016261100769 0.860692322254181 0.908322632312775 0.913193225860596 0.956460356712341 0.915719032287598 0.846270203590393 0.796437799930573 0.762170910835266 0.794883728027344 0.81145304441452 0.842935740947723 0.880820453166962 0.875513911247253 0.843924701213837 0.869166135787964 1.52196288108826 2.67308402061462 3.35276174545288 3.57641553878784 4.23645734786987 4.55421543121338 4.01886701583862 3.08463001251221 1.84763431549072 1.26275932788849 1.66466331481934 1.29915058612823 0.998240053653717 0.753219902515411 0.708552122116089 0.865624010562897 0.878590106964111 0.871654629707336 0.822440266609192 0.819003224372864 0.777738511562347 0.296843409538269 0.210524544119835 0.228930503129959 0.286157995462418 0.31707963347435 0.273989707231522 0.22727470099926 0.190524056553841 0.171037048101425 0.143640026450157 1.41805481910706 7.81314992904663 12.3039579391479 15.3864507675171 13.0524482727051 10.8069343566895 8.6642427444458 7.74814796447754 7.3376727104187 6.97932624816895 6.76889848709106 6.30895614624023 5.03644418716431 4.08104515075684 2.44677329063416 1.60139012336731 0.626385629177094 0.299416810274124 1.48440074920654 3.41180777549744 4.79098796844482 2.91441130638123 0.509816229343414 0.322955667972565 0.949283421039581 -0.187803447246552 0.742132782936096 2.68826127052307 4.67859125137329 5.61023283004761 6.74466466903687 8.37920093536377 10.5725154876709 11.9598112106323 13.5739297866821 13.5214681625366 15.5613946914673 18.8376350402832 19.0177593231201 12.5691156387329 4.45594930648804 4.16232967376709 5.27354145050049 6.47039270401001 6.81309795379639 6.8119945526123 7.16007089614868 7.64923810958862 8.53417491912842 10.0758953094482 9.29380512237549 8.40747928619385 8.40214347839355 8.35232639312744 9.24928951263428 10.3079032897949 11.0628910064697 12.2956962585449 15.250862121582 16.8138065338135 14.7292757034302 10.0696058273315 9.40033912658691 9.20725440979004 6.07207059860229 0.692624568939209 0.662236511707306 0.721457958221436 0.754117071628571 0.774120450019836 3.55466365814209 7.85099840164185 4.93172121047974 1.11812388896942 2.57158660888672 0.660012006759644 0.655261754989624 7.54182863235474 10.6685266494751 10.0424823760986 7.49464750289917 4.41439962387085 5.06793022155762 3.12233686447144 14.5790910720825 14.3056859970093 3.16333961486816 3.1601254940033 2.61371088027954 3.40257859230042 4.94241952896118 5.21241569519043 7.36641311645508 7.40179491043091 5.31446313858032 3.68946433067322 3.22762989997864 2.62514781951904 2.41892123222351 2.01133346557617
-0.28645446896553 -0.235282719135284 -0.134634673595428 -0.0516859963536263 0.0112650180235505 0.225903630256653 0.412300646305084 0.655840158462524 0.999097585678101 1.0561226606369 0.759830415248871 0.704259991645813 0.692020237445831 0.741089999675751 0.786729514598846 0.893443703651428 0.912273526191711 0.938719511032104 0.93181300163269 0.971411406993866 0.968711614608765 1.02422833442688 1.32158100605011 1.40315437316895 1.38999271392822 1.28859519958496 1.12300455570221 0.983821451663971 0.974443972110748 0.964306592941284 0.953945696353912 0.957192122936249 0.901689529418945 0.854395508766174 0.805588364601135 0.818439483642578 0.839718043804169 0.882391929626465 0.922445595264435 0.91876208782196 0.920706570148468 0.914904415607452 1.40332412719727 2.55272889137268 3.33394265174866 3.84873557090759 4.22879314422607 5.12457418441772 4.84520101547241 4.20457315444946 2.89557218551636 1.74328720569611 1.32323777675629 1.40862095355988 1.23144745826721 1.01883602142334 0.891557157039642 0.95339298248291 1.08517444133759 1.07330513000488 0.985173225402832 1.03999280929565 0.991196691989899 0.815056145191193 0.41467022895813 0.348373174667358 0.398234605789185 0.329846262931824 0.289702445268631 0.251767843961716 0.209502428770065 0.187206134200096 0.164149552583694 0.990783452987671 6.55481863021851 12.2748975753784 21.6203498840332 18.2089824676514 13.7491521835327 11.2539358139038 8.89956378936768 8.40772438049316 8.24279308319092 8.500807762146 7.90165615081787 6.17854642868042 5.84135484695435 3.68149590492249 2.07410001754761 1.09777009487152 0.51898980140686 0.524989724159241 1.15054452419281 1.92071652412415 1.04108130931854 0.567046403884888 0.937126755714417 3.22802472114563 3.33542466163635 1.63590466976166 2.37358665466309 4.14105224609375 5.94250631332397 7.17637300491333 8.36149215698242 11.1551961898804 12.4525451660156 13.8225774765015 16.2328109741211 21.6270084381104 27.9477920532227 27.2128314971924 18.393590927124 8.4444694519043 4.76627111434937 5.74831199645996 6.81784915924072 7.41092681884766 7.78296613693237 7.71529531478882 8.29251956939697 9.05903816223145 8.82293510437012 7.99672031402588 8.17678928375244 8.35642719268799 8.80919742584229 9.80528450012207 11.553150177002 11.2010450363159 12.4946041107178 13.7595148086548 12.860330581665 13.4650793075562 13.2031192779541 8.06813335418701 1.41074991226196 0.499400109052658 0.824336051940918 0.99142724275589 1.09959447383881 1.07777237892151 1.98569071292877 3.49421262741089 4.00116491317749 0.819201767444611 0.749579727649689 0.780076444149017 0.801779985427856 0.806869387626648 0.271238178014755 0.623517036437988 1.49295997619629 4.82661914825439 5.73506736755371 5.44340658187866 8.2500114440918 7.29181861877441 10.4004783630371 9.93009948730469 4.79055118560791 3.54940485954285 2.98031234741211 4.12058305740356 5.86442136764526 8.47405052185059 7.83800792694092 7.89457511901855 6.38399171829224 3.92292475700378 3.17915081977844 3.23251819610596 2.60412740707397
-0.23710073530674 -0.144090354442596 -0.0406261868774891 -0.0154490116983652 0.0781569331884384 0.302093505859375 0.427810817956924 0.655030846595764 1.14196264743805 1.20183610916138 1.01633739471436 0.815021336078644 0.792701303958893 0.799887537956238 0.818646013736725 0.907459080219269 0.926987946033478 0.966411113739014 0.986136853694916 1.05610871315002 1.11627745628357 1.04770076274872 1.19118881225586 1.46730768680573 1.50378906726837 1.48556852340698 1.2238883972168 1.07318484783173 1.04498839378357 1.02124452590942 1.0018527507782 1.06125426292419 1.01456081867218 0.963951349258423 0.861190855503082 0.864895939826965 0.895795166492462 0.922564148902893 0.941670715808868 0.986165881156921 0.98420912027359 0.951341211795807 0.985834956169128 2.0629141330719 3.18395638465881 3.52547764778137 4.07316493988037 6.43282651901245 6.30973768234253 6.36205387115479 5.35192489624023 2.31458711624146 1.35293805599213 1.44874334335327 1.35530006885529 1.08830749988556 0.920422375202179 0.99743115901947 1.17386853694916 1.10110127925873 1.11322259902954 1.06652975082397 1.16741597652435 1.09272599220276 0.513292253017426 0.366371333599091 0.355120837688446 0.343643873929977 0.324492812156677 0.290057450532913 0.254317939281464 0.21338152885437 0.185883939266205 0.365964770317078 4.4779806137085 14.5779886245728 20.5601539611816 19.7439861297607 21.2211647033691 14.6246566772461 11.9530334472656 9.48702716827393 9.67570686340332 10.2414636611938 10.6376886367798 9.47619724273682 6.69572925567627 5.34824562072754 3.16763615608215 2.15310120582581 0.883154511451721 0.533232927322388 0.761630475521088 0.646650552749634 1.25695478916168 0.73957622051239 0.749874472618103 3.50905537605286 4.31804800033569 3.68594098091125 1.99105024337769 4.38972997665405 6.30782222747803 7.48233699798584 8.43605709075928 11.5323810577393 13.0427017211914 14.3542861938477 17.5918235778809 13.8658599853516 16.9391098022461 28.8067321777344 34.4756355285645 12.3151626586914 5.26101350784302 5.71534061431885 6.52592754364014 8.25243186950684 8.65730285644531 8.57674598693848 9.28903579711914 9.87703323364258 8.55693531036377 7.7183985710144 8.1286039352417 9.00700950622559 9.58968067169189 10.5095539093018 11.6636209487915 10.3221426010132 9.67551422119141 9.07432556152344 8.14177227020264 10.1610879898071 9.02054119110107 4.74886322021484 0.752288460731506 2.18661999702454 0.930409252643585 1.12401628494263 1.19611048698425 1.22765958309174 1.15685176849365 1.40231287479401 4.93722629547119 1.68184697628021 0.919106006622314 0.980771839618683 1.04078090190887 0.946177363395691 0.447803467512131 -0.117308519780636 0.815551459789276 2.52673292160034 4.84992074966431 5.39975023269653 1.68329381942749 2.02744626998901 1.81496620178223 5.21994829177856 4.23444938659668 4.11935997009277 2.86072635650635 1.8709704875946 3.45868492126465 5.04801321029663 10.0781869888306 11.9325313568115 6.99237251281738 4.31072664260864 3.54412484169006 1.92197704315186 1.63477182388306
-0.167229577898979 -0.0739190727472305 -0.010313356295228 0.0430343262851238 0.177251756191254 0.332667320966721 0.470989882946014 0.697555959224701 1.14996671676636 1.31403529644012 1.18008494377136 0.925999999046326 0.88155734539032 0.858901262283325 0.848122179508209 0.976784825325012 1.37049388885498 2.36043381690979 4.97853851318359 3.56016874313354 2.03357219696045 1.80797910690308 1.19484078884125 1.49227333068848 1.53961825370789 1.53319680690765 1.43978929519653 1.24118375778198 1.08883059024811 1.08422982692719 1.11183595657349 1.20161378383636 1.13909411430359 1.06973099708557 0.96286928653717 0.931805312633514 0.943132519721985 0.96385246515274 0.985110580921173 1.03318607807159 1.04463863372803 0.998218536376953 1.00935184955597 2.40194082260132 3.16459250450134 3.38857126235962 2.68259358406067 3.69256591796875 6.29605293273926 5.5807580947876 5.65985059738159 5.50137329101562 2.60351395606995 1.47191882133484 1.42349779605865 1.11968898773193 0.995791375637054 1.01373183727264 1.21304929256439 1.20315849781036 1.19579923152924 1.08692896366119 1.22061419487 1.14428567886353 0.550303220748901 0.375033050775528 0.382574945688248 0.374006539583206 0.364736616611481 0.335355192422867 0.297586113214493 0.248835071921349 0.213356673717499 0.261026471853256 2.22179627418518 15.4482326507568 16.2259197235107 7.04330062866211 9.95005893707275 13.509708404541 12.1206741333008 11.7689657211304 10.6640939712524 11.308614730835 12.9537763595581 11.3506917953491 8.5044412612915 7.48809480667114 3.68306994438171 2.4370813369751 1.13735115528107 0.754712045192719 1.04091393947601 1.39280962944031 2.72356152534485 1.0946432352066 0.759208500385284 0.401867002248764 1.34524536132812 -0.0836024582386017 1.42292070388794 4.06238698959351 6.27745914459229 7.3569393157959 8.47379302978516 10.3112096786499 15.0042943954468 16.8625659942627 18.5674533843994 16.3490371704102 12.9091577529907 13.1449956893921 23.1773891448975 35.0661239624023 8.27917575836182 5.37548542022705 6.98582792282104 9.14978313446045 9.54934024810791 9.4381275177002 9.6959228515625 10.9924049377441 10.8045854568481 9.65083980560303 9.11725425720215 10.0448064804077 9.95932388305664 10.8416337966919 11.0984268188477 10.2194719314575 7.80986547470093 4.01339864730835 1.65490424633026 1.34852206707001 -0.299994647502899 -0.0513818822801113 0.303025901317596 0.630891501903534 1.75732088088989 1.14564776420593 1.2528623342514 1.30231773853302 1.17793822288513 0.882623732089996 0.694334745407104 0.808514893054962 1.07210826873779 1.20763492584229 1.20415151119232 1.07851314544678 0.934135377407074 0.344433158636093 0.13688038289547 3.59086656570435 5.05048036575317 3.24749684333801 -0.470066219568253 -0.677367210388184 -0.332817703485489 2.19367218017578 5.20503234863281 4.81774854660034 2.12488079071045 1.16505599021912 0.584903419017792 2.63189554214478 6.79758262634277 10.5786619186401 7.04972314834595 4.22269773483276 1.88034510612488 2.0836546421051 1.40658605098724
-0.121545776724815 0.26685357093811 -0.000343567371601239 0.143472611904144 0.224534273147583 0.348603218793869 0.501937031745911 0.659462213516235 0.943994283676147 1.41920292377472 1.40072405338287 1.61155664920807 1.38635313510895 1.19713973999023 1.40647172927856 2.1446750164032 6.1677680015564 3.89354181289673 1.39442193508148 1.09196043014526 1.10081553459167 1.30132341384888 1.17669928073883 1.48048651218414 1.58489406108856 1.58656585216522 1.47964465618134 1.2984870672226 1.15393781661987 1.11532974243164 1.16529929637909 1.39316463470459 1.29409408569336 1.1010217666626 1.02461636066437 0.979480504989624 0.983664035797119 1.05139362812042 1.1776260137558 1.33483183383942 1.37168848514557 1.22153675556183 1.08660531044006 2.2370388507843 3.21146178245544 4.72469902038574 2.69234371185303 1.84189426898956 2.93091154098511 4.31180000305176 3.94469213485718 4.58800601959229 4.70196008682251 1.75723898410797 1.57000124454498 1.39148640632629 1.12529611587524 1.0090229511261 1.12886393070221 1.25756406784058 1.24470019340515 1.18397486209869 1.93790054321289 1.26176619529724 1.04542970657349 0.530226409435272 0.417950958013535 0.419109880924225 0.40779384970665 0.388162970542908 0.367104053497314 0.305635094642639 0.243038848042488 0.270548909902573 1.698859333992 13.5101747512817 12.5729722976685 5.79952478408813 4.79829216003418 7.5273289680481 9.97836399078369 9.39079189300537 10.5105895996094 11.6511392593384 14.1042585372925 12.3736944198608 11.3346138000488 8.9227123260498 7.2163519859314 3.93577313423157 1.76515984535217 1.07120180130005 1.22902488708496 2.075040102005 3.26077842712402 1.56405591964722 0.879002571105957 0.602763175964355 0.408984750509262 0.303664654493332 0.86092871427536 3.73904490470886 5.8745379447937 7.93414783477783 9.21692085266113 10.5338735580444 17.59694480896 18.0298004150391 17.321985244751 19.6789989471436 11.7892436981201 9.89530658721924 11.2651767730713 26.597412109375 20.5389652252197 6.06313514709473 7.32767868041992 9.06458950042725 10.713547706604 11.1411743164062 10.4934539794922 10.5807857513428 9.79789257049561 9.58205890655518 9.35281848907471 9.15339469909668 9.82388591766357 10.2468290328979 9.85789203643799 8.29728698730469 6.16366291046143 1.82847630977631 -0.329539388418198 -0.429565221071243 -0.265985280275345 0.469605565071106 0.323709547519684 0.593960225582123 0.884154319763184 1.15793180465698 1.30460464954376 1.39916336536407 1.3208042383194 1.05926203727722 1.00526773929596 0.984489798545837 1.1812561750412 1.37305402755737 1.32110142707825 1.24865078926086 1.2205536365509 2.17789793014526 0.754965424537659 3.17526936531067 -0.0885644927620888 -0.106482796370983 -0.289372831583023 -0.367436230182648 -0.413845866918564 0.0702962726354599 0.88071084022522 0.702490746974945 -0.156360492110252 -0.0954280719161034 -0.0980850830674171 -0.0552416704595089 -0.0769579634070396 -0.117250248789787 0.955140769481659 1.29523396492004 2.41676688194275 2.14826202392578 1.67151498794556
-0.121639885008335 -0.0925792083144188 0.0916033908724785 0.200426831841469 0.257605999708176 0.360602349042892 0.514667630195618 0.628851115703583 0.959318995475769 2.47973155975342 2.58926701545715 3.30877232551575 3.97098207473755 3.98588347434998 7.49060583114624 2.88765144348145 1.32748293876648 1.00440418720245 1.04075253009796 1.04905498027802 1.12445545196533 1.17020797729492 1.17036581039429 1.27751541137695 1.60941660404205 1.65663039684296 1.64637637138367 1.36089551448822 1.185387134552 1.14225423336029 1.22803616523743 1.37455117702484 1.42085373401642 1.31699597835541 1.16175997257233 1.07295405864716 1.08963930606842 1.19867742061615 1.46885657310486 1.79187798500061 1.74750852584839 1.57412505149841 1.26825964450836 1.33120954036713 2.90424132347107 6.64483976364136 3.31508040428162 2.20899033546448 1.10626697540283 2.28099250793457 3.28338861465454 2.94080281257629 2.37994837760925 1.82948625087738 1.6119247674942 1.55690515041351 1.20903146266937 1.01381516456604 1.10085678100586 1.33219575881958 1.33447480201721 1.23681330680847 1.20564949512482 1.40854549407959 1.39406764507294 0.699701726436615 0.513450622558594 0.50538831949234 0.49914139509201 0.472076296806335 0.443954765796661 0.373503506183624 0.305423676967621 0.281317889690399 0.928814470767975 9.44047737121582 7.65527772903442 4.62130308151245 3.62502789497375 4.15108060836792 6.27846670150757 8.78753185272217 10.2526617050171 12.2213163375854 14.2770576477051 20.0665588378906 17.0141983032227 9.67637920379639 7.02745485305786 5.44921922683716 3.03789949417114 1.27121818065643 1.41652321815491 2.7510507106781 2.54130911827087 1.13822960853577 1.09191954135895 0.830115020275116 0.708872854709625 0.611499845981598 0.599518835544586 3.08239316940308 6.73084211349487 9.00857162475586 9.99561405181885 10.8079805374146 17.5875091552734 19.1226596832275 13.5625057220459 8.88055229187012 14.1301364898682 9.37331962585449 8.54410362243652 18.2899837493896 19.3265914916992 7.83956289291382 6.72867059707642 8.42187976837158 12.4365673065186 12.7252473831177 11.5039892196655 10.8270063400269 8.54695415496826 7.39042663574219 7.31498908996582 8.87726306915283 9.21961879730225 9.95869541168213 8.9698543548584 6.48486566543579 3.324946641922 0.638680577278137 -0.246654510498047 -0.300855457782745 0.764782190322876 2.58519411087036 0.400578796863556 0.658194243907928 0.932859718799591 1.1836986541748 1.36905384063721 1.46179246902466 1.5688384771347 1.49741816520691 1.37252330780029 1.33072984218597 1.38835024833679 1.49264442920685 1.54396259784698 1.60863041877747 2.93309307098389 1.54638922214508 2.05475974082947 0.0612198710441589 0.138539582490921 0.0693487375974655 0.190117910504341 -0.0362672321498394 -0.125858411192894 -0.272052675485611 -0.21088033914566 -0.0576242320239544 0.0667096897959709 0.0326547212898731 0.0481976419687271 0.0733130052685738 0.0748513862490654 0.0257697906345129 0.179304152727127 0.420845180749893 0.535662353038788 0.58149129152298 0.334120005369186
-0.084043487906456 0.0186350010335445 0.160948067903519 0.234984368085861 0.28622829914093 0.376116842031479 0.535842657089233 0.717799067497253 2.67811918258667 5.86066293716431 12.4379186630249 12.9168090820312 8.93864345550537 7.29050159454346 3.70833253860474 2.19743680953979 1.00750768184662 1.02275335788727 1.06593072414398 1.09779560565948 1.15493202209473 1.19745981693268 1.2013190984726 1.31350111961365 1.6615104675293 1.70510447025299 1.69119870662689 1.58219754695892 1.36101126670837 1.19785046577454 1.29627990722656 1.46063017845154 1.45904004573822 1.42687726020813 1.35174202919006 1.23359036445618 1.25009024143219 1.35763359069824 1.60382378101349 1.85845613479614 1.88528096675873 1.79670488834381 1.60320603847504 1.66335999965668 5.12889671325684 6.7645788192749 3.6078565120697 2.89198446273804 2.3966805934906 1.03043448925018 1.83602285385132 2.90934324264526 2.43510723114014 1.44864559173584 1.67219054698944 1.58604311943054 1.28044962882996 1.09254729747772 1.14180684089661 1.39640843868256 1.39996993541718 1.39602446556091 1.27327609062195 1.48432493209839 1.44163537025452 0.748097717761993 0.538247227668762 0.551287353038788 0.600300550460815 0.640669167041779 0.676627397537231 0.647269487380981 0.427979797124863 0.344015151262283 0.969306707382202 4.54217910766602 1.59045779705048 0.916959762573242 1.65256822109222 1.68141531944275 2.84087252616882 6.69240856170654 9.91153812408447 12.9755973815918 13.8085298538208 8.70826625823975 10.9946546554565 11.5218410491943 6.94395923614502 4.4092869758606 3.15866708755493 1.75412738323212 1.02805233001709 2.0259370803833 0.797272503376007 1.67194628715515 1.51495718955994 1.30287003517151 1.13572514057159 0.733531713485718 0.785789310932159 2.22867202758789 6.12614250183105 8.86444473266602 9.94594192504883 10.9923820495605 13.4598693847656 9.21507263183594 11.0186891555786 9.03370571136475 10.3862180709839 9.11557388305664 4.82786703109741 2.55590867996216 0.128270745277405 11.0033159255981 7.49333190917969 9.29437828063965 14.6182079315186 15.599889755249 12.9249458312988 10.0331583023071 8.21700572967529 7.61897945404053 7.22056770324707 8.12789154052734 9.96419525146484 10.8848934173584 9.40374755859375 6.66589212417603 3.30173373222351 1.16758191585541 1.08945822715759 0.822962284088135 2.15510678291321 5.45956134796143 9.45992088317871 2.87963962554932 0.960918962955475 1.16277384757996 1.36091029644012 1.46951699256897 1.63035428524017 1.71551394462585 1.62007665634155 1.62218618392944 1.61277329921722 1.71820080280304 1.68265187740326 2.11817359924316 2.94433164596558 1.83156049251556 0.368890434503555 0.161975353956223 0.333945661783218 0.534998059272766 0.5530064702034 0.467122912406921 0.277072221040726 -0.00990529824048281 0.089533619582653 0.541144728660583 0.457588374614716 0.30693244934082 0.746019423007965 0.274179667234421 0.28305646777153 0.280279636383057 0.351563900709152 0.455562323331833 0.566740334033966 0.636305749416351 0.507576942443848
-0.0443731732666492 0.0971603542566299 0.189182251691818 0.262789756059647 0.328855723142624 0.486798495054245 2.10429430007935 4.24546766281128 6.21654891967773 5.6827244758606 1.87264883518219 1.37898707389832 0.997305691242218 2.21849727630615 1.31616449356079 1.44422447681427 0.994126737117767 1.06736934185028 1.09628462791443 1.15264058113098 1.18519973754883 1.23731970787048 1.28483664989471 1.28939461708069 1.64131999015808 1.75579822063446 1.75988757610321 1.6336624622345 1.43547737598419 1.27120399475098 1.31585395336151 1.44875204563141 1.52166736125946 1.4841148853302 1.39498293399811 1.35241067409515 1.37261128425598 1.5169415473938 1.63957560062408 1.77714252471924 1.92217886447906 1.91385912895203 1.61627995967865 1.90966522693634 4.51281356811523 4.36948490142822 1.58223509788513 1.86607158184052 1.13978087902069 1.16927218437195 0.878236413002014 0.977083683013916 1.03192090988159 1.49802184104919 1.75022912025452 1.65209817886353 1.34734356403351 1.1486759185791 1.1751823425293 1.4478394985199 1.48933756351471 1.50537025928497 1.4084460735321 1.62175059318542 1.55123567581177 1.35314333438873 0.709337890148163 0.593423664569855 0.616126954555511 0.655655860900879 0.696855902671814 0.731925010681152 0.564499616622925 0.535948514938354 1.30615127086639 3.46441888809204 -0.418296933174133 -1.18945980072021 -0.262401014566422 0.500284552574158 2.05372262001038 2.24322891235352 5.90822887420654 9.02888202667236 8.50295352935791 6.2163462638855 4.2015700340271 8.81061172485352 16.7466144561768 10.9772777557373 6.38226509094238 3.25457715988159 1.86491167545319 0.332563817501068 0.222965776920319 1.52654981613159 2.07131934165955 2.02795696258545 2.70752835273743 2.25579166412354 1.42764055728912 1.624138712883 5.29238843917847 9.13318920135498 11.154465675354 12.015531539917 11.9038352966309 6.83971500396729 4.58708190917969 5.46229553222656 6.14894437789917 7.05571031570435 3.6206374168396 -2.28942632675171 4.09900188446045 9.25521945953369 8.6898193359375 10.6949090957642 13.1937017440796 11.931040763855 12.2481384277344 8.57191467285156 7.0005202293396 8.89369773864746 9.15652751922607 9.45030975341797 9.71031093597412 9.1283483505249 8.86252307891846 6.69971036911011 4.82523536682129 4.91751050949097 2.91435718536377 2.11759614944458 4.06279468536377 7.57474422454834 9.40353012084961 6.99690771102905 0.957410633563995 1.21706128120422 1.43812680244446 1.64825820922852 1.81126761436462 1.92066240310669 1.84666788578033 1.83315026760101 1.89252102375031 1.89434325695038 1.8269134759903 1.59745502471924 1.3254302740097 1.11797702312469 0.594606339931488 0.425310224294662 0.764518439769745 0.906524062156677 0.823616206645966 0.894740343093872 0.748010039329529 0.246973544359207 0.529948949813843 0.894110918045044 0.919384121894836 0.632003486156464 0.267626821994781 0.307986259460449 0.441924691200256 0.492411434650421 0.496475607156754 0.533340275287628 0.610952734947205 0.665362417697906 0.68346631526947
0.0502250455319881 0.144744947552681 0.225673347711563 0.309295177459717 0.402817100286484 2.76625752449036 4.3480110168457 2.28306579589844 1.84693717956543 1.04545152187347 1.32143592834473 1.38386046886444 1.14718532562256 1.4953625202179 1.52342879772186 1.64383459091187 1.13531565666199 1.0940123796463 1.12573659420013 1.18313252925873 1.20561826229095 1.28402352333069 1.32728266716003 1.32339751720428 1.42047989368439 1.7885080575943 1.84079122543335 1.82795250415802 1.52388787269592 1.34458553791046 1.38868594169617 1.5004950761795 1.572878241539 1.58005678653717 1.43609380722046 1.40832376480103 1.42422676086426 1.53056049346924 1.58073675632477 1.69154632091522 1.96068954467773 1.96973443031311 1.69724357128143 1.46562325954437 2.1342613697052 0.794121742248535 0.556265354156494 0.602687954902649 0.948283493518829 1.18388879299164 1.0799560546875 1.05227899551392 1.11062180995941 1.43570590019226 1.80047285556793 1.90630841255188 1.67411351203918 1.39648461341858 1.17443859577179 1.33801448345184 1.56909215450287 1.61318337917328 1.60266089439392 1.65706896781921 1.8466420173645 1.7268477678299 0.823642492294312 0.636121332645416 0.704032182693481 0.73224812746048 0.789021492004395 0.856316983699799 0.733751535415649 0.600802540779114 0.663926362991333 1.11248123645782 1.02184748649597 -0.7568239569664 -0.258570700883865 0.560033440589905 0.94764506816864 0.681794166564941 0.159601926803589 0.0368945896625519 -0.355044394731522 -0.67076975107193 -1.30055832862854 4.5810022354126 6.83048534393311 12.1491384506226 8.09210205078125 6.96883344650269 0.433818012475967 0.705211699008942 0.985714733600616 1.04653382301331 2.55505108833313 3.68403625488281 4.10462713241577 3.40596532821655 2.03656673431396 1.55025660991669 5.08509588241577 11.442756652832 14.1710348129272 13.8615188598633 11.1490097045898 7.51878452301025 3.61089539527893 0.709784269332886 0.664110541343689 7.45511198043823 3.06072568893433 0.193320944905281 6.03170728683472 5.66365146636963 5.43037462234497 8.05675315856934 9.39640331268311 3.7504460811615 3.47462272644043 4.9205207824707 7.7171778678894 8.79306125640869 9.25732135772705 8.13049983978271 6.97187519073486 5.56932401657104 3.10390377044678 3.26955509185791 2.3995988368988 -0.0103818876668811 0.541372001171112 1.21086692810059 -0.247577652335167 -0.194694846868515 -0.056428499519825 0.450302362442017 1.07696664333344 1.25290381908417 1.58704602718353 1.84762501716614 2.04636144638062 2.19915819168091 2.21211314201355 2.04555797576904 1.93266463279724 2.00539231300354 1.95974159240723 1.78504407405853 1.48967087268829 1.25348114967346 0.941863715648651 0.657893061637878 0.955114603042603 1.14856779575348 1.23812007904053 1.14769744873047 1.0945725440979 0.565321803092957 0.845361351966858 1.08683919906616 1.07758235931396 0.969527065753937 0.693408191204071 0.526665568351746 0.556131184101105 0.557456731796265 0.540782630443573 0.571741044521332 0.64226633310318 0.709314286708832 0.731167912483215
0.137977600097656 0.192020028829575 0.268244087696075 0.361105561256409 2.18228387832642 2.16471314430237 0.856530725955963 0.940950036048889 1.22588014602661 1.38766884803772 1.27502870559692 1.43711471557617 1.27410519123077 0.970549285411835 1.88800024986267 1.65833210945129 1.42990374565125 1.50953221321106 1.17263925075531 1.22617828845978 1.25849902629852 1.32141280174255 1.36811649799347 1.38059818744659 1.46026253700256 1.84702742099762 1.91553211212158 1.91683661937714 1.798015832901 1.55556809902191 1.47336208820343 1.50237953662872 1.59937834739685 1.61689460277557 1.54981648921967 1.46898245811462 1.452317237854 1.46598899364471 1.5920318365097 1.72813665866852 2.00622057914734 2.02375411987305 1.93372201919556 1.70486009120941 1.29385101795197 0.885174036026001 0.711651861667633 0.839582860469818 1.13827037811279 1.24443364143372 1.30370092391968 1.36172616481781 1.32861876487732 1.53206419944763 2.18354964256287 2.01677846908569 1.88016855716705 1.50320935249329 1.2514568567276 1.36390483379364 1.6704295873642 1.69442236423492 1.76035344600677 1.86777937412262 2.0304548740387 1.88873744010925 1.00209093093872 0.708506762981415 0.788846492767334 0.887830793857574 0.953152120113373 1.06049990653992 1.04970026016235 0.667634069919586 0.701375961303711 0.317053318023682 0.222094371914864 -0.137198060750961 0.0520810708403587 0.666779339313507 0.848049283027649 0.675484597682953 0.374127954244614 0.23138689994812 -0.267080664634705 -0.542127430438995 -0.903110563755035 -0.994199752807617 -0.814381241798401 -0.347496420145035 0.246693670749664 0.803003489971161 1.15731155872345 1.23907363414764 1.45651662349701 1.5012024641037 3.68512606620789 4.87276983261108 5.09744119644165 4.23239803314209 2.77096891403198 2.35023498535156 4.70295190811157 8.55221176147461 10.7580242156982 14.138409614563 9.8773136138916 5.64866304397583 0.381774604320526 -2.60638952255249 -2.56627297401428 -2.62814426422119 -2.42561483383179 -1.94823706150055 -0.0571276843547821 4.15901327133179 3.42377233505249 4.16620016098022 1.00106728076935 -0.719676733016968 -0.683414399623871 3.00050330162048 6.93233442306519 6.75208425521851 4.01679754257202 4.31505966186523 2.0992066860199 -0.127020344138145 -0.232656896114349 -0.28970804810524 -0.289395779371262 -0.174550384283066 -0.1535355001688 -0.203271612524986 -0.209570750594139 -0.152868404984474 0.0680326893925667 0.508994221687317 0.923798263072968 1.31475937366486 1.68597137928009 1.98174095153809 2.19641017913818 2.34310436248779 2.34253573417664 2.22211122512817 2.1758177280426 2.07553005218506 2.13927984237671 2.09855937957764 1.94805288314819 1.79474139213562 1.73203659057617 1.3286474943161 0.98664790391922 1.26174235343933 1.43408179283142 1.38245248794556 1.24777770042419 0.905864298343658 1.17526566982269 1.54554319381714 1.41915798187256 1.17689156532288 0.897876977920532 0.628326594829559 0.586215615272522 0.616691827774048 0.599452316761017 0.604357898235321 0.658430814743042 0.722557365894318 0.742360472679138
0.193544328212738 0.238032639026642 0.311622619628906 0.430212289094925 1.82958173751831 0.44434466958046 0.453914612531662 0.563925683498383 0.685355424880981 1.11625528335571 1.01649808883667 1.44774973392487 1.46332144737244 1.03232395648956 1.54728996753693 1.90778613090515 3.22071218490601 1.84526133537292 1.74472415447235 1.27423512935638 1.30353426933289 1.35576331615448 1.42340433597565 1.4916205406189 1.46571433544159 1.87261974811554 1.99644994735718 1.99875736236572 1.82503175735474 1.59785330295563 1.57908165454865 1.50234949588776 1.57563555240631 1.65564715862274 1.60145890712738 1.50747084617615 1.48468208312988 1.499382853508 1.63039779663086 1.76728320121765 1.91425788402557 2.07049441337585 2.07381200790405 1.76794266700745 1.49592936038971 1.10118114948273 0.968692779541016 1.08255445957184 1.28250539302826 1.37996017932892 1.45764362812042 1.54667377471924 1.63862955570221 1.7019602060318 3.006267786026 2.5951566696167 1.99945855140686 1.69128406047821 1.39662146568298 1.4296338558197 1.71191000938416 1.82638680934906 1.89267134666443 1.96875822544098 2.24413466453552 2.14683532714844 1.90372037887573 0.96636551618576 0.944546937942505 1.10718441009521 1.1910492181778 1.38507401943207 1.39555501937866 0.823679745197296 0.541409611701965 0.400381177663803 0.856280028820038 0.621865272521973 0.175042271614075 1.30206716060638 1.34920513629913 1.08476161956787 1.13810312747955 0.939692437648773 0.429042011499405 0.109977424144745 -0.506645858287811 -0.547532975673676 -0.387528866529465 0.126830577850342 0.758234560489655 1.20208477973938 1.62601363658905 1.78980100154877 1.94657158851624 2.0925452709198 3.48314595222473 5.20799016952515 5.78989362716675 5.74236488342285 4.69055128097534 2.5965359210968 3.71066761016846 7.25190258026123 3.53794765472412 2.03686022758484 0.707544326782227 -2.45674276351929 -2.45637798309326 -2.39379811286926 -2.27579784393311 -2.2826361656189 -2.13193964958191 -1.65004074573517 -1.10007989406586 1.21433508396149 1.4950076341629 1.23072004318237 -0.460342139005661 -0.505246341228485 -0.43835923075676 4.51181793212891 5.4862060546875 2.63996529579163 0.176245644688606 -0.127183079719543 -0.115321561694145 -0.115945912897587 -0.166221052408218 -0.30626580119133 -0.250567346811295 -0.149849504232407 -0.132390215992928 -0.108559727668762 -0.159809142351151 -0.0460748784244061 0.203842908143997 0.547664821147919 0.913911581039429 1.3100768327713 1.76880574226379 2.09144926071167 2.31629729270935 2.45935106277466 2.4593939781189 2.42106962203979 2.39412307739258 2.37962985038757 2.40941214561462 2.3862247467041 2.21575212478638 2.16172170639038 2.10592436790466 1.62336945533752 1.13059639930725 1.3668726682663 1.48666930198669 1.39643085002899 1.40836083889008 1.26910960674286 1.34974539279938 1.69829130172729 1.98494112491608 1.52041959762573 1.01558661460876 0.763586103916168 0.602022647857666 0.666366159915924 0.662489354610443 0.6426602602005 0.667508482933044 0.735826015472412 0.756906867027283
0.236030891537666 0.275321483612061 0.348496288061142 0.48501655459404 0.457075148820877 0.452804893255234 0.459147959947586 0.53329735994339 0.650434672832489 0.719327867031097 0.903702020645142 1.46827781200409 1.50026488304138 1.21247577667236 1.31935930252075 2.33307695388794 2.34713745117188 2.41129875183105 1.74690771102905 1.86492538452148 3.72770309448242 2.96448159217834 1.47837972640991 1.52976322174072 1.53912997245789 1.62909054756165 2.02007627487183 2.04775261878967 2.02357149124146 1.68745541572571 1.63436353206635 1.57859659194946 1.5926126241684 1.688401222229 1.69057178497314 1.55431294441223 1.52039647102356 1.53847694396973 1.6565979719162 1.7093710899353 1.82686305046082 2.11214113235474 2.11412310600281 1.80067896842957 1.54994475841522 1.21945476531982 1.17079758644104 1.31581282615662 1.4870480298996 1.56978487968445 1.6181218624115 1.69152641296387 1.81576025485992 2.13144207000732 3.73132228851318 3.25796508789062 2.58065032958984 2.12393283843994 1.70449650287628 1.4699467420578 1.59874320030212 1.93549311161041 2.04396080970764 2.07359075546265 2.48049306869507 2.63311123847961 2.43873953819275 1.13029634952545 1.16562175750732 1.28920102119446 1.4312492609024 2.17776727676392 1.96049606800079 1.5943009853363 0.434157282114029 0.396835148334503 0.348055988550186 1.1169331073761 0.0425320193171501 1.56322371959686 2.38869142532349 2.40322780609131 2.18509960174561 1.85880506038666 1.761514544487 1.25077259540558 0.623529732227325 0.0545566380023956 0.206834152340889 0.67065840959549 1.18881952762604 1.54754054546356 2.05551671981812 2.28698563575745 2.39568686485291 2.41480398178101 2.32319045066833 5.31701707839966 6.83667325973511 6.95677328109741 5.54730415344238 3.18192791938782 2.765056848526 5.92192029953003 1.35247611999512 -2.13950085639954 -2.18034911155701 -2.18884515762329 -2.10519886016846 -2.00221371650696 -1.87646865844727 -1.74966180324554 -1.6543995141983 -1.33432412147522 -0.878967046737671 -0.00256815110333264 0.220750615000725 -0.24164018034935 -0.236882731318474 -0.192388936877251 -0.101858831942081 2.02720618247986 1.24691617488861 0.348093688488007 0.275864332914352 0.279350608587265 0.27223002910614 0.146624907851219 -0.0657489150762558 -0.162281841039658 -0.179704561829567 -0.178664743900299 -0.061274666339159 -0.095966063439846 -0.0693233087658882 0.0497597679495811 0.318183422088623 0.680226385593414 1.01655030250549 1.4118070602417 1.8178209066391 2.1459493637085 2.42067050933838 2.53943562507629 2.65858268737793 2.64379024505615 2.52810335159302 2.52970218658447 2.58347845077515 2.62180471420288 2.66371774673462 2.54122066497803 2.42913413047791 2.02257299423218 1.48287975788116 1.46664845943451 1.54194629192352 1.61999332904816 1.52368307113647 1.44647741317749 1.37575483322144 1.71925914287567 2.02738165855408 1.88072049617767 1.51209223270416 0.920293092727661 0.674859583377838 0.689471423625946 0.683590471744537 0.663763821125031 0.687448620796204 0.742768883705139 0.794417560100555
0.260390609502792 0.454922020435333 0.796963393688202 0.645015835762024 0.459288477897644 0.470103949308395 0.481656581163406 0.527192950248718 0.622059524059296 0.74241042137146 1.07164454460144 1.42610418796539 1.57086646556854 1.34280097484589 1.01879286766052 1.01496922969818 0.878432750701904 1.77162337303162 2.48668909072876 2.1862108707428 1.23474943637848 1.61291909217834 1.49271893501282 1.56448185443878 1.58819091320038 1.6944751739502 2.08653402328491 2.11874580383301 2.09877681732178 1.95361435413361 1.67791986465454 1.61304295063019 1.61278259754181 1.7341935634613 1.74299609661102 1.68912780284882 1.6133496761322 1.58129894733429 1.59135115146637 1.73838603496552 1.87686741352081 2.15064191818237 2.14937520027161 2.04785299301147 1.81557440757751 1.41929185390472 1.40505230426788 1.5076721906662 1.67418932914734 1.7653501033783 1.81113624572754 1.85411870479584 1.9004191160202 2.24948120117188 4.84391212463379 6.92991924285889 5.31624126434326 2.90729951858521 1.8186913728714 1.52638256549835 1.73136496543884 2.085932970047 2.16353440284729 2.28224802017212 2.8805730342865 3.0132839679718 2.77752566337585 1.63526058197021 1.31002235412598 1.96969223022461 1.87322199344635 1.0889835357666 0.99352902173996 1.20929658412933 0.644237279891968 0.435568034648895 0.454825669527054 2.65039491653442 1.56357371807098 1.36950778961182 2.57226586341858 3.08881902694702 3.41116237640381 3.18782162666321 2.98151421546936 2.57855701446533 1.97577381134033 0.844170868396759 0.758722901344299 0.987693190574646 1.42175793647766 1.84775912761688 2.22056460380554 2.66098237037659 2.71147704124451 2.68757915496826 3.10737705230713 6.73947334289551 8.13562393188477 8.29817771911621 6.80510520935059 4.73253440856934 2.69110918045044 3.92640852928162 -1.67979514598846 -1.70973932743073 -1.65475261211395 -1.62702071666718 -1.62887275218964 -1.54527926445007 -1.42387616634369 -1.30362963676453 -1.16866910457611 -0.952518284320831 -0.568739414215088 -0.363337337970734 -0.177160397171974 -0.0620200783014297 0.0252655912190676 0.19689530134201 0.321943730115891 0.457851231098175 0.490021109580994 0.622914671897888 0.706372737884521 0.642769455909729 0.520889103412628 0.321639984846115 0.147015005350113 -0.0843232199549675 -0.156579077243805 -0.121313109993935 -0.0187928322702646 -0.00159499968867749 0.0298638176172972 0.121308952569962 0.420208036899567 0.820415496826172 1.18492317199707 1.5306259393692 1.85609662532806 2.15086436271667 2.41990113258362 2.6079957485199 2.74210453033447 2.75944495201111 2.66883373260498 2.69340395927429 2.71356272697449 2.86756110191345 2.90504670143127 2.8173565864563 2.70561695098877 2.70635175704956 2.23079037666321 1.47169756889343 1.60935342311859 1.70892715454102 1.61272323131561 1.48585402965546 1.42354536056519 1.7951602935791 2.21337580680847 2.06144547462463 1.67557084560394 1.18692398071289 0.73115611076355 0.732334434986115 0.76120537519455 0.728834748268127 0.71699845790863 0.752240359783173 0.807520508766174
0.287914246320724 0.300371885299683 0.359620749950409 2.29885911941528 0.514974057674408 0.493757158517838 0.510111212730408 0.514526724815369 0.621825695037842 0.731108665466309 0.885859847068787 1.11653542518616 1.55699241161346 1.55368852615356 1.04759788513184 1.18380379676819 1.80114209651947 2.24531269073486 1.87895321846008 1.98471450805664 1.25561356544495 1.33083784580231 1.51047217845917 1.62802267074585 1.66758692264557 1.69888031482697 2.06226563453674 2.18682384490967 2.21022200584412 2.01882982254028 1.76746535301208 1.7048077583313 1.6576761007309 1.72039175033569 1.80656576156616 1.76097357273102 1.6604415178299 1.62868762016296 1.64241194725037 1.77852845191956 1.91194951534271 2.04768395423889 2.2028431892395 2.20910239219666 1.89115190505981 1.6365065574646 1.61641669273376 1.66397631168365 1.70516610145569 1.80440938472748 1.90699124336243 2.03750872612 2.00103759765625 1.97314155101776 2.52100658416748 3.6065821647644 3.78606796264648 3.92754745483398 2.50377297401428 1.63288938999176 1.79409122467041 2.17562770843506 2.36641883850098 2.5108814239502 3.03506970405579 3.70749187469482 3.61313915252686 3.11740660667419 1.8181049823761 0.974614977836609 0.737961113452911 0.681429505348206 0.457228511571884 0.457291454076767 1.15084135532379 0.429531127214432 0.520961046218872 2.9214551448822 3.43598031997681 1.02920496463776 3.57587075233459 4.7110276222229 5.11079025268555 4.91646146774292 4.45228290557861 4.39171552658081 3.77244567871094 2.6747841835022 1.93555021286011 1.47140991687775 1.59776377677917 1.84916794300079 2.14534378051758 2.746910572052 2.86511659622192 2.78336429595947 3.46723699569702 5.98828983306885 8.20655250549316 9.92243671417236 10.1209812164307 8.11990547180176 4.11394357681274 2.03383231163025 -1.30115473270416 -1.32869184017181 -1.14288234710693 -0.905577957630157 -0.92778754234314 -1.02759575843811 -0.965737164020538 -0.911219954490662 -0.784212529659271 -0.574068903923035 0.0753506049513817 -0.124467954039574 0.0880585834383965 0.165014401078224 0.363353490829468 0.545361757278442 0.781808853149414 0.978196501731873 0.92314350605011 0.948456525802612 0.916652262210846 0.872627139091492 0.7505863904953 0.567980587482452 0.280681490898132 0.011311681009829 -0.124767921864986 -0.0627235174179077 0.0751383975148201 0.142509490251541 0.167774841189384 0.243471458554268 0.512392044067383 0.918992161750793 1.35777831077576 1.74546849727631 1.99103164672852 2.27017164230347 2.54526519775391 2.74403357505798 2.91598749160767 2.9467556476593 2.97047352790833 2.9860577583313 2.98846912384033 3.0655882358551 3.14687061309814 3.07225251197815 3.09355044364929 3.04227471351624 2.48855566978455 1.64896082878113 1.74120688438416 1.79466462135315 1.66983902454376 1.68629229068756 1.59077787399292 2.01340985298157 2.35927534103394 2.63316559791565 2.08611154556274 1.63699662685394 0.971783757209778 0.761597573757172 0.823740780353546 0.798332095146179 0.757584452629089 0.766360759735107 0.82596743106842
0.30400013923645 0.347240120172501 0.390278160572052 0.579603731632233 0.577167630195618 0.523756325244904 0.536657869815826 0.536416232585907 0.61895751953125 0.720580875873566 0.780813276767731 0.971287250518799 1.61943340301514 1.60911655426025 1.256880402565 0.942760288715363 0.886964499950409 1.32304561138153 2.28116989135742 2.03003859519958 1.73038029670715 1.38027429580688 4.76388120651245 2.75730681419373 1.73951947689056 1.70680272579193 1.83592891693115 2.25379395484924 2.30220437049866 2.28506088256836 1.90467715263367 1.77911269664764 1.75586426258087 1.74199056625366 1.83289873600006 1.84322416782379 1.74581801891327 1.68689572811127 1.68286800384521 1.80608236789703 1.85756313800812 1.97994720935822 2.27293848991394 2.2737193107605 1.95609927177429 1.71469128131866 1.65849530696869 1.7320544719696 1.7488614320755 1.91248619556427 2.01784086227417 2.22339773178101 2.08550572395325 2.06529998779297 1.9614862203598 1.82447791099548 1.95076072216034 2.35567331314087 2.36386728286743 2.08128333091736 1.7792159318924 2.12092280387878 2.58639478683472 2.69674730300903 3.47175097465515 4.30474805831909 4.36423969268799 3.66075849533081 1.25731587409973 0.680760264396667 0.55883115530014 0.52193546295166 0.552135407924652 0.515037059783936 0.735024631023407 0.700551271438599 0.723212659358978 0.623489141464233 0.498264521360397 0.364197880029678 3.77228736877441 5.8419303894043 6.76384735107422 6.97099351882935 6.57940292358398 6.03242588043213 5.283447265625 4.35639095306396 3.29925417900085 2.58251714706421 1.9523024559021 2.0265109539032 2.35323715209961 2.83183860778809 2.9674334526062 3.25895380973816 2.81621217727661 3.38371920585632 10.9419927597046 12.5735855102539 12.7328224182129 10.2648191452026 5.25595664978027 1.12791311740875 -0.867872357368469 -0.939654588699341 -0.606877982616425 -0.0937457159161568 -0.0786161124706268 -0.275359213352203 -0.391729801893234 -0.440405517816544 -0.42361056804657 -0.272796779870987 -0.071340449154377 0.257558614015579 0.479949235916138 0.601583659648895 0.748904824256897 0.974559128284454 1.31754529476166 1.39261293411255 1.32834184169769 1.13245904445648 1.14329493045807 1.08952713012695 0.989101827144623 0.757098913192749 0.478993326425552 0.208307072520256 0.126112625002861 0.148770600557327 0.245149955153465 0.366084784269333 0.442643463611603 0.501803576946259 0.750794887542725 1.11131453514099 1.58117759227753 1.90118336677551 2.1345226764679 2.4161684513092 2.70080304145813 2.91165375709534 3.08384895324707 3.26113557815552 3.29030632972717 3.19024634361267 3.17793369293213 3.26956486701965 3.36956262588501 3.46018767356873 3.3812198638916 3.29860138893127 2.89332723617554 2.2042829990387 1.87836301326752 1.91110217571259 1.98121118545532 1.85396730899811 1.78912818431854 2.21018576622009 2.54724979400635 2.74099707603455 2.41998982429504 1.95129311084747 1.55504333972931 1.19258368015289 0.85742574930191 0.82455974817276 0.772120475769043 0.777601480484009 0.830006539821625
0.3182512819767 0.393479526042938 0.434562057256699 0.47763454914093 0.797250211238861 0.562270402908325 0.564058661460876 0.562654852867126 0.623452663421631 0.714193522930145 0.785523116588593 0.965372204780579 1.574263215065 1.71295917034149 1.43804061412811 1.00923585891724 0.928831219673157 0.92119824886322 1.73040759563446 2.3958215713501 2.59030413627625 1.97628247737885 1.37242186069489 1.61115884780884 1.78734481334686 1.72128438949585 1.88630497455597 2.3308253288269 2.38828802108765 2.39385008811951 2.22218227386475 1.90919864177704 1.80966114997864 1.77146327495575 1.87731599807739 1.90294051170349 1.86642801761627 1.79792714118958 1.74803256988525 1.75508761405945 1.89579355716705 2.04252076148987 2.34575581550598 2.34666061401367 2.24699234962463 2.01794075965881 1.8733696937561 1.78212201595306 1.89724278450012 2.06283736228943 2.26524662971497 2.42277216911316 2.31265258789062 2.12135338783264 2.02429795265198 1.86409342288971 1.99562287330627 2.38414406776428 2.48466968536377 2.19613647460938 1.89073610305786 2.28388023376465 2.77769947052002 2.84606170654297 3.7137336730957 4.6893048286438 4.49586820602417 4.1036171913147 3.33135390281677 0.589428603649139 0.563622713088989 0.517359137535095 0.528177201747894 0.542218863964081 0.576270937919617 0.966666877269745 0.699824512004852 0.605596661567688 0.00412280857563019 -0.0677262246608734 2.80299258232117 6.69632720947266 8.28542423248291 9.01752758026123 8.43487071990967 7.68593978881836 7.03411102294922 6.29513549804688 5.13935899734497 4.36447143554688 3.34938073158264 2.4071147441864 2.54383373260498 2.88274097442627 3.10231494903564 3.05950689315796 3.40154409408569 3.99723982810974 13.7981815338135 16.4009456634521 17.6326656341553 17.0830707550049 11.907187461853 4.98364973068237 -0.456168919801712 -0.499205440282822 -0.230000555515289 0.405714333057404 0.615687608718872 0.501416981220245 0.332562565803528 0.151893854141235 0.0395266562700272 0.163853824138641 0.290884733200073 0.61513876914978 0.776400327682495 0.931012690067291 1.05876672267914 1.29562938213348 1.61004483699799 1.71007800102234 1.44024312496185 1.3454418182373 1.31352388858795 1.2945464849472 1.33252561092377 1.16363048553467 0.889264643192291 0.72282338142395 0.503406465053558 0.442487329244614 0.546553254127502 0.754803240299225 0.803528487682343 0.938619017601013 1.07508194446564 1.50836586952209 1.83572494983673 1.99090075492859 2.14427304267883 2.4822154045105 2.77624249458313 3.02665138244629 3.28147578239441 3.47526049613953 3.4881603717804 3.37803792953491 3.36856174468994 3.41004157066345 3.59381008148193 3.69162130355835 3.62287592887878 3.54563021659851 3.56280899047852 2.98421001434326 1.94548094272614 2.03102684020996 2.11113309860229 1.99540102481842 2.0392541885376 2.46954417228699 2.85894131660461 3.34255051612854 2.88032102584839 2.08450484275818 1.46885871887207 1.28121185302734 0.871497631072998 0.916060626506805 0.862714350223541 0.829315602779388 0.856640517711639
0.350157886743546 0.424781739711761 0.475654512643814 0.521002531051636 0.598448693752289 0.664384484291077 0.578224420547485 0.580940425395966 0.632181525230408 0.718110978603363 0.8200803399086 0.910521745681763 1.23833382129669 1.7512401342392 1.72367906570435 1.14496123790741 0.954305469989777 0.932867169380188 0.967841625213623 1.02920424938202 1.81552577018738 2.63403582572937 1.44331741333008 1.89864444732666 1.82514131069183 1.83156704902649 1.88854813575745 2.28059434890747 2.47723031044006 2.50798439979553 2.26214575767517 1.96571600437164 1.95098888874054 1.94398391246796 1.90481472015381 1.97628402709961 1.93489921092987 1.83930504322052 1.80795574188232 1.82413876056671 1.96515691280365 2.10225534439087 2.2358820438385 2.42778348922729 2.4377543926239 2.09523725509644 2.36314868927002 1.85554265975952 1.99963879585266 2.08835172653198 2.14663338661194 2.42328906059265 2.59674525260925 2.20648550987244 2.09773468971252 1.92168140411377 2.17835807800293 2.54514789581299 2.74869346618652 2.7019624710083 2.1501612663269 2.28074193000793 2.81724643707275 3.1141402721405 3.28907489776611 6.63013219833374 7.74970865249634 6.99698829650879 6.53408098220825 2.20050597190857 0.57953542470932 0.46447965502739 0.425228804349899 0.517727911472321 0.689487993717194 0.754746913909912 0.449614942073822 0.482687443494797 0.621406197547913 0.24323733150959 1.97830629348755 7.52076196670532 10.122049331665 10.9999885559082 10.4664106369019 9.24592113494873 8.39591312408447 7.59324789047241 6.3265175819397 5.26701688766479 4.30642318725586 3.45566534996033 2.92273139953613 3.02992248535156 3.15578770637512 4.24444437026978 6.30155992507935 4.78696012496948 10.4765605926514 8.64638614654541 12.9766092300415 14.618824005127 12.5599212646484 4.94216156005859 -0.125154510140419 -0.149153977632523 -0.00982493255287409 0.548107147216797 0.937650740146637 1.03357636928558 0.979550778865814 0.909308195114136 0.652928292751312 0.651876151561737 0.697333037853241 0.869402348995209 0.964830279350281 1.10500550270081 1.25480115413666 1.54812479019165 1.84160256385803 1.86616623401642 1.71786391735077 1.52279078960419 1.4884877204895 1.55170845985413 1.68291449546814 1.65206456184387 1.45805847644806 1.22728085517883 0.995154500007629 0.829833149909973 0.938484311103821 1.21823501586914 1.3647768497467 1.44380843639374 1.56330394744873 1.76311254501343 2.04964756965637 2.19134545326233 2.35811424255371 2.65863990783691 2.96455669403076 3.21644449234009 3.48370027542114 3.6655740737915 3.66536331176758 3.68138360977173 3.66654968261719 3.65679979324341 3.7832818031311 3.91423773765564 3.85096764564514 3.92856025695801 3.8576602935791 3.25065946578979 2.19611144065857 2.62455105781555 2.59100604057312 2.56436538696289 2.67527627944946 2.90824866294861 3.31881237030029 3.78419160842896 3.82019281387329 2.80068850517273 1.88219356536865 1.16456627845764 0.882154226303101 0.988483011722565 0.954464018344879 0.887503027915955 0.881624221801758
0.387109875679016 0.447847217321396 0.503448307514191 0.557152509689331 0.613995611667633 0.879794955253601 0.607781887054443 0.594256937503815 0.660322427749634 0.836307883262634 0.863907516002655 0.902311384677887 1.20415115356445 1.87457299232483 1.83080589771271 1.42033290863037 1.05494582653046 1.00681006908417 0.983412623405457 1.02810072898865 1.54002797603607 1.88588523864746 2.0254545211792 3.30197358131409 4.95920515060425 1.9652853012085 1.91055345535278 2.24569463729858 2.55430817604065 2.57629776000977 2.54272270202637 2.12839818000793 2.10297465324402 2.09704899787903 2.02857732772827 2.00682258605957 2.03200173377991 1.89844954013824 1.93846607208252 1.95909035205841 2.01733922958374 2.06028962135315 2.20186948776245 2.53427505493164 2.51629734039307 2.16062831878662 2.00920176506042 3.14526295661926 3.12801361083984 2.91199851036072 2.60471558570862 2.59017491340637 2.76478004455566 2.34195756912231 2.23723125457764 2.118807554245 2.02478981018066 2.87695813179016 3.63943791389465 3.41315960884094 2.77148938179016 2.26206183433533 2.9275050163269 3.45511150360107 2.92517733573914 2.25930619239807 1.62044215202332 3.55675315856934 4.05922031402588 1.40157568454742 0.390683561563492 0.465228825807571 0.429115682840347 0.550305068492889 0.367937237024307 0.368770480155945 0.476148843765259 0.376737087965012 0.535355985164642 0.638301968574524 1.56913483142853 7.18593311309814 10.8243141174316 12.8000345230103 13.201024055481 12.2472257614136 10.9616603851318 9.47742557525635 8.02586078643799 6.93665170669556 5.36425542831421 3.97937250137329 3.23992323875427 3.36638879776001 3.30457043647766 3.60578155517578 6.71372222900391 4.56136846542358 2.72420978546143 1.95122289657593 1.49417746067047 1.10471630096436 3.8101544380188 3.71698403358459 0.185611546039581 0.196520924568176 0.273305922746658 0.633280873298645 1.09025394916534 1.31226587295532 1.34949612617493 1.35121500492096 1.21703958511353 1.16441667079926 1.09915864467621 1.10893034934998 1.12518501281738 1.70057272911072 1.39464485645294 1.7361626625061 2.00069236755371 1.95611763000488 1.90645587444305 1.78350174427032 1.72198009490967 1.90612041950226 1.93420052528381 1.90058302879333 1.8213278055191 1.6874303817749 1.44859564304352 1.28503334522247 1.33827543258667 1.49320864677429 1.85151731967926 1.95307767391205 1.94956612586975 2.09855175018311 2.30187201499939 2.49783706665039 2.70042443275452 2.91107535362244 3.16756629943848 3.43845009803772 3.64490532875061 3.82596898078918 3.96593236923218 3.9454038143158 3.81987810134888 3.81702566146851 3.96292662620544 4.13028430938721 4.24201107025146 4.15778779983521 4.10049915313721 3.71898031234741 2.99772953987122 3.53247308731079 3.40633082389832 3.20125269889832 3.14785003662109 3.30861639976501 3.69014072418213 4.19356060028076 4.22142601013184 3.40125465393066 2.66012215614319 1.71233475208282 1.07961845397949 1.01839745044708 0.989504814147949 0.920602262020111 0.910142242908478
0.428205698728561 0.467987686395645 0.521512806415558 0.574471473693848 0.633999943733215 0.701359927654266 0.642851233482361 0.605769336223602 0.614889621734619 0.78021913766861 0.852581858634949 0.933568477630615 1.27315294742584 2.00484037399292 1.94804632663727 1.50560474395752 1.1612229347229 1.06283235549927 1.01598608493805 1.03669464588165 1.44182169437408 2.18162775039673 1.67649674415588 1.77839243412018 1.69381678104401 3.69010376930237 2.02453637123108 1.98936545848846 2.58331823348999 2.69012880325317 2.62890434265137 2.44117712974548 2.23528933525085 2.19112157821655 2.1587233543396 2.09802007675171 2.07915186882019 2.05088353157043 2.11248278617859 2.14198780059814 2.18694877624512 2.28246521949768 2.29229545593262 2.61176204681396 2.65257716178894 2.49306082725525 2.31394600868225 3.62129783630371 3.11846375465393 4.6697735786438 4.15973329544067 4.51106595993042 2.91922163963318 2.70363235473633 2.3983302116394 2.20783352851868 2.06333565711975 3.43628144264221 4.02758646011353 3.8293251991272 3.12583208084106 2.40124106407166 3.06247687339783 3.56732201576233 3.39125180244446 2.72996664047241 1.32361769676208 0.177898541092873 0.215040668845177 0.430321156978607 0.331708580255508 0.438585191965103 0.546753704547882 0.340480923652649 0.408834517002106 0.614406585693359 0.841828525066376 0.34296727180481 0.310327380895615 0.380869776010513 0.711278080940247 6.36240243911743 13.0960559844971 15.0054311752319 14.9252529144287 13.5301465988159 12.9313163757324 11.2641172409058 9.99882030487061 8.39089202880859 6.96506977081299 5.37660932540894 3.96720623970032 3.59587550163269 3.60958695411682 3.55954074859619 3.39377737045288 3.14798879623413 2.93240594863892 2.28904390335083 1.75610327720642 1.19321811199188 0.651125848293304 0.323384821414948 0.410623073577881 0.56610631942749 0.693195879459381 0.930959701538086 1.28911161422729 1.49685287475586 1.56798231601715 1.59761524200439 1.49108374118805 1.40658915042877 1.35634410381317 1.29688954353333 2.26564884185791 1.27923119068146 1.46736836433411 1.78705859184265 2.03564739227295 2.10670804977417 2.03706622123718 1.88811278343201 2.00111389160156 2.15040946006775 2.12408900260925 2.12695002555847 2.07058811187744 1.98413276672363 1.86768126487732 1.66643023490906 1.60720431804657 1.85270798206329 2.16020965576172 2.24473452568054 2.31583166122437 2.36409878730774 2.5408980846405 2.69059467315674 2.92842125892639 3.11626434326172 3.3214282989502 3.57890486717224 3.8278546333313 4.05996513366699 4.16146564483643 4.12281799316406 3.99756240844727 3.99437546730042 4.0991153717041 4.34075689315796 4.4656195640564 4.38369560241699 4.33783769607544 4.41170597076416 3.79458022117615 4.08065223693848 4.65506935119629 4.05290794372559 3.71786570549011 3.80075836181641 4.19338798522949 4.82244396209717 5.39036273956299 4.58541631698608 2.96687650680542 2.12902998924255 1.42678928375244 1.23958146572113 1.08652853965759 1.01848161220551 0.964392364025116
0.474568277597427 0.500968098640442 0.546517014503479 0.593720197677612 0.655701518058777 0.725571751594543 0.677799999713898 0.628916144371033 0.611894726753235 0.71947181224823 0.846590161323547 0.954489350318909 1.19369971752167 1.908846616745 2.08534693717957 1.80902659893036 1.22940766811371 1.09820199012756 1.05274343490601 1.04186594486237 1.15590500831604 1.4512140750885 1.91793811321259 2.48951148986816 1.68277907371521 1.90575015544891 2.11590528488159 2.10222578048706 2.48062229156494 2.72706747055054 2.93580269813538 2.50680017471313 2.27869153022766 2.33804845809937 2.34091401100159 2.29151844978333 2.23441600799561 2.23346495628357 2.3028838634491 2.36914706230164 2.43770551681519 2.5518798828125 2.63552689552307 2.65640020370483 2.71944689750671 2.69101667404175 2.66624450683594 4.23772478103638 2.399005651474 2.00659608840942 2.09534406661987 2.60946369171143 2.98620963096619 2.97536087036133 2.60337042808533 2.29978060722351 2.58434414863586 3.94085025787354 4.65434789657593 4.82298421859741 4.28389549255371 3.17958498001099 3.00950026512146 3.56458473205566 4.21020030975342 3.56013011932373 1.58392286300659 0.27125209569931 -0.148438632488251 0.0613740980625153 0.48072475194931 0.253831744194031 0.216853931546211 0.402851581573486 0.376174092292786 0.359413504600525 0.580027163028717 0.420895993709564 0.252646595239639 0.386413842439651 0.705132246017456 5.04530477523804 13.3037672042847 16.96018409729 16.8082370758057 15.7286987304688 14.9793767929077 14.1578350067139 10.4737663269043 8.76926136016846 7.58491802215576 6.03902006149292 4.70185565948486 3.73301935195923 3.97727465629578 3.75865864753723 3.57486319541931 3.2093460559845 3.06851649284363 2.89401054382324 2.47299194335938 1.88710248470306 1.31918907165527 0.722738087177277 0.633027493953705 0.853707790374756 1.05226910114288 1.32196521759033 1.5907838344574 1.73117697238922 1.80251574516296 1.82697987556458 1.69032680988312 1.59518659114838 1.54330348968506 1.44751334190369 1.3125513792038 1.35828113555908 1.55285692214966 1.78666043281555 1.98526012897491 2.24202466011047 2.28494787216187 2.22699785232544 2.29884958267212 2.42175555229187 2.37324690818787 2.45442771911621 2.37338781356812 2.28615975379944 2.10457110404968 1.97736203670502 1.95555639266968 2.23680591583252 2.45378708839417 2.54312586784363 2.58205342292786 2.62495589256287 2.63922333717346 2.94528555870056 3.18715929985046 3.37243962287903 3.58452177047729 3.82803583145142 4.09577178955078 4.35273838043213 4.45611524581909 4.39153671264648 4.4129490852356 4.38588428497314 4.38418769836426 4.58731746673584 4.719566822052 4.63465166091919 4.74381113052368 4.66288328170776 4.01200580596924 4.70099496841431 5.62109613418579 5.26696920394897 4.99021100997925 4.86019992828369 5.08787775039673 5.72767543792725 6.31089353561401 5.92686557769775 4.4314341545105 3.10049724578857 1.76366710662842 1.22424876689911 1.13866364955902 1.10518360137939 1.02225947380066
0.804707288742065 0.55161851644516 0.587935745716095 0.632633566856384 0.670819640159607 0.731012344360352 0.721500277519226 0.668915748596191 0.637580871582031 0.681667685508728 0.821349084377289 0.982497334480286 1.08948194980621 1.51794719696045 2.21143937110901 2.13988995552063 1.43085122108459 1.13715803623199 1.106290102005 1.11348628997803 1.12997698783875 1.27991473674774 1.95506548881531 2.14826202392578 1.68800401687622 1.98390436172485 4.72611093521118 3.12735748291016 2.42742419242859 2.75040626525879 2.83759546279907 3.66075944900513 3.3883535861969 2.77784514427185 2.50277662277222 2.52380967140198 2.5239884853363 2.61463975906372 2.65964508056641 2.72378301620483 2.77840447425842 2.9744713306427 3.11813235282898 2.9859893321991 2.72792816162109 2.7117486000061 2.36222982406616 3.68550562858582 5.9103102684021 2.61499214172363 2.03200697898865 2.37089490890503 2.87985229492188 3.15763831138611 2.81935596466064 2.71143126487732 2.72333645820618 3.56143450737 4.99634075164795 5.06368732452393 4.94604587554932 4.07639646530151 2.89583325386047 4.31795835494995 4.6449670791626 3.93392419815063 3.27453851699829 1.22397494316101 0.136781021952629 0.192812561988831 0.267870247364044 0.262872040271759 0.224412217736244 0.201274678111076 0.235611796379089 0.262946784496307 0.408547669649124 0.708473086357117 0.278998106718063 0.463182359933853 0.836563646793365 2.47225666046143 15.7346420288086 22.0617847442627 19.5870246887207 18.4814624786377 17.0161151885986 15.9580564498901 13.1543664932251 11.4058322906494 10.1451473236084 8.01790046691895 5.52328538894653 4.04357481002808 4.05394458770752 3.88600635528564 3.74503874778748 3.5185022354126 3.33128547668457 3.23044109344482 3.04371356964111 2.55462837219238 2.1592230796814 1.4100706577301 0.923522412776947 1.09092462062836 1.31156122684479 1.54250907897949 1.79757189750671 1.89736175537109 1.91613900661469 1.91235160827637 1.90909922122955 1.82127368450165 1.68289816379547 1.63336205482483 1.48393845558167 1.52671456336975 1.69870221614838 1.82723295688629 2.00076818466187 2.38086438179016 2.45473861694336 2.58613705635071 2.64133358001709 2.61140561103821 2.77104306221008 2.81995058059692 2.72084307670593 2.61588287353516 2.36860585212708 2.19686484336853 2.34263515472412 2.5514600276947 2.60195970535278 2.78661274909973 2.82711672782898 2.79959321022034 2.91491603851318 3.24093961715698 3.47983860969543 3.69602799415588 3.91294240951538 4.12500524520874 4.37813663482666 4.6129264831543 4.82058095932007 4.92424583435059 4.86401987075806 4.74311828613281 4.70153951644897 4.85699939727783 5.03349685668945 5.10479021072388 5.00135278701782 4.91600227355957 4.51655578613281 5.58647108078003 6.63791179656982 6.1212944984436 5.82520771026611 5.68935108184814 5.99463510513306 6.76085233688354 8.20586585998535 8.038743019104 5.38749504089355 4.15629053115845 2.63602662086487 1.46649885177612 1.27375435829163 1.14132654666901 1.04862499237061
0.526713669300079 0.587782561779022 0.635302901268005 0.666415214538574 0.689128637313843 0.735600113868713 1.12723529338837 0.707341074943542 0.682249903678894 0.730901181697845 0.857667922973633 0.966581046581268 1.0736186504364 1.52051675319672 2.4117374420166 2.28177571296692 1.75559735298157 1.28806412220001 1.17903006076813 1.14139425754547 1.17309474945068 1.28957068920135 1.39550137519836 1.8206433057785 2.58283352851868 2.74647188186646 2.00317025184631 2.54116439819336 2.60558485984802 2.80111408233643 2.87178945541382 2.85504269599915 2.63942718505859 2.56323194503784 2.59987854957581 3.04316735267639 3.36344170570374 3.43170785903931 3.15502047538757 3.17774844169617 3.30493187904358 3.36372900009155 3.32498526573181 3.01289820671082 2.76450300216675 2.77018761634827 2.94495010375977 2.19212746620178 1.60214293003082 1.85995018482208 2.08957171440125 2.3359637260437 3.03138589859009 3.29522132873535 3.15752053260803 2.95711088180542 2.60685014724731 4.49699783325195 6.4205527305603 5.53173542022705 5.85082244873047 5.796959400177 3.19579219818115 4.30579137802124 4.22584009170532 2.86826181411743 2.16100287437439 1.49114429950714 0.852609634399414 0.755753397941589 0.51706725358963 0.355818331241608 0.360134214162827 0.25896942615509 0.441945463418961 0.536741554737091 0.317381978034973 0.317737132310867 0.33807760477066 0.608500301837921 0.998279273509979 1.81150388717651 15.9050350189209 24.631742477417 26.6947002410889 21.1858062744141 20.7978801727295 19.5111904144287 14.713529586792 13.4096126556396 11.7965202331543 9.86305332183838 7.47995376586914 5.00215911865234 3.93248105049133 3.87878727912903 3.87304091453552 3.79378056526184 3.64940881729126 3.5341055393219 3.33421921730042 3.02577328681946 2.47757434844971 1.96391725540161 1.35216748714447 1.32994341850281 1.54629743099213 1.70812427997589 2.09696936607361 2.00916504859924 2.03443312644958 2.03422260284424 2.03570032119751 2.03618884086609 1.96023118495941 1.89538729190826 1.83757722377777 1.76677453517914 1.82706034183502 1.92906594276428 2.04792284965515 2.48017168045044 2.66900968551636 2.87825584411621 2.91839456558228 3.04060029983521 3.11085724830627 3.1609959602356 3.13432025909424 2.93818140029907 2.81811285018921 2.69681215286255 2.59845328330994 2.63700914382935 2.84524989128113 3.05451917648315 3.03425025939941 3.04095220565796 3.14947557449341 3.48069071769714 3.75090312957764 3.99828505516052 4.19721364974976 4.40583038330078 4.63250398635864 4.9407057762146 5.23929023742676 5.36798191070557 5.32055759429932 5.18520832061768 5.11879444122314 5.15852403640747 5.35384035110474 5.37848997116089 5.27296304702759 5.15290784835815 5.22162818908691 4.5090126991272 7.37699270248413 8.6504487991333 7.58450698852539 7.04158210754395 7.44608497619629 8.20460605621338 10.1856136322021 10.2410907745361 8.84392356872559 5.22694969177246 3.17280864715576 2.0636134147644 1.39903950691223 1.22588551044464 1.13735842704773
0.549447596073151 0.645145893096924 0.686383366584778 0.680937170982361 0.715234994888306 0.790065169334412 1.20960366725922 0.74336838722229 0.762693166732788 0.80018538236618 0.859440088272095 0.967863380908966 1.10296225547791 1.43842768669128 2.32187294960022 2.47117567062378 2.18111300468445 1.42664325237274 1.2435462474823 1.18825936317444 1.21551764011383 1.30512261390686 1.43551051616669 1.53413558006287 2.06826591491699 2.79903674125671 2.62332129478455 2.91886711120605 4.21287441253662 2.90659999847412 2.96325755119324 2.89920735359192 2.67262387275696 2.64804744720459 2.63060832023621 2.61463451385498 2.56553554534912 2.88299441337585 3.51447176933289 3.44404077529907 3.54084086418152 3.52654623985291 3.32959938049316 3.53970551490784 3.38750147819519 3.03321599960327 2.92683553695679 2.60137367248535 1.88085746765137 1.92088139057159 2.11184453964233 2.24640703201294 3.21490144729614 3.50001621246338 3.48441243171692 3.15921878814697 2.80642676353455 6.51031589508057 7.18242597579956 9.50643444061279 9.1352424621582 8.12703323364258 5.96285390853882 3.67950081825256 3.25151658058167 1.96022307872772 1.84694957733154 1.77719223499298 3.20911026000977 1.79685008525848 1.16662728786469 0.778258681297302 0.609088599681854 0.460766315460205 0.259953051805496 0.283901333808899 0.470425546169281 0.426086664199829 0.44539400935173 0.851794242858887 1.40865361690521 2.35519480705261 10.268651008606 16.6287860870361 16.204532623291 20.8953037261963 20.2014751434326 20.0976467132568 25.5606498718262 19.5845355987549 17.0690288543701 15.6271314620972 8.56651878356934 5.67366790771484 3.94429397583008 3.91349148750305 3.93965268135071 3.90914678573608 3.82103109359741 3.80135321617126 3.71239352226257 3.46888303756714 4.59649038314819 3.03486156463623 2.07877779006958 1.66964209079742 1.81027221679688 1.87253427505493 3.50736784934998 2.05372095108032 2.14636087417603 2.1988639831543 2.21085643768311 2.22805142402649 2.23912477493286 2.2095205783844 2.11775231361389 2.04711604118347 1.99651420116425 2.08537745475769 2.20979022979736 2.45745921134949 2.86105155944824 3.08728051185608 3.25252914428711 3.39226341247559 3.51505923271179 3.47689247131348 3.59634733200073 3.4140088558197 3.19620585441589 3.09837460517883 2.93950033187866 2.92714238166809 3.1768970489502 3.30189394950867 3.27163124084473 3.07244181632996 3.18671131134033 3.56454825401306 4.02105188369751 4.28665637969971 4.51278400421143 4.73295259475708 4.97126436233521 5.27791023254395 5.6104531288147 5.81354284286499 5.81584882736206 5.79868078231812 5.66099834442139 5.52097797393799 5.63827037811279 5.65982532501221 5.48673439025879 5.60299777984619 5.49730110168457 4.71027517318726 9.3072395324707 10.5426406860352 8.76901721954346 7.914137840271 7.82168388366699 8.98878574371338 11.5049858093262 12.8144378662109 10.595682144165 8.10682010650635 5.7112398147583 3.22377634048462 1.76730763912201 1.46520686149597 1.56803846359253
0.63826185464859 0.707600772380829 0.738909959793091 0.750243484973907 0.726306855678558 0.776639580726624 1.8898561000824 0.768982291221619 0.762971103191376 0.85743647813797 0.868496716022491 0.983208656311035 1.15063297748566 1.29836404323578 1.81817317008972 2.71089148521423 2.62122917175293 1.75111830234528 1.32827055454254 1.27778327465057 1.27389335632324 1.31348395347595 1.43066036701202 1.53092694282532 2.09069418907166 2.28035163879395 2.58493304252625 3.73700714111328 4.34377336502075 6.3550238609314 3.06623339653015 3.09471273422241 2.89784240722656 2.95438623428345 3.20721745491028 2.86458277702332 2.70742344856262 3.17012166976929 3.31226634979248 3.6379029750824 3.70908284187317 3.85289120674133 3.92828130722046 3.82120132446289 3.82617497444153 3.32288599014282 2.8484046459198 2.31255102157593 1.9627902507782 1.87436008453369 2.0591344833374 2.18308305740356 2.8911075592041 3.51924085617065 3.80725383758545 3.51331543922424 3.50109219551086 5.97471618652344 5.2737398147583 3.02637124061584 5.96292161941528 5.88415670394897 5.46584224700928 3.02801966667175 1.6600638628006 1.59314513206482 1.92950892448425 1.96167647838593 1.99090588092804 3.44629907608032 1.86844956874847 1.3946373462677 1.02166426181793 0.695977389812469 0.469659954309464 0.261621743440628 0.302162826061249 0.431514471769333 0.615571856498718 1.14519226551056 1.74494993686676 2.52844762802124 4.52722024917603 12.6313762664795 9.36755561828613 9.91109943389893 13.3700304031372 13.6278343200684 13.1678438186646 17.7792949676514 16.1061840057373 15.5668087005615 14.4316473007202 9.09191989898682 4.40888977050781 4.30952024459839 4.14164972305298 4.00310850143433 3.99179148674011 3.94352054595947 3.89205074310303 3.69102668762207 4.95393133163452 7.10411357879639 3.69169139862061 3.10464572906494 2.04888725280762 2.01799297332764 1.92528259754181 2.06677937507629 2.23210310935974 2.35901355743408 2.40568971633911 2.42655539512634 2.46189069747925 2.43221044540405 2.36774277687073 2.34320855140686 2.25995969772339 2.24990844726562 2.38150143623352 2.57326221466064 3.00111103057861 3.18304824829102 3.52127075195312 3.66238474845886 3.64989352226257 3.88826942443848 3.88565540313721 3.78958463668823 3.62232184410095 3.4181923866272 3.21187853813171 3.29133462905884 3.47351384162903 3.46927452087402 3.50275444984436 3.22442436218262 3.17441582679749 3.66279435157776 4.2561469078064 4.57227039337158 4.80974197387695 5.05731153488159 5.2827296257019 5.53528690338135 5.82249975204468 6.16342782974243 6.29667806625366 6.17193937301636 5.99008750915527 5.79531049728394 5.84084415435791 5.96489000320435 5.99313449859619 5.88696098327637 5.77504396438599 4.9231743812561 12.1384525299072 12.8072061538696 9.52727317810059 8.75861835479736 8.68283748626709 9.96136379241943 11.0248355865479 17.7238483428955 23.239501953125 11.6248245239258 7.06111907958984 4.71195125579834 2.56449294090271 1.73856902122498 1.62322449684143
0.70272159576416 0.755266487598419 0.789213061332703 0.794401526451111 0.799226999282837 0.842244684696198 0.789659023284912 1.23564910888672 1.11886286735535 0.945945918560028 0.994890213012695 1.04590463638306 1.15049183368683 1.32782435417175 1.90520191192627 3.07423734664917 2.90298962593079 2.19473385810852 1.57625019550323 1.39652383327484 1.35222792625427 1.3225576877594 1.46057748794556 1.74017941951752 2.02340793609619 1.99856305122375 2.19715046882629 2.05879855155945 1.94226133823395 2.08071684837341 3.08854722976685 3.22207403182983 3.38424253463745 3.07182860374451 2.77847743034363 2.77004599571228 2.73875641822815 2.83798360824585 3.31426787376404 3.99533319473267 4.25830554962158 4.40092182159424 4.36496067047119 3.98618412017822 3.80656409263611 3.76328611373901 2.920161485672 2.63415789604187 2.30688047409058 1.87763094902039 2.02810287475586 2.23698949813843 2.50921773910522 3.78354239463806 4.10388898849487 4.00948619842529 3.82136178016663 2.97552990913391 2.07238721847534 1.49112582206726 0.964562058448792 3.44612216949463 2.20050597190857 2.3830304145813 1.79699420928955 1.72484040260315 1.91667401790619 2.01289749145508 2.11884713172913 2.64386391639709 2.17037510871887 1.91032743453979 1.43080484867096 1.04065632820129 0.708629608154297 0.476807236671448 0.356965631246567 0.535738408565521 0.822447240352631 1.35830068588257 2.10305500030518 2.79089593887329 3.14821124076843 9.31222534179688 5.1321873664856 2.8012228012085 3.50091695785522 7.75692415237427 7.29187250137329 10.7137699127197 14.2585783004761 9.3816967010498 10.8272514343262 10.3750629425049 7.1926474571228 5.44393301010132 5.2677321434021 4.14887237548828 4.12075757980347 4.05090618133545 4.01403427124023 3.88127064704895 3.49590229988098 2.61894655227661 6.01490068435669 5.44640302658081 3.46155691146851 2.08633065223694 2.10265970230103 2.15119123458862 2.30342030525208 2.50224900245667 2.60375785827637 2.63503503799438 2.69972348213196 2.68437099456787 2.6051926612854 2.59426593780518 2.54318809509277 2.56152319908142 2.60045313835144 2.75556564331055 3.09978270530701 3.36845660209656 3.72708630561829 3.83616924285889 4.03525447845459 4.14041376113892 4.14722156524658 4.09493637084961 3.94313383102417 3.81998777389526 3.65690279006958 3.63585925102234 3.63601279258728 3.82022738456726 3.78320288658142 3.5286271572113 3.58797574043274 3.86370635032654 4.38343143463135 4.79422473907471 5.10135269165039 5.34337186813354 5.58831357955933 5.82074213027954 6.187744140625 6.48989868164062 6.60402202606201 6.47759485244751 6.33068752288818 6.15301990509033 6.05061769485474 6.24350929260254 6.27758932113647 6.18568420410156 6.08087110519409 5.61408615112305 8.19455718994141 13.8152799606323 16.341100692749 12.6546831130981 9.92510318756104 9.05434226989746 8.68357181549072 5.94481325149536 9.95428657531738 20.1164150238037 13.1169214248657 8.90132713317871 3.91624879837036 2.07031226158142 1.72347438335419
0.749884963035583 0.826369106769562 0.849680304527283 0.857266485691071 1.44136571884155 1.30779504776001 0.840740859508514 0.81801575422287 0.823752701282501 1.39594793319702 1.16000974178314 1.03622221946716 1.15134227275848 1.33461773395538 1.78946709632874 3.01475596427917 3.34544134140015 2.94141173362732 1.75700724124908 1.50026381015778 1.43465197086334 1.29536128044128 1.49120354652405 1.55366003513336 1.62396788597107 1.70932149887085 2.27100896835327 2.69071292877197 2.24018239974976 2.31234526634216 3.22227835655212 3.18605828285217 3.17240953445435 3.37361073493958 3.23638892173767 2.94995784759521 2.79940223693848 2.58408141136169 2.77427434921265 3.22903227806091 3.59307098388672 3.71820831298828 3.86203551292419 3.60832381248474 3.58243036270142 3.34024405479431 2.77799868583679 2.78105306625366 2.32165145874023 2.56685590744019 2.08350586891174 2.29022741317749 2.66373252868652 4.06316757202148 4.43042230606079 4.5064868927002 4.20253133773804 3.27936267852783 2.14532852172852 1.73558187484741 1.31878340244293 1.39288341999054 1.63933825492859 1.86234629154205 1.89840459823608 1.85036528110504 1.87790465354919 2.07649827003479 2.19340515136719 2.23181986808777 2.23439455032349 2.05958080291748 1.78254044055939 1.45972728729248 1.27447140216827 1.26526522636414 0.837035596370697 0.648207664489746 0.920125663280487 1.412428855896 2.26985144615173 2.93043899536133 3.36545705795288 8.96335124969482 4.05985927581787 1.95344591140747 1.66962838172913 1.62299227714539 3.55482959747314 8.65265369415283 8.88327312469482 8.00703239440918 5.00897359848022 4.89795637130737 6.06547880172729 6.40248823165894 10.991810798645 8.79064083099365 4.50203800201416 4.15228462219238 4.17715311050415 4.12286567687988 3.83867383003235 3.07544159889221 2.99310708045959 4.68050718307495 5.58185386657715 2.17972803115845 2.28840661048889 2.38749861717224 2.55026888847351 2.68519425392151 2.80266880989075 2.88123178482056 2.92428398132324 2.95661354064941 2.94999051094055 2.86207580566406 2.83278203010559 2.828040599823 2.8574755191803 2.95756888389587 3.15635323524475 3.56755185127258 3.85410284996033 4.11391448974609 4.27032566070557 4.3841347694397 4.30962514877319 4.41996002197266 4.26093006134033 4.10525608062744 3.99095368385315 3.92118334770203 3.94295239448547 4.20975399017334 4.17165660858154 4.07559156417847 4.05426549911499 4.16055917739868 4.43837118148804 5.03745937347412 5.3730034828186 5.65700578689575 5.94725894927979 6.22107315063477 6.57220125198364 6.81648778915405 6.91857528686523 6.91243553161621 6.8362455368042 6.56790018081665 6.25993967056274 6.49210453033447 6.58062505722046 6.50023078918457 6.3438515663147 6.46903705596924 5.20740413665771 2.20018267631531 2.10733675956726 7.20859432220459 8.2009973526001 6.68432235717773 5.25317811965942 4.14091300964355 2.71992206573486 9.24779415130615 12.9480037689209 11.5406475067139 8.09752464294434 3.19867897033691 1.65535473823547
0.801232397556305 0.859466791152954 0.892826199531555 1.20808005332947 1.67124199867249 0.883885502815247 0.876038312911987 0.903919875621796 0.86652284860611 0.842125773429871 1.34570479393005 1.32824230194092 1.19051802158356 1.42599284648895 1.63196980953217 2.42887687683105 3.80567407608032 3.55294847488403 2.30390882492065 1.65413987636566 1.59911048412323 1.59684336185455 1.57422804832458 1.61491334438324 1.62616324424744 1.74557113647461 1.86496996879578 2.25869274139404 3.07926416397095 3.3656063079834 2.92573404312134 3.23636078834534 3.2423083782196 3.93917226791382 4.15588808059692 3.46627974510193 2.912752866745 2.80574727058411 2.57979846000671 2.42984366416931 2.69638323783875 3.04711771011353 3.10150671005249 3.27050805091858 3.51576471328735 3.40457963943481 2.78980040550232 2.81940507888794 2.36303806304932 2.03976368904114 2.34224152565002 2.23287677764893 2.54288697242737 3.64589929580688 4.48562479019165 4.90700817108154 4.96855640411377 4.62063312530518 3.03048515319824 2.1810622215271 1.74955677986145 1.65302872657776 1.82178294658661 1.85877919197083 1.8607439994812 1.95995700359344 1.99247670173645 2.22287535667419 2.30067372322083 2.30946779251099 2.27303624153137 2.09095025062561 1.84254705905914 1.73212242126465 1.79724109172821 1.69907629489899 1.48849308490753 0.862152636051178 0.968288004398346 1.38977015018463 2.31427097320557 2.97570514678955 3.43216443061829 5.8682861328125 6.78625965118408 2.15639996528625 1.84113419055939 1.66906273365021 1.65921342372894 3.67029619216919 4.3259801864624 7.03509759902954 2.82987451553345 3.13399863243103 3.45315051078796 3.84731245040894 3.96708703041077 7.18903064727783 4.86494779586792 4.29513311386108 4.28458309173584 4.22798871994019 3.96945953369141 3.6694803237915 5.83644390106201 4.64150667190552 3.73453140258789 2.20624041557312 2.43024873733521 2.53830790519714 2.705402135849 2.82945728302002 2.92992782592773 3.06138586997986 3.16759014129639 3.22144818305969 3.21346235275269 3.17829155921936 3.18330526351929 3.12504863739014 3.14274549484253 3.23275113105774 3.46625518798828 3.8208692073822 3.94641399383545 4.30665969848633 4.47200727462769 4.40446853637695 4.63969230651855 4.62747621536255 4.45890760421753 4.31397438049316 4.23540210723877 4.17571926116943 4.290123462677 4.50838851928711 4.56622838973999 4.70584774017334 4.61679983139038 4.38971567153931 4.67034769058228 5.24561357498169 5.64183759689331 5.9845757484436 6.32356548309326 6.5696587562561 6.77748775482178 7.06016778945923 7.25984334945679 7.35021543502808 7.19826936721802 6.92733097076416 6.56047105789185 6.73839902877808 6.86575508117676 6.79090976715088 6.97466897964478 6.85986185073853 5.48878192901611 2.67300987243652 2.12212514877319 2.14692759513855 2.26473164558411 2.029709815979 1.73822963237762 0.594533562660217 -0.00295348721556365 0.184837937355042 6.23401737213135 7.87036848068237 7.12410163879395 4.94022274017334 2.61995410919189
0.927900969982147 2.22586274147034 0.958029985427856 0.966962814331055 0.927595198154449 0.92236328125 0.924210250377655 0.940944969654083 1.03622984886169 1.29718768596649 0.867029905319214 1.09536385536194 1.40483129024506 1.36640310287476 1.59640657901764 2.46093225479126 4.2389554977417 4.2310791015625 3.02296686172485 2.01902055740356 1.76758575439453 1.72772943973541 1.70034337043762 1.74586868286133 1.72163903713226 1.75744950771332 1.82277202606201 2.24633193016052 2.77877187728882 2.78264212608337 2.86486887931824 3.24016332626343 3.23425984382629 3.31468987464905 3.82043600082397 3.56452322006226 3.06698560714722 2.94187211990356 2.6041464805603 2.35093808174133 2.24731779098511 2.43400263786316 2.36579322814941 2.03668284416199 1.99379110336304 2.26200723648071 2.78612446784973 2.86091303825378 2.77372550964355 2.46075773239136 2.00200605392456 2.34017896652222 2.58258867263794 3.17779421806335 4.88832139968872 5.41835689544678 5.77874422073364 5.59490251541138 4.18504095077515 2.56026911735535 1.92604160308838 1.66029369831085 1.81446623802185 1.89484202861786 1.92416846752167 2.03303933143616 2.10171723365784 2.33272957801819 2.4400417804718 2.49125242233276 2.39209794998169 2.29930639266968 2.02517771720886 2.02188658714294 2.03791999816895 2.01883625984192 1.86320888996124 1.53197741508484 1.04293751716614 1.34151899814606 2.22232127189636 3.05082559585571 3.49055600166321 3.72001957893372 6.27173089981079 2.47964668273926 2.08037352561951 1.73803460597992 1.69742178916931 1.76774597167969 2.02972793579102 5.49418640136719 3.35287761688232 3.19322466850281 3.50525832176208 3.82602858543396 3.9622106552124 4.00383377075195 4.23927021026611 4.36569786071777 4.39648342132568 4.34535455703735 4.16025161743164 3.71858835220337 4.73985576629639 2.07967972755432 1.66129851341248 2.23934268951416 2.53801155090332 2.75896978378296 2.80742931365967 2.90199971199036 2.95542621612549 3.06825017929077 3.20299768447876 3.36767864227295 3.46141862869263 3.43149280548096 3.42820906639099 3.3907322883606 3.4275324344635 3.50760078430176 3.72386837005615 4.00151062011719 4.19723081588745 4.50458669662476 4.54402780532837 4.72793340682983 4.83250856399536 4.84521055221558 4.69866418838501 4.51125764846802 4.55242156982422 4.52913951873779 4.61469459533691 4.62584495544434 4.97054529190063 5.20700597763062 5.07828664779663 5.02836608886719 5.07574129104614 5.40723466873169 5.88834476470947 6.34199523925781 6.67914533615112 6.87738513946533 7.0588264465332 7.43565702438354 7.63541507720947 7.72893857955933 7.60482358932495 7.38964128494263 7.1055588722229 7.02544689178467 7.28347587585449 7.43808364868164 7.42687845230103 7.35035276412964 6.70252799987793 4.83798742294312 2.5797598361969 2.53702592849731 2.5014476776123 2.20201754570007 1.84091603755951 1.04908549785614 0.255649387836456 -0.270961433649063 1.87169373035431 3.06022167205811 4.0743613243103 4.45855093002319 2.71885895729065
