NCOLS 174
NROWS 32
XLLCORNER 353728
YLLCORNER 6701200
CELLSIZE 16 
NODATA_value -3.4e+38 
18.4810829162598 13.7437801361084 34.5109329223633 22.5343551635742 14.1388483047485 12.7328577041626 11.5030241012573 8.19652271270752 9.39957332611084 6.15392971038818 5.20035743713379 5.01618385314941 5.1436595916748 4.22531890869141 2.81392621994019 0.275484621524811 0.163229703903198 -1.17565441131592 -1.59605121612549 -2.40884590148926 -2.67487668991089 -2.79351878166199 8.30158424377441 4.71632099151611 27.0194797515869 18.9364471435547 9.54005813598633 19.6432723999023 15.4808588027954 8.36133766174316 6.53193998336792 14.4502172470093 10.1433544158936 24.7538089752197 17.1585826873779 15.1451063156128 12.3802890777588 5.74134683609009 7.73927927017212 24.3823986053467 23.1741676330566 14.2879819869995 4.34963607788086 4.6193585395813 4.17986249923706 3.89021897315979 2.97212958335876 2.46438312530518 3.92141556739807 5.75008916854858 2.01541066169739 1.91354596614838 6.16913986206055 5.1820650100708 5.37593078613281 1.81350433826447 9.28369903564453 16.0712203979492 15.143593788147 37.2883644104004 15.7392597198486 12.4718198776245 5.58199834823608 4.26312017440796 2.93525838851929 54.7467346191406 5.58494997024536 12.9067821502686 4.18667602539062 10.1461944580078 8.59455871582031 11.5852203369141 10.19837474823 7.748939037323 7.66403913497925 5.37869167327881 29.8074207305908 11.0124111175537 25.8457908630371 23.0774631500244 26.8554077148438 18.7760353088379 23.3660907745361 21.3664417266846 18.4429550170898 10.3364810943604 10.8193912506104 9.88218307495117 39.7207374572754 25.9932670593262 23.3534908294678 19.6815929412842 17.1800842285156 15.0912017822266 15.8252687454224 14.5517463684082 13.4849815368652 12.5676956176758 10.7027721405029 10.4160776138306 9.94448852539062 9.99977016448975 10.2250728607178 9.74344444274902 9.28567886352539 9.00876617431641 9.03790664672852 8.99473190307617 8.62763023376465 8.28893661499023 8.22082233428955 8.19133472442627 7.90482950210571 7.64378309249878 7.39525890350342 7.16103172302246 6.81234741210938 6.77997016906738 6.58229112625122 6.39267492294312 6.21288871765137 6.04366731643677 5.69100618362427 5.60181665420532 5.44819688796997 5.08457899093628 4.93950796127319 8.4386682510376 15.7211456298828 12.2247381210327 10.0030546188354 8.41328239440918 7.23927879333496 4.64373159408569 7.20001554489136 7.44824552536011 5.68059015274048 7.26377058029175 5.62200021743774 3.65210866928101 3.14677667617798 9.66949272155762 0.981739580631256 2.58002805709839 18.1122779846191 9.35783195495605 3.32215642929077 3.04019951820374 4.66968154907227 4.4390082359314 4.22748327255249 4.02617120742798 3.84245181083679 3.20192933082581 3.25761342048645 3.12117028236389 3.06146454811096 2.91676926612854 2.75985813140869 2.63681769371033 0.418487757444382 -0.49839386343956 5.16090869903564 6.73187208175659 15.7847385406494 7.90313386917114 4.47758388519287 18.4311981201172 28.5279788970947 22.3752517700195 17.0262260437012 13.9737586975098 11.8301115036011 9.55461311340332
21.0362453460693 15.1631412506104 13.4702806472778 25.4650726318359 14.7155647277832 13.0475263595581 10.2153167724609 15.6553239822388 9.55928230285645 8.79484367370605 4.766188621521 21.6675796508789 5.48186874389648 3.14152359962463 1.99755656719208 1.04067397117615 0.545558869838715 -0.0612189806997776 -0.705435395240784 -0.986678063869476 -2.03283452987671 2.26881313323975 -0.017359608784318 -0.851280033588409 2.71400666236877 19.7457084655762 14.4797887802124 27.6719951629639 10.1087951660156 9.0139274597168 8.45391082763672 7.3754301071167 14.2176790237427 15.1516742706299 26.5960960388184 16.6606597900391 14.7500028610229 13.8833332061768 6.4697790145874 6.87586069107056 5.42489910125732 5.32493209838867 4.35350179672241 3.10134387016296 3.08172273635864 2.83426117897034 2.52867484092712 16.4186534881592 2.4649875164032 2.02473926544189 11.2111549377441 20.2039775848389 9.18529796600342 13.2569589614868 10.9765758514404 4.61889505386353 8.66643142700195 17.8694953918457 27.7718505859375 13.9565267562866 12.9673557281494 8.30815315246582 4.29399585723877 3.13618206977844 3.00617170333862 20.0791454315186 41.7867317199707 7.5382227897644 8.49748611450195 4.91908931732178 19.3637313842773 10.6974182128906 3.28856873512268 2.87004637718201 3.01346588134766 25.9175052642822 23.8721809387207 20.484504699707 18.1964492797852 14.7285995483398 16.0435810089111 32.617130279541 17.3957080841064 14.8333768844604 15.3604755401611 13.8946504592896 9.58390331268311 8.99506187438965 35.8726196289062 22.9468746185303 19.1448822021484 16.3660202026367 14.278413772583 13.2960195541382 12.3107080459595 12.1851205825806 11.205135345459 10.3919906616211 11.5998973846436 10.9464225769043 10.3204097747803 9.73285293579102 9.19016361236572 8.18922996520996 8.2601842880249 7.92371320724487 7.85953617095947 8.01873397827148 7.69254159927368 7.62296676635742 7.06900501251221 15.734580039978 8.10120391845703 7.11480760574341 6.88156127929688 6.91985464096069 6.89835405349731 6.69135904312134 6.49837303161621 6.31863737106323 6.14702272415161 5.84636354446411 5.85290050506592 5.69952487945557 5.5474648475647 5.40957260131836 4.67841720581055 14.3526744842529 7.2285475730896 4.78176307678223 4.67208766937256 4.73327255249023 4.622971534729 6.21690034866333 5.5578875541687 4.99468040466309 4.58110904693604 4.23201465606689 3.78436923027039 3.4442720413208 2.83089327812195 7.46405649185181 9.22225761413574 8.29783725738525 4.75887107849121 6.99004745483398 6.20429801940918 4.74915742874146 3.84306764602661 3.23663401603699 2.79415726661682 2.33311367034912 2.22794604301453 3.65416836738586 3.49512481689453 3.35710716247559 3.22035765647888 2.69615912437439 2.7008969783783 0.786062717437744 -0.236422225832939 -0.548210203647614 -0.420731365680695 29.4110164642334 19.9341716766357 14.1583633422852 3.09075665473938 38.2382431030273 28.1838817596436 20.5268135070801 16.1136016845703 13.1127004623413 10.9445953369141 10.5670137405396
21.7399234771729 15.2101268768311 23.4960956573486 8.72827243804932 46.3083534240723 27.9467716217041 11.3946294784546 10.9346513748169 9.61170959472656 8.84727191925049 7.84289216995239 4.38914775848389 2.33613681793213 1.63968801498413 1.13396406173706 1.10329246520996 -0.454273164272308 -0.720035016536713 -0.977808594703674 -1.00256955623627 -1.84342527389526 13.5844440460205 -1.52699279785156 -1.31158077716827 6.96470928192139 8.70432090759277 8.21465015411377 20.991792678833 18.9257850646973 9.28764915466309 12.6078157424927 9.40032005310059 8.16921997070312 8.7219705581665 19.9814338684082 26.6095504760742 10.6533575057983 15.3118171691895 8.38934803009033 6.86263847351074 5.64900398254395 4.75455760955811 4.33321523666382 3.98088502883911 3.69508647918701 8.81387138366699 2.79539942741394 2.09331011772156 11.0079593658447 10.0926342010498 6.3117561340332 23.900505065918 19.0515041351318 10.5607023239136 7.6138744354248 7.35859060287476 11.5695314407349 11.1704082489014 26.3354930877686 15.4387655258179 7.06241607666016 6.99015760421753 3.88349199295044 2.41267609596252 2.29129981994629 8.49502182006836 15.0097274780273 43.1814498901367 5.20976734161377 4.43188428878784 22.5903930664062 4.08424377441406 9.37676048278809 3.04564762115479 16.881742477417 11.541877746582 35.5014152526855 15.44557762146 22.7526435852051 12.8947582244873 43.5785446166992 28.6958293914795 15.2298545837402 19.0360317230225 14.0304641723633 13.2100887298584 12.1469736099243 11.3404006958008 11.5823049545288 15.8290796279907 16.7015571594238 14.2424545288086 12.4264888763428 11.2400617599487 10.3412065505981 10.2940397262573 9.68882942199707 9.85355281829834 9.32982349395752 8.91006946563721 8.63416290283203 8.68416500091553 8.36290836334229 8.58724594116211 8.16476440429688 7.7354154586792 7.38315963745117 7.06598567962646 6.30058288574219 16.0260887145996 6.04789876937866 16.6177616119385 8.47318267822266 6.34188318252563 6.43327379226685 6.45036315917969 6.41601133346558 6.22589159011841 6.04575681686401 5.87641286849976 5.96888208389282 5.94541549682617 5.78671741485596 5.64178895950317 5.49308586120605 5.22490644454956 5.23152589797974 4.94127607345581 4.33155679702759 25.8468246459961 13.6845321655273 4.47949266433716 4.44243812561035 4.35093402862549 4.25258684158325 4.16607713699341 4.20862054824829 4.14606714248657 3.90404891967773 3.47391581535339 6.41341781616211 1.98441779613495 13.4253883361816 10.1075506210327 5.91109895706177 4.80679512023926 4.04460382461548 3.46871829032898 2.41329097747803 2.1449887752533 2.69591236114502 2.41949200630188 2.19271850585938 2.10881996154785 2.02198362350464 1.92533671855927 1.8507616519928 3.05637335777283 2.90123677253723 1.15065085887909 0.870116710662842 0.660831868648529 18.0499114990234 12.58371925354 14.7384004592896 24.3994064331055 15.6327476501465 9.51781368255615 31.3587608337402 22.4090728759766 17.6191654205322 14.4159507751465 12.1511917114258 10.4383230209351
18.9808788299561 13.1715040206909 30.1850433349609 11.7928867340088 23.527946472168 12.5910835266113 18.4525470733643 14.4233360290527 10.6578874588013 8.79009056091309 7.90221834182739 4.0399923324585 1.9280161857605 1.32838356494904 0.764181673526764 21.3253383636475 -0.0847305729985237 -0.130619391798973 -1.37726473808289 7.93957376480103 0.806564748287201 -2.06981635093689 8.31112289428711 8.69402694702148 1.8473219871521 9.22659111022949 12.9103145599365 6.1887264251709 14.3153514862061 11.8307409286499 8.92055034637451 6.58334493637085 11.5146379470825 7.0880913734436 13.729344367981 6.25035667419434 20.3197689056396 5.61567068099976 5.16264390945435 8.5520601272583 4.66378784179688 4.38573694229126 3.92622971534729 4.49691963195801 22.2497386932373 3.59074306488037 3.88977813720703 2.76705384254456 2.16331434249878 8.99927425384521 1.9199515581131 27.5801963806152 9.23643112182617 20.0992851257324 2.49240732192993 10.2707433700562 12.0540561676025 22.9202537536621 10.4470252990723 6.83416795730591 5.73366403579712 8.9745922088623 3.09043884277344 2.17177772521973 2.10568141937256 5.63768339157104 7.9170126914978 8.21793079376221 50.0488128662109 10.0124082565308 14.6175146102905 5.78421354293823 5.38284015655518 17.0060138702393 13.6753091812134 26.1321029663086 25.3592319488525 22.8967895507812 27.9895801544189 19.9399566650391 24.5415210723877 15.302770614624 27.1290626525879 18.3398551940918 15.2212562561035 13.0390567779541 11.5054616928101 11.3112802505493 10.7685718536377 10.3311672210693 10.0055847167969 9.57177543640137 9.13424015045166 9.4648551940918 9.22660827636719 8.9851655960083 8.71877861022949 8.46363258361816 8.10089683532715 7.85274791717529 8.26587772369385 8.00115013122559 7.73065567016602 7.44767999649048 7.37920904159546 7.39872455596924 7.13674116134644 5.8002667427063 27.276704788208 14.4968376159668 5.51691722869873 20.7442493438721 10.7236747741699 5.92077684402466 5.74694919586182 5.6182861328125 5.71791124343872 5.54883241653442 5.39064025878906 5.54885292053223 5.56595993041992 5.53289651870728 5.3803539276123 5.24194240570068 5.36053800582886 5.3403172492981 5.20863151550293 4.91227722167969 4.5406379699707 15.06236743927 8.97002029418945 3.99692964553833 18.6573753356934 10.3102970123291 8.97803115844727 4.54083013534546 3.92084574699402 3.72740793228149 2.86155939102173 23.2364482879639 10.7263441085815 0.953965544700623 19.3627433776855 9.97862815856934 6.41996145248413 4.97712469100952 4.03718280792236 3.37800884246826 2.98618912696838 2.66623473167419 2.41392636299133 2.20373368263245 1.60733890533447 1.47967743873596 1.78409719467163 1.64339733123779 1.53320944309235 1.74252486228943 1.65368568897247 0.716972708702087 0.704465270042419 -0.347453474998474 30.9794788360596 13.3165349960327 12.8949174880981 10.5688133239746 10.5668973922729 9.30283164978027 10.4549283981323 10.5029392242432 12.5946140289307 9.72941780090332 8.69521999359131 7.91347551345825
19.314868927002 11.8822975158691 35.6491584777832 10.9548559188843 25.5712070465088 14.1570901870728 10.4531440734863 9.92615032196045 8.99841499328613 4.27228212356567 3.38309693336487 2.45572733879089 0.395171374082565 -0.591085433959961 3.6863055229187 11.2061185836792 14.2654867172241 0.130893930792809 -0.63676929473877 -1.37559700012207 3.64173698425293 -1.65131044387817 -1.80634868144989 -2.17559885978699 5.39761638641357 4.75284099578857 3.41097187995911 21.2440433502197 9.60612487792969 12.1888933181763 6.34535217285156 17.2757816314697 6.11012840270996 4.71582651138306 26.1585254669189 7.74065542221069 14.8968362808228 5.52683258056641 5.19115686416626 5.06520557403564 4.82625484466553 21.5583248138428 8.30972194671631 3.5184338092804 14.0431652069092 3.70036363601685 2.8002495765686 4.33143520355225 3.12806296348572 2.49683260917664 8.33861446380615 6.29695177078247 5.08993339538574 7.83429193496704 4.785964012146 10.1147680282593 39.5768737792969 24.50950050354 13.6170024871826 7.32305860519409 2.29101824760437 2.77561402320862 6.42441987991333 2.14744734764099 5.63114643096924 2.54865574836731 1.92501509189606 1.91056036949158 36.4467391967773 44.5438346862793 11.6085681915283 10.8746767044067 7.3560938835144 40.0305786132812 32.1008453369141 23.5614624023438 18.8602638244629 27.7347774505615 20.0995540618896 17.3652763366699 12.2616548538208 27.1220378875732 15.7085361480713 14.9568090438843 13.5775671005249 12.4482793807983 12.1177244186401 11.4012546539307 10.8315811157227 10.4267883300781 9.94542407989502 8.40354347229004 9.00698280334473 8.71333503723145 8.48050022125244 8.2888240814209 8.09724426269531 7.82620620727539 8.01785469055176 7.79312610626221 7.58021402359009 7.37601613998413 7.0654993057251 6.84496784210205 7.10889291763306 6.87926149368286 6.55738496780396 5.1970739364624 31.627067565918 17.1297664642334 9.187180519104 5.2450156211853 25.8251209259033 13.6262922286987 5.58821439743042 5.34280586242676 5.27698183059692 5.1424355506897 5.10680913925171 4.97474384307861 4.96175336837769 4.9305534362793 4.79799747467041 4.98427152633667 5.00130558013916 4.96903610229492 4.8431715965271 4.73678398132324 4.18721151351929 4.25236940383911 21.1846160888672 3.94571661949158 3.5709183216095 29.1588401794434 18.6546154022217 7.21566009521484 5.84521007537842 4.8942437171936 3.16302132606506 11.1377038955688 0.757826745510101 8.04331493377686 13.0462551116943 7.5425500869751 6.3636155128479 5.46285152435303 3.99445056915283 3.34086561203003 2.88307332992554 2.49225544929504 2.23290038108826 2.02900147438049 1.99252700805664 1.85845351219177 1.70172250270844 1.59269797801971 1.47698283195496 1.04101061820984 0.99101722240448 1.18026173114777 0.521375060081482 0.222309097647667 6.52908897399902 2.92755508422852 13.6638851165771 12.8774070739746 10.8694496154785 9.17555332183838 7.9098334312439 7.2708535194397 6.50626087188721 5.87985563278198 6.33105325698853 7.06785869598389
12.5847101211548 10.8132400512695 38.1818656921387 10.9295282363892 8.28109836578369 35.7090301513672 19.7691993713379 9.82917022705078 5.13508749008179 3.57303190231323 3.3920567035675 1.27625489234924 -0.626471102237701 -0.8889479637146 -1.14941513538361 9.69074153900146 -1.28698348999023 30.7797470092773 1.60206770896912 10.5459642410278 -1.00793266296387 -1.79431819915771 -1.80062198638916 -1.86230397224426 -1.95113587379456 3.76915097236633 10.2398710250854 5.22981595993042 12.6674118041992 3.47256708145142 3.08193182945251 13.4465351104736 11.4270009994507 6.13979148864746 0.903506636619568 15.237455368042 10.0658931732178 3.85780811309814 2.83840394020081 30.465705871582 23.9163856506348 4.95850133895874 4.58585739135742 2.85881042480469 2.51370549201965 9.04185962677002 2.92413473129272 2.36183381080627 2.31178593635559 2.12904071807861 7.62942790985107 5.02256488800049 2.25892472267151 2.24595785140991 19.9475765228271 12.9849109649658 13.7458591461182 25.9888362884521 7.22352409362793 3.08736395835876 2.86632466316223 2.5491201877594 10.3570604324341 1.92767512798309 1.80471158027649 7.40025568008423 13.3847951889038 5.22392082214355 14.3552417755127 33.1427917480469 23.3249225616455 20.4101753234863 21.1477870941162 16.5603809356689 29.5837364196777 22.6180782318115 24.4729499816895 14.9960079193115 12.0001182556152 36.9500312805176 21.0339698791504 14.0209217071533 12.8597373962402 11.8733520507812 10.9682626724243 12.2734689712524 11.537805557251 10.8708124160767 10.3815431594849 9.90514945983887 9.40062141418457 9.36037063598633 9.00974750518799 8.69247341156006 8.41543865203857 8.19580936431885 7.23083353042603 7.66145086288452 7.49976205825806 7.3347692489624 7.15940570831299 6.93703746795654 7.05329513549805 6.8414945602417 6.63412189483643 6.38033056259155 6.13629770278931 5.93157291412354 5.76858854293823 5.9460186958313 10.7398500442505 4.75376415252686 28.3811302185059 15.8919506072998 8.7093448638916 6.70795011520386 5.43683338165283 5.13857364654541 5.01132774353027 4.80963325500488 4.75049066543579 4.63563251495361 4.58842325210571 4.47841596603394 4.36981630325317 4.43025350570679 4.32373285293579 4.21430015563965 4.34825754165649 4.40689945220947 4.3788914680481 5.63931894302368 3.15721273422241 2.6175229549408 16.0401706695557 12.565055847168 9.37168502807617 7.51591157913208 5.33518743515015 4.50051259994507 1.75510513782501 13.5314521789551 7.29372596740723 6.77645969390869 5.21924924850464 4.23607015609741 4.70163011550903 4.21280860900879 3.80975770950317 3.47174620628357 2.21178364753723 2.00100088119507 1.90851843357086 1.84247887134552 1.78270900249481 1.71849417686462 1.28132820129395 1.30767381191254 1.25035178661346 1.1850368976593 1.12414038181305 0.46456652879715 12.6461181640625 6.35876417160034 6.00849866867065 4.59863090515137 4.8476939201355 3.86510229110718 3.03336977958679 6.77457523345947 6.0782675743103 5.48802042007446 5.00321388244629 4.86017799377441
12.2961483001709 28.5813541412354 15.0865802764893 10.0578050613403 9.27119064331055 9.28172874450684 8.2775411605835 6.93238639831543 4.0995020866394 3.53217434883118 2.56575083732605 0.207158282399178 -1.22429299354553 -1.34922754764557 -1.56849372386932 -1.62662529945374 -0.148444265127182 8.48025321960449 4.22856950759888 4.11258125305176 -0.776274144649506 -1.944708943367 6.02575731277466 -1.90502405166626 -1.93087720870972 -2.03589820861816 0.274085193872452 11.9417476654053 6.82963943481445 4.35063505172729 8.87443923950195 2.78773474693298 16.7686595916748 14.8084487915039 1.46866536140442 9.78577327728271 3.27587008476257 13.426944732666 0.318785578012466 15.7886266708374 9.24588775634766 0.92508465051651 0.905085504055023 15.3443698883057 6.52097988128662 22.8064880371094 9.468337059021 2.27144408226013 1.84365653991699 3.16823673248291 1.49590647220612 20.9604225158691 9.6032133102417 2.98259997367859 4.35185194015503 14.9681940078735 13.1501045227051 9.69843292236328 5.5650749206543 2.81926774978638 2.16587233543396 15.8938074111938 2.09157991409302 1.69546699523926 1.66972482204437 22.1579551696777 18.5573253631592 8.66733646392822 9.24890518188477 39.8496971130371 37.1410865783691 15.2791166305542 46.7535133361816 24.0706882476807 18.6544399261475 16.3180103302002 13.2988529205322 18.7824859619141 26.8218250274658 14.0773410797119 14.0731248855591 14.054009437561 11.7169561386108 10.9656372070312 10.9359693527222 10.3173837661743 9.74283409118652 9.28236103057861 8.85555839538574 8.50928211212158 9.38496589660645 8.9940299987793 8.62587070465088 8.30809116363525 8.01029396057129 7.74523782730103 7.77603101730347 7.63225936889648 7.50094413757324 7.35184860229492 6.66016292572021 6.84584379196167 6.68730878829956 6.52883005142212 6.34420824050903 5.76163864135742 11.6067800521851 6.0848970413208 5.79533863067627 5.6281476020813 4.90142679214478 6.90323734283447 10.8033103942871 5.95011472702026 10.1237926483154 7.85942363739014 6.38934183120728 5.36699199676514 4.8760724067688 4.86928081512451 4.75604057312012 4.64312314987183 4.54044771194458 4.43609142303467 4.26449680328369 4.21858406066895 4.12665891647339 4.07189273834229 3.88482999801636 3.778240442276 3.85724139213562 3.81803703308105 3.39521718025208 2.09878301620483 1.64130163192749 38.1832809448242 21.5283679962158 4.67744112014771 3.7542872428894 2.42444109916687 11.8567276000977 6.1152548789978 3.92341303825378 4.74661684036255 3.64798474311829 2.95875334739685 2.4996976852417 2.16372847557068 2.63722729682922 2.36641550064087 3.14735174179077 2.91328120231628 2.71911311149597 2.53337287902832 2.38251280784607 1.40511643886566 1.60504698753357 1.56549203395844 1.5196818113327 1.47695350646973 1.43447387218475 0.924074292182922 1.01067173480988 0.961524903774261 4.00883531570435 3.06797456741333 2.52083992958069 2.10547399520874 1.7924280166626 2.33065867424011 2.07889199256897 2.01904726028442 1.98784244060516 4.5264744758606
21.186580657959 18.3645496368408 10.3794345855713 9.75370979309082 8.2630672454834 7.01480293273926 25.9840545654297 6.40993881225586 5.12390518188477 3.74432826042175 2.425861120224 0.693207144737244 -0.322481542825699 -1.18772661685944 -1.43988108634949 -2.07684063911438 0.587758123874664 -1.44379305839539 12.9611825942993 9.20653820037842 3.68605804443359 -1.23519563674927 -1.85616433620453 12.4482202529907 3.51771354675293 -1.86534321308136 7.14366292953491 -0.142456039786339 6.82070255279541 3.91457438468933 2.49498200416565 12.0317716598511 16.1297702789307 4.40835046768188 1.78173875808716 1.37042796611786 4.37256622314453 7.99645042419434 1.12646698951721 0.473778545856476 6.88766002655029 1.00889492034912 7.84652614593506 -0.422323882579803 2.95414638519287 9.48619365692139 19.2396335601807 10.8500642776489 3.74454402923584 9.97855472564697 16.5596866607666 8.69461441040039 7.09045886993408 6.42847585678101 23.4801616668701 13.8207626342773 13.9549751281738 8.62314701080322 4.58804178237915 3.2855122089386 2.63093996047974 7.54446506500244 12.3314161300659 2.02340126037598 4.83706283569336 11.4633083343506 40.7219047546387 21.10080909729 16.5636157989502 27.4872856140137 35.8448181152344 31.0474815368652 22.6528224945068 23.7184638977051 20.2011108398438 17.6753063201904 13.9472026824951 27.3840198516846 14.3848276138306 15.0534410476685 12.7705717086792 11.9800701141357 11.3274173736572 10.7811164855957 10.0464534759521 9.49330711364746 9.01645565032959 8.55785942077637 8.43489360809326 8.41559028625488 8.08217334747314 7.75035858154297 7.44714832305908 7.25922346115112 7.02085256576538 7.63063144683838 7.42756986618042 7.28223419189453 7.16438245773315 7.01284217834473 7.02763319015503 6.88027954101562 6.73955202102661 6.5921835899353 5.76479864120483 17.2415046691895 11.0767755508423 5.75296401977539 5.58530235290527 5.43044471740723 5.27999687194824 4.84541749954224 4.90584754943848 4.80536031723022 10.5741262435913 5.54454231262207 4.69507074356079 4.59049081802368 4.70585298538208 4.59843826293945 4.49274921417236 4.39030170440674 4.29360485076904 4.33128929138184 4.32354927062988 4.23591899871826 3.90407848358154 3.58638310432434 3.43800687789917 3.1428849697113 9.91049861907959 2.95444202423096 9.9193000793457 2.19866752624512 9.26106643676758 1.27552568912506 21.6622047424316 11.8842792510986 9.35851383209229 6.27181339263916 12.9904413223267 6.66014242172241 4.09192562103271 3.23953485488892 3.25747346878052 3.03491020202637 2.83198857307434 2.64285326004028 2.4811532497406 1.70087087154388 1.61783158779144 1.53249084949493 1.74630308151245 1.62439131736755 1.51116323471069 2.16670346260071 1.99688398838043 1.91886842250824 1.83068370819092 1.74618995189667 0.965472280979156 1.38844060897827 1.35284543037415 1.31618511676788 1.27882814407349 0.764618337154388 0.856645882129669 0.820995926856995 0.79433286190033 1.56009519100189 1.39430689811707 1.25487685203552 1.14533960819244 1.55233073234558
14.1474561691284 19.8009948730469 13.1290760040283 12.6546125411987 10.141788482666 18.3650646209717 10.2891635894775 7.20865440368652 6.16078758239746 4.73653125762939 3.12823128700256 1.20662546157837 -0.138995677232742 -1.05956554412842 -1.87935757637024 -1.98302960395813 -1.49472367763519 -2.04855990409851 -2.29867053031921 6.22597455978394 21.0434188842773 9.64653873443604 13.5538921356201 -1.27498877048492 7.42661619186401 -1.04495215415955 10.136812210083 8.64890193939209 6.21504926681519 4.98673105239868 2.03669023513794 8.58498287200928 7.47300624847412 4.92618608474731 2.0204758644104 3.74315524101257 1.69523298740387 23.3648090362549 0.986392259597778 1.07994902133942 0.433689385652542 7.83382272720337 1.85990631580353 0.0760999470949173 -0.179684191942215 -0.476483196020126 17.1989688873291 13.9804573059082 9.13630771636963 10.4753293991089 4.8415584564209 4.82010173797607 14.5344839096069 18.1133995056152 8.96025085449219 15.1667003631592 12.9684419631958 12.2396116256714 7.60883903503418 3.6547589302063 28.1647071838379 6.45848083496094 40.6435699462891 2.04620432853699 1.75779104232788 7.01002597808838 40.1028060913086 32.9147453308105 25.0542297363281 27.7457447052002 24.289342880249 26.6895027160645 20.0538215637207 15.9258890151978 15.5150165557861 20.838508605957 16.6694240570068 15.0085210800171 13.5797472000122 12.733585357666 11.8410758972168 11.1354265213013 10.5081233978271 10.1577434539795 10.2090463638306 9.80877113342285 9.44305038452148 9.11873722076416 8.80442237854004 7.78258657455444 7.46643829345703 7.18838357925415 6.90382814407349 6.89190673828125 6.8458456993103 6.63923788070679 6.45231103897095 6.4369797706604 6.33130121231079 6.87004041671753 6.74033117294312 6.61831426620483 6.49851989746094 6.38298559188843 6.24042987823486 6.19253063201904 5.76550054550171 9.59367275238037 5.72718238830566 5.56976079940796 5.22101020812988 5.1684832572937 5.06259775161743 4.87998914718628 4.78417062759399 4.66114711761475 4.69637632369995 4.60140371322632 4.50378513336182 4.40703058242798 4.31251287460327 4.18369960784912 4.09620809555054 4.18250751495361 4.09506940841675 3.75256967544556 3.34668660163879 2.71357941627502 2.59762358665466 2.47783303260803 16.8519897460938 8.63872718811035 3.14480471611023 2.95727562904358 1.41908931732178 14.5673112869263 1.07629442214966 1.82086157798767 4.05293989181519 5.13569974899292 13.5262956619263 6.8245153427124 5.57950067520142 5.00360870361328 4.52980613708496 4.15664434432983 2.07197141647339 1.88719928264618 1.9254652261734 2.32013249397278 2.18669629096985 2.08025622367859 1.98180854320526 1.88570749759674 1.32200598716736 1.19974601268768 1.17430412769318 1.15368640422821 1.09601497650146 1.03965711593628 1.64825236797333 1.5784752368927 1.51402032375336 1.45394599437714 0.787256479263306 1.24593865871429 1.21864306926727 1.1905745267868 1.16328954696655 1.137775182724 0.635013937950134 0.71545934677124 0.694336891174316 1.03683125972748
15.4812650680542 12.1643953323364 11.3468132019043 11.4571046829224 10.6390714645386 10.1420421600342 9.9633321762085 7.4929370880127 7.19505500793457 6.00632286071777 3.23808360099792 0.94563102722168 0.00287324120290577 5.87255096435547 -1.19880318641663 -0.502918481826782 -1.53850495815277 -2.07743668556213 -2.67253947257996 -2.68387484550476 26.849573135376 26.7612171173096 14.8297176361084 6.63430976867676 3.5795886516571 0.544749855995178 -0.513698875904083 2.40355324745178 8.80004024505615 2.04710578918457 19.4700412750244 8.88794231414795 2.12208390235901 5.03623580932617 3.68129277229309 3.8522036075592 1.15071582794189 1.02037012577057 4.99719047546387 1.48396110534668 1.11869585514069 3.41232752799988 0.0577540025115013 -0.38971135020256 6.26652431488037 13.5217571258545 7.94911670684814 8.91241645812988 12.7968730926514 10.2344455718994 8.78437232971191 7.17266845703125 21.0622234344482 33.8229484558105 19.9727821350098 12.3640203475952 5.95031261444092 9.38506412506104 3.91463136672974 2.94800782203674 4.70690155029297 6.56098699569702 19.035472869873 22.3735427856445 12.1036491394043 8.66421031951904 16.7963485717773 27.7523441314697 34.1559944152832 30.3443050384521 26.7852745056152 23.1643314361572 19.0097713470459 15.1088991165161 28.2591209411621 15.7198429107666 14.6834535598755 13.6946382522583 12.7419919967651 12.01526927948 11.3274669647217 10.5851049423218 9.93879127502441 9.36017799377441 9.40507125854492 9.01523017883301 8.7281665802002 8.48049163818359 8.44592666625977 8.46935749053955 8.17721748352051 7.90868330001831 7.64143514633179 6.76207113265991 6.58479404449463 6.42659997940063 6.23598194122314 6.11965847015381 6.13395881652832 6.0130558013916 5.91358375549316 5.82130575180054 5.85963487625122 5.73749017715454 6.15189599990845 6.03082132339478 5.88650465011597 5.65090990066528 5.23522186279297 13.257396697998 6.84273338317871 5.24945735931396 5.12367820739746 4.99762535095215 4.83094501495361 4.6438159942627 4.54513597488403 4.45675849914551 4.36603164672852 4.27025985717773 4.16571187973022 4.19779968261719 4.11398839950562 3.67690324783325 3.48080611228943 3.34794330596924 2.80504417419434 6.48360157012939 1.92600810527802 2.85161304473877 13.5534505844116 6.04642152786255 5.17569780349731 4.23007726669312 3.55972862243652 0.781917929649353 0.176849335432053 14.486273765564 10.3418111801147 9.30397701263428 6.70248556137085 5.92877817153931 4.71701383590698 3.93670177459717 3.51969742774963 3.18496346473694 3.73989987373352 3.46861410140991 3.23772048950195 3.02931952476501 2.85380458831787 1.47571611404419 1.40309321880341 1.47357749938965 1.73217284679413 1.63313019275665 1.58591794967651 1.52633237838745 1.07927417755127 1.04333662986755 1.00693249702454 0.97477775812149 0.888135969638824 0.849015176296234 1.38941335678101 1.33959901332855 1.28962886333466 1.25438499450684 1.2085645198822 0.647071480751038 1.10760807991028 1.0844578742981 0.589790165424347 0.569485425949097
17.8128395080566 14.3257322311401 11.7896575927734 10.6085634231567 9.79499530792236 9.12621593475342 8.5577335357666 4.80114603042603 5.36978769302368 5.15487003326416 3.63410925865173 1.65082943439484 0.0827533453702927 -0.292445868253708 -1.0532546043396 3.81965804100037 -1.28807556629181 -1.5045166015625 -1.64349806308746 4.4403018951416 6.15284442901611 13.7767114639282 12.9399938583374 9.26704692840576 7.39359045028687 4.30407762527466 4.75001907348633 -0.131545335054398 4.81666326522827 13.2205038070679 8.93067646026611 2.60507893562317 1.97397649288177 1.12412011623383 6.91123676300049 -0.270386189222336 14.5187540054321 0.401081293821335 23.9591369628906 5.01375913619995 1.26765179634094 0.582334160804749 0.575794577598572 0.20904578268528 8.80416011810303 0.0170937590301037 12.8889427185059 11.6816005706787 8.4730396270752 5.43749904632568 13.5454072952271 25.6590213775635 21.5876884460449 14.3078689575195 28.3482780456543 14.0705461502075 11.7244930267334 4.62887048721313 2.45332264900208 5.98412799835205 30.2831859588623 20.6230278015137 23.7772521972656 10.4172477722168 7.38941669464111 8.74725246429443 7.8389573097229 33.333984375 25.2692356109619 16.0805702209473 33.7515144348145 15.7707557678223 29.6609210968018 19.9645824432373 18.1222133636475 16.5561218261719 15.2723245620728 12.9383239746094 11.9921779632568 11.2522487640381 10.6713933944702 10.6348295211792 10.1106910705566 9.67614269256592 9.231125831604 8.84992218017578 8.22738361358643 8.07032203674316 7.87351751327515 7.90295743942261 7.64305400848389 7.38760852813721 7.37539863586426 7.35999965667725 7.14218091964722 6.95370388031006 6.78781890869141 6.65525531768799 6.06209278106689 5.97642993927002 5.90074014663696 5.7681884765625 5.61886310577393 5.5503044128418 5.43513488769531 5.34332418441772 5.24482440948486 5.23538017272949 5.12378692626953 5.40947866439819 5.28154468536377 5.14511394500732 5.0264368057251 4.9150185585022 4.86159467697144 4.75797319412231 4.67257308959961 4.58212089538574 4.49442195892334 4.03593778610229 4.15391540527344 4.0731258392334 3.68621897697449 3.61399555206299 3.02509593963623 2.56882405281067 1.85559618473053 3.16059136390686 1.81425929069519 2.21012210845947 11.6391382217407 4.97823762893677 3.59049129486084 1.89273297786713 0.746232390403748 15.8203048706055 0.41523739695549 0.250708192586899 3.36016082763672 24.4781761169434 12.8593521118164 5.96223402023315 5.07812452316284 4.39423418045044 2.90066266059875 2.67809510231018 2.38586950302124 2.61629176139832 2.41246604919434 2.24924278259277 2.11895179748535 2.65135908126831 2.50536417961121 2.37219381332397 2.17156863212585 2.11562395095825 1.11764085292816 1.20167219638824 1.45875585079193 1.40420806407928 1.35684013366699 1.3116797208786 1.26912140846252 0.905684351921082 0.876483142375946 0.849897444248199 0.828646242618561 0.723739743232727 0.695284008979797 1.16356360912323 1.12672472000122 1.09766209125519 1.06795263290405 1.03707075119019
15.1893625259399 11.7573156356812 10.1160678863525 9.58833026885986 8.96468925476074 8.2939395904541 7.69178056716919 5.28839921951294 13.419903755188 4.97769260406494 4.57140779495239 2.64757537841797 0.705539107322693 -0.0488229915499687 -0.6886106133461 -1.03431820869446 -1.21480989456177 -1.70772969722748 -1.63620066642761 -1.85754191875458 9.77427387237549 2.43234443664551 16.4239120483398 13.2044477462769 22.2354106903076 14.6053171157837 5.34152984619141 4.82332849502563 2.57108068466187 8.07307147979736 6.30198907852173 15.6197576522827 3.77175974845886 17.636775970459 3.68971228599548 0.15848796069622 3.23338437080383 1.60568761825562 3.57056093215942 10.9859504699707 1.37329053878784 3.05533146858215 1.35922682285309 0.472113847732544 2.53585648536682 7.11410522460938 8.00135803222656 6.93487167358398 12.8111553192139 11.7907457351685 10.6938714981079 25.2642955780029 17.8452854156494 24.1833400726318 19.5467891693115 12.2976722717285 8.42903709411621 6.42115116119385 4.50931215286255 14.8549165725708 12.023078918457 15.3108072280884 17.2014141082764 26.9203796386719 16.3318881988525 13.5948724746704 32.4459190368652 20.3820705413818 15.9605131149292 15.9478635787964 13.885461807251 40.5578002929688 24.1098136901855 15.2566995620728 13.7430734634399 13.5825939178467 14.5430221557617 14.0791940689087 13.1164464950562 12.2354412078857 11.4844799041748 10.8451499938965 9.55289554595947 9.10415077209473 8.68136882781982 8.45683574676514 8.51487445831299 8.30298709869385 8.12112998962402 7.92491292953491 7.40155601501465 7.1804633140564 6.95560455322266 6.87101936340332 6.66538619995117 6.49639844894409 6.42661285400391 6.47291040420532 6.54548454284668 6.45306301116943 6.36721515655518 6.23190402984619 6.10157680511475 5.58259868621826 5.47377395629883 5.3175196647644 5.21208047866821 5.11896657943726 5.02834987640381 4.87545871734619 4.76438188552856 4.73873472213745 4.63369941711426 4.87904977798462 4.77693891525269 4.68546962738037 4.60089826583862 4.51602745056152 4.42630577087402 4.37075281143188 4.28738832473755 3.70025491714478 3.22381162643433 3.02582406997681 2.82745885848999 2.52908539772034 2.1070613861084 1.42036914825439 7.91604232788086 1.35424149036407 4.24814128875732 6.31984806060791 2.68909978866577 1.7145391702652 0.799009144306183 13.716362953186 1.01138043403625 0.413625180721283 18.5458679199219 9.72025394439697 9.23302936553955 8.18903064727783 6.34705114364624 5.17666435241699 4.36987161636353 3.73800563812256 3.0271999835968 2.77044057846069 1.89334630966187 1.75503468513489 1.64716851711273 1.54875361919403 1.8335634469986 1.69983875751495 1.58165645599365 1.53812658786774 2.00294470787048 1.91769099235535 1.84104132652283 1.76611065864563 0.950806558132172 0.920579195022583 1.00160312652588 1.21809566020966 1.18132042884827 1.14668679237366 1.11582255363464 1.08408987522125 0.784673571586609 0.76361620426178 0.742807745933533 0.628498673439026 0.613976061344147 0.58639395236969
20.7439632415771 10.9699783325195 9.98052883148193 9.14383792877197 8.33654689788818 7.75135278701782 7.4682183265686 4.27575206756592 3.83147358894348 20.045503616333 5.74558734893799 2.36004757881165 -0.00782324932515621 6.87173414230347 -0.567093312740326 -1.11306083202362 -2.06511735916138 7.45330190658569 2.17064142227173 -1.63155388832092 13.9127569198608 3.32678771018982 8.47421360015869 17.9013500213623 24.3861503601074 10.533839225769 8.19838047027588 7.18970727920532 2.72333955764771 1.40695381164551 12.3384304046631 5.91022109985352 3.66573357582092 2.5292501449585 2.07372069358826 1.41401290893555 1.37519526481628 1.3673712015152 3.17535948753357 2.23613739013672 0.661265432834625 2.61778402328491 16.1644039154053 7.39980411529541 4.46822071075439 15.5221366882324 13.6609497070312 15.6279859542847 16.1657562255859 17.0763835906982 18.727575302124 19.6546688079834 18.0986766815186 19.314302444458 16.8307361602783 8.98590660095215 27.9814949035645 8.87656307220459 5.34512996673584 19.6274166107178 14.1552381515503 16.8745059967041 18.0262393951416 15.710765838623 26.7661266326904 12.9100341796875 19.8168849945068 13.3878831863403 11.8119678497314 11.5369873046875 34.3805465698242 8.98959255218506 41.4985656738281 24.060791015625 13.5139350891113 12.3005418777466 11.2647657394409 10.2990140914917 9.63907718658447 9.03003787994385 10.0036382675171 10.6121463775635 10.2273244857788 9.72958946228027 9.2686939239502 8.84952449798584 8.4870662689209 7.7604341506958 7.58676862716675 7.59975099563599 7.66593885421753 7.44939994812012 7.22686290740967 7.00992441177368 6.81765413284302 6.40874719619751 6.29401779174805 6.1911358833313 6.14675378799438 6.05720043182373 5.95559644699097 5.93815517425537 5.94202852249146 5.94253635406494 5.82188940048218 5.69544267654419 5.57473039627075 5.15281391143799 5.06372022628784 4.9549503326416 4.80159521102905 4.62289905548096 4.47314453125 4.38352060317993 4.36601114273071 4.29202318191528 4.26532793045044 4.18715000152588 4.39239120483398 4.31144952774048 3.94290280342102 3.82358312606812 3.29843425750732 3.23581004142761 2.52354454994202 2.3672788143158 21.7664909362793 4.68666791915894 1.26325678825378 0.797092735767365 2.50022530555725 2.85158586502075 0.745563447475433 0.706667423248291 15.4475040435791 4.76935386657715 0.39573723077774 0.258788675069809 17.5237045288086 9.07237911224365 6.17381954193115 4.75314331054688 3.82981085777283 3.2113516330719 3.01288366317749 3.57189154624939 3.19941163063049 2.89550876617432 2.64019680023193 2.33785104751587 2.13629817962646 2.0031476020813 1.87392520904541 1.24764752388 1.22723484039307 1.08520328998566 1.65176498889923 1.3881174325943 1.33210587501526 1.27039611339569 1.68412101268768 1.62871360778809 1.57480943202972 1.52349483966827 1.47320914268494 0.80719393491745 0.783298552036285 0.863964140415192 1.05069732666016 1.02217257022858 0.996508419513702 0.970398664474487 0.702174663543701 0.684614181518555
22.4936046600342 13.7956581115723 10.9389028549194 8.61185264587402 8.22025394439697 7.59631395339966 7.03830623626709 4.22668743133545 3.85923004150391 3.44531798362732 3.35103702545166 3.01712274551392 1.98880851268768 0.182611778378487 -0.424819558858871 -1.00023138523102 2.71116614341736 -1.60037231445312 -1.73309350013733 8.30232238769531 4.91671848297119 2.8387565612793 5.25788974761963 28.7622375488281 16.7061176300049 21.87380027771 11.651873588562 8.82624435424805 6.99693250656128 4.49226522445679 3.51849246025085 7.19850730895996 20.4940357208252 13.8728590011597 1.28464412689209 0.706489145755768 23.9479427337646 11.7596092224121 3.34127879142761 1.84883332252502 9.97075366973877 9.21085071563721 7.53949117660522 11.9358987808228 12.0838956832886 12.1494035720825 10.5761241912842 15.2553644180298 14.7547731399536 10.3645401000977 19.5005950927734 18.461088180542 11.0888395309448 15.7094326019287 7.38112545013428 36.8884353637695 17.5456447601318 9.91014957427979 12.7944583892822 8.51918888092041 8.1204137802124 14.8584594726562 23.2462902069092 15.1778440475464 25.6468639373779 10.642970085144 12.4990901947021 15.5718488693237 19.4444713592529 12.2309865951538 34.8610916137695 22.1393756866455 20.0047588348389 15.7596473693848 16.8907051086426 13.1045150756836 10.6521148681641 9.92871189117432 9.45719814300537 8.81369400024414 8.21859359741211 7.80512428283691 7.49382972717285 7.29723167419434 7.01856470108032 7.91596698760986 8.43692874908447 8.20306587219238 7.97753953933716 7.76696538925171 7.56920957565308 6.99843502044678 6.80361413955688 6.60048913955688 6.60296821594238 6.64495849609375 6.52224826812744 6.42845344543457 6.32426357269287 6.2189302444458 5.89093637466431 5.78428173065186 5.67164182662964 5.56244516372681 5.42901134490967 5.4236364364624 5.4188871383667 5.41169786453247 5.31147289276123 5.21432209014893 5.11744451522827 5.01326751708984 4.56866502761841 4.40090703964233 4.06777620315552 4.00311756134033 4.07249021530151 4.03221607208252 3.95555925369263 3.58437728881836 3.36944961547852 2.7783260345459 2.48742318153381 2.33249306678772 1.58796799182892 2.57335329055786 1.33555221557617 10.9877223968506 13.6438522338867 0.765515625476837 0.710346460342407 11.2784576416016 5.49120426177979 2.75487971305847 0.838212728500366 14.9266109466553 8.57779312133789 4.48466300964355 3.63248467445374 5.42059421539307 5.70080137252808 4.46476745605469 3.58624720573425 2.98594784736633 2.56118392944336 2.30811071395874 2.09642553329468 1.89954137802124 2.00027322769165 2.38460850715637 2.21623587608337 2.04390954971313 1.88097012042999 1.74347412586212 1.3498682975769 2.34909844398499 1.58769166469574 2.14848017692566 1.05374526977539 0.964157700538635 0.928147673606873 1.16859829425812 1.12863254547119 1.09140455722809 1.05431842803955 1.41771066188812 1.37463438510895 1.335040807724 1.29720377922058 1.25981628894806 0.700650930404663 0.773654997348785 0.938151955604553 0.911754250526428
23.0130558013916 18.0564861297607 14.9538660049438 12.3377285003662 10.5616092681885 6.80129957199097 6.46044111251831 3.55755949020386 3.63528299331665 2.29481172561646 4.25126838684082 13.0686187744141 0.825845718383789 -0.305580288171768 -0.330072522163391 -0.848210096359253 -1.29639446735382 5.96152400970459 -1.43285512924194 1.02364897727966 -1.63891863822937 19.3931407928467 14.6590137481689 35.0782585144043 19.1856861114502 20.8923416137695 7.45806360244751 14.070200920105 6.23028993606567 3.99167418479919 20.2186546325684 4.99775981903076 36.39794921875 5.92552328109741 3.2961757183075 1.40374052524567 10.4194936752319 1.19938313961029 3.57316851615906 7.61624956130981 3.21345925331116 15.3037195205688 8.33448219299316 14.264310836792 14.9211750030518 9.57730770111084 8.53297328948975 11.4551420211792 23.589822769165 10.2608480453491 15.5454139709473 10.9606618881226 15.1586074829102 12.0571002960205 12.0488338470459 8.65851593017578 32.6475563049316 19.2256832122803 15.8489942550659 13.7487926483154 12.3259592056274 10.725417137146 15.5431070327759 11.3663482666016 13.3659934997559 7.6927604675293 10.3201704025269 25.7051181793213 14.7666807174683 37.8750152587891 21.8390598297119 15.2910203933716 14.2451915740967 11.902551651001 11.1585140228271 10.902684211731 10.6162071228027 10.1039447784424 9.62289524078369 9.17050743103027 8.75100421905518 7.67318487167358 7.3164963722229 7.067138671875 6.80874633789062 6.77781581878662 6.57908630371094 6.40075874328613 6.24254369735718 7.00226020812988 7.48739147186279 7.29778909683228 7.09713554382324 6.90148115158081 6.70559358596802 6.54390287399292 6.161048412323 6.06239366531372 5.94839859008789 6.01656055450439 6.05038261413574 5.9370231628418 5.81717205047607 5.70002508163452 5.39281558990479 5.29020643234253 5.18409442901611 5.08998537063599 4.99885749816895 4.88726329803467 4.90165185928345 4.88947725296021 4.87493181228638 4.7814302444458 3.90121483802795 3.70589923858643 3.64534974098206 3.75749826431274 3.68615436553955 2.66899943351746 2.32434511184692 2.31183338165283 2.2731716632843 1.54904842376709 2.86468887329102 1.15052342414856 1.01782608032227 5.43987798690796 26.7252540588379 8.67472267150879 14.4586305618286 2.87025260925293 3.03767347335815 3.31702923774719 2.47263526916504 0.843444764614105 16.0872669219971 8.20259666442871 4.1560263633728 3.39407062530518 2.83475756645203 2.42556548118591 1.97596001625061 1.88312160968781 2.21628332138062 2.36490392684937 1.95529448986053 1.78690445423126 1.65379023551941 1.58498072624207 1.4471218585968 1.33813953399658 1.18388915061951 1.37614798545837 0.939979255199432 0.904054641723633 1.58493173122406 7.22495651245117 4.39133834838867 2.14694428443909 1.22711980342865 1.18281698226929 0.847036600112915 0.811294198036194 0.793216109275818 0.766304314136505 0.979650557041168 0.949812293052673 0.924631476402283 0.897761702537537 1.22034549713135 1.18355059623718 1.14393198490143 1.10736858844757
14.1129121780396 15.7448568344116 12.2700080871582 9.63077163696289 7.99377346038818 9.16120147705078 8.18200969696045 4.33957862854004 4.24466609954834 2.72586727142334 2.09393167495728 1.70729994773865 1.66474044322968 1.74605309963226 0.33138632774353 -0.53828889131546 -0.723324716091156 -1.39702594280243 10.3963994979858 1.48341464996338 -1.62823522090912 11.4022941589355 35.5322647094727 25.1181735992432 26.1075668334961 13.3776540756226 12.6952629089355 10.589259147644 6.87526226043701 7.82141017913818 8.4819164276123 25.7939033508301 16.6210956573486 12.7254581451416 9.1172981262207 3.92561960220337 2.0904278755188 1.22130787372589 5.70261335372925 3.09338879585266 0.779484748840332 17.4280033111572 22.5263595581055 16.1691436767578 28.1756706237793 19.5652160644531 14.8693065643311 10.2078056335449 8.54783821105957 15.3107957839966 10.3684492111206 8.15587139129639 8.48555088043213 7.2008900642395 24.0263385772705 23.8225173950195 10.1694498062134 9.67985820770264 12.2930469512939 9.82695579528809 8.92965888977051 8.81320762634277 7.60861968994141 21.3854522705078 7.67694473266602 7.3754448890686 15.8900995254517 25.9521865844727 19.7081394195557 23.9847927093506 18.9369525909424 15.7049217224121 13.0184803009033 11.1537036895752 9.99747753143311 10.4605751037598 9.91848373413086 9.44148254394531 9.02026844024658 8.61286449432373 8.58174324035645 8.34724140167236 8.06936931610107 7.79298305511475 7.53062868118286 6.535804271698 6.40566968917847 6.21830940246582 6.04177713394165 5.89105844497681 5.94802188873291 5.82346534729004 5.69844245910645 5.57749462127686 6.14190673828125 6.5476393699646 6.42323780059814 6.27014446258545 6.140380859375 6.02474069595337 5.88412141799927 5.54320859909058 5.44222021102905 5.51328086853027 5.53095436096191 5.42248201370239 5.31836271286011 5.21623182296753 5.1147255897522 4.85247278213501 4.77107954025269 4.63683843612671 4.54819488525391 4.45723867416382 4.17112588882446 3.39528894424438 3.14947891235352 2.95598888397217 2.68113875389099 2.63259196281433 2.29326939582825 2.07720637321472 2.05044388771057 2.12735080718994 2.09418892860413 1.19742572307587 1.17928862571716 1.15176391601562 9.72434997558594 11.0180015563965 1.8133453130722 20.0264415740967 14.6943988800049 3.83188080787659 3.03068804740906 1.52396428585052 10.5385494232178 5.34276151657104 5.30352640151978 4.05780076980591 3.23250412940979 2.70465755462646 2.33438372612 1.83480060100555 1.60517477989197 1.46775496006012 1.41575574874878 1.29572021961212 1.41930365562439 1.49083411693573 1.33472299575806 1.24996900558472 1.11459362506866 1.07592606544495 1.05946898460388 1.01675736904144 0.401674628257751 6.95186853408813 4.07486963272095 0.811208963394165 0.7909916639328 8.24011325836182 4.14700889587402 1.27919673919678 0.985821962356567 0.61370462179184 11.4762086868286 5.74549531936646 0.690895915031433 0.664709687232971 0.641632616519928 0.831490993499756 0.801948845386505 0.768003940582275
14.1994895935059 11.2636680603027 9.27037811279297 7.55535221099854 7.01763486862183 6.64770603179932 6.59627437591553 6.24815511703491 4.25166034698486 3.02848362922668 2.07503890991211 1.09668576717377 14.1827144622803 0.548468708992004 -0.177170649170876 2.14463901519775 -0.831057369709015 -0.924792170524597 -0.812930703163147 -1.49773383140564 8.62955379486084 15.0077743530273 15.544713973999 31.4280166625977 24.1874141693115 13.2018051147461 13.9412021636963 10.3998222351074 11.5512847900391 9.18438625335693 21.9459228515625 16.4555816650391 6.55396413803101 6.73701429367065 4.85753059387207 3.88161540031433 2.35347580909729 6.48128461837769 1.4362518787384 6.34357357025146 5.20251417160034 38.0913848876953 17.9250240325928 23.916482925415 25.3389835357666 20.3438243865967 13.1323766708374 12.5162496566772 10.3789100646973 7.20731830596924 24.9319686889648 11.4952020645142 14.9056329727173 7.53949880599976 6.43254947662354 6.42575311660767 17.8460540771484 13.235668182373 6.98857927322388 6.45913410186768 21.5594043731689 17.4263858795166 8.99538516998291 25.7167453765869 7.336510181427 10.8359422683716 15.017689704895 13.7788429260254 31.620922088623 19.2697811126709 15.1824083328247 12.674934387207 10.8484497070312 10.5610656738281 9.62820053100586 9.36856555938721 8.86742782592773 8.41476154327393 8.0316858291626 7.6888747215271 8.19918441772461 7.89536714553833 7.6562557220459 7.41385459899902 7.47408056259155 7.29160737991333 7.07112264633179 6.86679744720459 6.67676115036011 6.49447107315063 5.69620609283447 5.5893669128418 5.46483278274536 5.35986280441284 5.25989055633545 5.33341598510742 5.22186708450317 5.11360454559326 5.01788997650146 5.47209310531616 5.81772184371948 5.71470355987549 5.60935258865356 5.51151752471924 5.36956739425659 5.07857942581177 4.98458051681519 4.89199018478394 4.96247911453247 4.9662823677063 4.88097190856934 4.41352558135986 4.28361654281616 4.21705055236816 4.02192640304565 3.03583216667175 3.19404697418213 3.13467812538147 2.09728646278381 2.06364417076111 1.92068588733673 2.20942854881287 2.16259837150574 1.7371119260788 1.19342565536499 1.16692388057709 1.14169216156006 1.1161812543869 1.07985007762909 1.05965518951416 0.551601052284241 0.350539475679398 20.5913906097412 10.4474544525146 9.61815071105957 5.82696056365967 4.89763402938843 4.23064470291138 3.2457389831543 2.58245229721069 2.04811882972717 1.69016945362091 1.70874392986298 2.00876450538635 1.75419914722443 1.56285297870636 1.524041056633 1.28107786178589 1.21207714080811 1.10646867752075 1.10458970069885 0.992684960365295 0.992654979228973 0.964254379272461 0.985099077224731 0.93517529964447 0.904814839363098 0.87371027469635 0.842076480388641 1.73195469379425 1.4150322675705 1.12349987030029 2.30447006225586 2.17337131500244 1.72056996822357 0.276493638753891 4.97793674468994 1.61940944194794 10.5751638412476 8.66387176513672 3.33166432380676 1.83794033527374 1.52676033973694 0.552426695823669
10.4590740203857 8.50454998016357 8.014723777771 7.38135957717896 6.90358972549438 6.37860774993896 5.98347091674805 6.03022861480713 3.54195475578308 1.57438063621521 5.2917218208313 1.94901442527771 0.870907485485077 4.86329889297485 0.533363819122314 0.159639194607735 -0.914412260055542 -1.60523569583893 0.0501827523112297 -1.16716885566711 4.98573732376099 9.1762113571167 33.6035842895508 20.5152149200439 17.760555267334 7.98663187026978 17.5032634735107 14.7272291183472 10.2580213546753 27.2686862945557 11.7770433425903 8.87687587738037 8.7571439743042 6.82146692276001 5.4459924697876 4.2360668182373 3.58965229988098 1.72318255901337 4.37045288085938 5.38518142700195 6.81103801727295 10.2203359603882 11.6980962753296 26.2644214630127 22.4299907684326 13.4539670944214 11.5929708480835 7.38308382034302 7.21958875656128 22.579833984375 14.0353536605835 8.15360641479492 7.09893989562988 11.977611541748 6.28454542160034 24.8134326934814 10.4526290893555 31.2566356658936 22.0395050048828 13.4078025817871 15.7967090606689 21.1252593994141 23.1917591094971 19.2951812744141 12.2972860336304 9.68833541870117 20.3209114074707 17.878791809082 19.7180862426758 15.4788646697998 12.6123676300049 10.4744825363159 9.75149250030518 9.26403427124023 8.18457126617432 7.35670471191406 7.61373710632324 7.37745141983032 7.15291166305542 6.96757888793945 7.35191202163696 7.07053375244141 6.8600902557373 6.64337682723999 7.15613031387329 6.92742347717285 6.71567630767822 6.53114604949951 6.3596134185791 6.45461130142212 6.29335021972656 6.13636827468872 6.00459241867065 5.87706089019775 5.72742605209351 5.05985641479492 4.9618935585022 4.86407232284546 4.76995754241943 4.86713171005249 4.80129671096802 4.73204040527344 4.66598129272461 5.04161596298218 5.33727312088013 5.23976230621338 5.13949489593506 5.04365539550781 4.95100164413452 4.80416822433472 4.57861518859863 4.35047340393066 3.51268219947815 3.50342297554016 3.44727182388306 2.81228733062744 1.96706533432007 1.9932609796524 1.95556282997131 1.74615502357483 1.71320247650146 1.74274158477783 1.71005046367645 1.16210246086121 1.1308012008667 1.12485027313232 1.09087455272675 1.03724551200867 0.991221725940704 0.991125524044037 1.62325179576874 3.19268727302551 0.433723449707031 4.38653802871704 18.7767181396484 9.68194198608398 6.03679323196411 5.09067630767822 4.33029508590698 3.24866056442261 2.92344188690186 2.65613698959351 2.28703570365906 1.95974957942963 1.32122075557709 1.25545990467072 1.21838426589966 1.3036390542984 1.2172224521637 1.2124354839325 1.05473363399506 0.976732611656189 0.9073486328125 0.907014429569244 0.850258946418762 0.806066632270813 0.749897599220276 0.72821456193924 0.7415811419487 0.789247214794159 -0.166733145713806 9.47617244720459 8.09913158416748 3.40023183822632 0.108179107308388 0.0964404866099358 0.0751202180981636 0.234641194343567 2.13208889961243 13.8727426528931 6.96120166778564 4.08338642120361 3.23079657554626 2.65296483039856
9.78818321228027 9.20315933227539 8.74655628204346 8.10455417633057 7.55480146408081 6.52494764328003 6.20238828659058 5.84047508239746 3.92389273643494 2.34183073043823 1.70033049583435 1.09156107902527 0.425387263298035 13.578896522522 3.95769071578979 0.18656812608242 -0.442307740449905 -1.28273546695709 14.8740739822388 18.8567237854004 7.32483386993408 7.60825443267822 30.359468460083 18.3240432739258 19.0415821075439 11.212420463562 5.15330410003662 30.8407917022705 8.18184661865234 30.7395153045654 16.6745491027832 7.15460109710693 8.82105731964111 7.7391300201416 2.84720301628113 22.2459106445312 16.4361915588379 3.1002824306488 7.65569639205933 2.80884718894958 7.97007846832275 9.52977466583252 21.5959320068359 13.6078882217407 11.7341375350952 25.6334915161133 8.35017585754395 6.17461967468262 3.33076691627502 8.76601314544678 17.1041984558105 29.7022476196289 22.8878688812256 8.43802928924561 7.23904848098755 10.6764688491821 10.4275484085083 7.65698432922363 35.4311637878418 28.9918899536133 17.5140209197998 15.2529067993164 10.9910106658936 19.7431221008301 8.77889156341553 8.90920639038086 26.9099903106689 15.3886547088623 16.4106578826904 12.5582275390625 10.0039949417114 8.11982250213623 8.1699686050415 7.27518177032471 7.48519992828369 7.23915815353394 7.00562620162964 6.78611660003662 6.62476825714111 6.49007368087769 6.3527135848999 6.64177560806274 6.49960708618164 6.35862302780151 6.40075349807739 6.19014406204224 5.99818658828735 5.82838773727417 5.67719411849976 6.15319013595581 5.99286222457886 5.84527921676636 5.71292304992676 5.55651998519897 5.66142511367798 5.54285097122192 5.42395782470703 5.32329177856445 5.20549964904785 4.61978960037231 4.55535173416138 4.48579931259155 4.42453765869141 4.36639499664307 4.46222591400146 4.39783763885498 4.22788524627686 4.15757703781128 4.54617881774902 4.79873037338257 4.71984481811523 4.59417390823364 3.59573435783386 3.07133865356445 2.59036898612976 1.9620064496994 1.83190035820007 1.79678189754486 1.78724992275238 1.7552033662796 1.51588261127472 1.17419278621674 1.13569319248199 1.11251258850098 1.08248174190521 1.06881368160248 1.01718664169312 0.939617931842804 0.877299726009369 0.852090835571289 2.15564179420471 3.42381310462952 3.61575269699097 0.453199446201324 19.4007987976074 9.81681346893311 6.15026521682739 4.74658489227295 3.92618203163147 3.75252437591553 3.3715238571167 3.04007172584534 2.76654863357544 2.22460508346558 2.07895636558533 1.97702038288116 1.80842435359955 1.75786793231964 1.50299024581909 1.02367985248566 0.97364330291748 0.949556767940521 0.921029567718506 0.850939571857452 0.820285975933075 0.80633944272995 0.792705774307251 0.761001706123352 0.730651259422302 0.676927030086517 0.429817795753479 0.0011157396947965 11.6553869247437 6.63552188873291 1.0315728187561 -0.152459487318993 13.1602907180786 -0.4688640832901 34.3036880493164 18.6694011688232 4.86863708496094 4.18362283706665 3.23048710823059 2.5964183807373
8.471022605896 7.63434886932373 7.70980882644653 7.2889199256897 6.86490869522095 7.14762735366821 6.78790712356567 6.44083070755005 5.0482063293457 2.86198282241821 2.4153778553009 0.675203323364258 0.0597172230482101 -0.12093210965395 -0.363340377807617 16.2690277099609 8.87554931640625 -1.08194434642792 -1.5552419424057 21.1720237731934 23.2248840332031 14.6806221008301 11.0208492279053 13.4978189468384 11.2301034927368 6.19080877304077 5.41435241699219 23.8338394165039 15.9748668670654 17.1622200012207 13.770622253418 10.0333337783813 7.57454252243042 5.96748971939087 4.84759950637817 4.20984411239624 3.31089067459106 12.727367401123 6.41559314727783 3.38968372344971 6.06219387054443 13.5981502532959 12.3229131698608 16.3531837463379 15.8607997894287 11.7504444122314 6.67542886734009 3.45388531684875 3.14430236816406 2.63670349121094 15.8779401779175 13.6897268295288 31.0360221862793 10.8756914138794 35.3229942321777 22.2127056121826 10.6362171173096 21.4467296600342 18.4589462280273 22.75954246521 23.9205989837646 13.9974317550659 11.3795890808105 11.7774753570557 29.43869972229 16.7407131195068 10.8292922973633 8.70040416717529 7.90658330917358 6.53343725204468 25.2137889862061 12.0235376358032 8.02352142333984 7.32427263259888 6.78608798980713 6.76251840591431 6.54802513122559 6.34088516235352 6.18526554107666 6.30065298080444 6.25403451919556 6.12120771408081 5.99322271347046 5.94613170623779 5.82674932479858 6.062584400177 5.92340135574341 5.79841232299805 5.68828201293945 5.59146165847778 5.35148000717163 5.22989749908447 5.12088060379028 5.01418924331665 5.36298704147339 5.23995447158813 5.12940835952759 5.02828979492188 5.15031671524048 5.06134796142578 4.98583269119263 4.90036678314209 4.82664060592651 4.7243480682373 4.22657823562622 4.16731977462769 4.08699369430542 3.97751307487488 3.66518402099609 3.48319554328918 3.46825551986694 3.42496347427368 3.33080983161926 2.73007130622864 2.01772284507751 1.81781089305878 1.52445900440216 1.74292540550232 1.72517132759094 1.68775033950806 1.10000932216644 1.09831261634827 1.07370233535767 1.04489612579346 1.03528499603271 0.994150817394257 0.952487707138062 0.887467801570892 0.823450863361359 0.781165599822998 1.10896122455597 2.23880672454834 4.2275071144104 4.12565183639526 2.96912741661072 1.74129390716553 6.16199684143066 4.84180164337158 3.89437890052795 3.30155038833618 2.91003131866455 2.61075949668884 2.39977884292603 2.5306441783905 2.34437346458435 2.20302367210388 2.0242600440979 1.88164639472961 1.6358345746994 1.56920635700226 1.51870727539062 1.46025288105011 1.24126482009888 0.85748165845871 0.831310749053955 0.806299328804016 0.770458161830902 0.718472480773926 0.694599330425262 1.18942952156067 0.555885136127472 0.0194185525178909 13.3107805252075 4.58146381378174 5.66250705718994 2.34587335586548 -0.672334134578705 35.5162124633789 21.1821575164795 5.62457275390625 12.444896697998 9.40857791900635 7.57201194763184 6.4940071105957
7.93189668655396 7.51670694351196 7.24875450134277 6.78456735610962 6.34388017654419 5.61752986907959 6.08536958694458 5.98051023483276 5.71023845672607 4.57037448883057 1.75784432888031 1.26559782028198 0.361469924449921 0.292833983898163 -0.962701737880707 36.8186111450195 10.0108852386475 -0.924678206443787 -1.38332307338715 2.90656900405884 15.1981019973755 24.7511653900146 12.2631034851074 30.0252113342285 7.95154094696045 7.80164766311646 4.05294132232666 25.8300151824951 21.4241504669189 14.3445129394531 10.6724452972412 9.15164852142334 5.32893466949463 4.23572206497192 3.391352891922 6.95417833328247 4.19108247756958 2.82016587257385 2.32699394226074 2.16891479492188 6.19359445571899 19.9113273620605 15.365611076355 14.234338760376 12.0696830749512 4.70540523529053 2.83518695831299 2.49837636947632 2.15563011169434 3.53527688980103 2.30618596076965 13.7312631607056 32.2177963256836 22.0572643280029 33.6582527160645 20.979866027832 11.6859674453735 28.6110305786133 20.3743553161621 18.3625965118408 12.7899198532104 8.70762825012207 41.5970726013184 24.8523063659668 14.8461256027222 7.43218374252319 6.62959718704224 13.8605241775513 8.64247035980225 5.89219903945923 36.765495300293 21.7504539489746 7.31562852859497 6.28314971923828 6.06974267959595 5.96158504486084 6.10956382751465 6.02509927749634 5.85627794265747 5.71271848678589 5.83576154708862 5.70911550521851 5.65498638153076 5.76729440689087 5.71259689331055 5.5968074798584 5.47300434112549 5.34861516952515 5.34019899368286 5.25346088409424 5.45702838897705 5.35567426681519 5.08376026153564 4.86284828186035 4.87047672271729 4.77016162872314 4.54280138015747 4.46275329589844 4.86399078369141 4.78631591796875 4.71111917495728 4.62467288970947 4.54719972610474 4.66808891296387 4.60583353042603 4.50187158584595 3.81967449188232 3.65151262283325 3.44478893280029 3.50705170631409 3.46732068061829 3.3074312210083 3.18802237510681 2.41621685028076 2.27076244354248 2.24586081504822 1.74178767204285 1.70562565326691 1.02817177772522 1.00209724903107 1.00089263916016 0.991742312908173 0.976066708564758 0.949957966804504 0.962028026580811 0.9449542760849 0.901440441608429 0.860884130001068 0.794006824493408 0.757237553596497 0.723027050495148 0.716910302639008 3.25954723358154 4.80562210083008 4.31220722198486 2.90696573257446 2.07935404777527 1.74684202671051 1.37308740615845 1.01516890525818 0.953691363334656 2.46337461471558 2.2605254650116 2.06703925132751 1.97559368610382 1.84661602973938 1.70445609092712 1.60584402084351 1.79732918739319 1.69156157970428 1.60094428062439 1.52634692192078 1.45999228954315 1.34029531478882 1.29055118560791 1.24883592128754 1.2042989730835 1.01816868782043 0.721630752086639 0.686801075935364 1.54746747016907 0.631076514720917 0.278526067733765 5.0980749130249 4.65041971206665 2.7088029384613 4.85557889938354 4.70539283752441 2.7991828918457 13.5083284378052 10.4795541763306 8.64591407775879 7.26525735855103 6.16982173919678
7.73708057403564 6.90758943557739 6.55052423477173 5.89599514007568 5.39630460739136 5.99319124221802 5.67041969299316 5.37570238113403 5.09132480621338 4.19706153869629 2.9360945224762 1.88371181488037 1.10420000553131 0.611513018608093 -0.157656833529472 7.27251720428467 5.04175662994385 10.6380205154419 0.0277865435928106 9.90177631378174 6.15973520278931 14.2147655487061 31.8533039093018 10.2879009246826 19.06955909729 7.68035650253296 6.72633409500122 21.6770496368408 11.6461277008057 11.9925661087036 10.4501438140869 8.36378002166748 7.10525465011597 4.63694429397583 10.1059350967407 2.93300771713257 4.60470008850098 1.69121289253235 4.51421022415161 16.5677433013916 10.5565023422241 12.9366388320923 17.9239349365234 13.7594547271729 12.509464263916 5.38400268554688 3.44238710403442 2.48507499694824 2.31307935714722 3.55215644836426 1.85533726215363 42.4238128662109 25.4163246154785 33.9465789794922 25.5347080230713 20.6654930114746 16.2646923065186 15.1715402603149 13.6160440444946 31.336555480957 21.2927112579346 16.4298305511475 14.2519149780273 9.73803329467773 7.80796051025391 47.2138824462891 6.80300951004028 16.2182998657227 11.8764495849609 29.7118835449219 14.9226016998291 10.4271860122681 13.7435245513916 9.87253379821777 7.51327610015869 6.10771989822388 5.70065498352051 5.55224800109863 5.40883016586304 5.34032154083252 5.49609327316284 5.4635591506958 5.36222648620605 5.26198673248291 5.33520460128784 5.21563959121704 5.10825443267822 5.07858896255493 5.16670560836792 5.12035179138184 5.02312612533569 4.8851752281189 4.7605619430542 4.66595935821533 4.47533512115479 4.30004978179932 4.18169975280762 3.74028062820435 4.31828689575195 4.24189472198486 4.1707706451416 4.09708499908447 4.02670860290527 4.400071144104 4.33533763885498 4.02376794815063 3.86589455604553 3.57561683654785 3.32357001304626 2.75387620925903 2.8091082572937 2.77993941307068 2.36407589912415 2.24852466583252 2.22682929039001 2.11085247993469 1.99517893791199 0.964122712612152 0.906403422355652 1.06286036968231 0.890016436576843 0.883474171161652 0.869124233722687 0.871609508991241 0.871665477752686 0.871637463569641 0.833479344844818 0.801470458507538 0.760264992713928 0.734583616256714 0.712204098701477 0.692384541034698 1.35579895973206 3.51590061187744 4.12873697280884 3.7914674282074 2.73830223083496 2.3009614944458 1.96759033203125 1.51970195770264 1.2234513759613 1.12398278713226 1.14386367797852 0.837283968925476 0.770103275775909 1.70490455627441 1.58668553829193 1.4786616563797 1.37591564655304 1.41571128368378 1.33449971675873 1.26867651939392 1.19551610946655 1.38890612125397 1.3284900188446 1.26134252548218 1.20736563205719 1.16880643367767 1.11977779865265 0.499900162220001 12.8422527313232 10.1428461074829 2.47649836540222 0.0697106122970581 3.78673458099365 13.3282928466797 8.9704418182373 2.12409782409668 2.92481064796448 2.54618191719055 2.29455471038818 2.06610560417175 1.86104595661163 1.55148100852966
6.98815441131592 6.51573133468628 6.16054582595825 5.58852815628052 4.65948677062988 4.9537525177002 4.60880136489868 4.27950477600098 3.97311758995056 3.70627284049988 3.6513409614563 1.29375874996185 0.355283617973328 9.40602111816406 -0.486730992794037 0.253352791070938 4.91645812988281 5.10465335845947 1.29108119010925 -0.0702503174543381 -0.107832819223404 28.5340518951416 14.0260753631592 6.26317167282104 1.53695476055145 11.7331228256226 21.5486965179443 10.6526031494141 7.90125560760498 10.3484354019165 9.62576961517334 5.22702169418335 15.6150798797607 4.67943429946899 6.38153076171875 3.67204880714417 3.13429713249207 3.0294816493988 2.03607749938965 11.6586837768555 12.2716598510742 16.810962677002 13.9586992263794 7.35644102096558 12.5735054016113 2.71297931671143 2.27882671356201 2.12208867073059 11.4012651443481 1.78741097450256 10.2923851013184 27.7960147857666 24.4192600250244 28.9175968170166 24.0008201599121 13.7417621612549 30.1236209869385 28.2661285400391 18.0522785186768 13.4727573394775 37.52490234375 22.8110313415527 10.5674629211426 8.89353466033936 8.09622001647949 7.63997745513916 45.4078788757324 26.8674392700195 6.53240442276001 9.18919658660889 25.6876411437988 20.0695381164551 7.95959997177124 6.71127796173096 6.44562530517578 6.21624755859375 5.73496103286743 5.57590007781982 5.43221235275269 5.29451656341553 5.14079475402832 5.04767227172852 4.9618182182312 4.87656831741333 4.84992408752441 4.97455263137817 4.92203330993652 4.82793855667114 4.62788057327271 4.75905704498291 4.65776824951172 4.32865333557129 4.13846683502197 3.95069050788879 3.93223571777344 3.83857583999634 3.74805617332458 3.67771148681641 3.62150573730469 3.18539547920227 3.50452423095703 3.45389533042908 3.33966422080994 3.89870595932007 3.83575391769409 3.40319180488586 3.25318884849548 3.18107032775879 2.82680320739746 2.779860496521 2.50965547561646 2.47455096244812 2.17516279220581 2.25251770019531 2.23592066764832 2.08938837051392 1.9073760509491 1.88141083717346 0.823922157287598 0.798756718635559 0.981088101863861 0.793342709541321 0.791611552238464 1.01442301273346 0.869129538536072 0.785381555557251 0.766572535037994 0.758030414581299 0.732050955295563 0.704808115959167 0.681460022926331 0.663865745067596 0.950265407562256 1.82232177257538 3.3660147190094 3.4603590965271 3.12777972221375 2.531977891922 2.13310742378235 1.80243027210236 1.50303769111633 1.37549185752869 1.35128426551819 1.05565643310547 0.961444199085236 0.9025599360466 0.839898288249969 0.693570911884308 0.609830439090729 0.580079913139343 1.21226000785828 1.14399480819702 1.08072304725647 1.01913690567017 1.07628381252289 1.02293825149536 0.982051968574524 1.15140068531036 1.08867609500885 0.374987691640854 0.34361806511879 7.15974760055542 13.4629163742065 4.76828622817993 2.60810232162476 0.629376888275146 15.876916885376 7.80357885360718 4.41750001907349 3.70279407501221 3.1812572479248 2.65195441246033 1.21497476100922 1.72328913211823
4.30979108810425 4.18542718887329 4.11177539825439 4.26843309402466 5.16098308563232 4.81951379776001 4.50074529647827 4.21582508087158 3.94366526603699 3.40340971946716 3.04553818702698 1.20632028579712 -0.00438658380880952 7.1801905632019 0.277205049991608 4.52338981628418 0.189541280269623 4.58494997024536 5.2446084022522 2.78606605529785 3.51759791374207 7.54000568389893 13.2195224761963 8.06034851074219 3.90557026863098 5.78449583053589 12.3636093139648 16.1373138427734 11.5449619293213 7.06174993515015 18.4227523803711 5.72770833969116 3.75408840179443 3.39419412612915 23.1113224029541 3.9954092502594 5.53550863265991 3.81209373474121 3.79105877876282 4.74081897735596 11.5560216903687 15.23499584198 11.8185272216797 8.36086559295654 5.83341932296753 3.19495463371277 1.61786913871765 11.7588186264038 1.36410129070282 1.29944396018982 24.2545490264893 11.9718780517578 17.972110748291 38.0512199401855 19.5303440093994 14.8465595245361 35.2012710571289 22.9773063659668 25.1004695892334 21.804220199585 19.3774852752686 11.5796546936035 10.1162185668945 14.090633392334 10.1569910049438 34.6770095825195 7.1063027381897 8.20226383209229 47.1014938354492 6.36436986923218 24.8862342834473 23.3299465179443 12.1836423873901 8.87550258636475 6.95447301864624 5.91144847869873 6.01980304718018 5.84113121032715 5.68458843231201 5.54495429992676 5.15307188034058 5.04720401763916 4.96251630783081 4.87728881835938 4.78526926040649 4.67004871368408 4.45371055603027 4.33488273620605 4.24762678146362 4.07792615890503 3.98021912574768 3.86268258094788 3.78911733627319 3.59917998313904 3.59362196922302 3.51993322372437 3.09850573539734 3.10169124603271 3.04976344108582 3.50280714035034 3.44210052490234 2.74662852287292 2.81963062286377 2.7811393737793 2.86554765701294 2.82944059371948 2.84372186660767 2.8145227432251 2.31633496284485 2.29386711120605 2.32319211959839 2.28553891181946 2.1383535861969 1.8217248916626 1.48645889759064 1.67047762870789 1.99273705482483 1.89038145542145 1.55290710926056 0.863256931304932 0.736864149570465 0.720979392528534 0.709225416183472 0.920698523521423 1.12346315383911 0.76542741060257 0.719144403934479 0.719995021820068 0.695667207241058 0.667086780071259 0.638440549373627 0.628714680671692 0.87068647146225 1.33450055122375 2.08908438682556 3.28281688690186 3.55824995040894 2.69220542907715 2.15201187133789 1.82007765769958 1.57857620716095 1.41989719867706 1.34470224380493 1.25995171070099 1.12620103359222 1.05449187755585 0.986158132553101 0.926322817802429 0.750088393688202 0.712418019771576 0.67959076166153 0.630000233650208 0.520770072937012 0.461074948310852 0.437897205352783 0.904256105422974 0.860633432865143 0.815987586975098 0.725415229797363 0.146474331617355 0.105266347527504 7.30688190460205 4.43423223495483 -0.259839534759521 10.5687246322632 8.48039817810059 20.7161540985107 10.5249938964844 5.13307285308838 4.07530927658081 3.35180854797363 2.852623462677 2.44175601005554 2.20487833023071
5.65884637832642 5.30638360977173 5.11672878265381 4.72302579879761 3.60100507736206 3.43383646011353 3.28579354286194 3.14545345306396 2.98238849639893 3.72281408309937 3.50849223136902 2.03591370582581 0.768981754779816 10.7321529388428 0.312504500150681 2.61005520820618 -0.196834295988083 -0.627900123596191 0.776670634746552 -0.426685780286789 8.94183444976807 4.37445640563965 5.79666757583618 15.867639541626 10.7035188674927 3.61483669281006 7.75906896591187 14.12855052948 8.28556728363037 5.72827768325806 8.08790016174316 4.30579948425293 3.30678153038025 6.55449914932251 2.41641664505005 3.43473029136658 17.1821517944336 6.34076976776123 8.23390197753906 6.13603639602661 8.45010948181152 4.75111150741577 4.87494850158691 12.3476676940918 4.55502557754517 2.99367165565491 1.99614238739014 1.68786263465881 1.71021938323975 11.9881887435913 9.23745632171631 13.8935861587524 17.4701118469238 24.5955772399902 25.0835418701172 13.3881959915161 42.4267120361328 28.4059066772461 20.299337387085 17.0206336975098 9.69182205200195 10.5054578781128 10.1765127182007 46.4089202880859 27.6421356201172 8.7577600479126 8.0724573135376 7.03750562667847 6.88076066970825 45.5609474182129 6.14347124099731 45.4131240844727 25.0959396362305 10.314582824707 8.02247905731201 6.32674360275269 6.05783319473267 5.81788349151611 5.60819101333618 5.32233762741089 5.39334583282471 5.27121496200562 5.18004274368286 5.09455060958862 4.9943060874939 4.6635046005249 4.56447792053223 4.28929615020752 4.198166847229 3.88411998748779 3.63384056091309 3.5422694683075 3.43513083457947 3.29743766784668 3.22037839889526 3.15310049057007 3.09293603897095 3.02800869941711 2.66322708129883 2.43444585800171 2.82218623161316 2.77807712554932 2.39946293830872 2.36752438545227 2.3192126750946 2.28025388717651 2.24669241905212 1.99784517288208 2.04970765113831 2.02254819869995 2.16921782493591 2.13485026359558 2.01231026649475 1.44389235973358 1.40960276126862 1.17031311988831 1.68393528461456 2.07009410858154 2.13056921958923 1.88920104503632 0.793982207775116 0.668798208236694 0.629069864749908 1.71188712120056 1.11050426959991 0.851456999778748 1.07889211177826 0.671822190284729 0.649049878120422 0.618088126182556 0.588642060756683 0.564987540245056 0.638568937778473 1.5772385597229 1.91396737098694 3.33353233337402 3.3937714099884 2.87310576438904 2.14975094795227 1.88434195518494 1.62346756458282 1.38682091236115 1.34141910076141 1.24563050270081 1.14500868320465 1.07008576393127 1.00200867652893 0.937228083610535 0.858944058418274 0.810993850231171 0.769951581954956 0.730434238910675 0.689792335033417 0.583845019340515 0.559691190719604 0.513233602046967 0.418278783559799 0.373645722866058 0.359110057353973 0.277704268693924 7.41171169281006 0.18145714700222 7.73886871337891 7.44381427764893 -0.484564602375031 8.54686641693115 14.3658227920532 15.4673080444336 8.08228492736816 6.43225574493408 5.57335042953491 4.09615802764893 3.19896340370178 2.0378360748291
6.80772495269775 6.42797708511353 6.13747596740723 5.60818338394165 5.29676198959351 4.269287109375 4.07906150817871 3.90186762809753 3.7095639705658 2.86209607124329 2.73618865013123 1.28189635276794 0.355484336614609 15.3228750228882 0.227501675486565 -0.167240530252457 0.127933889627457 -0.485297590494156 -0.764890432357788 4.85822105407715 2.16398143768311 2.6453754901886 7.94643497467041 13.8085508346558 11.4243583679199 6.04705810546875 8.0559253692627 5.52408123016357 9.70355796813965 9.27740478515625 18.5710315704346 13.0360221862793 2.56481051445007 1.73036980628967 1.3606550693512 10.8482303619385 23.5652275085449 9.52566623687744 10.3700561523438 7.34393405914307 7.26165866851807 5.85782289505005 5.48742580413818 5.56935834884644 5.46646881103516 3.68974423408508 3.26080989837646 2.8840639591217 8.08755207061768 8.15701007843018 10.9263515472412 25.7093887329102 13.3676881790161 13.3110542297363 14.4989995956421 23.4996471405029 13.0042686462402 35.5139312744141 22.7590465545654 9.59600448608398 24.0743713378906 38.5388107299805 21.5171794891357 8.99945259094238 7.18549299240112 6.86647987365723 6.572998046875 7.30251407623291 7.2239933013916 5.8042631149292 51.8794898986816 23.6489582061768 17.2607116699219 15.7564468383789 11.8810091018677 9.45679187774658 7.51870536804199 6.28645515441895 5.59486389160156 5.41812419891357 5.24871397018433 5.09098148345947 4.9670205116272 4.85909795761108 4.62741279602051 4.8530969619751 4.75287103652954 4.3639497756958 3.84991145133972 3.63199687004089 3.45841288566589 3.36456894874573 3.28648233413696 3.20742440223694 3.00808453559875 2.7898280620575 2.73416066169739 2.68343377113342 2.91668486595154 2.85755157470703 2.50072312355042 2.46439909934998 2.42597603797913 2.38810014724731 1.94289648532867 1.91356539726257 1.82290244102478 2.15677642822266 2.12813091278076 1.86778390407562 1.83992910385132 1.81230628490448 1.46855163574219 0.889619469642639 1.05412077903748 1.46326839923859 1.80235660076141 1.80489492416382 2.05540084838867 1.89092040061951 1.21923005580902 0.799921572208405 1.8091527223587 1.24917340278625 0.58149254322052 0.652009010314941 1.2174209356308 0.853655815124512 0.585096895694733 0.5594881772995 0.53257954120636 0.493605047464371 0.829086124897003 1.63251972198486 2.3894259929657 3.11157202720642 3.46298599243164 2.95721316337585 2.26545572280884 1.86309969425201 1.73240303993225 1.48260271549225 1.33906018733978 1.23586761951447 1.11730074882507 1.03274500370026 0.96912544965744 0.903523027896881 0.872802078723907 0.824830591678619 0.785911381244659 0.742274880409241 0.691989541053772 0.59969162940979 0.69338059425354 0.591914892196655 0.558922946453094 0.474623084068298 0.462197184562683 0.44184210896492 0.228104636073112 0.158212170004845 -0.33085024356842 -0.354729801416397 22.6497707366943 11.7288227081299 0.172392770648003 7.59809970855713 11.8579912185669 7.68483018875122 6.50501298904419 5.59857559204102 4.386803150177 3.85691618919373
8.15411853790283 7.17822551727295 6.15882205963135 3.97959566116333 3.71938109397888 5.02294254302979 4.78063440322876 4.55333662033081 4.33313131332397 4.1347393989563 3.41824960708618 3.28845119476318 2.56616640090942 0.809200525283813 0.490299135446548 2.72432971000671 0.0847767814993858 -0.509730339050293 -0.953027665615082 7.71004581451416 0.0411200821399689 15.3833656311035 12.5824346542358 12.4160623550415 16.3117713928223 16.3463973999023 13.3200664520264 9.40283298492432 9.19799995422363 21.3290271759033 13.6051692962646 9.92168712615967 5.9761266708374 2.44427013397217 2.36305785179138 5.54223680496216 9.15098857879639 20.8044490814209 7.78521537780762 7.45989799499512 4.17937707901001 15.5641775131226 8.91506481170654 6.38602733612061 5.77258014678955 3.9710590839386 5.16833972930908 3.37591814994812 5.7174072265625 20.2643909454346 16.716724395752 15.7814922332764 14.8632936477661 12.5742902755737 5.89566898345947 50.1656341552734 32.4443511962891 9.96152210235596 16.5545883178711 35.4781150817871 19.4348011016846 10.3535623550415 7.96405410766602 10.7773580551147 11.274676322937 8.08557319641113 7.73705720901489 7.5128698348999 6.71222305297852 5.59122705459595 5.25298881530762 4.7238941192627 47.8800926208496 27.5979080200195 12.4751796722412 10.3999814987183 8.8213529586792 6.1929612159729 5.93648672103882 5.71638631820679 5.50576305389404 5.04602861404419 4.90334558486938 4.76823282241821 4.67469263076782 4.55584001541138 4.43749094009399 4.32562446594238 4.08683061599731 3.82020974159241 3.71674156188965 3.6330463886261 3.55121612548828 3.01036381721497 3.08820843696594 3.02591514587402 2.77414965629578 2.72721219062805 2.67779660224915 2.53054070472717 2.4781334400177 2.35673069953918 1.98781609535217 2.20822668075562 2.28158497810364 2.24946236610413 1.78043341636658 1.51389718055725 1.42414772510529 1.50252985954285 1.4850926399231 1.35468482971191 1.02931213378906 0.856321334838867 0.721735239028931 1.34484946727753 1.97809708118439 2.26723098754883 2.15989112854004 1.69769287109375 1.24025738239288 1.00901913642883 0.890131771564484 1.64171922206879 1.26633620262146 0.812437534332275 0.780137002468109 0.533246040344238 0.500901222229004 0.480588495731354 0.460213512182236 0.447110652923584 0.428424865007401 1.32366001605988 2.97479486465454 3.01588201522827 2.99152421951294 2.93953585624695 2.24101185798645 2.03461122512817 1.9328396320343 1.63368856906891 1.43304538726807 1.32194232940674 1.19176125526428 1.03355777263641 0.964991509914398 0.896478950977325 0.846361696720123 0.792802393436432 0.751703441143036 0.712158203125 0.646501779556274 0.589316546916962 0.670120298862457 0.626433134078979 0.556032538414001 0.529163897037506 0.507472574710846 0.48373556137085 0.462917983531952 0.439530700445175 0.248997703194618 0.238827139139175 -0.0263627860695124 1.74188709259033 4.91580486297607 6.18274450302124 2.22915601730347 12.012414932251 5.99551153182983 3.68363738059998 4.7814998626709 4.26098585128784
3.08815121650696 2.96804594993591 2.81105542182922 5.23722457885742 4.73316526412964 4.32044649124146 3.95955371856689 3.1498749256134 2.99845933914185 2.84557509422302 3.9748387336731 3.81549119949341 3.52550292015076 2.80442190170288 0.949430167675018 10.8911428451538 0.694899320602417 1.533371925354 -0.0726911202073097 3.80777716636658 4.45395040512085 11.7074203491211 4.88036251068115 29.2094745635986 16.300142288208 11.5054979324341 9.97835445404053 8.78545570373535 9.15511608123779 9.17551708221436 8.39047431945801 9.56232452392578 6.82077264785767 3.90622591972351 3.69283938407898 2.97764277458191 1.81025266647339 1.94772040843964 24.6173057556152 13.6198978424072 8.24399662017822 23.2054748535156 13.7371873855591 13.5299825668335 27.8184356689453 7.49569988250732 7.24804592132568 3.84395289421082 3.50933337211609 30.3484973907471 9.34690189361572 35.969898223877 20.0600776672363 12.2389421463013 11.7438173294067 4.70546531677246 8.67848873138428 12.2871780395508 43.9609642028809 6.66162586212158 7.20489025115967 6.31279850006104 16.3337917327881 6.06531047821045 5.5545334815979 23.4237384796143 8.98034572601318 6.94180727005005 6.13730573654175 5.10578441619873 4.7578558921814 12.6845731735229 4.5841703414917 47.5269432067871 27.6053905487061 14.0509223937988 11.3246374130249 9.22609233856201 7.45686149597168 5.7789478302002 5.55467844009399 5.31029987335205 5.14637422561646 4.97369289398193 4.80766487121582 4.65998363494873 4.30764484405518 4.19315147399902 4.13186645507812 4.01618242263794 3.90261888504028 3.81115031242371 3.72855973243713 3.52600288391113 3.33786749839783 2.82916712760925 2.73109889030457 2.67709231376648 2.56576895713806 2.58128690719604 2.52907919883728 2.12305998802185 2.09200406074524 1.35993254184723 1.17195212841034 1.16808879375458 0.835740149021149 0.693048119544983 0.682429611682892 0.886196672916412 0.990716755390167 0.978944718837738 0.532548666000366 0.332804054021835 0.484645009040833 1.24229860305786 1.61033940315247 2.45970559120178 2.29615187644958 1.83660960197449 1.62776970863342 1.56899392604828 2.09676480293274 0.789425790309906 2.83869218826294 1.40341198444366 0.993378758430481 0.536686897277832 0.473439544439316 0.447327703237534 0.4083471596241 0.606020092964172 0.381836086511612 1.22594106197357 2.67026734352112 2.92148303985596 2.86170744895935 2.81804704666138 2.40023970603943 2.17178988456726 2.11984992027283 1.78900349140167 1.57223057746887 1.45989978313446 1.32487797737122 1.1164962053299 1.038250207901 0.970169067382812 0.913687646389008 0.812686145305634 0.744296371936798 0.702185690402985 0.645297408103943 0.603871464729309 0.566357374191284 0.554808974266052 0.536780178546906 0.533779203891754 0.514006316661835 0.49229097366333 0.476792901754379 0.45044481754303 0.431974202394485 0.419761061668396 0.401186943054199 1.47953724861145 1.54743146896362 4.34856414794922 5.20629358291626 4.13938522338867 3.32518339157104 3.83227443695068 2.95525074005127 2.34731578826904
2.37463879585266 2.34488368034363 2.31114530563354 2.02861547470093 1.86823439598083 1.75326037406921 1.99426746368408 3.6851646900177 3.42632961273193 3.19105672836304 2.99738574028015 2.82605600357056 2.494225025177 1.43445575237274 5.58359384536743 2.36700534820557 1.99941563606262 5.7399730682373 3.45553922653198 7.97778415679932 8.63067245483398 3.27951121330261 19.8111057281494 11.3619518280029 7.62543869018555 12.3086500167847 9.77142906188965 8.2913875579834 8.35353755950928 7.79529523849487 7.28753280639648 6.81108093261719 7.01139211654663 3.86216926574707 3.69660878181458 5.80059957504272 3.78999638557434 3.0838623046875 7.45543432235718 24.5988941192627 21.6424369812012 16.7926349639893 13.6158018112183 13.1135749816895 10.1144580841064 8.39321613311768 11.5245723724365 8.75735187530518 13.1513137817383 11.4313116073608 19.5023422241211 19.5642032623291 2.34777426719666 3.93364953994751 21.5404186248779 13.8345880508423 44.39697265625 3.01896524429321 3.20022201538086 3.75513792037964 3.3690869808197 11.3076972961426 3.57420611381531 3.99914765357971 5.09850025177002 14.9271078109741 10.7961702346802 4.56207275390625 4.24813318252563 7.08703804016113 4.86509084701538 4.57233095169067 4.46693181991577 4.15865659713745 47.9520950317383 28.2040176391602 14.153636932373 11.2777509689331 9.0375509262085 7.38732862472534 5.62862586975098 5.36478710174561 5.18528079986572 4.99552631378174 4.80658483505249 4.63150882720947 4.43794059753418 4.3193154335022 4.19624519348145 4.08416700363159 3.7869188785553 3.68754458427429 3.60248708724976 3.58504724502563 3.51324558258057 3.31951665878296 2.95181393623352 2.49184584617615 2.46481084823608 2.46204042434692 2.41514658927917 2.18221426010132 2.01928305625916 1.98141157627106 1.13426768779755 0.932579457759857 0.9263596534729 0.906629979610443 0.878896534442902 0.602491199970245 0.596133828163147 0.45584899187088 0.406047940254211 0.36552968621254 0.172502741217613 0.922487616539001 1.18187856674194 2.46173715591431 2.09419322013855 1.67152178287506 2.16017079353333 3.01909685134888 1.93017768859863 0.991158664226532 2.08331370353699 1.5900285243988 0.897106170654297 0.575528144836426 0.567679405212402 0.481351345777512 0.894067466259003 0.767810702323914 0.553050577640533 1.33534705638885 2.44683384895325 2.4358434677124 2.3454737663269 2.54841017723083 2.54232978820801 2.7837188243866 2.5910472869873 1.97378242015839 1.71752178668976 1.6078474521637 1.45056259632111 1.23080670833588 1.14900743961334 1.07095038890839 1.00597584247589 0.897290527820587 0.791716575622559 0.736992001533508 0.69246232509613 0.651660442352295 0.579715669155121 0.553560376167297 0.534008204936981 0.514551639556885 0.494951963424683 0.472962617874146 0.457866072654724 0.437351435422897 0.437265068292618 0.421696335077286 0.411073118448257 0.399218618869781 0.386390805244446 0.370485872030258 0.408547669649124 0.36865097284317 0.639641106128693 0.668849170207977 1.74414157867432 2.04095435142517
1.74771535396576 1.88337826728821 1.79540932178497 1.59970843791962 1.47453415393829 1.48117172718048 1.64998972415924 1.53190469741821 1.44078969955444 1.35053527355194 1.31960046291351 1.48844122886658 2.66875195503235 2.52691960334778 2.34978842735291 2.08090305328369 4.01813316345215 0.809886336326599 16.319278717041 8.24297046661377 5.09761619567871 1.30646812915802 17.7465515136719 6.99468040466309 7.98940896987915 6.24210691452026 5.21427583694458 4.62687540054321 4.89344930648804 4.70751762390137 6.52010726928711 6.05803346633911 6.50308895111084 3.47660398483276 30.5662307739258 16.711893081665 13.0547885894775 12.7706546783447 11.1291494369507 13.1232118606567 15.7633066177368 13.8468751907349 11.0189638137817 8.92462539672852 9.57946968078613 9.33965969085693 1.62425267696381 1.45984363555908 18.5963516235352 12.3870582580566 3.14034557342529 5.02076721191406 3.13135814666748 7.09212303161621 45.3020973205566 5.87503099441528 5.73313474655151 5.32751560211182 3.36519908905029 2.7155168056488 7.54760932922363 2.66099977493286 2.62114834785461 2.78524899482727 6.37036800384521 3.55334448814392 2.82904410362244 2.49318075180054 3.1394579410553 5.2756986618042 3.96770358085632 3.73758745193481 3.93480849266052 3.76646733283997 3.85842442512512 47.2755928039551 27.6283054351807 14.2235984802246 11.2798652648926 9.05080699920654 7.54740476608276 5.63371467590332 4.96466112136841 4.52431440353394 4.34326791763306 4.11895179748535 4.41172027587891 4.27421474456787 4.15426969528198 4.03885507583618 3.90088510513306 3.80078792572021 3.71081042289734 3.63687872886658 3.55753827095032 3.32858157157898 2.98937344551086 2.75691294670105 2.41340017318726 2.37873983383179 1.69240653514862 1.7739086151123 1.73293781280518 1.25227022171021 0.960519731044769 0.957855880260468 0.867393791675568 0.852716743946075 0.829600214958191 0.795690715312958 0.774296820163727 0.7551149725914 0.75029319524765 0.734170377254486 0.30152416229248 0.329634964466095 0.980309665203094 2.45812392234802 1.8458958864212 1.24444234371185 2.32235765457153 2.62173986434937 2.19290828704834 0.855433821678162 0.559215903282166 0.456514120101929 3.50348925590515 2.08024406433105 0.273859679698944 2.96980857849121 2.2288293838501 1.32401502132416 1.09604334831238 1.16508328914642 2.33719563484192 2.20408654212952 2.36003828048706 2.50280499458313 2.74422311782837 3.43324589729309 2.97615027427673 2.28086304664612 2.01866126060486 1.80639636516571 1.58920395374298 1.38132643699646 1.23243451118469 1.17138409614563 1.09077119827271 0.984837293624878 0.850071489810944 0.808227002620697 0.769471049308777 0.722975969314575 0.650074005126953 0.59571361541748 0.571124672889709 0.54494297504425 0.493332594633102 0.473951935768127 0.454178392887115 0.442411363124847 0.424700826406479 0.412199914455414 0.397683590650558 0.385194957256317 0.372504144906998 0.379531711339951 0.620853543281555 0.375126749277115 0.364792376756668 0.350406438112259 0.338552445173264 0.326283574104309
2.74501347541809 1.26091182231903 1.3271723985672 1.17880475521088 1.06912124156952 1.13363444805145 1.27566611766815 1.18618667125702 1.10657584667206 1.03614735603333 1.09443521499634 1.22386455535889 1.16318845748901 1.10094022750854 1.02429950237274 0.9716876745224 1.04223573207855 1.67208385467529 1.48718249797821 1.34856152534485 6.1893105506897 4.17780780792236 2.37921023368835 0.724409699440002 0.969503462314606 17.9037971496582 10.8336048126221 3.12692856788635 2.80214071273804 4.35600662231445 4.1345477104187 3.80772614479065 3.92926263809204 3.87536025047302 5.10466337203979 4.91922998428345 13.6788644790649 10.4454717636108 8.33781433105469 6.80188274383545 5.73578500747681 5.9293065071106 5.91847562789917 5.25777530670166 5.93459987640381 7.001305103302 1.97022318840027 14.1470031738281 4.57772970199585 5.63470363616943 5.05757570266724 3.30020976066589 50.6258430480957 2.11605334281921 1.83428430557251 2.22494125366211 2.41010689735413 12.4168014526367 5.33093786239624 2.25380325317383 2.10427689552307 2.06776165962219 2.1597626209259 2.57222175598145 8.56718063354492 2.48702359199524 2.16024255752563 3.68293452262878 1.95551037788391 2.58728861808777 2.16523432731628 2.20263600349426 2.72110152244568 8.25953769683838 4.86729955673218 43.3764801025391 24.489767074585 18.2188262939453 13.7531061172485 10.9397706985474 8.69972133636475 7.37935543060303 5.70135593414307 4.95981931686401 4.33571577072144 4.14741373062134 3.96424531936646 3.80837726593018 3.68255949020386 3.55522179603577 3.8620023727417 3.77297735214233 3.68865561485291 3.6131432056427 3.53450489044189 3.43527388572693 3.36742949485779 3.08390283584595 2.34196925163269 2.13958144187927 1.38858878612518 1.62566423416138 1.59100043773651 0.928399801254272 0.88469785451889 2.12355756759644 1.16713154315948 0.897382795810699 0.864818632602692 0.764947295188904 0.73747330904007 0.715369701385498 0.706518650054932 0.402001321315765 0.664729535579681 0.655365884304047 1.01546084880829 2.18857073783875 1.70331609249115 1.17407488822937 1.12417316436768 2.38292121887207 1.80774712562561 0.69271332025528 0.427739471197128 0.629759073257446 0.265206664800644 3.31015610694885 1.74724888801575 0.947656989097595 1.29949378967285 1.2686642408371 1.23564231395721 1.61360156536102 1.77051794528961 2.24438524246216 3.1334183216095 4.12491798400879 3.49280571937561 3.46898818016052 3.34907269477844 2.70237350463867 2.26004338264465 2.01599669456482 1.7205057144165 1.51278984546661 1.319415807724 1.22449839115143 1.09978044033051 0.816618084907532 2.68913745880127 1.46938693523407 0.784622013568878 0.778419971466064 0.731767237186432 0.665392577648163 0.638802587985992 0.6058309674263 0.54000061750412 0.5063197016716 0.485171884298325 0.464308321475983 0.441180884838104 0.402861505746841 0.397441446781158 0.383876711130142 0.374029964208603 0.370057910680771 0.519326031208038 0.36456099152565 0.354563295841217 0.354729831218719 0.342777281999588 0.331718921661377
2.29708623886108 0.978475749492645 0.802448511123657 0.74676501750946 0.646873772144318 0.737781882286072 0.918090879917145 0.841432631015778 0.780357599258423 0.735986471176147 0.838505208492279 0.943724274635315 0.898939847946167 0.847656726837158 0.787199437618256 0.814060628414154 0.853384017944336 0.707282543182373 0.577127873897552 0.522385776042938 0.518830120563507 1.18260955810547 0.936870932579041 0.451257228851318 0.320609718561172 0.228470847010612 4.11702251434326 7.88092756271362 6.95126867294312 6.15877914428711 5.15731382369995 4.81328773498535 3.9419891834259 5.50977563858032 3.75612759590149 3.73863911628723 3.34491753578186 3.47803330421448 3.27542638778687 3.86188721656799 3.88619875907898 5.54454851150513 4.98728322982788 4.52389478683472 4.13078880310059 1.68586051464081 32.794849395752 13.06520652771 1.42656111717224 1.15554261207581 52.3031311035156 13.0970039367676 1.46482491493225 10.3986835479736 1.4799736738205 1.9353187084198 1.45417463779449 3.65665888786316 1.68691980838776 6.10258769989014 4.48977851867676 2.33299946784973 1.98200845718384 3.20774269104004 2.28152108192444 2.67120146751404 2.79139137268066 1.92404747009277 1.90482842922211 6.17138385772705 1.93923509120941 1.92743515968323 1.71676778793335 1.60361611843109 1.566929936409 19.5804805755615 40.4590530395508 22.2110652923584 11.8752460479736 9.32251930236816 7.54271173477173 6.09569978713989 6.31376600265503 5.40300416946411 4.62728404998779 4.0162467956543 3.82936263084412 3.6503643989563 2.28548264503479 7.89700365066528 34.6244049072266 19.1206798553467 3.28029227256775 3.20885825157166 3.13084578514099 3.41401958465576 3.35304832458496 2.25629353523254 2.22804641723633 1.97509610652924 1.26723337173462 1.33036804199219 1.3113899230957 1.18920540809631 1.15580654144287 1.13490176200867 0.923983454704285 0.780468642711639 0.770742297172546 0.804492294788361 0.777292728424072 0.689332187175751 0.671106815338135 0.453869849443436 0.142416134476662 0.372171759605408 1.32852053642273 1.38968455791473 0.989329695701599 0.313220024108887 1.97480881214142 4.10272550582886 1.83811748027802 0.437053740024567 0.162492886185646 0.16152435541153 1.22772979736328 0.488415002822876 -1.16127514839172 43.9317321777344 26.2541904449463 1.40822434425354 1.40258598327637 1.37528121471405 1.1162668466568 2.04755616188049 4.55108547210693 0.118197582662106 13.4617023468018 8.27181529998779 3.653235912323 3.58865547180176 2.76205635070801 2.06760668754578 1.66562831401825 1.54814732074738 1.43530809879303 1.21279358863831 1.05228114128113 0.856482982635498 0.700294137001038 0.695826232433319 1.68211996555328 1.87730205059052 1.54228031635284 0.845263361930847 0.695382833480835 0.66589629650116 0.614220678806305 0.562394797801971 -0.744175851345062 -0.912942230701447 -1.08414006233215 6.827880859375 44.0438613891602 25.8303718566895 0.399439334869385 0.660272479057312 0.369295805692673 0.367799639701843 0.356876522302628 0.342127770185471 0.334097355604172 0.321417391300201
