NCOLS 172
NROWS 31
XLLCORNER 353888
YLLCORNER 6699392
CELLSIZE 16 
NODATA_value -3.4e+38 
0.453013837337494 0.584729850292206 0.677112221717834 0.723084151744843 1.11544108390808 1.26042306423187 1.33439087867737 1.08152556419373 1.29702889919281 0.818045437335968 0.72484964132309 0.825142800807953 0.66989141702652 0.808726668357849 0.895912885665894 1.09393525123596 1.7281299829483 1.68661367893219 1.89793527126312 1.69248116016388 1.61003541946411 1.42520415782928 1.29075527191162 1.07239544391632 0.948401272296906 0.845478653907776 0.801421999931335 0.66887366771698 0.531991958618164 0.461685985326767 0.379270136356354 0.290320336818695 0.256942212581635 0.598761200904846 1.11502683162689 1.21695017814636 1.11589026451111 1.13277232646942 0.966123938560486 0.620858550071716 0.288568198680878 0.16261599957943 0.152370646595955 0.215806692838669 0.267521947622299 0.524250626564026 1.49573159217834 2.44533371925354 4.22327613830566 7.11015462875366 5.29025268554688 3.00324010848999 1.97630977630615 1.4313098192215 1.69074583053589 2.21541452407837 2.43854331970215 2.55072784423828 3.65306925773621 4.04882192611694 4.46640586853027 2.93950295448303 2.25293970108032 1.0781546831131 1.13827884197235 0.274667114019394 -0.788733601570129 -0.402919501066208 -0.452403575181961 -0.14920848608017 -1.19096386432648 -1.21326339244843 -1.16434168815613 -1.11989641189575 -1.04882645606995 -0.679980754852295 -0.131039649248123 0.840953528881073 1.82221078872681 2.54783749580383 3.07069396972656 3.29383969306946 3.44070410728455 3.60752773284912 3.49847888946533 3.44331955909729 3.47260069847107 3.15144872665405 2.74534368515015 2.89211225509644 2.98700547218323 3.04199838638306 3.05464386940002 2.78136014938354 2.63744735717773 2.61494421958923 2.55375075340271 2.54429030418396 2.67152953147888 2.98513460159302 2.99487113952637 2.97232985496521 5.08993864059448 1.52297878265381 2.36461591720581 7.37510967254639 -0.460566103458405 -0.789534151554108 -0.697373509407043 -0.395056068897247 -0.210750177502632 -0.0979411080479622 -0.623170793056488 -0.95330810546875 -1.19850838184357 -1.37639677524567 -1.22039687633514 -1.09775054454803 -1.07011353969574 -0.913631677627563 -0.895205914974213 -0.532910585403442 -0.012716387398541 1.18342804908752 1.41122364997864 1.36865401268005 1.05958938598633 0.644049108028412 0.371738702058792 0.220297902822495 0.00852682534605265 -0.157534092664719 -0.286609441041946 -0.375845491886139 -0.501853227615356 -0.612116694450378 -0.727678120136261 -0.851842224597931 -0.929758548736572 -1.02064955234528 -1.16018629074097 -1.42419099807739 -1.59876751899719 -1.83395338058472 -2.16857075691223 -2.48651671409607 -2.63207077980042 -2.68281626701355 -1.75376355648041 0.0630418881773949 1.19189989566803 2.5138623714447 3.48905253410339 3.98761057853699 4.47870635986328 5.46245527267456 5.88558387756348 6.01935386657715 6.23410081863403 6.01617908477783 5.05070161819458 4.13035488128662 4.65111494064331 6.6549711227417 8.53411102294922 10.2733354568481 8.66279983520508 9.6579008102417 10.3133525848389 7.97921276092529 9.41830921173096 9.25008296966553
0.393410295248032 0.545298397541046 0.662794053554535 0.720138728618622 1.00130569934845 1.24629640579224 1.42257964611053 1.11021256446838 1.31284332275391 1.09200501441956 0.735047101974487 0.665724813938141 0.717306852340698 0.779964447021484 1.02339720726013 1.485799908638 1.65845263004303 1.8041832447052 1.74540066719055 1.60867094993591 1.42656683921814 1.34593939781189 1.17954158782959 0.946169972419739 0.827115416526794 0.787687063217163 0.723786413669586 0.574496030807495 0.473964661359787 0.416934609413147 0.326944589614868 0.293247848749161 0.400206357240677 0.646834671497345 0.989739179611206 1.09634959697723 1.02758884429932 0.851493120193481 0.662354826927185 0.446189492940903 0.06474968791008 -0.0519759021699429 0.0828705653548241 0.0769552737474442 0.29764524102211 0.616476714611053 1.37933170795441 2.8322126865387 3.66018986701965 5.12559032440186 4.74204874038696 2.67969965934753 1.39565575122833 0.861970841884613 1.01001369953156 1.74731636047363 2.09403872489929 2.58685278892517 3.4377589225769 3.60958456993103 2.88079571723938 2.54495763778687 1.89866268634796 2.11192107200623 2.18323731422424 -0.264572322368622 0.670633256435394 1.22887217998505 -0.0884964540600777 0.771594643592834 1.99792170524597 0.992846190929413 -1.46751165390015 -1.42143714427948 -1.37237012386322 -0.515509188175201 -0.0389587916433811 0.587188303470612 1.9222708940506 2.55474662780762 3.0346508026123 3.29965329170227 3.43201565742493 3.50800251960754 3.39917659759521 3.34481167793274 3.02969241142273 2.84001874923706 2.58906674385071 2.89618039131165 2.95548009872437 2.96484684944153 2.69953608512878 2.64703392982483 2.41680765151978 2.35071301460266 2.4488000869751 2.37651062011719 2.80089330673218 2.8992030620575 2.84738659858704 2.87132954597473 8.00718784332275 5.26307916641235 10.8826370239258 11.9317560195923 5.30663871765137 -0.814622759819031 -0.96436333656311 -0.844840168952942 -0.628917217254639 3.58210444450378 5.27570915222168 9.27810573577881 11.0068960189819 0.156547546386719 -1.65248370170593 -1.52993297576904 -0.362049847841263 -1.27402305603027 -1.17869067192078 -1.11220622062683 -0.636736392974854 0.359679996967316 0.753614485263824 0.761678099632263 0.589537560939789 0.356176882982254 0.0150061622262001 -0.397706031799316 -0.504464507102966 -0.520245254039764 -0.585117399692535 -0.658141016960144 -0.767423331737518 -0.879591524600983 -1.02864038944244 -1.12336730957031 -1.21753621101379 -1.30375325679779 -1.5118225812912 -1.7610502243042 -2.07928824424744 -2.37589335441589 -2.54821872711182 -2.73680114746094 -1.26537358760834 2.06903004646301 2.09778809547424 0.0465961843729019 0.551260948181152 1.19077408313751 2.13009119033813 3.43394351005554 4.39403009414673 5.14190006256104 5.47712898254395 5.55293798446655 5.53090143203735 5.18432188034058 4.3787202835083 3.25961542129517 3.81445837020874 5.570472240448 6.03819561004639 6.30039262771606 6.32311344146729 5.86981868743896 7.05295991897583 7.31198978424072 6.87882137298584 8.07405567169189
0.352831274271011 0.509083211421967 0.637909293174744 0.715434849262238 0.861624598503113 1.30905151367188 1.6926097869873 1.21130430698395 1.35018026828766 1.39798104763031 0.705074489116669 0.703342795372009 0.794993817806244 0.876302421092987 1.05256533622742 1.6202689409256 1.54853570461273 1.73984479904175 1.53754019737244 1.47577083110809 1.35171020030975 1.19555509090424 1.07188999652863 0.824737071990967 0.732392370700836 0.700301349163055 0.601093173027039 0.508105635643005 0.425293207168579 0.341932654380798 0.276261657476425 0.308775722980499 0.522151231765747 0.956518292427063 0.884627044200897 0.972933173179626 0.812078535556793 0.59876537322998 0.269027203321457 -0.029012244194746 -0.128172725439072 -0.224788039922714 -0.140572533011436 -0.0526467449963093 0.145000874996185 0.785628736019135 1.5103874206543 2.41806602478027 4.17824125289917 4.13187694549561 3.76742315292358 2.5880172252655 1.98124885559082 1.80561828613281 0.955739140510559 1.27248322963715 1.58974146842957 2.96765971183777 3.10238242149353 3.23399329185486 2.10335898399353 1.68389594554901 1.73994946479797 1.70268821716309 1.29351365566254 -0.331195443868637 1.67794835567474 4.77575492858887 2.64061069488525 4.1030445098877 3.90372776985168 3.455486536026 3.66931653022766 2.04013442993164 -0.671103715896606 -0.549879193305969 2.95212459564209 5.05807065963745 2.35124230384827 2.85486698150635 3.01967263221741 3.20841026306152 3.37022018432617 3.26443123817444 3.21180152893066 3.23616600036621 2.93430781364441 2.5482656955719 2.7452597618103 2.83916735649109 2.89462375640869 2.90495491027832 2.64297914505005 2.34315609931946 2.29208588600159 2.17123341560364 2.386723279953 2.50247168540955 2.78398585319519 2.79268431663513 2.76484346389771 3.22760272026062 7.83977890014648 9.29180717468262 11.2575206756592 14.7996101379395 9.42285633087158 4.09315776824951 -0.825330317020416 -1.02676463127136 -0.92855030298233 1.39489769935608 6.95313882827759 10.5540189743042 13.6256561279297 1.79348766803741 -0.323884129524231 3.4344437122345 6.64348888397217 2.31101083755493 -1.02379107475281 2.20746254920959 -0.519244074821472 -0.335083246231079 0.0162155590951443 0.143955647945404 0.164245575666428 0.0492458418011665 -0.384803682565689 -1.04239630699158 -1.14436507225037 -1.02323150634766 -0.992465317249298 -1.01551401615143 -1.06950807571411 -1.16147768497467 -1.28573513031006 -1.43163287639618 -1.55973219871521 -1.70844995975494 -1.88029265403748 -2.13793039321899 -2.56944561004639 -2.76415109634399 -2.903892993927 2.38421678543091 5.61037635803223 2.59274435043335 -0.308885663747787 -0.305789887905121 -0.00937218405306339 0.869660615921021 1.96521484851837 3.29578065872192 4.35526561737061 4.76465606689453 4.97781801223755 5.15660285949707 4.99696683883667 4.24740409851074 3.56074857711792 2.90027475357056 4.07682991027832 4.11456775665283 3.98239159584045 3.61554169654846 3.3544237613678 5.04114151000977 5.78317022323608 6.15109395980835 6.371910572052 7.25074195861816
0.520978808403015 0.487846553325653 0.614644706249237 0.700815916061401 0.840441524982452 1.31358826160431 1.56321954727173 1.26561629772186 1.12320482730865 1.61090731620789 0.888999223709106 0.712809085845947 0.755577862262726 0.989066958427429 1.4222697019577 1.56371569633484 1.68335664272308 1.60736882686615 1.45897662639618 1.29032003879547 1.27902841567993 1.13622891902924 0.869174301624298 0.718171775341034 0.671675980091095 0.630606830120087 0.513189375400543 0.454020291566849 0.374593019485474 0.292585074901581 0.261328369379044 0.390394628047943 0.589841187000275 0.885520040988922 0.921053469181061 0.819471716880798 0.613416850566864 0.418261766433716 0.0512704886496067 -0.359342366456985 -0.354776948690414 -0.356318473815918 -0.350497752428055 -0.25307035446167 0.0656805038452148 0.564589440822601 1.72249341011047 2.54736757278442 3.45493197441101 3.40984511375427 2.61510753631592 2.78740644454956 1.61464929580688 0.953607976436615 1.09288895130157 1.13768994808197 1.75510120391846 2.72144651412964 2.7936692237854 1.96791422367096 1.75541388988495 1.1251392364502 0.756187319755554 0.214126721024513 -0.818958580493927 0.14348429441452 2.33865332603455 7.82259511947632 6.77186822891235 6.01846742630005 6.68445682525635 9.03954124450684 8.49921226501465 5.3697452545166 4.20102691650391 8.64712619781494 13.4605569839478 13.9714527130127 4.14220380783081 2.58697295188904 3.02703285217285 3.21655511856079 3.28395390510559 3.1780571937561 3.12838125228882 2.82067775726318 2.64615893363953 2.45418810844421 2.75029516220093 2.80873775482178 2.82280158996582 2.56969356536865 2.51447176933289 2.29086470603943 2.21000528335571 2.30108666419983 2.22953796386719 2.62008237838745 2.70513820648193 2.65666675567627 2.65079188346863 3.65559005737305 4.08635425567627 8.13777923583984 10.2721166610718 10.2583637237549 9.30677604675293 3.89706325531006 1.48056471347809 0.902166128158569 1.70387732982635 2.49684143066406 4.96084976196289 6.87040710449219 12.4702377319336 4.32427597045898 1.67868053913116 2.29902744293213 0.49315157532692 -1.96736598014832 -1.90011048316956 -1.89424133300781 -1.49758780002594 -1.00850331783295 -0.624323725700378 -0.335474342107773 -0.261873453855515 -0.340751707553864 -0.707329034805298 -1.39767944812775 -1.65107786655426 -1.59390497207642 -1.5246946811676 -1.46051383018494 -1.46888315677643 -1.55126512050629 -1.63436901569366 -1.75607693195343 -1.83741760253906 -2.01192474365234 -2.15863132476807 -2.41873502731323 -2.81871056556702 -3.02220582962036 -0.216242760419846 5.93166399002075 5.19629383087158 4.06260442733765 4.21605396270752 1.51665794849396 2.7781994342804 4.47258996963501 3.56993889808655 3.16885209083557 3.99820971488953 4.36002349853516 4.61139106750488 4.56345272064209 4.29711723327637 3.64820218086243 2.84211087226868 2.51811528205872 2.66218829154968 2.3313467502594 1.65328145027161 0.807053685188293 1.51595389842987 3.50853204727173 4.52278137207031 4.06660079956055 4.80242586135864 6.67081117630005
1.38825106620789 0.481185764074326 0.596011579036713 0.687899649143219 0.887244343757629 1.27197277545929 1.31954753398895 1.30340659618378 1.20622992515564 1.51685440540314 1.49111008644104 0.701052248477936 0.742137134075165 0.996954381465912 1.53033018112183 1.45922529697418 1.59266889095306 1.39190995693207 1.32445597648621 1.21533012390137 1.10474860668182 1.01458990573883 0.777385413646698 0.664539933204651 0.611277222633362 0.51207560300827 0.440880805253983 0.403190046548843 0.328112423419952 0.254788011312485 0.244521588087082 0.507418751716614 0.889561355113983 0.82151061296463 0.855768322944641 0.742815673351288 0.588659644126892 0.124509818851948 -0.142808124423027 -0.545957207679749 -0.625021517276764 -0.555701434612274 -0.472123146057129 -0.461563140153885 -0.0980862006545067 0.496697664260864 1.14524185657501 2.7764847278595 2.91358470916748 2.38396692276001 1.85348284244537 1.79341888427734 1.62379789352417 0.825963258743286 0.809054672718048 1.11369955539703 1.9546126127243 2.40962600708008 2.40394377708435 1.19967365264893 0.671376407146454 0.406914532184601 -0.130082681775093 -1.273118019104 -1.26649868488312 0.276266932487488 2.92515063285828 6.90786123275757 8.71656227111816 9.34507179260254 8.64147758483887 8.59544658660889 7.61615562438965 6.05932807922363 6.18197250366211 5.28965473175049 8.07038307189941 9.78998374938965 4.13322162628174 2.5451762676239 2.93868088722229 3.15137982368469 3.06151676177979 3.0127546787262 3.02448391914368 2.74477958679199 2.38535618782043 2.33728528022766 2.69615340232849 2.75263977050781 2.7657036781311 2.51525020599365 2.22486615180969 2.16750383377075 2.08868789672852 2.24340867996216 2.3466522693634 2.60074996948242 2.60703158378601 2.58607077598572 2.35342264175415 3.20769500732422 4.56311368942261 6.30199670791626 7.52175664901733 7.0331916809082 4.70590114593506 3.94451570510864 0.740834534168243 1.09454548358917 2.33276772499084 3.65559005737305 5.40830850601196 7.57107162475586 6.94437408447266 2.83371806144714 -0.0207404177635908 -1.08652174472809 -2.62380337715149 -2.48045015335083 -2.43907356262207 -2.37365913391113 -1.9521723985672 -1.48556065559387 -1.02291226387024 -0.746400594711304 -0.651380360126495 -0.688552737236023 5.04279851913452 2.08068060874939 -1.82984113693237 -1.95575892925262 -1.99632108211517 -1.98908126354218 -1.87858819961548 -1.92921388149261 -1.96159684658051 -1.99447512626648 -2.03994059562683 -2.19271516799927 -2.34238004684448 0.0937380492687225 -2.30154037475586 -1.45715987682343 4.07760953903198 3.25730061531067 2.32506847381592 3.18896794319153 3.27791357040405 6.62898635864258 5.65028619766235 4.90072298049927 4.21374416351318 3.14997839927673 3.37277126312256 3.72784352302551 4.2876672744751 4.23938941955566 3.62502646446228 3.06035947799683 2.32801699638367 2.51800560951233 1.74901926517487 0.806496262550354 0.114068761467934 -0.751725435256958 -0.113754473626614 0.699155628681183 1.93579137325287 2.33448624610901 3.62660765647888 5.54102420806885
3.2451274394989 1.38975286483765 0.592303872108459 0.692224621772766 1.02903497219086 1.08492708206177 1.37192261219025 1.33315742015839 1.29471778869629 1.45936989784241 1.82561385631561 0.992508411407471 0.812649667263031 0.97191858291626 1.45740818977356 1.56466257572174 1.45737195014954 1.30966973304749 1.12787342071533 1.11324679851532 1.01140153408051 0.791377067565918 0.673647522926331 0.621208012104034 0.564370453357697 0.448550671339035 0.392337948083878 0.36110982298851 0.285281509160995 0.319038689136505 0.383763313293457 0.57744961977005 0.837580740451813 0.883992552757263 0.766026973724365 0.894251763820648 0.383968263864517 -0.159522667527199 -0.551600933074951 -0.748606443405151 -0.862550437450409 -0.788038194179535 -0.568417251110077 -0.569862246513367 -0.639437913894653 0.195234090089798 1.35118627548218 2.15230250358582 2.38005328178406 1.89588606357574 1.34712016582489 1.21277594566345 0.915673553943634 0.726312696933746 0.684562087059021 1.11272954940796 2.13660979270935 2.08559465408325 1.75306439399719 0.84307450056076 0.169866934418678 -0.495176792144775 -1.00488948822021 -1.3342866897583 -1.2543820142746 0.456082046031952 4.19969463348389 6.06539344787598 8.72590351104736 8.99312305450439 8.1965160369873 8.05309295654297 9.2618293762207 9.76972579956055 11.9935321807861 11.5418281555176 11.1704130172729 9.47693347930908 5.4311056137085 2.59230422973633 2.96125340461731 3.07353353500366 2.98436570167542 2.93912816047668 2.64418315887451 2.47311997413635 2.25570631027222 1.9740868806839 2.21382570266724 2.30850386619568 2.40828061103821 2.39565181732178 2.18444204330444 2.02753281593323 1.98839890956879 2.19566607475281 2.47262096405029 2.54804301261902 2.48928070068359 2.5029239654541 3.1853015422821 3.4704487323761 6.4702935218811 7.52695846557617 5.39973878860474 6.65624904632568 4.81429481506348 3.03118348121643 -0.550920486450195 0.752708613872528 1.27036380767822 2.1184868812561 1.92557513713837 3.57719969749451 0.359418481588364 -1.90574753284454 -1.7347184419632 -2.98910284042358 -3.03560709953308 -3.00894975662231 -2.96913313865662 -2.88220405578613 -2.43661785125732 -1.93279325962067 -1.37735629081726 -1.09376525878906 -1.01244187355042 -1.0409677028656 5.72497081756592 2.79382419586182 -1.04157102108002 -2.14655685424805 -2.23680949211121 -2.31136226654053 -2.2982873916626 -2.27847218513489 -2.22749423980713 -2.1982958316803 -2.22325491905212 -2.33291602134705 -0.201404213905334 1.3846527338028 -0.09564408659935 1.14551591873169 1.47835314273834 1.13031673431396 1.5756870508194 2.21980547904968 2.72331762313843 4.33793306350708 6.17316913604736 5.52417850494385 3.58087921142578 2.88732957839966 2.96473383903503 3.18633127212524 3.56415367126465 3.56323528289795 3.10000729560852 2.48238849639893 2.01791954040527 2.24465823173523 1.70598173141479 0.695490479469299 -0.696696043014526 -1.65333724021912 -0.87846052646637 -0.355152636766434 0.581425070762634 1.31152534484863 2.3666398525238 4.22652244567871
8.20244312286377 5.65790271759033 2.71350240707397 1.72455263137817 0.976714909076691 1.07619118690491 1.33321857452393 1.50354588031769 1.4633321762085 1.32308280467987 1.69019269943237 1.37414503097534 0.919655442237854 1.29001200199127 1.3901914358139 1.48082256317139 1.27362203598022 1.19042122364044 1.07158219814301 0.966090679168701 0.875545859336853 0.675813317298889 0.613451421260834 0.566810309886932 0.467140763998032 0.395205080509186 0.349852234125137 0.286459445953369 0.244270861148834 0.481545120477676 0.50321888923645 0.845226407051086 0.785059630870819 0.830552041530609 0.740846276283264 0.512853503227234 0.110427536070347 -0.239656656980515 -0.737028300762177 -0.938053011894226 -0.991018891334534 -0.878281235694885 -0.82276064157486 -0.761625289916992 -0.865986764431 -0.268108159303665 1.30754637718201 1.66610836982727 1.48073768615723 1.41256284713745 1.10585021972656 0.903828799724579 0.707467377185822 0.550630450248718 0.62273508310318 1.5299574136734 1.84786462783813 1.79790771007538 0.797020614147186 0.532890498638153 -0.102136313915253 -1.01126444339752 -1.41481602191925 -1.43792486190796 -1.19419252872467 1.43615591526031 4.24235439300537 6.48705196380615 7.86680459976196 8.46858787536621 8.32015514373779 9.92801761627197 12.193717956543 14.8438024520874 17.40869140625 18.3129730224609 11.3981618881226 8.49770259857178 5.59928131103516 3.53116989135742 2.94582843780518 2.87382173538208 2.83518481254578 2.84336566925049 2.57846212387085 2.23986101150513 1.98667812347412 1.89894104003906 1.91229450702667 1.82137441635132 1.96126389503479 2.08537530899048 2.07196140289307 1.98582947254181 2.1313009262085 2.0669276714325 2.46358633041382 2.45364475250244 2.42641520500183 2.29675316810608 5.70954751968384 6.63493633270264 7.65848827362061 10.7020883560181 7.94035196304321 6.95430660247803 4.50698471069336 1.09629201889038 -1.51857602596283 -0.94141012430191 -0.367351859807968 0.212168306112289 0.763214468955994 -0.901299953460693 -1.77508854866028 -2.79282450675964 -3.48161172866821 -3.48799729347229 -3.40499758720398 -3.37527275085449 -3.40408253669739 -3.30514216423035 -2.80186319351196 -2.31679368019104 -1.75902736186981 -1.42323124408722 -1.31927990913391 -1.22580683231354 0.444143354892731 1.77007579803467 -2.17855620384216 -2.33236241340637 -2.43942165374756 -2.54363751411438 -2.5767707824707 -2.54736948013306 -2.47548055648804 -2.42934370040894 -2.44185590744019 -2.10636258125305 1.62142491340637 3.2330470085144 0.957916438579559 2.25176429748535 0.363043159246445 0.300749748945236 1.64869213104248 2.05622410774231 3.19569683074951 4.20423316955566 5.72359848022461 3.71692967414856 2.44878649711609 2.58166408538818 2.74043893814087 3.06452226638794 2.96067380905151 2.83840560913086 2.616774559021 2.13694906234741 1.76865065097809 2.01486873626709 3.82406187057495 4.65189170837402 5.19656467437744 -0.211434379220009 -1.12594819068909 -0.47268670797348 -0.170939162373543 0.393076002597809 1.66709768772125 3.92190527915955
4.16350221633911 3.62360334396362 4.83765983581543 2.92512106895447 1.0080451965332 1.16358208656311 1.27998399734497 1.78182446956635 1.63294351100922 1.4584938287735 1.61688947677612 1.69690072536469 0.948093771934509 1.39133489131927 1.30264961719513 1.41511237621307 1.21118903160095 1.03570771217346 1.00928211212158 0.906910240650177 0.696901500225067 0.590347111225128 0.562947690486908 0.524803042411804 0.425528049468994 0.351756453514099 0.296047419309616 0.235233455896378 0.245542526245117 0.432608187198639 0.656284868717194 0.812865734100342 0.844233691692352 0.738067209720612 0.985558331012726 1.1997082233429 1.23858726024628 0.0629909783601761 0.854065537452698 -0.998948216438293 -1.032395362854 -0.998045325279236 -1.08502233028412 -1.03695070743561 -0.772211074829102 -0.305057764053345 0.729399800300598 1.07339680194855 0.989001512527466 0.880831778049469 0.843078315258026 0.694004893302917 0.524714291095734 0.39286133646965 0.774671375751495 1.60940051078796 1.61185431480408 1.44891846179962 0.604106783866882 -0.20415560901165 -0.665661633014679 -1.3067626953125 -1.54788029193878 -1.5539733171463 -0.806568741798401 2.1306619644165 4.08061647415161 5.83067560195923 7.4912371635437 8.95919704437256 12.4032506942749 13.1585702896118 13.7669258117676 16.4617462158203 17.711986541748 17.3700408935547 13.4937963485718 8.75365447998047 7.22263050079346 5.02697563171387 2.88747429847717 2.81035304069519 2.76563954353333 2.48872017860413 2.2979462146759 1.91719794273376 1.46248650550842 1.43896448612213 1.53831505775452 1.64254570007324 1.75546038150787 1.86535382270813 1.92753469944 1.8911429643631 2.08677840232849 2.17935252189636 2.40657258033752 2.34346199035645 2.35141611099243 2.67012310028076 5.4203634262085 7.31082201004028 9.07287788391113 11.7530651092529 8.03570652008057 6.15785121917725 2.23713541030884 -1.01189875602722 -1.95796620845795 -2.22869920730591 -1.57704329490662 -1.87481117248535 -1.03025937080383 -1.16500902175903 -2.21521806716919 -3.43005204200745 -3.95245003700256 -3.89531421661377 -3.82038426399231 -3.70282244682312 -2.56013488769531 -3.01776194572449 -3.10410785675049 -2.62426018714905 -2.09780859947205 -1.65743970870972 -1.59280323982239 -0.837511122226715 -0.410152316093445 -1.61909306049347 -2.46581172943115 -2.61882448196411 -2.73959064483643 -2.84133839607239 -2.83605408668518 -2.82492899894714 -2.75755596160889 -2.68573141098022 -2.65893793106079 -1.16816818714142 2.63200306892395 5.24287605285645 4.7448205947876 2.97373223304749 1.5608583688736 4.42343711853027 1.92230451107025 4.89963817596436 7.15667581558228 7.60918474197388 5.58520984649658 2.01051068305969 2.09062266349792 2.4188220500946 4.22830867767334 2.84590911865234 2.79654288291931 2.38401794433594 2.26245331764221 1.80499267578125 1.06044661998749 1.25673508644104 3.96285319328308 9.02067947387695 9.39551734924316 8.98245525360107 2.72098517417908 2.9816882610321 2.84628224372864 3.71151566505432 3.03560709953308 3.89035415649414
3.2697069644928 2.51641273498535 1.68049550056458 0.893480837345123 1.14244091510773 1.25301480293274 1.52839255332947 2.07836532592773 1.82812225818634 1.60309076309204 1.51045656204224 1.81020998954773 1.27276825904846 1.35383474826813 1.42126214504242 1.31191456317902 1.16798865795135 0.992510199546814 0.89065033197403 0.805576145648956 0.631863296031952 0.551056504249573 0.510573148727417 0.468591630458832 0.360184133052826 0.294199645519257 0.246859267354012 0.201066613197327 0.215581014752388 0.470487922430038 0.83574914932251 0.776440858840942 0.793166518211365 0.698513269424438 0.544531047344208 1.75865650177002 2.50845694541931 3.06431102752686 0.24370913207531 -1.13671898841858 -1.02730250358582 -1.10450160503387 -1.18117427825928 -1.24721014499664 -1.08496129512787 -0.316709905862808 0.172982513904572 0.535590529441833 0.596162796020508 0.522677481174469 0.483736276626587 0.499239265918732 0.366608291864395 0.488401919603348 1.19023239612579 1.39949202537537 1.46467542648315 0.702562153339386 0.35314679145813 -0.474301666021347 -1.20036053657532 -1.5850932598114 -1.6280609369278 -1.6462504863739 -0.222810223698616 1.93899250030518 3.94256544113159 5.62972259521484 7.17467594146729 8.27327060699463 10.1797552108765 11.4561452865601 13.0834321975708 14.057804107666 13.7971229553223 10.4906454086304 9.06625175476074 6.58450412750244 4.47181606292725 2.75476908683777 2.80676770210266 2.720543384552 2.66339516639709 2.29108929634094 1.83160483837128 1.33542895317078 1.04619431495667 0.808915793895721 0.481078207492828 0.869265079498291 1.31852304935455 1.54789710044861 1.84558165073395 2.00621223449707 1.93273997306824 2.28580641746521 2.34299659729004 2.28421497344971 2.14721870422363 2.99633455276489 4.71418380737305 6.57511472702026 7.85779428482056 6.72680187225342 4.8674111366272 3.05341076850891 -0.400575757026672 -1.91273963451385 -2.49259996414185 -2.84761714935303 -2.37804818153381 -1.37423968315125 -1.47319495677948 -1.48582923412323 -0.914199113845825 -4.19615650177002 -4.36404657363892 -4.30850172042847 -4.15345573425293 -3.65873217582703 -1.78598022460938 -3.57813048362732 -3.48464417457581 -3.11498022079468 -2.62318849563599 -1.87982881069183 -1.74180066585541 -1.93504691123962 -1.1425142288208 -2.43488764762878 -2.72108578681946 -2.84201049804688 -2.91104292869568 -2.98796105384827 -3.09051728248596 -3.11856436729431 -3.02515149116516 -2.91842341423035 -2.86124992370605 -0.22033403813839 2.0652539730072 4.12334394454956 2.34317302703857 2.30814671516418 5.05357074737549 4.41314363479614 4.71052169799805 6.48208284378052 8.51369667053223 8.20052909851074 5.88587331771851 5.26706218719482 7.95505237579346 4.58542728424072 2.84559750556946 4.87208127975464 8.95283985137939 7.53264570236206 5.22300958633423 4.46314001083374 2.30263686180115 1.38501906394958 4.02003717422485 8.57583141326904 12.2955560684204 11.5420904159546 10.4064903259277 5.20786380767822 6.1505651473999 4.77805757522583 2.42612910270691 3.44580602645874
2.10415720939636 1.82001531124115 1.3409982919693 0.904095947742462 1.20296907424927 1.64540207386017 2.52486491203308 2.67666220664978 2.19417929649353 1.83089292049408 1.54099881649017 1.61974012851715 1.49014544487 1.28618538379669 1.38131308555603 1.16501533985138 1.05649292469025 0.92977374792099 0.836326897144318 0.654689252376556 0.569479048252106 0.512117862701416 0.44250100851059 0.355554789304733 0.271536111831665 0.246403887867928 0.218543708324432 0.17322264611721 0.189909115433693 0.430671513080597 0.786674320697784 0.838845014572144 0.714992165565491 0.713026285171509 0.823402047157288 1.89632546901703 2.3817834854126 1.09972405433655 0.170571863651276 -1.0945965051651 -1.05332934856415 -1.15535771846771 -1.26213991641998 -1.45180511474609 -1.51973879337311 -0.762286722660065 -0.205263525247574 0.0524570867419243 0.198656290769577 0.248037293553352 0.282214820384979 0.325316458940506 0.190445706248283 0.62350982427597 1.3151638507843 1.28360342979431 1.16820919513702 0.526825845241547 -0.239123091101646 -0.781127691268921 -0.481875002384186 -1.66567754745483 -1.73347365856171 -1.70183718204498 0.377705335617065 2.08011627197266 3.7340521812439 5.30749559402466 6.57824611663818 7.62017679214478 8.82129287719727 10.5294179916382 11.5134162902832 10.9581241607666 9.82846450805664 7.71478033065796 5.62406778335571 5.78178882598877 3.28057026863098 2.6907594203949 2.58377957344055 2.43368172645569 2.36708807945251 1.95472407341003 1.36480677127838 0.879264533519745 0.645377278327942 0.136064440011978 -0.264439404010773 -0.103505849838257 0.54276967048645 1.14096963405609 1.35152673721313 1.69578063488007 1.76876103878021 2.07338714599609 2.21377110481262 2.18119430541992 1.91021835803986 2.47934579849243 4.433349609375 6.05207872390747 7.32000827789307 5.12525129318237 2.02043342590332 -1.64360010623932 -2.18759489059448 -2.43234825134277 -2.67873549461365 -1.73843252658844 -2.5267391204834 -0.683205127716064 -1.21924865245819 -0.766415059566498 0.808046877384186 -1.74810373783112 -3.37939620018005 -2.31384754180908 -0.194441080093384 0.770945250988007 -0.417180567979813 -0.741198122501373 -0.740515172481537 -3.33523845672607 -2.87822794914246 -2.1267626285553 -1.86848759651184 -1.93661069869995 -2.42890381813049 -2.67315626144409 -2.93938159942627 -3.01547026634216 -2.95121383666992 -3.12877225875854 -2.47246789932251 -3.27692604064941 -3.24729156494141 -3.12413907051086 -2.4973475933075 0.509738564491272 2.24610805511475 2.22051286697388 1.76632976531982 2.93991732597351 2.20819902420044 1.67398536205292 3.07254886627197 3.92853093147278 4.16518497467041 5.21358108520508 6.42179203033447 6.99828052520752 11.4486389160156 13.8166971206665 9.42719459533691 8.1052770614624 7.06491279602051 6.62850141525269 6.4364185333252 8.66966152191162 12.7516622543335 11.2721147537231 6.8034086227417 8.28412055969238 11.2958822250366 11.6840686798096 9.80350017547607 8.30721187591553 8.7194242477417 7.20847320556641 2.72061014175415 3.1242573261261
1.77033042907715 1.2280033826828 0.860334455966949 0.94273829460144 1.73073935508728 2.57406783103943 2.71944093704224 3.6245288848877 3.0312077999115 2.29698419570923 1.76859271526337 1.66889631748199 1.55670595169067 1.40671765804291 1.28461849689484 1.10900402069092 0.910428762435913 0.875277757644653 0.784906625747681 0.612959086894989 0.526600658893585 0.465968728065491 0.392219811677933 0.278974711894989 0.218476042151451 0.20843143761158 0.170059189200401 0.18004322052002 0.297261953353882 0.477172315120697 0.718979120254517 0.810783207416534 0.683881342411041 0.506370365619659 1.38338279724121 1.78532159328461 2.16667628288269 2.71747231483459 1.66582608222961 -0.80921345949173 -0.892474412918091 -0.627259492874146 -1.31230628490448 -1.49833357334137 -1.36974763870239 -1.02778327465057 -0.489201992750168 -0.171933203935623 0.0871215164661407 0.0732562988996506 0.138124018907547 0.0995430797338486 0.27389794588089 0.993543565273285 1.22024381160736 1.18875348567963 0.513300657272339 0.311177104711533 1.22896993160248 0.162538468837738 1.40239524841309 -0.157858937978745 -1.77332544326782 0.438298344612122 2.48884344100952 2.11586356163025 3.48777318000793 5.043869972229 6.14509582519531 7.04092407226562 8.20932579040527 9.24808788299561 10.5441608428955 10.2839965820312 7.37024879455566 7.32568550109863 7.33341264724731 2.47032499313354 2.51841473579407 2.45751571655273 2.29984354972839 2.13009309768677 1.6937689781189 1.30156743526459 0.882452607154846 0.468792945146561 0.228264391422272 -0.38084813952446 -0.857437491416931 -0.75108540058136 -0.363000601530075 0.0682457238435745 0.812007248401642 1.15244042873383 1.60259783267975 1.7999005317688 1.96050822734833 2.04421138763428 1.76517832279205 2.88468742370605 4.8108377456665 5.50860595703125 4.1374831199646 1.39363086223602 -0.211868971586227 -2.27527141571045 -2.63246083259583 -0.747981011867523 1.79475712776184 1.3022495508194 2.5633556842804 1.87976944446564 2.09362387657166 2.34419727325439 4.89128875732422 4.17091655731201 4.23219442367554 2.71272540092468 2.69664216041565 3.16129684448242 3.04312634468079 4.18801021575928 2.44148850440979 2.94634795188904 5.62114572525024 -1.11326265335083 -2.03287315368652 -2.03901839256287 -2.69878959655762 -2.89975571632385 -2.76844143867493 -3.14403247833252 -2.58088421821594 -1.1575049161911 0.268998205661774 -0.0548873841762543 -2.85930943489075 -3.25809550285339 -1.56013369560242 0.530291974544525 1.47638475894928 1.18285298347473 0.341259449720383 -0.0718967616558075 0.151355057954788 0.819664061069489 1.89094805717468 2.11036014556885 2.98187899589539 5.36354351043701 5.97825813293457 7.24971961975098 8.26232624053955 8.34968757629395 10.0794849395752 8.27826595306396 6.06288528442383 4.2694993019104 5.78530263900757 9.35302066802979 9.96995544433594 9.27595043182373 7.05312061309814 9.30152893066406 9.12884330749512 9.48364543914795 5.76701593399048 6.05256509780884 6.26070404052734 5.25441074371338 2.68654942512512 2.9335949420929
1.32581698894501 0.926630198955536 0.895045280456543 1.3275238275528 1.58646857738495 1.94434714317322 2.63690423965454 4.07313442230225 4.18514776229858 3.22594618797302 2.71282744407654 1.86080873012543 1.52632904052734 1.40327441692352 1.15494298934937 1.01633369922638 0.878382503986359 0.772557556629181 0.700067400932312 0.551998555660248 0.480365186929703 0.404756039381027 0.309508800506592 0.211483269929886 0.173248872160912 0.144257396459579 0.131772264838219 0.148407325148582 0.369790732860565 0.684083819389343 0.661175072193146 0.728287279605865 0.686815500259399 0.723332762718201 1.20920979976654 1.82177209854126 2.63161277770996 4.17803812026978 3.39084196090698 -0.240043729543686 -0.582373321056366 0.473897039890289 0.181781977415085 0.1052475720644 0.0816890075802803 -1.01568198204041 -0.735624670982361 -0.327962934970856 -0.0816911160945892 -0.00485015287995338 0.0741769894957542 -0.0205213539302349 0.364589422941208 1.08486533164978 1.15241479873657 1.01953780651093 0.436619937419891 1.42025351524353 2.30069255828857 0.722241461277008 1.86728358268738 1.50855183601379 4.31905317306519 7.33745718002319 4.42650556564331 2.54740142822266 3.57378697395325 4.77521705627441 5.67458868026733 6.68893146514893 7.95591354370117 8.84717464447021 8.78923320770264 7.57126998901367 6.26921558380127 4.00349569320679 2.26756525039673 2.23160696029663 2.27389287948608 2.13776922225952 1.977907538414 1.73983299732208 1.18228900432587 0.648443281650543 0.34953573346138 0.124090582132339 -0.159501552581787 -0.489380866289139 -0.997994601726532 -0.992449879646301 -0.762994825839996 -0.347028017044067 0.084990106523037 0.616581320762634 1.13980829715729 1.44866907596588 1.70374584197998 1.78269171714783 1.58821713924408 2.75078225135803 4.54618453979492 4.6419849395752 3.53212451934814 0.549953162670135 1.09069812297821 0.0417740643024445 -2.27210474014282 -1.75246155261993 1.76527857780457 4.79483413696289 4.92332077026367 4.68263578414917 5.31899261474609 6.3901219367981 8.81394195556641 8.85272693634033 5.41935443878174 4.57959079742432 4.9885573387146 3.94180989265442 4.79837846755981 3.05881857872009 5.06425142288208 3.73752403259277 3.29368185997009 3.14157629013062 -0.192583292722702 -2.51877808570862 -2.93048429489136 -3.07318878173828 -1.5282883644104 1.22544956207275 1.08283853530884 1.66866230964661 2.47944903373718 4.10324192047119 3.32083010673523 0.441877156496048 -0.147586405277252 0.731033086776733 0.872511625289917 0.392553478479385 -0.268758058547974 -0.501818478107452 -0.31728658080101 -0.179480150341988 -0.374319612979889 0.0347082279622555 0.690889775753021 1.5799400806427 3.9922730922699 5.27056312561035 6.83438205718994 6.59070062637329 5.82757377624512 4.56824541091919 3.80110836029053 4.29731702804565 5.57668256759644 7.2445707321167 7.84707450866699 6.40481901168823 7.22550535202026 8.65513801574707 8.56368732452393 6.88783884048462 4.92466640472412 3.12411594390869 5.4553108215332 2.99999785423279 2.61696910858154 2.28914546966553
1.07762384414673 1.09056746959686 0.934533953666687 1.11133778095245 1.46855044364929 1.94087398052216 2.59273910522461 3.57343292236328 4.81635713577271 4.29754781723022 3.39347195625305 2.42165470123291 2.22621655464172 1.71918523311615 1.32387053966522 0.903978228569031 0.836238384246826 0.745033442974091 0.596739232540131 0.523274719715118 0.459571540355682 0.370095938444138 0.248437941074371 0.161417543888092 0.117063850164413 0.0884692519903183 0.102775104343891 0.219960436224937 0.404441595077515 0.626717805862427 0.68867039680481 0.612169146537781 0.579193711280823 1.12141752243042 1.42775905132294 1.76033687591553 2.35132670402527 4.62531518936157 4.80756139755249 1.14326286315918 -0.876933515071869 1.22315061092377 1.25257050991058 2.04677939414978 0.772283673286438 -1.03040111064911 -0.808243870735168 -0.372199565172195 -0.194447994232178 -0.0884464904665947 0.0242444835603237 0.149006545543671 0.40070566534996 0.984287798404694 1.06899321079254 0.489844560623169 0.300968676805496 1.22214913368225 2.30327248573303 0.995971202850342 1.14288675785065 2.58104872703552 6.10562133789062 5.44917821884155 5.86557054519653 7.02822160720825 4.8004674911499 4.62787580490112 5.33774614334106 6.71735095977783 7.32593107223511 7.42225933074951 7.15461540222168 5.28108692169189 3.84276485443115 2.05671787261963 2.02224540710449 2.08187007904053 2.05694627761841 1.90609681606293 1.69795143604279 1.09553575515747 0.567700147628784 0.106692768633366 -0.052132461220026 -0.232921153306961 -0.610788941383362 1.77785134315491 -0.442368894815445 -1.06263828277588 -0.903898537158966 -0.631989479064941 -0.22285558283329 0.347264468669891 0.677917778491974 1.03022623062134 1.33684766292572 1.38577175140381 1.83373022079468 3.67109823226929 4.71517133712769 3.56840538978577 5.78587102890015 1.04810810089111 2.95962190628052 3.58263993263245 -1.42167615890503 0.31437760591507 2.87064743041992 5.9819917678833 6.69490337371826 5.86673212051392 6.74195051193237 7.55313968658447 8.83770751953125 9.20495319366455 6.2016773223877 5.35796451568604 3.51531553268433 4.45398855209351 5.06956434249878 2.55299115180969 -2.61743974685669 3.90537142753601 3.35355830192566 3.20220613479614 2.09738206863403 1.81810736656189 -2.14471530914307 -0.415596067905426 1.72942495346069 2.31818437576294 2.22172975540161 2.24142551422119 2.07719993591309 2.6543025970459 3.08935713768005 2.91277670860291 1.66631472110748 0.834726631641388 0.637453079223633 -0.203021690249443 -0.54356586933136 -0.546369135379791 -0.450556576251984 -0.652801334857941 -0.696465969085693 -0.269691944122314 0.397875070571899 1.06393492221832 2.57956457138062 3.98675155639648 4.08168029785156 4.09029483795166 4.26335668563843 3.58286690711975 2.86224603652954 3.71400713920593 5.29344511032104 5.80083703994751 4.94837665557861 5.90896129608154 7.74663496017456 7.7053689956665 8.16952323913574 6.2560338973999 8.2060432434082 7.58408641815186 4.18849945068359 2.92299556732178 2.87440705299377 3.25490403175354
0.973966598510742 0.877993047237396 0.95873886346817 1.13216495513916 1.49252033233643 1.88746070861816 2.45014190673828 3.2491295337677 4.25108480453491 4.54217910766602 3.79267811775208 3.04700422286987 2.37454462051392 2.26374220848083 1.60237956047058 0.934152364730835 0.750637054443359 0.685314118862152 0.542439937591553 0.476093769073486 0.402811884880066 0.293816894292831 0.184028565883636 0.092002160847187 0.0499769076704979 0.033967100083828 0.060818936675787 0.259626388549805 0.573048710823059 0.558708488941193 0.626501560211182 0.560875415802002 0.603858292102814 1.10366153717041 1.56811547279358 1.72455334663391 2.67632699012756 3.35049390792847 4.90049505233765 1.49835669994354 -0.292415976524353 1.75020933151245 2.32516837120056 3.18592286109924 4.11039066314697 1.99723958969116 0.263834685087204 -0.451632410287857 -0.23760087788105 -0.0799835324287415 -0.0778370499610901 0.419382691383362 0.739362478256226 0.885975182056427 0.943037271499634 0.395556777715683 0.847585916519165 1.47577738761902 2.02718782424927 1.72434282302856 1.30950331687927 3.75482583045959 4.91433763504028 6.58798217773438 6.55202674865723 4.15462398529053 3.72493648529053 4.52534484863281 6.29290819168091 5.76684188842773 5.60074138641357 5.37151050567627 4.33117437362671 3.68245983123779 1.8311448097229 1.89236450195312 1.76650679111481 1.82192397117615 1.67956674098969 1.50066959857941 1.15384256839752 0.657742261886597 0.0728486403822899 -0.303164690732956 -0.367785692214966 -0.443455457687378 -0.707910656929016 2.17412781715393 3.60885453224182 2.81804704666138 2.71850442886353 4.84248828887939 3.00304937362671 0.276379495859146 0.405950546264648 0.610056161880493 0.535976409912109 0.414956629276276 1.10963761806488 3.76796889305115 4.60477828979492 7.08227109909058 5.72650718688965 1.84439849853516 1.38582491874695 3.47254467010498 1.96907830238342 0.553431212902069 2.84139037132263 4.44955730438232 4.81994676589966 5.54881429672241 6.10047054290771 7.56533241271973 8.18218612670898 9.23351287841797 7.41113328933716 6.73649311065674 4.0658392906189 2.63912034034729 2.13201594352722 0.857206761837006 -2.77487397193909 -2.75955557823181 0.987902641296387 -0.336314648389816 5.8108925819397 8.80841827392578 4.73119878768921 3.43022418022156 0.348308026790619 0.788795828819275 2.10586404800415 2.3148021697998 1.7681337594986 1.46722447872162 0.423660099506378 0.381324827671051 2.23187780380249 2.82843112945557 1.55209493637085 2.76955890655518 2.81196928024292 1.44668173789978 0.589834272861481 0.130019262433052 3.34405589103699 2.12362575531006 2.90492868423462 3.79878449440002 1.98838376998901 2.98873376846313 3.3651659488678 3.17033076286316 2.68478417396545 2.37513828277588 2.77603983879089 3.78231358528137 4.47406530380249 4.96429109573364 5.22763967514038 6.03029918670654 6.9697585105896 7.30455923080444 6.83325529098511 6.93225002288818 9.33267593383789 9.84456157684326 5.34201240539551 2.89195728302002 2.27489614486694 2.242680311203
0.775460243225098 0.852205455303192 1.01428425312042 1.18477940559387 1.52655959129333 1.83274412155151 2.37808585166931 2.96048402786255 3.63835000991821 4.64390516281128 4.00986671447754 2.89887928962708 2.55193018913269 2.50335359573364 1.85244190692902 1.1102706193924 0.722328007221222 0.558085381984711 0.474029392004013 0.406679153442383 0.341902703046799 0.217564076185226 0.117383904755116 0.0385600551962852 -0.019606614485383 -0.0123809305950999 0.111970141530037 0.297638237476349 0.512799739837646 0.553586959838867 0.522594034671783 0.505311906337738 0.795701265335083 1.18119490146637 1.5520726442337 1.91322088241577 2.71258974075317 3.22389101982117 3.45658493041992 2.31808733940125 0.376984506845474 1.7493976354599 2.90839123725891 3.93959069252014 4.28476619720459 6.88609790802002 2.50900864601135 -0.454525887966156 -0.29744616150856 -0.135000437498093 0.491693258285522 0.685622870922089 0.885888040065765 0.876027405261993 0.752241015434265 0.32083734869957 0.85437673330307 1.39141762256622 2.47030448913574 2.86675953865051 2.04446697235107 4.47321462631226 4.68993806838989 5.13675689697266 2.94574117660522 3.26770925521851 5.40348672866821 5.32685852050781 4.56124114990234 4.06315231323242 3.94934916496277 3.95938754081726 2.67805027961731 1.11640763282776 1.1200122833252 1.39413583278656 1.40544867515564 1.52050948143005 1.34529078006744 1.14424026012421 0.623258471488953 0.156793728470802 -0.22253406047821 -0.505409955978394 -0.638870716094971 -0.700621128082275 1.27195477485657 3.78648614883423 5.56745624542236 7.75595855712891 6.43341970443726 5.0386061668396 2.55819892883301 0.251424968242645 0.242694944143295 0.17613223195076 -0.0930017977952957 -0.27404060959816 0.399186879396439 4.13100671768188 7.80053520202637 14.7050886154175 10.1926784515381 4.47254657745361 2.40411615371704 3.8976833820343 2.73147320747375 0.936821341514587 2.38913226127625 3.87841272354126 4.12888669967651 5.59363222122192 6.76757287979126 7.44460439682007 8.11752796173096 8.57200813293457 8.22752571105957 7.76159143447876 3.45074987411499 1.50056302547455 0.934037506580353 -0.092016227543354 -0.469086915254593 -4.03105926513672 -3.47269201278687 -0.826798021793365 5.78602838516235 9.55848789215088 1.51203167438507 0.189414113759995 -0.211245849728584 1.36315774917603 1.05553376674652 1.08776068687439 1.20693206787109 0.442147731781006 0.237163811922073 2.14171433448792 7.67681550979614 11.3792581558228 12.8365421295166 10.7600002288818 7.86657476425171 6.90769338607788 5.94455671310425 10.1621198654175 10.9091196060181 5.79578351974487 1.86594879627228 3.01838850975037 2.01716208457947 2.51572394371033 2.70344233512878 2.68620586395264 2.33541798591614 2.00251197814941 2.06492972373962 3.21922731399536 3.82114672660828 3.44474411010742 4.81071186065674 6.16296339035034 5.9713020324707 6.6916127204895 6.02775478363037 6.66387510299683 7.01907444000244 7.73592090606689 6.09100770950317 3.57031989097595 3.82845973968506 3.56441426277161
0.783106327056885 0.882994890213013 1.04647028446198 1.19272434711456 1.51080906391144 1.83731925487518 2.27052092552185 2.76748061180115 3.45068669319153 4.43119382858276 4.2458963394165 3.32948589324951 2.77122497558594 2.6307168006897 2.43463158607483 1.45449185371399 0.65673553943634 0.489796459674835 0.413161844015121 0.346515506505966 0.275097101926804 0.143979758024216 0.0281637832522392 -0.0238651651889086 -0.0726232603192329 -0.0610716566443443 0.136850968003273 0.442315369844437 0.449520617723465 0.4922856092453 0.45588755607605 0.365666270256042 0.658673226833344 1.16396069526672 1.39951348304749 2.32654070854187 2.69879984855652 3.04001688957214 2.70923113822937 2.82922053337097 0.992627680301666 1.87720024585724 2.87555289268494 3.70558142662048 4.72755098342896 4.44982004165649 3.57615756988525 -0.105813167989254 -0.314662337303162 -0.18034003674984 0.114544980227947 0.716626644134521 0.859492361545563 0.844899713993073 0.3021240234375 0.368828147649765 0.856880903244019 1.06569933891296 2.29706954956055 4.63421249389648 7.96065282821655 6.45962762832642 7.24169397354126 3.77212691307068 2.80058717727661 4.91150331497192 3.85728812217712 3.87500596046448 2.88034009933472 2.13332414627075 1.97717249393463 1.4938657283783 0.534601271152496 -0.0553921982645988 0.713769614696503 0.95663195848465 0.989522039890289 1.05157291889191 0.965873301029205 0.848878622055054 0.525464236736298 2.92288637161255 5.65723943710327 6.46123218536377 6.73142719268799 4.9060115814209 5.86554336547852 6.50935077667236 7.68674325942993 10.7321262359619 8.61248874664307 3.67951989173889 -0.234933078289032 0.118758372962475 -0.0259622111916542 -0.296449601650238 -0.440023124217987 -0.682807385921478 0.203159555792809 3.55883979797363 7.3974781036377 18.8046283721924 14.7377471923828 6.8882269859314 3.36723327636719 1.9127060174942 1.95264279842377 1.51895451545715 2.10515856742859 3.25281763076782 4.37655639648438 5.43221807479858 7.13085746765137 7.62792301177979 7.99224042892456 7.57685089111328 8.26531791687012 6.5630898475647 5.11504745483398 3.50108027458191 1.66254770755768 2.76094579696655 3.92397165298462 -0.905935406684875 -3.69367790222168 0.0277536697685719 5.82554292678833 8.96898460388184 3.06481194496155 1.2827410697937 0.901920258998871 0.464722722768784 0.351456105709076 0.716317892074585 1.09346568584442 2.99100661277771 6.88098192214966 12.0299158096313 12.0617170333862 10.7649583816528 12.1076936721802 12.2267427444458 12.5516700744629 11.5647487640381 13.1237497329712 14.7368650436401 14.5099515914917 13.7190418243408 7.44957876205444 3.59698963165283 2.36100649833679 2.44418454170227 2.61020421981812 2.32873439788818 2.0099790096283 1.69480788707733 1.52478158473969 1.90251195430756 2.83956813812256 3.37389588356018 4.47557067871094 5.74294519424438 5.90929985046387 5.49993562698364 5.60255718231201 5.83874940872192 6.16287469863892 4.54557418823242 3.43939828872681 2.40035438537598 2.16464900970459 2.54417061805725
0.772840678691864 0.897448420524597 1.02317261695862 1.2183552980423 1.44233179092407 1.83324408531189 2.17896389961243 2.71920537948608 3.20079898834229 3.95134377479553 4.42961502075195 3.65186047554016 3.2624044418335 2.90185904502869 2.64853572845459 2.07465577125549 0.867756724357605 0.451733142137527 0.373269349336624 0.310007512569427 0.22893750667572 0.0832483246922493 -0.0551902242004871 -0.0906529426574707 -0.104547291994095 -0.0322659350931644 0.146188005805016 0.359011232852936 0.425728648900986 0.407241493463516 0.394564151763916 0.307017594575882 0.590025424957275 0.897814273834229 1.52071416378021 2.32526183128357 2.73581695556641 2.45446538925171 2.03182482719421 1.75851607322693 0.843718647956848 1.83757555484772 2.9023129940033 3.46442174911499 4.36493968963623 3.43978500366211 3.88674306869507 3.62537217140198 0.659985661506653 -0.181537434458733 0.271104514598846 0.817933201789856 0.839299380779266 0.669484913349152 0.20951347053051 0.486710011959076 0.838026225566864 1.2573424577713 2.3242199420929 4.13221120834351 4.28214645385742 4.14583206176758 3.30291295051575 2.29337239265442 2.78317618370056 2.86717796325684 3.34267687797546 3.27647495269775 2.61642742156982 1.6240701675415 1.06039428710938 0.220815390348434 -1.20817804336548 -0.761219680309296 0.206729754805565 0.586679399013519 0.620075643062592 0.569950640201569 0.559845507144928 0.515852630138397 3.86258316040039 7.38397789001465 9.05250930786133 8.7912712097168 9.16505432128906 8.43771076202393 8.61884498596191 7.22990369796753 7.441819190979 6.70785093307495 5.39308881759644 3.02566289901733 0.554102301597595 -0.103971362113953 -0.16842582821846 -0.475247591733932 -0.812656402587891 -0.97775000333786 0.341968268156052 2.5604350566864 9.44119453430176 19.0051822662354 20.4672203063965 9.2216329574585 3.71189665794373 1.75226628780365 1.42504620552063 2.02785563468933 1.86047720909119 2.45071625709534 4.24284648895264 5.48081874847412 6.81584453582764 7.65277147293091 7.24099683761597 7.60512399673462 7.91740036010742 7.89609813690186 6.58563613891602 6.47995233535767 6.3713903427124 6.79934692382812 5.53219032287598 1.10138261318207 -3.57271647453308 -0.0443969070911407 5.21143293380737 9.0340747833252 6.45899343490601 3.03854942321777 3.36736226081848 0.730572104454041 1.15553867816925 1.49732828140259 2.9535961151123 6.31174850463867 10.2559032440186 11.1631031036377 8.46385478973389 9.43386363983154 9.39222526550293 8.94888401031494 7.23963069915771 7.47392654418945 10.4346332550049 11.9790496826172 12.8843994140625 14.1724443435669 11.899863243103 7.33576393127441 3.26075911521912 2.29306221008301 2.2814633846283 1.99244129657745 1.6786857843399 1.34463465213776 0.954175591468811 1.17651581764221 1.73364591598511 3.67218136787415 4.70733737945557 5.37073850631714 5.48729562759399 4.56005907058716 4.53817462921143 4.84875535964966 2.69092559814453 1.90711200237274 2.08444261550903 1.78800070285797 1.49918234348297 2.94384121894836
0.77409815788269 0.91715794801712 1.05254304409027 1.25644028186798 1.41773450374603 1.77767741680145 2.17941212654114 2.54032135009766 3.05940103530884 3.69587540626526 4.03527116775513 3.55566310882568 3.58554267883301 2.93934464454651 2.56166076660156 2.37001943588257 1.82028603553772 0.967718780040741 0.352001190185547 0.270853519439697 0.131971210241318 -0.011116704903543 -0.140314534306526 -0.170422777533531 -0.196400001645088 -0.0207814089953899 0.240404486656189 0.258744806051254 0.326601833105087 0.328723043203354 0.268212109804153 0.278722494840622 0.624525666236877 0.975773930549622 1.69620025157928 2.18450140953064 2.53130960464478 2.01847791671753 1.62414741516113 0.680842161178589 0.86760401725769 1.84423363208771 2.49600601196289 3.132155418396 2.51232981681824 2.70472693443298 2.5086886882782 2.21717405319214 1.70762884616852 0.349742323160172 0.608169436454773 0.75709331035614 0.786308228969574 0.809583067893982 0.61133337020874 0.529661297798157 0.664615035057068 1.51385700702667 2.46077656745911 3.56862282752991 2.71888136863708 1.41367137432098 1.69232904911041 2.20597624778748 2.3332507610321 2.46738195419312 2.73023176193237 3.87878966331482 3.09551763534546 2.04911160469055 0.254333972930908 -1.01026606559753 -1.49584758281708 -1.22617089748383 -0.490259677171707 -0.0186907239258289 0.0987063497304916 0.0656488090753555 0.211343601346016 1.83800268173218 3.38368272781372 5.82397413253784 7.71892976760864 9.06889247894287 8.88766288757324 8.41094970703125 6.32332706451416 5.99531555175781 5.82931804656982 4.97748136520386 2.83037233352661 1.57743704319 1.08119988441467 0.677492797374725 -0.330821722745895 -0.653750061988831 -0.999364495277405 -1.10090565681458 0.503938615322113 2.57380318641663 9.63709449768066 14.7288112640381 24.5380592346191 14.3012094497681 7.49143838882446 1.98187100887299 1.51292598247528 3.29417204856873 2.29084825515747 2.77077078819275 4.06628131866455 5.66384649276733 6.53087902069092 6.89547634124756 6.78221368789673 7.46953630447388 7.78903341293335 8.92934131622314 9.02568435668945 6.90171575546265 5.91509485244751 4.78557300567627 4.12745952606201 5.88427829742432 2.34439635276794 0.926023304462433 3.35985732078552 7.0890212059021 6.77219247817993 5.43004989624023 5.0290904045105 5.8097095489502 4.21792888641357 5.19304227828979 6.86665534973145 9.31485080718994 10.273494720459 8.21749782562256 7.99896860122681 7.94393539428711 7.53030109405518 6.58559370040894 6.16808414459229 8.383864402771 10.3807687759399 12.4238758087158 12.2078742980957 11.3171195983887 12.3693027496338 8.81674766540527 4.87731647491455 2.82712292671204 2.14449024200439 3.24986600875854 4.28093767166138 1.40960323810577 0.895404756069183 1.1549813747406 2.00701236724854 3.30109071731567 4.76931095123291 4.81232643127441 5.11855030059814 4.31169509887695 3.69036865234375 2.89989113807678 1.40816807746887 1.62398707866669 1.79905557632446 1.51631355285645 1.13941085338593 2.50949048995972
0.77965921163559 0.895514130592346 1.07944476604462 1.25078999996185 1.42209112644196 1.65870022773743 2.10415720939636 2.52388644218445 2.8521363735199 3.43089461326599 3.4996235370636 3.2004873752594 3.5009868144989 3.30575847625732 2.4366500377655 2.11913156509399 2.21578574180603 1.8032830953598 0.903199374675751 0.168929442763329 0.0210749004036188 -0.114326544106007 -0.236193537712097 -0.266038239002228 -0.283367425203323 -0.137087479233742 0.150588467717171 0.228724926710129 0.215945318341255 0.233669862151146 0.183583572506905 0.295463293790817 0.564769446849823 0.768088638782501 1.56559884548187 2.06305742263794 1.9981015920639 1.63962352275848 1.03449845314026 0.560346066951752 0.916300117969513 1.80114698410034 2.26208114624023 2.44489073753357 1.78229951858521 1.48377990722656 1.75128519535065 0.570716202259064 -0.0627649426460266 0.19625598192215 0.686025559902191 0.72986376285553 0.642873048782349 1.14789414405823 1.58697104454041 2.16654109954834 2.10205793380737 2.39299869537354 2.67885375022888 2.29415822029114 1.45545196533203 1.16814720630646 1.53617405891418 1.76746201515198 2.1823513507843 2.30695176124573 2.31295967102051 2.86487674713135 5.03526973724365 0.882487237453461 -0.0921920761466026 -0.338117748498917 -1.60582375526428 -1.47739994525909 -1.06241810321808 -0.743556022644043 -0.511527061462402 -0.456190258264542 -0.446310102939606 2.44257140159607 4.56933879852295 5.90704536437988 6.81257009506226 7.07270193099976 7.32531833648682 6.35915327072144 5.02337074279785 5.09765005111694 4.22866344451904 2.56763577461243 1.0681346654892 0.574443817138672 0.715143799781799 1.84174990653992 1.30143129825592 -1.00103187561035 -1.20085787773132 -0.864757478237152 0.452141940593719 3.22010016441345 9.41512775421143 14.0140514373779 23.4713459014893 19.5633068084717 13.014181137085 6.74072313308716 1.54250109195709 3.67748689651489 4.30416584014893 2.92416977882385 3.96800303459167 5.21205997467041 6.04621267318726 6.46617698669434 7.61951875686646 7.10392713546753 7.40641117095947 8.30271911621094 8.15256881713867 8.86134910583496 5.79675674438477 4.47747802734375 3.02206659317017 3.84768891334534 0.155454725027084 0.711649894714355 3.04323959350586 6.04583406448364 8.22069263458252 9.19399642944336 5.59086561203003 4.3390736579895 4.94945621490479 6.7756404876709 8.89316654205322 10.2382307052612 10.2511148452759 7.19580745697021 7.98738670349121 8.03175735473633 7.27558135986328 8.52112483978271 11.47398853302 10.4541883468628 9.36943912506104 9.21480560302734 9.48237705230713 8.8451566696167 6.07691431045532 4.39041090011597 2.17703437805176 2.29926562309265 2.25018215179443 4.49546146392822 6.54970455169678 8.21846103668213 6.24925756454468 3.62180757522583 5.16418266296387 3.73618984222412 4.51593685150146 4.65155029296875 4.2606143951416 4.00220823287964 2.82073378562927 0.803812742233276 1.14589130878448 1.21855068206787 0.91187047958374 0.617556214332581 0.570257127285004 2.56575798988342
0.792442381381989 0.886512339115143 1.1085946559906 1.22879087924957 1.44072532653809 1.63844645023346 1.91558301448822 2.39003348350525 2.80540990829468 3.11920595169067 2.94682693481445 2.99889492988586 3.12042427062988 3.59177994728088 2.72947382926941 1.86519038677216 1.86711275577545 1.86042416095734 1.24309980869293 0.089102678000927 -0.0799751430749893 -0.20963229238987 -0.322965353727341 -0.325839757919312 -0.258206933736801 -0.136925041675568 0.0342142358422279 0.122715443372726 0.113229438662529 0.0671994090080261 0.00760951917618513 0.250608116388321 0.58732008934021 0.790979087352753 1.22916388511658 1.81881833076477 1.68320786952972 1.23971486091614 0.586456835269928 0.535844683647156 1.73009359836578 1.73967278003693 2.03450989723206 1.41150653362274 1.25534856319427 1.08137285709381 0.517030358314514 0.238779380917549 -0.00160453096032143 0.508154690265656 0.643829703330994 0.680254638195038 0.276124656200409 0.579739332199097 1.36962080001831 1.36340522766113 1.32554197311401 1.86435437202454 2.08062958717346 1.61504030227661 0.694816529750824 0.955382645130157 1.25259494781494 1.41081523895264 1.71211504936218 1.88014507293701 2.12515664100647 1.87966871261597 1.09876072406769 1.15785992145538 0.374726146459579 -1.64204895496368 -1.72423696517944 -1.62433326244354 -1.41869080066681 -1.16034579277039 0.109815649688244 0.487773001194 0.309954732656479 1.94431495666504 3.85066890716553 5.07982683181763 5.78304767608643 5.77290010452271 5.33119916915894 4.57038879394531 4.26276588439941 3.20128631591797 2.07339930534363 0.416054725646973 -0.988674998283386 -1.3790031671524 -1.06319856643677 -1.15232157707214 0.10921847820282 0.311732441186905 1.41247010231018 1.97595500946045 0.5572350025177 3.63385653495789 9.56078910827637 14.0995922088623 17.8446102142334 19.3661499023438 15.849217414856 5.38172054290771 1.58341681957245 2.57502508163452 4.2122483253479 4.20882558822632 3.90149712562561 4.7474684715271 5.6876277923584 6.43503379821777 6.84365749359131 6.46054697036743 7.23410081863403 7.53662443161011 8.00709819793701 8.62827205657959 10.4287424087524 7.6557502746582 2.71164894104004 -1.51807773113251 -1.46234917640686 -0.085656076669693 2.17713809013367 5.31730890274048 8.12748432159424 8.63372039794922 6.28972291946411 5.28662109375 5.76603555679321 7.67719078063965 8.36982536315918 7.74893093109131 7.11245346069336 7.8635721206665 7.73219203948975 10.0668249130249 13.4281234741211 14.3305149078369 12.9269962310791 10.8119115829468 8.6128625869751 8.09668159484863 6.06543254852295 5.06649875640869 4.20053052902222 2.06265044212341 1.9386979341507 1.91792500019073 1.9268547296524 3.77785754203796 7.3611216545105 8.49444580078125 10.63694190979 8.65067768096924 3.9932804107666 4.02905035018921 4.11397409439087 4.38428735733032 3.79333806037903 3.14126253128052 1.69992125034332 0.889563083648682 0.604025423526764 0.455716669559479 0.169142872095108 0.074010394513607 -0.533134043216705 1.6704386472702
0.792679309844971 0.90206104516983 1.10081577301025 1.24706590175629 1.42568373680115 1.61012542247772 1.90486538410187 2.18542861938477 2.53855776786804 2.7399435043335 2.64795660972595 2.75981116294861 2.88029074668884 3.17866921424866 2.83380317687988 2.07644033432007 1.64083003997803 1.27082788944244 2.00829744338989 1.04190933704376 0.098967432975769 -0.248707219958305 -0.336984992027283 -0.374153941869736 -0.289066135883331 -0.076376274228096 -0.0703476369380951 0.0199616104364395 0.0270338729023933 -0.0170961767435074 -0.134013518691063 0.096782959997654 0.358302146196365 0.789367258548737 1.18091344833374 1.45955610275269 2.06904268264771 1.75118589401245 0.302453637123108 0.95956552028656 3.49004292488098 1.65107572078705 1.73745596408844 1.21503758430481 0.629783809185028 0.843454957008362 0.221782356500626 -0.19708938896656 0.140025600790977 0.574823379516602 0.600739717483521 0.510066330432892 0.168826445937157 0.0908208042383194 0.395723730325699 0.490301907062531 0.961104512214661 1.05668163299561 1.38632321357727 0.901191353797913 0.352216452360153 0.732578814029694 0.776975989341736 0.623369455337524 1.01046824455261 1.46989142894745 1.73131251335144 1.54349827766418 1.33953189849854 1.9117339849472 0.289105802774429 -0.312655627727509 0.180207118391991 -1.68606722354889 -1.56884384155273 -0.948298811912537 0.591303884983063 1.56286549568176 3.30250453948975 3.25410461425781 4.20673894882202 4.84999799728394 4.76457357406616 4.77300405502319 4.00451803207397 3.58122515678406 3.0843403339386 1.98291683197021 0.14239402115345 -1.77409362792969 -2.37345337867737 -2.39625453948975 -2.18830418586731 -1.35806882381439 -1.24473011493683 0.111478842794895 0.0517181791365147 -0.0634706169366837 0.913660109043121 4.68146133422852 9.13802337646484 12.8343019485474 16.4248142242432 13.3724031448364 11.0572071075439 4.81450080871582 1.66627526283264 2.04097008705139 3.26782989501953 3.41061115264893 4.17505598068237 5.04163217544556 5.59950113296509 6.26463222503662 6.40388870239258 6.36918497085571 6.56293773651123 6.94921731948853 7.31732082366943 8.06401252746582 7.40266275405884 5.80877637863159 3.75556039810181 -3.30886101722717 -1.94069194793701 -1.0842752456665 0.83065003156662 4.54247665405273 7.27326393127441 7.89766883850098 8.24377632141113 7.8075065612793 9.77113246917725 8.97957706451416 9.52400016784668 9.96598815917969 9.1330451965332 9.20161056518555 8.49456214904785 10.5232667922974 11.425971031189 11.0617265701294 9.70064353942871 8.71798229217529 7.24083232879639 5.62726306915283 3.43013453483582 1.61700630187988 1.87936818599701 2.06141424179077 2.32257580757141 1.73568773269653 1.80751860141754 4.10388946533203 6.04224538803101 7.48811149597168 7.73612213134766 8.17207622528076 5.99920129776001 3.92684936523438 3.97482061386108 3.55253791809082 3.3592677116394 2.60129737854004 1.99343991279602 0.980489492416382 0.419081956148148 -0.169631704688072 -0.623518586158752 -0.981470346450806 -1.16674911975861 0.397347539663315
0.797734081745148 0.92703115940094 1.04155492782593 1.25797617435455 1.385094165802 1.59727215766907 1.83895969390869 2.02744555473328 2.35113620758057 2.37555694580078 2.40810132026672 2.40915632247925 2.67118835449219 2.63370680809021 2.58323740959167 1.88698267936707 1.6604300737381 1.35662186145782 2.79370212554932 2.8011314868927 1.6069700717926 1.01294934749603 -0.374623239040375 -0.349531710147858 -0.285112887620926 -0.173935785889626 -0.118976034224033 -0.113161027431488 -0.08249332010746 -0.117913492023945 -0.249107673764229 0.0835048779845238 0.289513796567917 0.804253756999969 1.06652295589447 1.19056379795074 2.55458235740662 2.87733221054077 1.89071571826935 1.74580228328705 1.26737785339355 1.4910876750946 0.984330773353577 0.857959091663361 0.527982950210571 0.132002919912338 -0.0861325189471245 -0.055059589445591 0.129680067300797 0.480951279401779 0.49397149682045 0.073498323559761 -0.0450122691690922 -0.153463751077652 -0.169391080737114 -0.0612520538270473 0.0680494904518127 0.402101933956146 -0.0065170512534678 -0.305788308382034 0.0175380818545818 0.20453542470932 0.234639182686806 -0.011546571739018 0.374931246042252 0.677623510360718 1.16895461082458 1.37769103050232 0.879974544048309 1.02109014987946 1.26554000377655 2.32455849647522 3.91108202934265 3.69402170181274 1.24524796009064 0.243153274059296 0.304188191890717 1.75823533535004 1.80310893058777 2.97779226303101 3.76362681388855 4.21924352645874 4.09959077835083 3.5561203956604 2.96228933334351 2.64588093757629 1.63188982009888 0.186739638447762 -2.38599014282227 -2.95949077606201 -3.20406746864319 -3.25138473510742 -2.73136401176453 -2.49884343147278 -1.19729006290436 -0.36343640089035 -0.408566057682037 0.0949099585413933 0.783359110355377 5.17385482788086 8.84689331054688 11.4615230560303 13.1079378128052 9.80361175537109 5.72580575942993 4.87981414794922 1.82446432113647 1.86124217510223 2.72270846366882 3.6006908416748 4.50560855865479 6.47547483444214 5.63768005371094 5.90552949905396 5.75971651077271 6.08128452301025 5.96216678619385 5.80690050125122 6.000563621521 6.51689052581787 6.19572591781616 5.09582376480103 1.92938160896301 0.636301577091217 -2.07839155197144 -1.56145536899567 -0.0927126184105873 3.14866757392883 5.59810972213745 7.52633810043335 10.524320602417 10.7632436752319 9.70619106292725 9.70096206665039 7.14042997360229 6.22703838348389 8.97365951538086 9.10619735717773 8.83078002929688 9.7496919631958 10.1752347946167 10.4047231674194 10.0938653945923 7.69884967803955 6.75186538696289 4.52172231674194 1.45342457294464 1.46991729736328 1.73232662677765 1.93386006355286 5.21601963043213 4.98964166641235 1.76779615879059 4.19993782043457 5.30346298217773 5.82890796661377 5.99793338775635 4.06842184066772 3.65541195869446 3.57219672203064 3.67771339416504 3.19114947319031 2.68395137786865 2.64835286140442 5.37981939315796 7.15004014968872 10.6573657989502 4.76207685470581 -0.645068883895874 -1.70191359519958 -1.32047319412231 0.0202683378010988
0.818268895149231 0.941431760787964 1.04269707202911 1.24084734916687 1.39190173149109 1.59324729442596 1.74136590957642 1.98890650272369 2.10216069221497 2.07953500747681 2.17948079109192 2.25399661064148 2.25672769546509 2.42941474914551 2.28005218505859 1.62961876392365 1.850470662117 1.86704862117767 2.32915115356445 2.98278641700745 2.84082984924316 1.21239733695984 -0.391050606966019 -0.334896922111511 -0.168785125017166 -0.229683250188828 -0.216960370540619 -0.21718256175518 -0.230410426855087 -0.269508570432663 -0.319231659173965 -0.10611816495657 0.267217397689819 0.731953024864197 0.968528091907501 1.00647807121277 1.54434406757355 3.58633971214294 2.61127066612244 2.30919694900513 1.11956584453583 1.28745079040527 0.839507043361664 0.299842923879623 0.403090536594391 -0.0957097113132477 -0.224653378129005 -0.0926594287157059 0.303034037351608 0.376267075538635 0.367621392011642 -0.113032266497612 -0.512419581413269 -0.70238208770752 -0.768647909164429 -0.48724377155304 -0.406332969665527 -0.407980263233185 -0.829716384410858 -0.469566017389297 -0.203421905636787 -0.200095891952515 -0.277710676193237 -0.407481282949448 -0.272062122821808 -0.0216792523860931 0.194068625569344 0.332333385944366 0.187000468373299 0.441691905260086 1.57368886470795 2.95496702194214 2.34166884422302 3.07401990890503 3.18041729927063 0.962064683437347 0.567413628101349 1.52897703647614 2.58782982826233 3.27138304710388 3.66008949279785 3.51500344276428 2.92920565605164 2.30377078056335 2.10459184646606 1.20554375648499 -0.213373422622681 -1.6002242565155 -3.146733045578 -3.53750467300415 -3.65590286254883 -3.6306164264679 -3.47114682197571 -2.9590892791748 -2.66767072677612 -0.99115663766861 -0.347343146800995 0.509106516838074 3.05072736740112 5.3398175239563 8.03030681610107 11.2924709320068 9.28787994384766 6.08527755737305 5.13907146453857 4.55849075317383 1.87481391429901 4.21265697479248 3.61500453948975 4.28974008560181 6.5627179145813 7.67083168029785 6.09044027328491 5.75928354263306 5.74298858642578 5.84978771209717 5.79832744598389 5.15847873687744 4.99558448791504 4.69362783432007 4.14479112625122 2.99497079849243 4.57846212387085 3.60096287727356 2.22268462181091 0.00322384922765195 -0.530564427375793 1.78678798675537 4.94725608825684 6.72319793701172 8.82835483551025 12.2355098724365 12.0297069549561 11.0543785095215 9.53986358642578 6.60537147521973 7.84099769592285 7.46707916259766 8.01308822631836 8.67904567718506 8.98095893859863 8.44703197479248 7.95579624176025 6.8183913230896 5.01927995681763 5.61068344116211 8.27406597137451 5.81809234619141 2.23389649391174 1.90568959712982 4.77800321578979 6.04397344589233 3.65508627891541 3.91472411155701 4.70184183120728 4.31851148605347 3.3777801990509 3.20819926261902 3.42466711997986 3.36995673179626 2.93165755271912 2.76112937927246 2.14176249504089 2.19645476341248 5.57900047302246 11.1210269927979 11.3350849151611 11.8620576858521 7.88874483108521 3.0468316078186 0.788645803928375 -0.0711957514286041
0.832454800605774 0.93198549747467 1.0511189699173 1.2128484249115 1.4000256061554 1.55984890460968 1.70101976394653 1.85535979270935 1.84844744205475 1.81080949306488 1.82403016090393 1.94630897045135 1.95531094074249 1.84614992141724 1.74113762378693 1.57757949829102 1.63119769096375 2.34501147270203 2.49724078178406 2.96299743652344 2.78090333938599 1.82415533065796 0.0493860095739365 -0.306808024644852 -0.230992421507835 -0.238723903894424 -0.307408809661865 -0.329637676477432 -0.340002655982971 -0.420838743448257 -0.282896459102631 -0.120279505848885 0.310005158185959 0.543716073036194 0.700111031532288 1.01528573036194 1.65391719341278 1.71495866775513 0.826962232589722 0.916826605796814 1.09003210067749 1.06397080421448 0.689565122127533 0.191076889634132 -0.281798601150513 -0.326517164707184 -0.321925163269043 -0.0657368302345276 0.271252393722534 0.242074906826019 0.066543385386467 -0.394159287214279 -0.747981488704681 -0.96236652135849 -0.892548561096191 -0.973470449447632 -0.961418569087982 -1.41663384437561 -0.986581861972809 -0.777710437774658 -0.83427631855011 -0.870796322822571 -0.846435487270355 -0.825518131256104 -0.766245126724243 -0.615101516246796 -0.463224947452545 -0.596499383449554 -0.712203919887543 -0.348202586174011 1.33274233341217 1.98411583900452 1.48684918880463 0.46600878238678 0.516633152961731 0.57893443107605 0.807148993015289 1.3919757604599 2.30934023857117 2.84669733047485 3.0981342792511 2.62281942367554 2.10770392417908 1.90796411037445 1.51094329357147 -0.137487173080444 -1.58744668960571 -2.98074793815613 -3.52628064155579 -3.73590016365051 -3.78145599365234 -3.74014592170715 -3.67300939559937 -3.42350196838379 -2.41665554046631 -0.780825793743134 -0.14180900156498 1.23104774951935 2.93811893463135 5.31314516067505 7.74133157730103 9.30197715759277 8.19645881652832 4.83095169067383 4.46382713317871 2.70286154747009 1.82068371772766 3.86455106735229 4.45466756820679 5.0788893699646 6.77472448348999 5.48426151275635 5.71351766586304 5.40055847167969 5.4518609046936 5.41108465194702 5.21791934967041 4.79405164718628 4.26732969284058 3.83285570144653 3.53006649017334 3.45640254020691 5.60923147201538 6.54508304595947 5.84691524505615 4.61686086654663 -0.665789663791656 1.1008061170578 4.07621288299561 5.65882587432861 7.69051074981689 9.65997123718262 12.3866357803345 11.6303157806396 11.4780559539795 11.1610260009766 6.95165681838989 7.26173067092896 7.58397579193115 8.37197875976562 8.27474403381348 8.04997730255127 7.54919672012329 6.14176034927368 4.03858184814453 6.4377818107605 8.52857971191406 10.3285312652588 6.21937036514282 3.55393624305725 3.60191535949707 5.0190863609314 4.14227199554443 3.78935289382935 3.63092851638794 3.52515721321106 2.64175629615784 3.18279767036438 3.12371945381165 3.15069580078125 2.66526412963867 2.08645105361938 1.70966672897339 2.62558960914612 5.12874507904053 8.67914295196533 10.8212070465088 11.7930297851562 10.8350267410278 8.40771484375 4.36572122573853 3.13414001464844
0.85341614484787 0.939962148666382 1.06124079227448 1.17540681362152 1.39072239398956 1.49173128604889 1.64740800857544 1.66267681121826 1.61183905601501 1.57441937923431 1.55365395545959 1.47870171070099 1.58171319961548 1.56661522388458 1.38608288764954 1.26970028877258 1.60210084915161 2.08507633209229 2.48096013069153 2.59330606460571 3.06514549255371 2.58043909072876 0.911542356014252 -0.205141618847847 -0.2769755423069 -0.283472061157227 -0.373330533504486 -0.451424986124039 -0.520894289016724 -0.548769950866699 -0.523617267608643 -0.129041373729706 0.28078618645668 0.339216142892838 0.519180178642273 0.811270594596863 1.49682128429413 1.0770674943924 0.805003523826599 0.78388237953186 0.921147108078003 0.47061213850975 0.190840482711792 -0.184479847550392 -0.441977679729462 -0.488839834928513 -0.343561917543411 0.0248503368347883 0.0294377189129591 0.0189274121075869 -0.415581077337265 -0.665272414684296 -0.929437935352325 -1.25005269050598 -1.26657938957214 -1.54072856903076 -1.87808501720428 -1.75508618354797 -1.44078207015991 -1.18807470798492 -1.19644296169281 -1.35342383384705 -1.49229228496552 -1.57639360427856 -1.61790478229523 -1.12944948673248 -1.09004950523376 -1.33844769001007 -2.08422613143921 -1.93377828598022 -0.155355349183083 0.616861581802368 0.259211599826813 -0.428713977336884 -0.19972625374794 0.409014046192169 0.686978101730347 1.24800086021423 1.99661755561829 2.24706602096558 1.90564143657684 1.15121865272522 0.846409678459167 0.690641582012177 0.450047671794891 -0.807669937610626 -2.26906275749207 -0.848456263542175 -1.91560280323029 -3.84390830993652 -3.64433813095093 -2.96939992904663 -1.54868233203888 -3.53150153160095 -2.01025700569153 -0.940614581108093 0.159845232963562 0.627308785915375 3.02057027816772 5.00006198883057 7.69050216674805 8.56183815002441 10.7180070877075 4.48442697525024 2.99667716026306 1.69722008705139 2.12740540504456 2.86298608779907 3.74702763557434 4.31581115722656 4.88126087188721 5.35479974746704 5.5129017829895 4.97514724731445 5.07026529312134 5.00259017944336 4.69099712371826 4.51384925842285 3.99975204467773 3.46330094337463 3.25858640670776 4.60821723937988 6.09572887420654 6.44248676300049 7.04069471359253 3.55369138717651 3.05358791351318 0.851956009864807 3.21291089057922 5.17645692825317 6.72935104370117 7.78028678894043 8.38019180297852 11.3134155273438 11.5398607254028 10.6033964157104 7.4550313949585 7.14357852935791 7.66521263122559 8.04256725311279 7.69870948791504 7.56421852111816 6.94149112701416 5.79717874526978 3.98732733726501 5.74415969848633 8.79847812652588 10.9265308380127 10.8699960708618 6.35053062438965 4.78150320053101 4.52624368667603 3.06782150268555 3.38107824325562 2.92944812774658 2.28598475456238 2.47679805755615 2.99019932746887 2.90868258476257 2.473881483078 2.28480553627014 1.64881157875061 0.979719281196594 1.89074170589447 5.89222431182861 7.89074563980103 9.26098728179932 11.1078863143921 11.6759834289551 11.5912570953369 9.9143533706665 4.73849821090698
0.849598705768585 0.951470732688904 1.04887306690216 1.16812539100647 1.34833526611328 1.45486187934875 1.52890455722809 1.43294394016266 1.39127159118652 1.39900267124176 1.33184480667114 1.28134047985077 0.933905899524689 1.07987213134766 1.26877772808075 1.11420798301697 1.78772222995758 2.16717958450317 2.49014925956726 2.61786866188049 3.4200074672699 3.29645466804504 1.5982164144516 0.00576699711382389 -0.253150999546051 -0.325758963823318 -0.416827470064163 -0.508236408233643 -0.646247386932373 -0.773508727550507 -0.735190272331238 -0.130434423685074 0.123315811157227 0.161182343959808 0.33458423614502 0.400865197181702 0.714679539203644 0.655162572860718 0.607347667217255 0.653664886951447 0.506463170051575 0.111344553530216 -0.461842387914658 -0.52941882610321 -0.589349925518036 -0.614220499992371 -0.414249420166016 -0.129147812724113 -0.163029164075851 -0.337675482034683 -0.69715803861618 -1.03586447238922 -1.31332147121429 -1.58782958984375 -1.88348162174225 -2.25360178947449 -2.35728335380554 -2.06523585319519 -1.99933552742004 -1.75713074207306 -1.66869783401489 -1.71787714958191 -1.73275303840637 -1.9846465587616 -2.35341191291809 -2.1821300983429 -1.92135345935822 -2.16873407363892 -2.48876118659973 -2.22446537017822 -1.91775119304657 -0.649891972541809 -0.582444727420807 -0.92339426279068 -0.260155826807022 0.346162229776382 0.980105996131897 1.71155476570129 1.88454008102417 1.12447929382324 -0.00242161867208779 -0.530542075634003 -0.534767627716064 -0.710308372974396 -0.905594766139984 -2.04670190811157 -0.306759774684906 3.92605590820312 0.332832604646683 -0.843030393123627 -3.29234766960144 -1.4215897321701 -0.0902130603790283 -1.09125030040741 -1.67893862724304 -0.768775224685669 0.105824418365955 1.44746971130371 3.3059401512146 5.07799911499023 6.75078439712524 8.23908710479736 11.7691783905029 3.80586838722229 2.37097692489624 1.60258638858795 2.10268592834473 3.11570477485657 3.67390275001526 4.3075795173645 4.72960042953491 5.2005786895752 5.22342443466187 5.00302648544312 4.71762466430664 4.61603832244873 4.42948722839355 4.54543447494507 7.10736894607544 5.28196144104004 3.93802213668823 5.20188426971436 5.8533353805542 6.83729362487793 8.10972213745117 7.59375047683716 4.312424659729 1.69511342048645 2.8833167552948 4.56734895706177 5.69729709625244 6.05923652648926 6.64052867889404 8.70834636688232 9.51018142700195 8.97773742675781 7.83129119873047 7.18425416946411 7.49074172973633 7.26936626434326 7.50862073898315 7.34791135787964 8.00938606262207 7.8183798789978 8.03256320953369 7.75611972808838 7.76904058456421 8.15616035461426 7.92468881607056 7.47238302230835 5.10388040542603 2.78217887878418 2.94396615028381 2.49650287628174 2.34549927711487 2.3249032497406 2.66525673866272 2.78223705291748 2.72005009651184 2.3726372718811 1.87975883483887 1.31347966194153 1.19210565090179 2.61100316047668 4.45575046539307 6.23993015289307 8.16437339782715 9.07615566253662 11.4528856277466 12.0458307266235 11.1107892990112 7.12552738189697
0.853816330432892 0.954347729682922 1.04860436916351 1.17836177349091 1.2946799993515 1.40931117534637 1.34804534912109 1.26524317264557 1.25083792209625 1.26185488700867 1.19229710102081 0.960543096065521 0.763843178749084 0.662928700447083 0.864994525909424 1.31430113315582 1.61073434352875 2.18768072128296 2.41766238212585 2.68231916427612 3.35229897499084 3.49494314193726 3.36704444885254 1.39801156520844 -0.0356527417898178 0.0424216315150261 -0.522801101207733 -0.651298761367798 -0.708451807498932 -0.852515876293182 -0.780551195144653 -0.303903102874756 -0.11724279820919 0.0352300740778446 0.121169216930866 0.136685729026794 0.245366215705872 0.272975325584412 0.138724863529205 0.175808519124985 -0.271445095539093 -0.588998556137085 -0.691542685031891 -0.789070904254913 -0.859972894191742 -0.718205988407135 -0.36617648601532 -0.427044123411179 -0.559934735298157 -0.966038703918457 -1.22131288051605 -1.43662166595459 -1.83161354064941 -2.20731425285339 -2.41090393066406 -2.7318320274353 -2.47566366195679 -2.41676545143127 -2.26390862464905 -1.9922114610672 -2.02219772338867 -2.0997633934021 -2.06473708152771 -2.18130016326904 -2.5243444442749 -2.80731201171875 -2.60972905158997 -2.91937589645386 -2.8351047039032 -2.57242965698242 -2.17949223518372 -1.94558525085449 -1.76880216598511 -1.09890878200531 -0.622633993625641 0.120065532624722 0.642714858055115 0.621281206607819 0.899451494216919 0.184359833598137 -1.22958695888519 -0.91284966468811 -1.05849671363831 -1.1557275056839 -1.44084084033966 -2.30282759666443 0.393175959587097 2.96037745475769 0.296618938446045 -0.624081671237946 0.684871435165405 0.728222846984863 1.67515921592712 5.09515285491943 2.87391662597656 0.25785157084465 0.102759063243866 1.88496196269989 3.80908155441284 5.10301399230957 6.18409013748169 8.44539070129395 11.3046817779541 6.86244249343872 4.37512731552124 2.36160659790039 3.21391725540161 3.52571272850037 4.0399603843689 4.18395519256592 4.47971677780151 4.91011571884155 4.95827007293701 4.98651742935181 4.72688913345337 4.35689544677734 4.01660919189453 4.42654228210449 6.31324434280396 6.40641164779663 5.43432760238647 5.59442472457886 6.02913951873779 8.49164962768555 9.30761432647705 9.44346523284912 7.90158462524414 3.11033248901367 2.6762969493866 4.14719915390015 5.05471849441528 7.58070373535156 8.10886573791504 6.82854795455933 6.92977285385132 6.59911775588989 6.79747724533081 7.00271368026733 7.19256830215454 7.07961559295654 7.03645658493042 6.83018064498901 9.34343242645264 9.99113368988037 9.00140571594238 8.80679607391357 6.34992837905884 6.69529819488525 5.33904647827148 4.61213779449463 3.01462864875793 2.46426796913147 2.56328105926514 2.17832541465759 1.84115624427795 2.16101765632629 2.59208297729492 2.52333188056946 2.54276013374329 2.14259600639343 1.68238544464111 0.767087817192078 0.872704803943634 3.26774883270264 4.37632989883423 4.82064199447632 6.5276050567627 7.88243198394775 9.29629707336426 9.22508239746094 8.27505588531494 7.36336326599121
0.850434184074402 0.940593361854553 1.03997445106506 1.14735460281372 1.23594772815704 1.30141067504883 1.2051078081131 1.14220857620239 1.13511908054352 1.15861976146698 1.03721737861633 0.763309359550476 0.695180714130402 0.552012503147125 0.51515793800354 1.35303020477295 1.81849789619446 2.15950322151184 2.35690712928772 2.74909424781799 3.02595663070679 4.36375141143799 4.43988370895386 2.71907520294189 0.568458199501038 0.449792087078094 -0.558011829853058 -0.724513411521912 -0.852739095687866 -0.889015972614288 -0.764739036560059 -0.468218833208084 -0.370383203029633 -0.149908632040024 -0.0956268757581711 -0.0782528892159462 0.00151666509918869 -0.15144120156765 -0.259660989046097 -0.474687069654465 -0.738381803035736 -0.848648607730865 -0.93817675113678 -1.02850389480591 -1.1103720664978 -0.889261066913605 -0.679288387298584 -0.88134241104126 -1.17705452442169 -1.49085032939911 -1.80067384243011 -2.08398914337158 -2.30982542037964 -2.67728757858276 -2.89868211746216 -2.78004026412964 -2.55140447616577 -2.5930335521698 -2.42383861541748 -2.2931079864502 -2.22603821754456 -2.23177599906921 -2.29590749740601 -2.38893604278564 -2.57675528526306 1.8102171421051 -3.0433623790741 -3.1148157119751 -2.97897958755493 -2.80946135520935 -2.48016166687012 -2.29422473907471 -2.30954718589783 -2.17749190330505 -1.29519212245941 0.134052127599716 0.80934751033783 0.0495168529450893 0.0805454775691032 -0.0211787167936563 -1.13308024406433 -1.24446880817413 -1.13798904418945 0.230886459350586 1.40240752696991 0.0720752030611038 1.93909621238708 4.0192346572876 6.11734437942505 2.5180344581604 5.11480331420898 5.85840606689453 6.6921648979187 6.52350950241089 6.30988597869873 3.26035046577454 2.01006460189819 2.48761606216431 3.9398946762085 5.26432847976685 6.25335693359375 9.11274528503418 14.2102518081665 9.93209552764893 7.83324956893921 7.81490755081177 5.27345561981201 3.41420388221741 3.9292905330658 4.01844835281372 4.04171085357666 4.25690841674805 4.84255456924438 5.2589054107666 4.97858476638794 4.2671275138855 3.84069490432739 3.79582762718201 4.67028665542603 5.23750829696655 4.77070093154907 5.57001304626465 7.99671840667725 7.24258947372437 8.26191902160645 9.28555679321289 10.1599760055542 8.15141010284424 3.81488728523254 3.78910207748413 4.96732616424561 6.83517169952393 5.62792158126831 5.93405866622925 6.14611673355103 6.3506498336792 6.55342817306519 6.61847591400146 6.7801308631897 6.81190490722656 6.71271371841431 6.33631944656372 8.47207736968994 9.96658897399902 11.2947368621826 8.91623306274414 5.98686981201172 4.27098178863525 4.54670572280884 3.22342205047607 2.19857311248779 2.11244750022888 2.17359709739685 1.79602229595184 1.92603361606598 2.22247552871704 2.38237690925598 2.33637261390686 2.02166342735291 1.79342937469482 1.29171431064606 0.81904411315918 1.80955398082733 2.83809375762939 3.82202768325806 4.80799388885498 5.41958856582642 6.88874053955078 6.71722269058228 7.22208118438721 5.95685338973999 4.88271379470825
0.82666003704071 0.91605269908905 1.00971162319183 1.08253455162048 1.11985850334167 1.10930907726288 1.06304931640625 1.02386379241943 1.01210379600525 0.993523955345154 0.933121502399445 0.754118382930756 0.569246828556061 0.391293346881866 0.4536472260952 1.01195228099823 1.71544528007507 2.10746669769287 2.33896017074585 2.63139939308167 3.04414415359497 4.02760553359985 4.7350869178772 3.62599539756775 2.09014010429382 1.33800542354584 0.386091083288193 0.686237275600433 -0.8653604388237 -0.923085391521454 -0.690214693546295 -0.59574967622757 -0.495821475982666 -0.442769169807434 -0.356940984725952 -0.377690672874451 -0.335791945457458 -0.528095662593842 -0.629569590091705 -0.898947477340698 -0.946924149990082 -1.08135306835175 -1.27203834056854 -1.39485228061676 -1.24684000015259 -0.939107835292816 -1.08666825294495 -1.28482174873352 -1.74812054634094 -2.00163650512695 -2.22893929481506 -2.52402400970459 -2.83935689926147 -3.10926651954651 -3.03892517089844 -2.68140411376953 -2.5960578918457 -2.57364964485168 -2.47229290008545 -2.36389017105103 -2.30293345451355 -2.26076698303223 -2.36178803443909 -1.94497871398926 0.449116706848145 0.788946270942688 -3.39462947845459 -3.29074120521545 -3.16955757141113 -3.09760355949402 -2.98897337913513 -2.71537351608276 -2.83833360671997 -2.84635281562805 -2.55523324012756 -0.475338488817215 0.235909089446068 -0.131506353616714 -0.318765103816986 5.4243597984314 8.20173358917236 4.68680334091187 5.2660870552063 7.56706619262695 6.68986558914185 2.02142190933228 1.92532980442047 6.06882429122925 5.07536172866821 3.88065123558044 4.6619439125061 6.54724025726318 6.55438613891602 5.26356744766235 3.25204467773438 3.58253931999207 1.38942515850067 2.89751148223877 4.00498676300049 5.04098749160767 6.08855819702148 9.26028156280518 14.0314874649048 12.5922107696533 10.0549354553223 7.64128541946411 5.19515562057495 3.36118173599243 3.83976292610168 3.90330767631531 3.76250576972961 3.99683284759521 4.61539888381958 4.71337938308716 4.352783203125 3.89945769309998 3.50194931030273 3.58376407623291 4.98872184753418 6.73584651947021 8.83856964111328 5.65477800369263 6.20058822631836 8.01691818237305 11.049036026001 11.8756637573242 9.86063385009766 7.36677598953247 4.21809196472168 3.4416618347168 4.326331615448 5.02819013595581 4.98962116241455 5.52482509613037 5.83555126190186 6.03985023498535 6.10273408889771 6.15076923370361 6.33650970458984 6.25214719772339 6.06394290924072 5.99159049987793 7.60902833938599 7.82879400253296 6.31955432891846 5.08986377716064 5.33771228790283 4.4062180519104 2.79762244224548 1.64217495918274 1.87122309207916 1.92754125595093 1.54858601093292 1.55065476894379 1.74757254123688 2.10678768157959 2.10235834121704 2.04050946235657 1.77114403247833 1.3743839263916 0.773662567138672 0.825147390365601 2.55995059013367 3.34808897972107 3.45485949516296 4.55851602554321 5.28302669525146 5.69290685653687 5.95654344558716 4.42258310317993 4.37902212142944 2.78457736968994
0.77892005443573 0.839917719364166 0.890918850898743 0.914128184318542 0.947017669677734 0.968724727630615 0.978283286094666 0.950441539287567 0.856664299964905 0.831839323043823 0.713063180446625 0.639143705368042 0.502974450588226 0.357842952013016 0.528112709522247 0.815522909164429 1.50386333465576 1.97744405269623 2.36627078056335 2.71378254890442 3.39521908760071 3.9282660484314 4.55527353286743 4.28195333480835 2.4403760433197 2.42835068702698 0.786217153072357 0.2741379737854 -0.891711950302124 -0.916130423545837 -0.649072349071503 -0.604953587055206 -0.565552294254303 -0.653325259685516 -0.595773696899414 -0.601884484291077 -0.640232741832733 -0.847450017929077 -1.08806812763214 -1.16751313209534 -1.30613040924072 -1.48791599273682 -1.70828855037689 -1.80057680606842 -1.5348516702652 -1.29794073104858 -1.41787338256836 -1.71178197860718 -2.07823252677917 -2.3719596862793 -2.65026164054871 -2.79858589172363 -3.10155725479126 -3.27590227127075 -3.03124141693115 -2.72313141822815 -2.649822473526 -2.51362991333008 -2.39357900619507 -2.35247731208801 -2.34502124786377 -2.43659448623657 -2.56652212142944 -2.5764696598053 -0.87682318687439 -2.99949598312378 -3.56645250320435 -3.51911568641663 -3.45782804489136 -3.48791074752808 -3.39209175109863 -3.07756447792053 -2.94375085830688 -2.92942142486572 -2.72960114479065 -1.07556867599487 2.55011320114136 4.38182830810547 2.55236387252808 8.66773700714111 11.0175762176514 14.8694553375244 11.6123085021973 9.02293968200684 11.6638669967651 5.28381395339966 2.3501558303833 3.84504318237305 3.80568194389343 3.08388066291809 2.70648312568665 4.70729207992554 1.69107341766357 -1.46591258049011 -0.714184165000916 -0.300945460796356 1.60476732254028 2.87043762207031 4.02991819381714 5.03564977645874 6.51806306838989 10.5089511871338 13.3440084457397 11.3658094406128 8.19282531738281 5.81859588623047 4.51367282867432 3.60776662826538 3.73768544197083 3.83304762840271 3.58559274673462 3.89278769493103 4.25794696807861 4.71635007858276 4.28707456588745 3.80793261528015 5.07409143447876 6.36877298355103 7.73262119293213 8.71724891662598 6.40447092056274 5.64469718933105 6.03481435775757 8.104660987854 8.59794807434082 6.81443405151367 3.80781769752502 3.7695426940918 3.09442400932312 3.59064888954163 3.91188478469849 4.40828227996826 4.84297037124634 5.36142778396606 5.63099527359009 5.79043197631836 5.78251600265503 5.80177640914917 6.04741096496582 5.95105648040771 5.53161954879761 5.88535118103027 6.30819749832153 5.60670185089111 4.78586912155151 3.7040536403656 2.67378830909729 2.38224744796753 1.63096523284912 1.53047227859497 1.53156292438507 1.56905269622803 1.25399553775787 1.68236970901489 1.91411554813385 1.94590556621552 1.84719240665436 1.51952755451202 1.36515891551971 0.989550411701202 0.513476431369781 0.799399614334106 2.27615523338318 3.21475648880005 3.86533808708191 4.22065114974976 4.9206371307373 4.58039903640747 4.24144411087036 3.70517611503601 2.50642728805542 2.03185319900513
0.669296860694885 0.702804148197174 0.719156861305237 0.696947813034058 0.808455526828766 0.869569063186646 0.857892632484436 0.77977579832077 0.730654835700989 0.636637985706329 0.579490661621094 0.504709601402283 0.675464868545532 0.398030966520309 0.673610806465149 0.963291764259338 1.21967279911041 1.84046363830566 2.36625194549561 2.78466987609863 3.19780874252319 3.80337071418762 4.028724193573 3.93301796913147 2.50282907485962 1.86394548416138 1.10818290710449 0.536815941333771 0.255447387695312 0.549212336540222 -0.655828833580017 -0.668757081031799 -0.766540169715881 -0.751359820365906 -0.782050132751465 -0.789184272289276 -1.0973778963089 -1.24284732341766 -1.39799761772156 -1.493931889534 -1.64464521408081 -1.92708432674408 -2.17387390136719 -2.201819896698 -2.00882768630981 -1.70329868793488 -1.74369049072266 -2.1118586063385 -2.38654255867004 -2.59887599945068 -2.87122368812561 -3.10243344306946 -3.32871747016907 -3.26643252372742 -2.92666745185852 -2.74604678153992 -2.62884187698364 -2.51314187049866 -2.43122172355652 -2.44738411903381 -2.53453254699707 -2.71900415420532 -2.90200638771057 -3.02032518386841 -2.98535633087158 -3.35142707824707 -3.70000219345093 -3.76840901374817 -3.71301770210266 -3.64236521720886 -3.48461532592773 -3.30425524711609 -3.14886569976807 -3.04200720787048 -2.82295799255371 -1.67457413673401 -0.205443143844604 5.79662227630615 7.54985666275024 8.23851776123047 11.0997447967529 10.0236949920654 7.7361888885498 7.07002210617065 14.8131656646729 11.1256494522095 3.58658313751221 2.94897770881653 2.27025032043457 1.86317729949951 0.786740005016327 1.94893908500671 0.767967820167542 -1.27396440505981 -0.902509987354279 -0.382685393095016 1.86036086082458 2.88057780265808 4.00120687484741 4.93708753585815 6.53401470184326 9.76237297058105 11.8016757965088 10.0760078430176 6.39883995056152 5.1019172668457 4.17743873596191 3.83153319358826 3.70112371444702 3.67153549194336 3.47558379173279 3.76479554176331 4.06430864334106 5.24303340911865 8.21433925628662 8.10120677947998 10.0065584182739 10.6118955612183 7.4770565032959 7.84966897964478 7.47079849243164 8.2467737197876 7.50393962860107 7.35848236083984 8.99069118499756 9.14172744750977 10.8186063766479 10.1897001266479 7.72376823425293 5.73625707626343 5.33624362945557 4.06700658798218 4.67988300323486 5.07640790939331 5.34361124038696 5.38375282287598 5.41835308074951 5.63495397567749 5.56748580932617 5.34281301498413 5.1859073638916 5.39444494247437 5.23403644561768 4.75258731842041 3.00219392776489 2.1623740196228 1.69113337993622 1.51915013790131 1.37506675720215 1.20140266418457 1.25284790992737 1.05028009414673 1.28578102588654 1.517697930336 1.83108842372894 1.72597897052765 1.62603676319122 1.26452112197876 0.890233337879181 0.461221247911453 0.627279937267303 0.957022428512573 1.80539870262146 2.83252882957458 3.56987524032593 3.98774981498718 3.96294069290161 4.0586838722229 2.93278288841248 2.44506049156189 1.61694037914276 1.62946951389313
