NCOLS 174
NROWS 31
XLLCORNER 353856
YLLCORNER 6700752
CELLSIZE 16 
NODATA_value -3.4e+38 
12.586935043335 14.1278400421143 15.2489194869995 17.4045429229736 18.3886375427246 24.1060237884521 19.4836044311523 24.6695365905762 22.4574508666992 18.9219074249268 22.1812191009521 24.4948348999023 20.3974933624268 13.5636119842529 17.2745227813721 15.2298288345337 13.9720315933228 12.2004051208496 12.9845628738403 13.8981695175171 12.8040199279785 15.4010124206543 19.154052734375 22.929988861084 24.829273223877 18.3956642150879 34.4196243286133 30.7469215393066 35.6763954162598 41.7284927368164 37.5214462280273 26.2249488830566 21.8984794616699 21.6248054504395 21.0027713775635 21.8564720153809 24.2886371612549 24.2537784576416 14.2018699645996 13.731162071228 13.8485040664673 13.8607568740845 9.75387859344482 8.64061164855957 21.5281524658203 24.2340316772461 46.8299369812012 5.78417634963989 6.3353705406189 6.81905317306519 6.26074504852295 5.08506011962891 4.83555269241333 4.25672912597656 3.7102382183075 3.63441920280457 4.08677101135254 3.91902494430542 3.50621581077576 2.98582148551941 3.26542282104492 3.62193942070007 3.51101469993591 3.80396628379822 4.79310989379883 7.15587186813354 3.57774209976196 4.96486949920654 4.48714780807495 4.6228199005127 4.30501127243042 4.18498134613037 3.90485382080078 3.69464945793152 3.09479904174805 1.70761096477509 0.536468207836151 -0.148190543055534 -0.494466543197632 -0.21930168569088 0.408193320035934 -0.253193259239197 -0.295868515968323 -0.00370365940034389 -0.0488366819918156 -0.737082958221436 -0.901836514472961 -0.915347456932068 -0.927741765975952 -0.924776256084442 -0.515898585319519 -0.301636636257172 -0.788703501224518 -0.838589668273926 -0.919824302196503 -0.333017408847809 -0.953456282615662 -0.836483776569366 -0.784980654716492 -0.842157363891602 -0.823107242584229 -0.830482244491577 -0.453687787055969 -0.417271137237549 -0.42901548743248 -0.923918306827545 -0.824715793132782 0.263343065977097 -0.900422871112823 -0.845605075359344 0.684588074684143 0.740456759929657 1.32636988162994 1.12540698051453 0.932207107543945 0.995538234710693 0.482732981443405 0.142516687512398 0.337108939886093 0.718342363834381 0.0427852235734463 0.0599986352026463 0.416003257036209 0.227875679731369 0.110800474882126 0.0162552651017904 -0.0549194514751434 -0.0759097412228584 -0.0146709997206926 0.059848178178072 0.129986420273781 0.701905727386475 0.227736443281174 0.518816590309143 1.58233153820038 1.36301553249359 1.12611865997314 0.55559504032135 0.836670756340027 1.0668910741806 1.52493441104889 1.73807942867279 2.40637135505676 2.68418097496033 3.03235983848572 3.06125640869141 2.63718819618225 2.91642498970032 2.42302060127258 3.12466835975647 3.2890317440033 2.76666617393494 2.54215002059937 6.17851972579956 7.29693126678467 5.71951818466187 5.31144094467163 3.7490131855011 3.66659879684448 3.84359312057495 0.481708228588104 0.231107473373413 0.261799335479736 0.175184205174446 0.211557313799858 1.97468686103821 2.36030912399292 2.54300808906555 2.12814807891846 1.92543268203735 2.9061906337738 2.80703067779541 3.09908103942871 3.59892535209656
12.6854648590088 13.1154880523682 14.1087474822998 15.8759088516235 16.0848541259766 17.7233104705811 17.5596160888672 18.8291263580322 19.8327960968018 25.709716796875 18.5380077362061 20.6156005859375 19.1168918609619 26.2758731842041 15.230993270874 13.1319561004639 9.88558197021484 10.2813310623169 11.210072517395 12.3900213241577 13.0947341918945 13.6374349594116 17.8299083709717 19.3903388977051 20.0229415893555 32.8394432067871 20.7712917327881 25.1768169403076 25.0440559387207 21.901876449585 19.3862628936768 21.8376407623291 18.2356948852539 18.10325050354 17.7243633270264 19.8544139862061 21.3758296966553 21.7318553924561 14.6977806091309 30.1454772949219 12.2725372314453 11.640064239502 8.41362380981445 9.00485324859619 49.6821327209473 6.91724348068237 5.79476451873779 5.88637733459473 5.88830661773682 6.79097461700439 9.32774925231934 9.22460746765137 4.04164028167725 3.08294224739075 3.5445818901062 3.58100843429565 4.09307527542114 3.66943216323853 3.15054273605347 3.23156189918518 3.15077137947083 3.47528028488159 3.34402918815613 3.22735834121704 3.47294759750366 3.67130947113037 9.43149852752686 4.55859470367432 4.43968820571899 4.55145311355591 4.15220546722412 4.11079072952271 3.84814381599426 3.64148807525635 3.05580615997314 1.48422360420227 1.22959280014038 0.348269790410995 -0.239457577466965 0.366957753896713 0.272106945514679 -0.397752553224564 -0.340975254774094 -0.0521830022335052 -0.670637369155884 -0.958119809627533 -0.964048027992249 -0.96904981136322 -0.97991007566452 -0.979363918304443 -0.550708115100861 -0.338270723819733 -0.876467883586884 -0.868569016456604 -0.933235466480255 -0.569566905498505 -0.886480331420898 -0.800691187381744 -0.952898621559143 -0.855945885181427 -0.835652649402618 -0.648990571498871 -0.442522972822189 -0.470564603805542 -0.967120587825775 -0.972332775592804 -0.871724903583527 0.179411664605141 -0.951282620429993 -0.905702948570251 0.597591817378998 0.978726506233215 1.17773592472076 0.979216337203979 0.555339992046356 0.843393683433533 0.341871380805969 -0.13614197075367 0.336406022310257 -0.142266795039177 -0.0767165273427963 0.174711093306541 -0.0603848956525326 -0.020460918545723 -0.122487284243107 -0.201558217406273 -0.235199049115181 -0.207688704133034 -0.113068133592606 0.000514881627168506 0.0718852579593658 0.1190125644207 0.12456688284874 0.479729950428009 1.52146661281586 0.998512089252472 1.0803337097168 0.79518711566925 0.861621499061584 1.02273535728455 1.18258941173553 2.20460271835327 2.07877111434937 2.8600959777832 2.86839032173157 2.95020890235901 2.18866038322449 2.83068561553955 2.35214257240295 2.71635723114014 2.8522093296051 2.36158871650696 4.16509056091309 5.34228229522705 6.19127130508423 4.83508634567261 4.08984851837158 2.87933874130249 1.38211345672607 3.00236177444458 0.269543081521988 0.2098758071661 0.228442296385765 0.228607669472694 1.89985144138336 2.10904717445374 2.27709293365479 2.44749617576599 2.04937672615051 1.84056437015533 2.76088237762451 2.6446328163147 2.92387795448303 3.43263053894043
11.7910556793213 12.1977605819702 14.154839515686 14.4615049362183 14.5907144546509 15.3803071975708 16.6769123077393 16.3857555389404 17.4757995605469 16.5821228027344 17.2447834014893 15.6599607467651 15.4560699462891 15.011962890625 13.0786838531494 11.5914926528931 18.076587677002 9.68745994567871 10.0982160568237 10.572114944458 11.9622898101807 14.111403465271 15.1207151412964 16.7742500305176 17.8630428314209 17.0785846710205 16.6363658905029 20.3291397094727 20.1186790466309 16.5873260498047 17.7484798431396 14.9275159835815 14.5934715270996 14.0788698196411 17.4123611450195 18.780782699585 18.6335544586182 12.8410797119141 36.0935440063477 16.5303993225098 9.54623603820801 7.28515720367432 50.0254364013672 22.1095428466797 6.77931880950928 11.2335691452026 5.67054891586304 5.82589101791382 5.70262432098389 6.18426275253296 5.76756572723389 4.89145421981812 14.9795598983765 14.8527040481567 6.20136070251465 6.70339441299438 3.80725145339966 4.82401466369629 7.23443174362183 3.12360405921936 3.12158131599426 5.53926038742065 3.2696750164032 3.16746687889099 3.31662058830261 3.21171474456787 3.05614185333252 2.96692657470703 4.38012886047363 4.49061393737793 4.09124231338501 3.83221292495728 3.69954681396484 3.07862615585327 1.91425895690918 1.70017838478088 1.59324133396149 1.36943757534027 0.358593791723251 0.340790778398514 -0.904785394668579 -1.21444499492645 -0.107285872101784 -0.14733774960041 -0.802393615245819 -1.02588391304016 -1.0253244638443 -1.02648150920868 -1.02458119392395 -1.02924501895905 -0.413689017295837 -0.990584969520569 -1.01666057109833 -0.924385607242584 -0.726596534252167 -0.549266993999481 0.778853118419647 -1.01210904121399 -0.869338929653168 -0.839265108108521 -0.897244513034821 -0.636715829372406 -0.458975225687027 -0.49040099978447 -1.00908660888672 -0.898716151714325 -1.02663850784302 0.114458501338959 -0.989491105079651 -0.711319983005524 0.511758744716644 0.84527862071991 1.05438983440399 0.687403619289398 0.778044462203979 0.361242771148682 0.197280377149582 -0.254022717475891 0.189241036772728 -0.299986809492111 -1.57442653179169 0.00269446475431323 -0.184117168188095 -0.188587427139282 -0.253752380609512 -0.346195220947266 -0.387208074331284 -0.329064428806305 -0.20853865146637 -0.394974023103714 -0.0903023481369019 -0.0554224327206612 0.305368036031723 1.35833585262299 1.16612756252289 0.959661722183228 0.421938598155975 0.466918796300888 0.961463928222656 1.06492829322815 1.47270715236664 2.11561369895935 2.30018544197083 2.65583515167236 2.72938585281372 2.46700000762939 2.39811849594116 2.74429941177368 2.40726494789124 2.4229371547699 1.56485319137573 2.03424525260925 0.615232348442078 0.475703299045563 0.107489533722401 0.140866711735725 2.19219279289246 2.38710165023804 2.25740933418274 0.432711571455002 0.250264823436737 0.203539058566093 0.210935994982719 0.177560120820999 1.84538567066193 2.03747200965881 2.33361649513245 1.95349860191345 1.92357039451599 2.15457224845886 2.63530850410461 2.51462292671204 3.22256946563721 3.34540057182312
11.0117788314819 11.5968160629272 13.1509923934937 13.1537504196167 13.8968544006348 14.2934665679932 15.5047492980957 15.244439125061 15.3707027435303 14.5506572723389 15.19700050354 14.1520624160767 12.8214073181152 13.8099670410156 12.292688369751 15.2561225891113 8.76394271850586 9.59495544433594 9.66100120544434 9.93451595306396 10.8830680847168 12.6176691055298 13.6121711730957 15.5931711196899 16.3323860168457 15.1067705154419 15.8850383758545 15.7464790344238 14.7487964630127 13.6045904159546 15.4088916778564 13.0386238098145 13.0595426559448 13.0731983184814 15.9109935760498 17.172721862793 17.0012588500977 37.2767639160156 13.6732187271118 10.1665067672729 49.5741958618164 6.32612276077271 5.98089933395386 6.90249824523926 8.22994232177734 5.61528444290161 5.1867470741272 7.1038932800293 14.4523286819458 11.3801870346069 10.1823320388794 8.40585899353027 7.71094369888306 5.24084997177124 5.92243385314941 16.2084903717041 21.2019596099854 29.1941318511963 19.6567611694336 20.9911861419678 25.8855381011963 3.26091909408569 3.01702475547791 2.97423791885376 9.7262659072876 7.2567663192749 2.9255428314209 2.86313843727112 3.26890110969543 4.13618421554565 4.03903150558472 3.78063988685608 3.5565664768219 2.98995995521545 1.67031419277191 1.63860821723938 1.60201942920685 1.60921037197113 1.29277300834656 0.0269767791032791 31.6665725708008 31.7895736694336 -0.192779928445816 -0.213473126292229 -0.845057427883148 -1.08662283420563 -1.09190833568573 -1.08797299861908 -1.06295526027679 -1.07780063152313 -0.460888743400574 -1.08094120025635 -1.06989634037018 -0.942608177661896 -0.605781614780426 -0.0619646459817886 -0.72225421667099 -1.03988492488861 -1.04789125919342 -1.04539632797241 -0.86421012878418 -0.507771074771881 -0.48411238193512 -0.514297485351562 -1.04145920276642 -0.921712100505829 0.0603675618767738 -1.05600559711456 -1.05647432804108 0.368283361196518 0.407608389854431 0.885529696941376 0.703798711299896 0.602610349655151 0.648907721042633 0.0995026156306267 -0.246625751256943 -0.0841295346617699 -0.0386665351688862 -0.391629815101624 -1.71391844749451 -0.161411687731743 -0.294920027256012 -0.288270950317383 -0.353048354387283 -0.458298653364182 -0.517228603363037 -0.437758415937424 -0.733212769031525 -0.612166941165924 -0.257438182830811 -0.237002968788147 0.121540248394012 0.516159176826477 1.02264153957367 0.826684832572937 0.332347452640533 0.313738375902176 0.290663003921509 0.909124732017517 1.16433620452881 1.9279625415802 2.08318781852722 2.46174049377441 2.55349183082581 2.28235387802124 2.60238456726074 1.06019520759583 2.05340075492859 0.54649829864502 0.0068109855055809 0.966405808925629 9.01316452026367 2.42860007286072 0.288190573453903 -0.510930299758911 -1.01961982250214 -1.0074862241745 1.93206012248993 0.28880500793457 0.215157121419907 0.158330842852592 0.14742323756218 0.169768586754799 1.78898251056671 2.11438655853271 2.24708962440491 1.88426208496094 1.67702400684357 2.18147158622742 2.51828336715698 2.61730813980103 3.10500359535217 3.1854395866394
10.6444807052612 11.8407936096191 12.2833623886108 12.2380905151367 13.0985946655273 14.0551128387451 14.4726486206055 14.2393836975098 13.2047128677368 12.8080463409424 13.4677381515503 11.8480796813965 12.9052562713623 12.2099933624268 11.5929841995239 12.5588207244873 32.2163124084473 9.58668804168701 9.47664642333984 9.63131427764893 10.1235637664795 11.8188781738281 12.8429670333862 13.8590679168701 13.3596858978271 13.9275569915771 13.7145214080811 13.5833501815796 13.1684913635254 11.9007186889648 13.5532188415527 11.7350063323975 11.2973413467407 13.5143623352051 14.601692199707 15.7464485168457 25.5960178375244 9.52231311798096 36.3839073181152 7.85165977478027 8.29300403594971 10.8978099822998 5.90943050384521 6.53271293640137 6.19694995880127 5.1630802154541 5.44943046569824 5.49746179580688 14.3566055297852 14.6312885284424 15.3029413223267 8.03238296508789 7.58452701568604 14.6061124801636 15.6028442382812 10.9215097427368 9.18744468688965 7.13706302642822 12.5753545761108 10.7596597671509 7.12087774276733 3.09628248214722 2.94328999519348 3.21516871452332 9.83705806732178 13.8844766616821 17.1753692626953 2.58879017829895 2.85462403297424 2.81291031837463 3.9438111782074 3.73002672195435 3.49796438217163 2.94842457771301 1.94641494750977 1.58437168598175 1.73398637771606 1.84015703201294 0.0667368546128273 15.8420333862305 7.82167434692383 -0.522042810916901 -1.56950032711029 -1.93465137481689 -1.16725134849548 -1.16114366054535 -1.16076707839966 -1.15109705924988 -1.0997496843338 -0.69031947851181 -0.501419544219971 -1.12270534038544 -0.984217584133148 -0.999099671840668 -0.644160091876984 -0.565507054328918 -1.0628205537796 -1.0689297914505 -1.08775162696838 -1.090900182724 -0.72040843963623 -0.513839244842529 -0.538911163806915 -1.07118904590607 -1.0720921754837 -0.924278020858765 -0.00295102805830538 -1.11311149597168 -1.11992728710175 0.282568037509918 0.610951364040375 0.781838893890381 0.616159081459045 0.308471530675888 0.527330875396729 -0.0217342209070921 -0.451852858066559 -0.274431616067886 -2.57185649871826 -1.67458462715149 2.68234658241272 -0.447558611631393 -0.431721031665802 -0.480309963226318 -0.558227479457855 -0.624281108379364 -0.606426656246185 -0.50603860616684 -1.40710854530334 -0.715974092483521 -0.422136396169662 -0.397422254085541 -0.159278854727745 0.640104591846466 0.524394690990448 0.665717899799347 0.123248055577278 0.0963758826255798 0.595142543315887 0.740193545818329 1.7283331155777 1.59620547294617 2.1759946346283 2.22691059112549 2.38369512557983 1.41297841072083 2.1618709564209 5.04929542541504 1.69521403312683 23.2718124389648 23.4303131103516 16.7251319885254 22.7842693328857 13.7345371246338 21.2257957458496 18.0971355438232 8.21142482757568 27.0430889129639 1.66701948642731 0.24452993273735 0.176372110843658 0.120011813938618 0.150043606758118 1.72431325912476 1.88865685462952 2.04443097114563 2.16642594337463 1.81742095947266 1.62456059455872 2.39696359634399 2.27003335952759 2.50059771537781 2.99746346473694 3.04798460006714
10.5053386688232 11.3722839355469 11.4721727371216 11.9005823135376 12.3725500106812 13.3103351593018 13.1089191436768 12.0934400558472 12.0602903366089 11.6709403991699 11.3418855667114 11.0779333114624 12.1278667449951 11.0842456817627 10.7614583969116 18.8451290130615 9.42459297180176 9.40676689147949 9.29563808441162 9.55382061004639 10.3347454071045 11.0470104217529 11.3627367019653 12.4383535385132 12.2072706222534 13.0127687454224 12.7544279098511 12.0882005691528 11.3187408447266 11.6718807220459 10.572940826416 10.9350118637085 10.7967252731323 13.1280193328857 14.1819725036621 13.4883003234863 18.9461326599121 8.82599258422852 8.85633182525635 7.21888875961304 15.3941993713379 5.80408143997192 6.45018911361694 6.33822154998779 5.64811658859253 4.8287787437439 5.1086277961731 5.13951539993286 5.58385705947876 9.80380249023438 6.3940863609314 12.5004892349243 8.46092510223389 8.05790710449219 6.95256090164185 8.84233856201172 14.7507753372192 17.2258186340332 11.8360013961792 8.42298221588135 5.76535892486572 13.924635887146 18.713493347168 15.1988935470581 9.12880516052246 12.2491626739502 2.41670894622803 8.66562175750732 2.71750640869141 2.76027965545654 2.50947546958923 3.57193422317505 3.01078629493713 2.24693775177002 2.1094434261322 2.11157274246216 2.13901352882385 -0.48339918255806 -0.584772109985352 2.39506340026855 4.45141887664795 -0.448309242725372 -1.80052328109741 -2.20168924331665 -2.32259297370911 -1.23555314540863 -1.22555482387543 -1.17789733409882 -1.21239697933197 -0.581097722053528 -1.08716607093811 -1.12178695201874 -1.02653729915619 -0.846769452095032 -0.697621583938599 -0.942013084888458 -1.10936594009399 -1.10912299156189 -1.13115036487579 -1.14383316040039 -0.747841238975525 -0.745971739292145 -0.931154906749725 -1.11454606056213 -0.940072417259216 -1.1310122013092 -0.0627444759011269 -1.12847006320953 -0.896188795566559 0.229263409972191 0.521699845790863 0.688840925693512 0.34552013874054 0.515617251396179 -0.185379654169083 -0.112895436584949 -0.762921631336212 -0.423311322927475 44.9908294677734 -1.83071076869965 6.7752366065979 -0.540207862854004 -0.532227337360382 -0.584533214569092 -0.689804494380951 -0.737972617149353 -0.690357446670532 1.66673064231873 17.915412902832 3.18065690994263 -0.620343744754791 -0.6129150390625 -0.391733944416046 -0.283195227384567 0.288734972476959 -0.178339049220085 -0.676575660705566 -0.0977349430322647 0.57613068819046 0.631455481052399 1.49242413043976 1.54936397075653 1.95790660381317 2.04242634773254 0.228187844157219 0.290529787540436 0.86245322227478 6.00308704376221 3.43760824203491 4.43036460876465 -0.441877692937851 0.58045220375061 0.307744413614273 -0.0516180321574211 -0.755315124988556 0.412245184183121 2.17414379119873 -0.87276428937912 0.282482773065567 0.223323792219162 0.132378503680229 0.080677717924118 0.0991362258791924 1.66958773136139 1.82822096347809 2.07934403419495 1.74777483940125 1.70575380325317 1.92724049091339 2.29785203933716 2.18568849563599 2.86193943023682 2.89673662185669 3.36916518211365
10.1119651794434 10.964527130127 11.0246601104736 11.5393743515015 11.5268306732178 12.5274686813354 12.3398170471191 11.5554304122925 11.1813478469849 10.6406383514404 10.3860511779785 10.3865022659302 11.3951234817505 10.5763473510742 9.9220552444458 14.6679248809814 9.17629909515381 9.14017105102539 9.04490375518799 9.29422187805176 10.2399301528931 9.41795253753662 10.0674858093262 11.1422719955444 11.8096704483032 11.6370372772217 11.7519998550415 11.4081020355225 10.3859853744507 10.5892038345337 9.68261623382568 10.2453556060791 10.499116897583 6.72024440765381 13.2137145996094 7.76918792724609 8.4758882522583 11.9975166320801 12.4028387069702 6.26636791229248 4.9608302116394 10.7725143432617 16.2143630981445 6.04216289520264 4.8000373840332 4.61197328567505 4.91547155380249 5.10509967803955 7.50401735305786 6.38929843902588 6.0638632774353 5.92728805541992 5.60389614105225 5.94932651519775 7.6370153427124 8.21852493286133 7.31700229644775 8.02244567871094 6.91307163238525 4.93750524520874 9.20378589630127 9.49376773834229 8.36544036865234 3.18423938751221 3.14902496337891 2.78249716758728 2.63944149017334 2.77940440177917 6.30175638198853 2.65076112747192 2.32250833511353 2.00045228004456 2.90747261047363 2.04519987106323 2.38499760627747 2.51531052589417 2.23873353004456 -0.910809576511383 38.9972381591797 38.4438629150391 19.2912578582764 23.9527015686035 47.0391464233398 42.5186195373535 -2.95126390457153 -1.69505202770233 -1.27515494823456 -1.22693204879761 -1.28419065475464 -0.652935564517975 -1.23632574081421 -1.16015160083771 -1.06535339355469 -0.781116783618927 -1.198371052742 -1.18475496768951 -1.17261624336243 -1.16787254810333 -1.17655289173126 -0.962444186210632 -0.78905713558197 -0.784861981868744 -1.17060816287994 -1.1709520816803 -1.00431191921234 -0.110713511705399 -1.1866694688797 -1.14794325828552 0.172587469220161 0.17327381670475 0.550461888313293 0.378876984119415 0.263730585575104 0.434338599443436 -0.106643952429295 -0.480801582336426 -0.804248452186584 30.9252777099609 15.6699953079224 12.3138303756714 -1.46162223815918 -0.65167373418808 -0.638923466205597 -0.684564352035522 -0.783404111862183 -0.824049413204193 -0.789658844470978 12.232325553894 8.39658069610596 -0.755036354064941 -0.799363017082214 -0.662763059139252 -0.927392840385437 -0.913857996463776 -0.789447069168091 -0.607067763805389 -1.44997954368591 -0.522765100002289 -0.189020693302155 0.635615289211273 1.29965901374817 1.33709704875946 1.73949599266052 0.275994598865509 -0.18925379216671 0.448834598064423 0.10637379437685 0.595832884311676 0.949851393699646 -0.261609315872192 -0.542865753173828 0.104145146906376 0.062431488186121 -0.406946748495102 -0.953347504138947 -1.13460719585419 -1.27594804763794 19.4180698394775 -0.486690163612366 0.175558686256409 0.108676917850971 0.0736393481492996 0.0782173946499825 1.61159431934357 1.89367234706879 1.9990006685257 1.67955815792084 1.50513660907745 1.86361169815063 2.21010613441467 2.30813264846802 2.78169655799866 2.79089379310608 3.1602258682251
10.4115571975708 10.2772521972656 10.6236095428467 11.0175399780273 11.7040824890137 11.8698253631592 11.6715831756592 10.7493076324463 9.68923950195312 9.69899654388428 9.65332126617432 10.5130968093872 9.95884799957275 10.0612735748291 9.46359443664551 11.8780994415283 8.94340419769287 8.87904453277588 8.83648681640625 9.0940637588501 9.93965816497803 9.16502571105957 9.83551502227783 10.3988180160522 10.9830760955811 10.9988794326782 11.1221971511841 10.7956037521362 9.65093612670898 9.84239196777344 9.41208457946777 9.01816844940186 10.8354873657227 51.8186531066895 7.48097991943359 7.65446662902832 7.45590209960938 8.1813497543335 6.16571855545044 11.5119676589966 17.3559436798096 5.75616693496704 6.32118558883667 16.6111507415771 4.68265342712402 13.2373838424683 8.8288516998291 13.2498331069946 5.04527950286865 4.42453861236572 5.65232944488525 4.42147493362427 4.48421907424927 6.64404392242432 6.17215490341187 4.83625507354736 3.86261630058289 6.9102611541748 5.0995922088623 3.39339017868042 6.76475811004639 9.04385280609131 10.7593154907227 16.3092403411865 10.4642810821533 3.90651893615723 2.52325391769409 2.3262631893158 3.59684538841248 12.857982635498 2.25856971740723 12.4575901031494 1.64246761798859 2.12997245788574 2.40221333503723 2.51188993453979 10.6259737014771 33.9725074768066 8.04500293731689 14.1877222061157 4.64371061325073 -1.28993737697601 22.5946979522705 3.25571227073669 37.820629119873 13.7897052764893 -2.80021643638611 -1.28370678424835 -0.894178092479706 -0.719845235347748 -1.29287791252136 -1.11528956890106 -1.14488780498505 -0.836455583572388 -1.25969052314758 -1.25723516941071 -1.24883925914764 -1.24401748180389 -1.24348926544189 -0.828800916671753 -0.807344555854797 -1.2261176109314 -1.24448430538177 -1.24664092063904 -1.05111789703369 -0.168926134705544 -1.23216283321381 -1.17184281349182 0.124216437339783 0.396849095821381 0.487582236528397 0.307704836130142 -0.00215292884968221 0.374338090419769 -0.1547000259161 -0.905089378356934 -0.504820883274078 22.2140102386475 18.16477394104 1.07940351963043 3.57126975059509 -0.754555344581604 -0.803057312965393 -0.884819388389587 -0.916033864021301 -0.885824382305145 -0.86504065990448 7.00138282775879 -0.844850242137909 -0.857845485210419 -0.909266769886017 -0.793452084064484 -1.33529233932495 -1.16444277763367 -1.04691565036774 0.294438034296036 31.6142959594727 -0.737070381641388 -0.372505456209183 1.10925078392029 0.862818837165833 1.43506264686584 0.0341691970825195 26.1304359436035 42.7924728393555 37.1465950012207 35.5618553161621 25.4491100311279 -0.980366349220276 -0.675130128860474 12.8089847564697 20.8648490905762 7.78289270401001 -0.9686439037323 0.816373646259308 1.88317251205444 12.436821937561 -1.23764824867249 10.9293699264526 0.114050008356571 0.0632939487695694 0.0375526584684849 1.53114020824432 1.66984379291534 1.81769287586212 1.32424700260162 1.61827850341797 1.45110821723938 2.09449577331543 2.0104808807373 2.22014665603638 2.70856046676636 2.70026922225952 2.96612334251404
10.038290977478 10.0824089050293 10.3172130584717 10.4736585617065 11.1336584091187 11.0135774612427 10.5155038833618 9.85184288024902 9.17572116851807 8.8455867767334 9.25482368469238 9.94793128967285 9.41696643829346 9.2242488861084 9.74769496917725 8.71617412567139 8.7119779586792 8.54610157012939 8.74729347229004 9.36388492584229 9.60912322998047 8.91122627258301 9.57030773162842 9.02738189697266 9.66009044647217 10.0165433883667 9.91724491119385 9.38823413848877 9.39856052398682 9.07596969604492 8.8545389175415 8.98859214782715 30.1701183319092 7.22171211242676 7.33516693115234 9.07613563537598 7.35513305664062 7.57178735733032 6.73754405975342 4.36631441116333 13.4674644470215 6.14238405227661 9.52900123596191 8.8510799407959 23.2512683868408 10.9408702850342 6.15723657608032 5.31056547164917 5.01103067398071 13.9451093673706 3.93193960189819 3.61350226402283 3.55769038200378 3.67316818237305 5.4589786529541 4.10072183609009 5.08403396606445 5.82871103286743 4.02887916564941 3.3284912109375 5.19508981704712 5.20011806488037 7.25489616394043 10.3310966491699 7.46971750259399 4.49435377120972 2.24875330924988 19.5750617980957 8.17152214050293 8.64770603179932 6.80637836456299 7.65601873397827 -0.203343331813812 -0.512256383895874 2.39462089538574 2.95630741119385 19.2375392913818 16.6606273651123 30.4511623382568 -1.47955977916718 -1.12167620658875 9.68534469604492 16.1353435516357 20.9017772674561 27.5396747589111 -1.47348296642303 48.4456329345703 -1.4297411441803 -0.790064752101898 -1.24436140060425 -1.25970590114594 -1.15785992145538 -0.996936559677124 -0.884741365909576 -1.3115793466568 -1.3177182674408 -1.31972849369049 -1.31660985946655 -1.30261611938477 -0.843682765960693 -1.27550935745239 -1.29643571376801 -1.30725657939911 -1.0891010761261 -1.29931724071503 -0.228752195835114 -1.19786322116852 -0.945355355739594 0.106066353619099 0.358740895986557 0.458828657865524 0.106112688779831 0.217573240399361 -0.281802177429199 0.460683941841125 -0.410243958234787 -0.537516057491302 17.04567527771 9.00764465332031 5.07323741912842 11.9925832748413 -0.799201428890228 -0.847452282905579 -0.931244969367981 -0.94858980178833 -0.935835480690002 -0.927863836288452 4.42351818084717 -0.939087688922882 -0.980232715606689 -1.03647768497467 -0.917498528957367 3.38125586509705 -1.26881575584412 -1.27842664718628 10.2025651931763 -1.37423181533813 -1.02704846858978 -0.80417537689209 0.890083372592926 -0.224650293588638 0.573208630084991 18.4854316711426 12.7598562240601 13.3782167434692 12.0612983703613 4.70761966705322 0.230925813317299 32.4389915466309 20.4421825408936 3.73698043823242 5.97235345840454 -0.955008029937744 -1.37409710884094 0.183045327663422 2.75433707237244 -1.21744155883789 -1.13581001758575 2.62212991714478 0.0481460504233837 0.00816178880631924 0.0085639851167798 1.45844709873199 1.58428704738617 1.81972718238831 0.82306832075119 1.51172256469727 1.71672630310059 2.02627730369568 1.93711698055267 2.59661626815796 2.60400295257568 2.80454969406128 2.65078163146973
9.6785249710083 9.71859741210938 9.95059108734131 10.0003652572632 10.6004638671875 10.5746641159058 10.0883388519287 9.15653610229492 8.51664733886719 8.54459476470947 8.92626094818115 9.33456134796143 8.95394802093506 8.91791343688965 8.65886783599854 8.47268581390381 8.35100936889648 8.26350021362305 8.57053279876709 8.17122077941895 8.96345138549805 8.29440116882324 8.59689331054688 7.90433788299561 9.17889499664307 9.66784191131592 9.30910396575928 8.89649391174316 9.09647846221924 8.67416858673096 8.34443283081055 8.69034099578857 22.3635768890381 6.79446125030518 7.11599206924438 7.16404247283936 6.96810293197632 6.39997434616089 5.42725372314453 19.2324390411377 5.6617636680603 5.97099781036377 5.95246458053589 10.9477996826172 10.1383676528931 9.29013633728027 15.3745899200439 9.4097843170166 20.2725963592529 5.97970676422119 3.35430145263672 2.96138954162598 3.34509611129761 3.52140927314758 3.42404770851135 3.28055477142334 3.02063608169556 4.99485921859741 3.18678903579712 4.11103200912476 5.15526103973389 3.95750188827515 4.85688877105713 5.14556074142456 2.58848333358765 2.05161237716675 17.9055099487305 8.65132141113281 3.69296598434448 7.76927709579468 4.59555101394653 3.71544933319092 12.2074460983276 6.244384765625 -0.972969710826874 2.80865812301636 14.408842086792 17.5574684143066 12.8007135391235 45.2250366210938 24.9025936126709 15.6778717041016 -2.24361371994019 13.5058898925781 4.42624616622925 27.0151081085205 1.01557004451752 -0.228646203875542 -0.824391782283783 -1.41744017601013 -1.28804051876068 -1.19792747497559 -0.921474575996399 -1.360515832901 -1.36329853534698 -1.37231016159058 -1.37963807582855 -1.37436461448669 -1.06983065605164 -1.14103186130524 -1.34466123580933 -1.33217525482178 -1.34599792957306 -1.11661899089813 -0.290258824825287 -1.3356921672821 -1.22205054759979 0.0600312501192093 0.0731586143374443 0.425995618104935 0.225446954369545 0.0598778463900089 0.147890895605087 -0.258938610553741 0.3163141310215 1.13209009170532 13.6026458740234 6.12898635864258 10.4264841079712 6.15531301498413 -1.14045286178589 -0.829025149345398 -0.888458669185638 -0.974514722824097 -0.997839033603668 -1.00405013561249 2.73089528083801 -0.727655708789825 -1.03015077114105 -1.09685301780701 -0.969805181026459 0.310538738965988 -1.33875620365143 -1.34756457805634 -1.59290766716003 4.0930609703064 -1.72553694248199 -1.27769684791565 -1.35841500759125 0.634439527988434 12.1253881454468 3.43649291992188 -0.0420671850442886 -0.30643305182457 -0.0555827990174294 -0.427010416984558 -0.450975805521011 -1.0481219291687 -1.47424709796906 -1.41811394691467 -1.3025768995285 -1.5429379940033 11.0978412628174 -1.48078489303589 13.1462335586548 -1.43651211261749 14.261528968811 19.9131698608398 4.73475646972656 -0.0125445611774921 -0.0307271014899015 -0.0416758172214031 1.3615061044693 1.62358236312866 -0.0213056299835443 4.98263263702393 1.31531476974487 1.10472190380096 1.92825615406036 2.0507173538208 2.51868844032288 2.50751996040344 2.67729687690735 3.20901608467102
9.00312805175781 9.36386871337891 9.59278011322021 9.33946800231934 10.111795425415 9.87774562835693 9.10687160491943 8.34238529205322 8.23017692565918 8.13664531707764 8.71171855926514 8.51731586456299 8.52520847320557 8.36694812774658 8.34722900390625 8.068039894104 8.12491226196289 8.19592571258545 7.22090578079224 28.5524082183838 9.35208606719971 11.8358678817749 13.7567291259766 25.3599262237549 8.95734119415283 8.76471519470215 8.64319705963135 8.45772743225098 8.79382801055908 8.4142370223999 8.0639181137085 8.94240760803223 26.1338195800781 6.77425050735474 7.02331733703613 6.25491428375244 6.21886301040649 5.8437705039978 4.94146776199341 7.92057180404663 5.32923221588135 5.68535470962524 5.5413703918457 8.26149463653564 8.83269786834717 9.93514823913574 12.3928594589233 8.0244197845459 5.47709465026855 7.33344745635986 2.66565752029419 2.92219257354736 2.90463542938232 3.03438925743103 3.42789435386658 3.1320595741272 3.59370231628418 3.11750626564026 3.71932363510132 7.31821918487549 3.41763424873352 3.64735770225525 3.60900282859802 3.73972201347351 3.16691303253174 15.9154071807861 6.65809011459351 6.17096185684204 1.87721419334412 1.95917189121246 11.9719905853271 8.54232692718506 6.65457487106323 3.01348996162415 8.08578968048096 -1.12406122684479 11.4976434707642 13.0092554092407 26.8963279724121 24.3766136169434 26.0327224731445 29.2454166412354 -2.85530042648315 28.0717487335205 2.13386106491089 19.9272613525391 -0.428319841623306 -0.945852696895599 -0.619269132614136 -1.45125448703766 -1.22793781757355 -1.26622867584229 -0.966408491134644 -1.40997064113617 -1.41726064682007 -1.42737281322479 -1.430300116539 -1.42147505283356 -1.17424690723419 -1.24425280094147 -1.36366081237793 -1.40401875972748 -1.37802720069885 -1.14806234836578 -0.340381950139999 -1.36475336551666 -1.25153851509094 -0.234184980392456 0.281430333852768 0.379521280527115 0.188038870692253 -0.164079338312149 0.107676237821579 -0.312056183815002 -0.939012289047241 1.58807098865509 11.7361040115356 7.95183801651001 10.0756177902222 6.96675777435303 4.72490882873535 -0.9315465092659 -1.02342355251312 -1.06098067760468 -1.06435096263885 -1.06350421905518 1.99582052230835 -1.08256947994232 -1.14609241485596 -1.21670651435852 -1.03785467147827 -1.20906126499176 -1.42004549503326 -1.43179547786713 5.85429382324219 0.256288647651672 7.07779836654663 -1.92076861858368 -0.152348592877388 7.20558547973633 3.14630770683289 18.3000545501709 -0.436310708522797 -1.42273187637329 -1.22579216957092 -1.47586941719055 -1.31559312343597 -2.14204740524292 -2.30306935310364 -2.53394770622253 -2.57844662666321 -2.3353226184845 -1.49743366241455 18.9478321075439 -1.58436989784241 1.12495696544647 2.74212622642517 18.2315902709961 4.77732515335083 -0.0958740040659904 -0.107505537569523 1.23876130580902 1.32021605968475 -0.437915176153183 5.1544075012207 -0.486983299255371 0.552813351154327 1.1603034734726 1.48174154758453 1.95683968067169 2.43312048912048 2.42383193969727 2.52986836433411 3.05203151702881
8.89316654205322 9.13953876495361 9.01328659057617 9.51956081390381 9.68219757080078 9.42481708526611 8.69896984100342 7.9678521156311 7.99343824386597 8.33642768859863 8.29204845428467 8.25453948974609 8.24733734130859 8.04048538208008 7.68174266815186 6.16543769836426 7.96214818954468 8.21642017364502 32.6295318603516 8.56940078735352 8.05556869506836 8.46801948547363 11.9929428100586 8.24488544464111 8.57736873626709 8.2649564743042 8.10509967803955 8.20017528533936 8.00023078918457 7.82966279983521 7.77615833282471 13.4286794662476 25.9588928222656 6.00582981109619 6.15742158889771 5.89474964141846 6.17470216751099 5.73792409896851 6.55407857894897 5.17521381378174 5.62601947784424 5.5022759437561 5.04305171966553 7.15286540985107 7.91079378128052 7.29488039016724 5.3081259727478 5.0151309967041 4.35073137283325 8.87881660461426 22.6744136810303 13.1741046905518 15.9866781234741 8.65848255157471 5.02807378768921 3.0066180229187 3.06043720245361 5.67743921279907 6.17982816696167 3.36201667785645 2.86864829063416 3.15527892112732 3.06420803070068 11.3399171829224 1.60283005237579 5.96740198135376 8.06111335754395 3.72164082527161 0.62365996837616 1.13720560073853 0.443792849779129 6.81688213348389 4.778160572052 11.9585514068604 -1.26195156574249 -1.09552645683289 0.341569602489471 10.4363384246826 20.1341781616211 18.4968414306641 21.3023319244385 27.9280071258545 39.8911781311035 -1.55848944187164 4.29677104949951 12.9866046905518 -1.64312326908112 -0.846148729324341 -1.18814599514008 -1.00557374954224 -1.24044978618622 -1.09653759002686 -0.995908915996552 -1.46261656284332 -1.46260130405426 -1.25046372413635 -1.48053073883057 -1.47794377803802 -1.24253296852112 -1.4479044675827 -1.38117063045502 -1.3977427482605 -1.17204141616821 -1.44744002819061 -0.390509039163589 -1.28474819660187 -1.03538978099823 -0.196094363927841 0.116051137447357 0.33408311009407 -0.209775254130363 0.069525271654129 -0.45684027671814 -0.334642440080643 -0.84201443195343 1.11861252784729 10.3922462463379 7.03295993804932 2.57620239257812 -1.52777016162872 -1.88116943836212 -0.799394428730011 -1.09963941574097 -1.12675082683563 -1.136070728302 -1.13190603256226 1.43405723571777 -1.18271136283875 -1.25808489322662 -1.32388973236084 -1.08112442493439 -1.44209086894989 -1.48144364356995 1.4974946975708 0.950417220592499 3.683589220047 -1.64651811122894 9.31419944763184 9.38549137115479 -0.243004322052002 1.86736905574799 2.677814245224 -1.31417489051819 -1.80119907855988 -1.89192795753479 -2.40926432609558 -2.89157676696777 -2.86846351623535 -3.20318078994751 -3.22315311431885 1.82612371444702 11.8271999359131 -1.83363282680511 -2.13326239585876 -1.69837749004364 10.1428880691528 22.2105922698975 2.51156377792358 -0.151061877608299 -1.2839207649231 -0.189342945814133 -0.270393371582031 -0.85459703207016 -0.892079651355743 -0.664143681526184 -0.677595853805542 0.83658367395401 17.0968227386475 1.44911766052246 2.13482308387756 2.3073902130127 2.34234571456909 2.40677261352539 2.90641283988953
8.50621700286865 8.77578639984131 8.59299182891846 9.11998844146729 9.30645561218262 8.9129114151001 7.96293497085571 7.73187112808228 7.76223278045654 8.09241390228271 7.93386173248291 7.9294114112854 7.8922758102417 7.58924627304077 6.20150804519653 43.8181114196777 7.65792751312256 17.578821182251 9.74403667449951 8.23649311065674 7.85678911209106 8.17965221405029 8.50827217102051 7.80945301055908 8.21496105194092 7.62309980392456 7.56021022796631 7.88198757171631 7.61707639694214 7.38505792617798 7.24763345718384 11.257963180542 23.4739742279053 21.5524654388428 6.00295257568359 5.45570230484009 6.120689868927 4.50337791442871 3.9647490978241 4.49890089035034 5.2220196723938 5.03332853317261 6.73952722549438 4.54288816452026 5.50161218643188 5.29043292999268 4.61682319641113 4.32736349105835 3.89690184593201 8.77591991424561 9.76928997039795 9.15034675598145 8.9293155670166 19.7603816986084 3.06861329078674 2.62951993942261 2.65545868873596 2.59688115119934 2.13143634796143 2.4978301525116 2.47540402412415 2.69317817687988 2.34744930267334 8.16547107696533 15.2474575042725 5.48473501205444 1.0548243522644 0.247086673974991 0.249617248773575 0.439020842313766 -0.833893060684204 5.17717742919922 3.78610134124756 5.13499212265015 12.6616382598877 22.2929534912109 -0.0870790258049965 3.8896152973175 16.1649799346924 15.616042137146 8.10112762451172 33.1764717102051 27.2663230895996 23.023063659668 11.6055583953857 -2.15984320640564 5.66400337219238 -0.734136879444122 -1.04445242881775 -1.01417720317841 -0.769511163234711 -1.00758099555969 -1.47183847427368 -1.49520492553711 -1.39917767047882 -1.50614953041077 -1.52536344528198 -1.42042922973633 -1.26807403564453 -1.46501934528351 -1.38850069046021 -1.40272617340088 -1.18428695201874 -0.420191437005997 -1.42208170890808 -1.29443120956421 -1.45601582527161 -0.796810686588287 0.285941749811172 -0.372236609458923 -0.665279805660248 -0.630694031715393 -0.358138024806976 -0.61593496799469 -0.501369893550873 8.82193946838379 4.66781091690063 6.29931163787842 15.5221366882324 28.7061023712158 38.3337707519531 -0.327982097864151 -1.10900223255157 -1.20177960395813 -1.21442377567291 0.982898116111755 -1.24017286300659 -1.27898788452148 -1.33860552310944 -1.07692444324493 -1.39072775840759 -1.50129854679108 -1.52960336208344 0.215236023068428 0.338017851114273 1.27529835700989 3.227858543396 -0.035387609153986 -0.907224535942078 -0.452097028493881 -0.288100719451904 0.335676908493042 -1.69992244243622 -2.38167214393616 -3.21834111213684 -3.85368061065674 -4.33140325546265 -4.13806343078613 -4.45063972473145 -4.51195812225342 -4.14151334762573 -2.86311101913452 -2.36260151863098 20.0430469512939 7.6355152130127 -1.4676411151886 4.09220886230469 -1.4091272354126 -1.18728733062744 -1.6643590927124 -1.57272922992706 -0.439057648181915 4.48922443389893 -1.15705144405365 -0.760411560535431 2.63474464416504 0.641294479370117 2.21631288528442 1.22871685028076 3.34274625778198 2.06464457511902 2.26576662063599 2.31234383583069 2.76125264167786
8.07188320159912 8.35770320892334 8.14785289764404 8.78110694885254 8.42673683166504 8.01635646820068 7.43065929412842 7.46528577804565 7.38926649093628 7.82275056838989 7.6014552116394 7.51819849014282 7.35386896133423 7.38017749786377 36.6537208557129 7.4222207069397 7.47719144821167 12.3262319564819 8.06529331207275 7.55123376846313 7.90685129165649 7.80970478057861 7.64903688430786 7.82011651992798 7.31512689590454 7.29043102264404 7.26888608932495 7.60438013076782 7.33161544799805 7.08827304840088 6.97039985656738 10.7689027786255 24.9481067657471 33.3991889953613 46.2597312927246 5.43334865570068 4.63465118408203 4.5610408782959 5.18151473999023 4.18428564071655 4.77895593643188 4.75386667251587 4.08037185668945 4.65969514846802 4.76299095153809 4.72152233123779 6.34954833984375 4.25560235977173 3.59818911552429 5.31482076644897 5.8460955619812 6.2314772605896 7.10293102264404 3.26113629341125 3.39494752883911 11.6962671279907 2.39174294471741 3.79337167739868 20.9841976165771 3.83198189735413 4.36609077453613 2.32673597335815 2.13945007324219 9.91639232635498 5.05330419540405 3.94034481048584 0.0961736589670181 -0.00812932010740042 0.997418284416199 0.270426988601685 5.11128807067871 4.3735466003418 3.83618950843811 4.66596794128418 9.85691356658936 10.2953357696533 20.8142433166504 2.68485331535339 12.8294334411621 14.2610187530518 34.2740097045898 25.5669612884521 18.5372676849365 13.0948801040649 10.0589838027954 28.4517688751221 -0.972533881664276 -0.631876170635223 -0.576134383678436 -0.866700112819672 -0.908994615077972 -0.391145199537277 -1.21066915988922 -1.34660232067108 -1.53188145160675 -1.07017886638641 -1.13306260108948 -1.45018768310547 -1.18696403503418 -1.31881487369537 -1.44924139976501 -1.41148066520691 -1.19458436965942 -0.446273624897003 -1.2925169467926 -1.30019426345825 -1.48418891429901 -0.929458737373352 -0.493955910205841 -0.900701582431793 -0.67173433303833 -0.674851059913635 -0.638008296489716 -0.899216175079346 -0.365508675575256 7.83200597763062 5.5475435256958 9.26095581054688 8.70825481414795 20.6698703765869 1.29183423519135 0.0773045942187309 -0.0605564340949059 0.000792301958426833 -0.421114563941956 0.790830910205841 -1.27671420574188 -1.05497241020203 -1.14044404029846 -1.32661199569702 -1.32667315006256 -1.39627754688263 -1.51877748966217 -0.307876795530319 -0.574917078018188 0.496447265148163 1.62599492073059 -1.15865445137024 -0.878398716449738 -0.307380735874176 -0.480404078960419 8.76151561737061 -2.04263806343079 -2.89411592483521 -3.67417192459106 0.513201236724854 -4.09434843063354 -4.80574131011963 -4.72161674499512 1.52622985839844 0.595418035984039 -3.61618638038635 -2.88232588768005 -2.13859987258911 6.66708660125732 11.2782497406006 -1.11110186576843 5.67669439315796 -1.27623546123505 7.80341672897339 2.94737243652344 0.798072636127472 1.18322193622589 11.6332330703735 -0.971659064292908 -0.764156460762024 0.418945968151093 0.513020634651184 14.9552936553955 2.001145362854 2.04404282569885 2.037269115448 2.5802104473114 2.5204815864563
7.77722930908203 7.63397598266602 8.05445003509521 8.33799266815186 8.02704238891602 7.48231887817383 7.17539501190186 7.19036388397217 7.39929580688477 7.20656776428223 7.30692434310913 6.96442222595215 7.09963417053223 18.0603065490723 16.3545589447021 7.08961820602417 7.41842746734619 8.9350004196167 7.6013822555542 7.26680707931519 7.63885021209717 7.51419067382812 7.22360849380493 7.50164604187012 6.68781614303589 6.95814085006714 6.03174018859863 6.8796911239624 6.78004312515259 6.74179792404175 7.54794120788574 10.3562469482422 17.9737319946289 24.6562042236328 4.90940189361572 4.97202205657959 4.40576219558716 3.98088407516479 4.11467409133911 4.52254867553711 4.34806871414185 3.99335980415344 3.63860177993774 4.00402021408081 4.73742961883545 4.67775440216064 4.49445390701294 3.87244820594788 3.5430121421814 5.07491111755371 5.88547277450562 4.46321201324463 4.80580234527588 2.81316304206848 2.79368448257446 3.92461371421814 27.5826797485352 16.9861717224121 1.94949376583099 4.37111806869507 1.6416562795639 2.14668393135071 4.25833940505981 7.62663698196411 2.48869299888611 10.6698598861694 15.908016204834 18.7437381744385 5.53137826919556 3.59802389144897 7.86626386642456 2.62632417678833 1.21111333370209 4.35917377471924 8.10556221008301 14.0549898147583 2.17277789115906 1.48540258407593 2.33382272720337 20.23583984375 15.2720632553101 7.30697059631348 14.0392026901245 1.98281061649323 14.4820384979248 1.45578444004059 -0.85797917842865 -0.702873170375824 -0.655246138572693 -0.580669164657593 -0.802635252475739 -0.631643831729889 -0.854680120944977 -0.952027082443237 -0.858080804347992 -0.687125504016876 -0.763528943061829 -1.34161376953125 -1.35152971744537 -1.28993988037109 -1.40679228305817 -1.21981251239777 -1.57548642158508 -0.489394843578339 -1.31382811069489 -1.53543031215668 -1.52046966552734 -1.0152485370636 -1.0665727853775 -0.987306356430054 -0.927806437015533 -0.730426728725433 -0.841145634651184 -0.774414300918579 -0.426025062799454 7.03532981872559 4.84689331054688 0.220329374074936 -1.95501244068146 15.0575399398804 1.18521761894226 0.977954685688019 1.10935723781586 0.659330010414124 0.0519913844764233 0.6563640832901 -0.947594940662384 -0.78360903263092 -0.820439755916595 -0.848089814186096 -0.850093126296997 -0.844119727611542 -0.216187059879303 0.0187171399593353 3.43818950653076 2.15771174430847 2.60556316375732 1.80423986911774 0.035271093249321 -0.430343061685562 -1.30236673355103 0.60563188791275 11.3735437393188 -3.57187485694885 4.9222240447998 -4.46994972229004 -5.12527847290039 -4.9511513710022 -5.12908983230591 -4.80877876281738 -4.57415676116943 -3.91772222518921 -3.32702708244324 -2.4335036277771 -1.80426275730133 -0.709933400154114 4.5221061706543 10.1478042602539 0.676764726638794 0.893191456794739 -0.514151692390442 12.1104621887207 17.4785213470459 -1.33797347545624 -1.33552217483521 1.06793761253357 0.185193777084351 5.22794389724731 2.01335430145264 1.84326958656311 1.97630321979523 2.0869996547699 2.24502515792847 2.45040082931519
7.42604970932007 7.27450037002563 7.73975563049316 7.88570117950439 7.57524633407593 6.71850776672363 6.77243709564209 6.75852060317993 7.11532735824585 6.60139465332031 6.52448225021362 6.9721360206604 6.21643447875977 12.0089206695557 11.812352180481 6.75457620620728 7.09838342666626 7.42498064041138 7.22648096084595 7.07415103912354 7.36154413223267 7.11211204528809 6.92045211791992 7.19624710083008 6.66860246658325 6.58701324462891 5.95583868026733 5.10185432434082 6.3976616859436 6.28218984603882 6.61300373077393 8.65937614440918 13.4678430557251 17.6660346984863 10.7023115158081 15.9860467910767 7.17314147949219 3.45934009552002 9.84235000610352 4.25926113128662 4.04474687576294 3.35744476318359 5.46211433410645 3.98111629486084 4.32751989364624 4.35103321075439 3.89372396469116 3.56155514717102 3.92343211174011 5.344322681427 5.1128101348877 4.35334205627441 6.74610662460327 2.79015803337097 2.21211552619934 7.76080369949341 3.31137108802795 6.69553661346436 5.73374700546265 1.92295169830322 7.9892053604126 1.68363130092621 3.62759566307068 4.41652297973633 5.84600400924683 10.6530666351318 11.834285736084 8.26631164550781 5.73453140258789 1.1413494348526 0.63751232624054 1.25526010990143 13.929726600647 3.65755200386047 7.27983903884888 9.5936164855957 4.35157060623169 1.11905097961426 25.5581836700439 15.3829126358032 18.1551151275635 34.071647644043 -1.56610202789307 8.08882999420166 10.1089973449707 0.787818908691406 -0.880608737468719 -1.10158550739288 -1.00737345218658 -0.745281219482422 -0.478839755058289 -0.57534247636795 -0.603184819221497 -0.768705546855927 -0.966955363750458 -0.866101503372192 -1.63860011100769 -2.59890484809875 -2.50438404083252 -2.59764695167542 -2.7451183795929 -2.91164541244507 -1.77775037288666 -1.4783524274826 -1.33620238304138 -1.53883898258209 -1.03759872913361 -1.28673124313354 -1.06101596355438 -1.03393507003784 -0.943613052368164 -0.745432019233704 -1.06178641319275 -0.790625393390656 6.07912302017212 3.04945349693298 4.34487152099609 0.259624630212784 39.2882041931152 11.7097721099854 1.53480863571167 1.64047598838806 1.29609417915344 0.511390030384064 0.611697971820831 -0.434856206178665 -0.593674004077911 -0.696556568145752 -0.538666844367981 -0.338019073009491 -0.378838539123535 -0.361477166414261 -0.260539382696152 1.87677431106567 0.881699323654175 2.78765034675598 4.28755331039429 2.38253617286682 0.214018121361732 4.31936264038086 0.389779210090637 10.6236486434937 21.3844013214111 28.8377323150635 -3.0420036315918 -4.75302362442017 -4.19916820526123 -3.82381963729858 14.9222459793091 0.292766690254211 13.9663581848145 11.9637441635132 -3.49614977836609 -2.5878574848175 -2.18786025047302 -1.76810622215271 0.937526047229767 -1.48890423774719 -1.79615211486816 -1.7593457698822 2.63156771659851 5.52961683273315 5.56654644012451 17.1003799438477 12.320704460144 -0.60218870639801 0.145212009549141 0.257995575666428 1.77003872394562 1.80296194553375 1.96804165840149 1.87595808506012 1.89999306201935 2.6667685508728
7.11935329437256 6.92195129394531 7.40007066726685 7.05460119247437 6.72402286529541 6.34711790084839 6.41373634338379 6.41110324859619 4.71934461593628 6.21695375442505 5.98157548904419 4.97691535949707 4.58707094192505 7.93888235092163 6.48617553710938 6.47070360183716 6.76922369003296 7.09298515319824 6.72272348403931 7.05084323883057 6.95569133758545 6.84024477005005 6.98975229263306 6.3751482963562 6.4537787437439 13.9887990951538 25.9321823120117 38.4972457885742 6.08939981460571 5.99308395385742 6.18107175827026 8.58855438232422 10.137020111084 4.34865808486938 4.76190757751465 6.25563526153564 3.76593446731567 3.08556079864502 3.81007933616638 15.9430799484253 5.98913526535034 5.62985849380493 3.68632960319519 3.71704530715942 3.97319030761719 3.83321213722229 3.66983962059021 3.28685522079468 3.54009866714478 3.22204637527466 2.94457912445068 2.65930390357971 2.90967106819153 3.21375370025635 2.16064429283142 5.86137294769287 2.8122718334198 5.79266262054443 2.15641093254089 1.57699167728424 1.9262570142746 5.12610530853271 3.55539774894714 2.95339274406433 2.22462034225464 8.67490100860596 10.1224317550659 8.63012886047363 8.71464061737061 9.78594779968262 6.50530815124512 4.1713080406189 3.00460076332092 4.57212352752686 3.33119750022888 4.96971893310547 10.9806270599365 4.58893156051636 3.49394083023071 5.45937633514404 30.1407337188721 6.77064037322998 -0.794250965118408 1.30898904800415 -2.2597324848175 -0.779144108295441 -0.914754390716553 -1.34470701217651 -1.18298482894897 -1.25599253177643 -1.02226722240448 -0.721648991107941 -0.753056764602661 -0.983057677745819 -0.988105058670044 -1.01544630527496 -1.67543601989746 34.9862022399902 18.9915027618408 2.18853521347046 22.9666862487793 29.3889980316162 31.1404228210449 -2.0429801940918 -1.49488282203674 -1.95197439193726 -1.57248044013977 -1.30587124824524 -1.14046168327332 -1.0040910243988 -0.959479987621307 -0.766369640827179 -1.0705338716507 -0.576547563076019 5.56275987625122 3.68062996864319 13.8972902297974 7.20261764526367 9.04964923858643 0.831589818000793 1.11510109901428 1.37189209461212 1.08177590370178 0.599104404449463 0.547352254390717 -0.365741163492203 -0.521965980529785 -0.406413733959198 -0.204538136720657 -0.26361221075058 -0.264027625322342 -0.0495204068720341 0.276300549507141 1.20719075202942 0.77182674407959 2.95074462890625 -2.42742156982422 1.57738447189331 5.85209560394287 17.9381084442139 1.53121781349182 7.60033464431763 30.0753326416016 1.60764956474304 8.02710342407227 6.79818868637085 17.0791664123535 2.14933323860168 10.2916078567505 10.890588760376 20.7359066009521 -4.20631170272827 -3.97568535804749 -3.49652600288391 -2.59688115119934 -2.08991003036499 -1.89398419857025 -1.88566160202026 1.01731526851654 -0.754967927932739 -0.464718639850616 1.84557008743286 1.73278403282166 -1.95650970935822 -1.93259608745575 -2.09961986541748 -1.67006146907806 -0.640975952148438 0.819478988647461 3.80350112915039 1.60322499275208 6.92885589599609 1.90109288692474 2.09728336334229
6.61716079711914 6.85009002685547 7.10279750823975 6.73846483230591 6.20754480361938 6.07503461837769 6.09191465377808 6.33144092559814 4.54754447937012 4.63554859161377 4.32034540176392 3.92340874671936 3.6829514503479 4.31275177001953 5.94503879547119 6.37180614471436 6.67933416366577 6.58404302597046 6.3596134185791 6.76382255554199 6.66622114181519 6.48517179489136 6.76181125640869 6.35230731964111 6.25172090530396 12.5168399810791 18.6445541381836 5.67299699783325 5.73594760894775 5.727623462677 5.88166093826294 6.42330312728882 7.81741285324097 47.1185607910156 3.9293909072876 3.77250647544861 3.52447438240051 14.063404083252 3.91451144218445 7.09960699081421 3.51721668243408 4.46803617477417 6.340904712677 3.62640142440796 5.81892776489258 3.54441928863525 3.08758783340454 2.82400393486023 2.25853753089905 2.73992824554443 2.85479402542114 6.07860040664673 2.56257271766663 2.44508385658264 10.6774234771729 13.3106775283813 7.77192306518555 1.74279594421387 1.32007873058319 1.41396546363831 1.64228963851929 2.47434067726135 3.32598280906677 2.09021258354187 10.9495601654053 5.38502979278564 6.57318639755249 6.99108219146729 9.13703155517578 10.4168453216553 8.89519309997559 14.0141277313232 2.33022785186768 3.06147837638855 5.37942695617676 3.60758996009827 12.0852031707764 19.7726631164551 2.82220005989075 7.7539758682251 22.9443778991699 21.4105815887451 14.5938320159912 3.05126953125 4.12831020355225 -1.60210776329041 -0.752329409122467 -1.37246108055115 -1.31315457820892 -1.17447113990784 -1.06040191650391 -1.22533106803894 -1.1495178937912 -1.09537506103516 -1.01521563529968 -0.293498486280441 17.9642391204834 15.2799367904663 6.436842918396 12.9319820404053 23.2846546173096 22.1337184906006 14.6767158508301 22.2094917297363 -2.21373677253723 7.13408184051514 16.7597141265869 -1.03457927703857 -0.963840007781982 -0.976960062980652 -0.80504584312439 -1.06994986534119 -1.0845752954483 -0.598514974117279 5.06677532196045 3.30261826515198 13.4765567779541 0.709348618984222 7.5296425819397 0.680368483066559 0.837713122367859 0.952171683311462 0.687650799751282 0.516987442970276 0.493660241365433 -0.0311197880655527 -0.0796260461211205 -0.195637285709381 -0.30445060133934 -0.227312564849854 -0.0299346204847097 0.00528437737375498 0.153741419315338 0.76375412940979 1.03949892520905 -0.906549215316772 3.26964497566223 7.07029724121094 4.55137062072754 11.5096836090088 -2.33782386779785 6.27734756469727 27.8875217437744 30.3501396179199 23.429594039917 25.5010471343994 4.26422882080078 25.0038776397705 -0.630359947681427 26.6791515350342 3.91784238815308 26.4040832519531 1.4053601026535 -0.236350521445274 -2.76622295379639 3.4307713508606 -2.22826719284058 9.48183727264404 -2.24050569534302 -0.91842782497406 -1.01681804656982 1.36164748668671 -2.25433540344238 -2.80645370483398 -2.842848777771 -2.46058535575867 -2.11809945106506 -1.12359344959259 -0.0768091455101967 1.80971348285675 1.85224556922913 5.19224691390991 12.1935710906982 15.8076467514038
6.42982959747314 6.76345443725586 6.8182520866394 6.45245265960693 5.79450607299805 5.79445552825928 5.81519174575806 25.4831218719482 9.55167293548584 3.72316241264343 3.92108392715454 3.10307359695435 3.06587362289429 3.31166839599609 5.49558210372925 6.02516746520996 6.3363208770752 6.12516641616821 6.17943716049194 6.47367334365845 6.34551000595093 6.25609493255615 6.54179430007935 6.21988201141357 6.08403587341309 9.66803550720215 13.6498775482178 5.46973514556885 5.40122604370117 5.49546384811401 5.60975551605225 5.89284801483154 22.0209636688232 2.17463755607605 2.90982103347778 2.76380038261414 3.09500002861023 3.27896213531494 9.87411785125732 10.8182640075684 26.3599319458008 6.97429180145264 3.67103147506714 12.5906114578247 3.71189093589783 3.17567563056946 2.70754051208496 2.46122431755066 2.41696810722351 2.22979712486267 2.42012858390808 2.32126569747925 2.13071894645691 5.10823345184326 5.42755794525146 3.96245574951172 3.46364188194275 1.67500984668732 1.66959869861603 5.86609506607056 1.54449033737183 1.88667047023773 2.42712640762329 2.0896143913269 1.84818172454834 1.14947617053986 2.63327836990356 6.18808698654175 5.55983591079712 3.06356716156006 2.78910803794861 0.600232839584351 1.564732670784 2.49612951278687 3.65466976165771 3.43134665489197 8.67572784423828 7.66924715042114 2.23465204238892 8.76261043548584 13.7967224121094 30.1926765441895 23.9165363311768 36.4692649841309 16.2738666534424 -1.80854988098145 -2.55198621749878 -2.42161870002747 -1.47813141345978 -1.22178590297699 -1.55102860927582 -1.47201180458069 -1.2273188829422 -1.22048568725586 -1.10272109508514 -1.81911277770996 11.8240976333618 6.52005624771118 3.54567408561707 20.6300029754639 16.1581211090088 15.2001171112061 8.14659690856934 -0.42340350151062 2.15172958374023 8.39514064788818 -1.95906400680542 -1.1429363489151 -1.08856070041656 -0.978352725505829 -0.814005851745605 -1.11678087711334 -1.07356798648834 4.39035177230835 2.0238733291626 2.95819711685181 12.1097478866577 15.3650598526001 6.43168830871582 0.501136541366577 0.659771025180817 0.621784090995789 0.413617014884949 0.536072790622711 0.568488717079163 0.482125461101532 0.206877902150154 -0.0643655210733414 -0.0779765918850899 -0.129097431898117 -0.126195624470711 -0.12778352200985 0.619004726409912 0.315541684627533 1.37111234664917 15.008397102356 23.141565322876 -1.24863016605377 4.22787570953369 -2.67147064208984 44.3880271911621 9.51509857177734 25.4987545013428 22.6998901367188 18.5391006469727 12.0395727157593 8.4400634765625 7.90710973739624 19.3148155212402 8.70256519317627 10.7733135223389 8.82574653625488 31.6071872711182 6.85020017623901 -2.98918223381042 -2.25479817390442 13.4411392211914 0.395484387874603 5.79595375061035 -1.17894899845123 -0.937341690063477 -1.2473611831665 -2.62865710258484 -2.94006299972534 -2.95155739784241 -2.7013635635376 -2.78807258605957 -1.23334586620331 -0.844162404537201 -0.23585356771946 3.78092408180237 4.26061344146729 2.37383961677551 2.71783590316772
6.14368629455566 6.53718852996826 6.16680145263672 5.91376161575317 5.60381698608398 5.58863973617554 5.54687643051147 22.4106578826904 4.2130708694458 3.39329028129578 3.18181324005127 9.65055084228516 3.05370473861694 11.5411586761475 5.09301805496216 5.65548753738403 6.04460144042969 5.90349245071411 6.17824029922485 6.10117101669312 6.12346267700195 6.35006093978882 6.07691526412964 6.06364917755127 6.88856649398804 8.31356811523438 11.3206338882446 5.36637401580811 5.26273202896118 5.34123182296753 5.32563495635986 5.49999761581421 3.08768248558044 18.5743026733398 2.16964912414551 2.72885894775391 2.77717137336731 3.26014947891235 3.7989022731781 12.6978130340576 4.41014289855957 15.0552215576172 3.58084321022034 3.69908571243286 3.48305511474609 4.58012247085571 2.53963232040405 1.87380647659302 2.07009077072144 2.02679562568665 1.91014993190765 1.54914700984955 2.59079217910767 2.94237780570984 3.64449143409729 3.02630209922791 3.12999820709229 1.1697746515274 8.76585865020752 3.46408414840698 6.38402700424194 2.09586381912231 1.77621388435364 1.3864860534668 0.86818516254425 2.35038304328918 1.07141649723053 3.40523862838745 2.95356941223145 2.46953797340393 2.11885666847229 0.81905871629715 9.74042701721191 2.55373811721802 3.03376722335815 4.593994140625 6.41424942016602 8.19010543823242 4.636474609375 5.58007764816284 5.86939191818237 25.70654296875 8.82140064239502 24.3476371765137 12.9126329421997 -1.83833694458008 -2.63279795646667 -3.16057538986206 -3.06895065307617 -2.15851235389709 -2.83442044258118 -1.68966400623322 -1.67266952991486 -1.34925425052643 -1.21543598175049 -2.88128447532654 8.77584266662598 3.65655469894409 24.1505432128906 10.1648559570312 11.8842029571533 10.9702234268188 4.88278532028198 7.36307668685913 -2.2327709197998 -1.34470963478088 7.55322074890137 -1.15663278102875 -1.01131963729858 -0.979628622531891 -0.825602829456329 -1.1268630027771 -0.684809327125549 4.00233459472656 2.45016646385193 4.77448511123657 17.3573799133301 2.01705718040466 0.196626096963882 0.313220590353012 0.447983413934708 0.406651794910431 0.238257765769958 0.483182728290558 0.682257235050201 0.635467708110809 0.419339925050735 0.151835381984711 -0.0582136586308479 -0.133990794420242 -0.123855844140053 -0.0878295451402664 0.366486489772797 0.146853595972061 7.53176116943359 10.9912204742432 3.21873998641968 -1.59195852279663 11.0849008560181 14.5187540054321 21.7044658660889 17.2022285461426 22.3152980804443 10.6750221252441 11.6910400390625 10.6409730911255 10.2495431900024 14.6988639831543 4.63253402709961 5.46388053894043 11.8796720504761 17.2264442443848 9.8901948928833 2.66323113441467 10.3096370697021 -1.10604345798492 1.51451754570007 8.3274393081665 -1.255087018013 -1.34631454944611 -1.05585217475891 13.5324211120605 29.2622203826904 18.4173049926758 26.4463119506836 22.0685997009277 31.3058967590332 14.9638795852661 -0.459648221731186 -0.477323561906815 1.76600098609924 2.15654802322388 5.38195085525513 5.20558881759644
6.07294988632202 6.31032085418701 5.96145868301392 5.45069074630737 5.4048318862915 5.40422010421753 4.62245798110962 17.2612285614014 41.1281509399414 3.34066557884216 2.70190382003784 4.39344835281372 46.9676704406738 34.8391494750977 4.82754850387573 5.36492681503296 5.56590795516968 5.56213998794556 5.96237707138062 5.88071250915527 5.84592962265015 6.2127103805542 6.01049709320068 5.95470571517944 6.9002857208252 10.0249004364014 4.95578765869141 4.6076831817627 5.19186210632324 5.04014825820923 5.17507076263428 5.25149965286255 20.5031127929688 2.67458939552307 1.96159565448761 2.05217099189758 2.90169668197632 4.67748117446899 3.59155654907227 7.56921625137329 3.65221953392029 7.60155630111694 15.180814743042 3.58599805831909 4.81234979629517 5.43356847763062 8.91942501068115 13.6244020462036 4.50474500656128 2.86837363243103 1.41274046897888 0.843396961688995 0.526811957359314 0.49452343583107 1.48431956768036 1.88548040390015 1.2759006023407 1.15076661109924 1.89168918132782 3.43175339698792 1.78642022609711 2.02110862731934 0.914178073406219 0.361761599779129 0.310894578695297 0.749907374382019 0.81926965713501 1.33964943885803 8.24957275390625 1.30082058906555 5.99253749847412 3.20943164825439 2.75307297706604 2.98115968704224 1.66115474700928 11.6783933639526 5.26918601989746 7.23633623123169 2.60484671592712 4.44817543029785 8.10097217559814 10.5267667770386 42.6563034057617 14.4733743667603 10.4768648147583 16.5291500091553 -3.46298170089722 -3.71604681015015 -3.1902916431427 0.976884663105011 17.4116897583008 -2.0131413936615 -1.98104298114777 -1.54032504558563 0.135467976331711 41.5325965881348 0.930992126464844 13.622670173645 1.20960474014282 8.85543632507324 8.39986896514893 1.88656330108643 2.6559054851532 -3.13135957717896 -3.37671732902527 -2.36366128921509 -2.33008289337158 -2.98519444465637 -2.70164084434509 -0.837846040725708 -1.09941005706787 -0.964632093906403 -0.694879651069641 3.68820142745972 2.21968841552734 4.55749893188477 4.07124757766724 -0.621206521987915 0.145833432674408 0.291489124298096 0.301434814929962 0.266722321510315 0.169859901070595 0.435002416372299 0.50238174200058 0.524097859859467 0.432614296674728 0.133447095751762 -0.0975134670734406 -0.0616225376725197 -0.208135277032852 -0.0950479954481125 0.201160252094269 0.416458159685135 4.87813138961792 7.65834140777588 -2.99810385704041 -2.79155993461609 32.8668441772461 45.9363861083984 6.68997859954834 30.5299510955811 21.061185836792 17.0720729827881 12.8073816299438 8.03469753265381 9.57968711853027 7.96839380264282 25.4549579620361 18.7737598419189 9.54197978973389 9.90845966339111 6.17108821868896 9.14856052398682 -3.23149013519287 -2.53744745254517 1.20017004013062 3.14777636528015 -1.85327172279358 -1.57768678665161 -1.47905218601227 11.049144744873 13.7765779495239 20.4618091583252 10.621976852417 11.4443063735962 -0.102717190980911 0.409768849611282 35.6177406311035 34.4487609863281 1.57463383674622 1.5374481678009 3.07129216194153 3.50569677352905
6.09366989135742 6.06528759002686 5.71247673034668 5.245689868927 5.23152303695679 5.23745489120483 32.5207443237305 22.431339263916 31.7274417877197 53.1098861694336 24.6910495758057 44.1594581604004 19.8813724517822 4.14168167114258 4.46118879318237 4.85738134384155 5.18263578414917 5.41187334060669 5.77174282073975 5.68560647964478 5.70584392547607 6.10502099990845 5.95982456207275 5.84041976928711 6.23927927017212 8.81856536865234 21.8617362976074 28.7668972015381 5.17291355133057 5.10569906234741 5.27872371673584 8.89963817596436 37.2410087585449 2.66868090629578 1.54944264888763 20.8158626556396 6.83279085159302 3.63980865478516 3.45689153671265 3.01366257667542 3.38092064857483 7.36934852600098 8.83446025848389 18.897834777832 7.51830673217773 8.62040710449219 14.3606491088867 8.81711578369141 8.73875141143799 23.4888000488281 0.849182069301605 0.380093842744827 0.281153231859207 0.406615138053894 0.407629817724228 0.433286398649216 5.80016946792603 8.42938041687012 2.30977511405945 0.806771278381348 0.982468008995056 0.974287807941437 0.271687716245651 12.537691116333 0.501002788543701 1.31706559658051 0.0414397455751896 0.567619264125824 0.612879872322083 6.93490028381348 -0.14523646235466 -0.124062798917294 1.49014115333557 5.4584379196167 1.1132595539093 4.06540298461914 4.26310014724731 8.39489078521729 3.82861757278442 18.5384883880615 7.83062028884888 21.3043441772461 19.3277320861816 10.7757596969604 29.2157726287842 27.6598453521729 14.7928037643433 -3.81668591499329 -2.47726202011108 -2.07893872261047 -3.21178412437439 -2.83485150337219 -2.52196669578552 -2.27143573760986 10.1601676940918 5.29449796676636 24.4704303741455 7.4218602180481 29.9552536010742 7.21957492828369 6.5157265663147 1.37617075443268 -2.19457817077637 36.8256301879883 43.1710624694824 25.2911186218262 30.3362693786621 42.7391319274902 41.1939544677734 -2.19712591171265 -1.83301508426666 -1.156822681427 3.28657817840576 1.28336417675018 2.0026581287384 4.03449726104736 -1.15837299823761 -0.792833089828491 -0.013842049986124 0.168587759137154 0.154136076569557 0.102193675935268 0.42124330997467 0.295904844999313 0.31212130188942 0.39346918463707 0.227324783802032 -0.0726738944649696 -0.071268804371357 -2.84783625602722 -2.37107110023499 -0.655991017818451 -2.71070790290833 -2.58824849128723 -2.96558022499084 -3.17714071273804 3.34382176399231 40.8369369506836 26.8799724578857 14.4491052627563 8.34078216552734 21.1870079040527 23.8806056976318 16.1600208282471 6.55208921432495 47.079158782959 45.5615005493164 5.95435285568237 20.9550724029541 7.71447610855103 15.8257122039795 8.97644233703613 7.30025577545166 4.54009008407593 32.5672874450684 5.66338920593262 -2.15236186981201 0.936261892318726 -2.07930827140808 -1.63289821147919 0.718238711357117 7.26443958282471 10.0128393173218 13.1295013427734 9.21251392364502 4.7039361000061 -1.26381075382233 -0.968005895614624 13.163031578064 0.288475632667542 1.27289855480194 19.7631759643555 4.02224588394165 2.85306787490845
5.85575246810913 5.46525573730469 5.26950550079346 5.10979413986206 5.09427356719971 16.3965969085693 8.81996631622314 15.2216777801514 30.5491676330566 36.5627212524414 48.4002342224121 20.6176071166992 15.5925006866455 6.18351173400879 4.4396538734436 4.58480644226074 4.88638734817505 5.34345960617065 5.43423557281494 5.53039789199829 5.85820436477661 5.76056146621704 5.79993677139282 5.71600151062012 5.90555334091187 11.9969892501831 16.3978500366211 5.60151386260986 5.178466796875 5.09475088119507 5.25617456436157 41.8182983398438 20.2336807250977 15.2217693328857 28.229097366333 2.2254753112793 4.56402444839478 3.48064208030701 3.45346832275391 3.03607034683228 3.3363299369812 4.51511812210083 9.51383018493652 4.93814516067505 9.45261287689209 8.05722904205322 6.34406614303589 10.5192584991455 20.1658821105957 6.90837287902832 3.17002081871033 7.97715902328491 2.34810304641724 0.347775250673294 -0.0610156208276749 0.0396598726511002 0.386998414993286 0.462556481361389 0.922972977161407 0.47652542591095 0.80240523815155 0.414662748575211 7.08769702911377 4.78707885742188 5.0342903137207 7.68859195709229 11.0617961883545 2.92931199073792 0.706007540225983 0.45590952038765 6.29725646972656 13.1658210754395 1.9868620634079 2.6214907169342 9.9750280380249 2.40095639228821 3.38288855552673 14.2426538467407 10.9833250045776 3.17239308357239 5.92436504364014 5.63792133331299 13.072078704834 21.3880920410156 15.6765003204346 28.4088497161865 20.9438438415527 14.6608600616455 9.01583480834961 -3.22453308105469 5.92901515960693 -3.32515931129456 -2.64171624183655 13.200083732605 22.9823532104492 10.9091091156006 3.42593240737915 13.840690612793 5.36212301254272 6.14496755599976 1.11401629447937 -3.1148624420166 -4.00647926330566 -3.70852375030518 -3.72561311721802 -3.56351757049561 -3.11591458320618 24.1054649353027 12.426775932312 33.8922386169434 22.1383953094482 -0.830757260322571 2.96658754348755 1.62953317165375 2.15813136100769 9.18607425689697 4.46321630477905 15.6697292327881 -0.11036991328001 0.0110111469402909 0.0126526672393084 -0.0391056202352047 0.361450552940369 0.202790588140488 0.238995909690857 0.15781082212925 -0.098250150680542 -0.179570496082306 -0.247907072305679 43.2296333312988 27.5719547271729 5.98775148391724 35.8533401489258 32.6017837524414 40.6209144592285 43.8132438659668 35.0673484802246 5.46997117996216 18.0319309234619 19.6116905212402 12.178186416626 17.8677291870117 27.2423133850098 29.3031120300293 33.7653388977051 26.6936683654785 26.8182888031006 48.5194854736328 4.55017423629761 20.5635509490967 8.06669521331787 1.55166494846344 3.26066660881042 -2.96359920501709 2.3280336856842 -3.09613609313965 -2.574622631073 -2.73573541641235 7.25049924850464 -2.14089632034302 1.47178864479065 7.91713047027588 5.68946886062622 10.0616254806519 3.16600632667542 1.74326467514038 -1.45015776157379 3.0158383846283 6.37990093231201 0.227422088384628 0.747643768787384 1.94886612892151 2.708820104599 2.79472398757935
5.68803071975708 5.32577848434448 4.89330959320068 4.93675518035889 4.92777585983276 11.4545259475708 7.57766056060791 12.3827619552612 22.254035949707 27.4535064697266 21.9346389770508 17.1051902770996 13.3638105392456 8.51383018493652 10.987979888916 2.90990495681763 4.39841461181641 5.02818059921265 5.20706605911255 5.33514308929443 5.59190273284912 5.64057636260986 5.62400388717651 5.76133298873901 7.05952930450439 9.30420875549316 12.7684640884399 5.1543173789978 4.94629240036011 5.06711769104004 25.739839553833 19.4310150146484 19.8233280181885 35.7854499816895 28.5593166351318 42.3701286315918 17.0416469573975 3.17124271392822 2.85471510887146 2.71712708473206 3.00778198242188 3.11116099357605 4.75737905502319 3.30645203590393 3.48886132240295 4.13708829879761 5.39885330200195 6.54546642303467 6.83841753005981 14.783052444458 5.34761619567871 0.140671461820602 0.292786538600922 2.14440441131592 6.45531940460205 6.62306690216064 -0.0846871957182884 0.0361856482923031 0.096828393638134 0.374309003353119 0.320797920227051 0.308247834444046 5.62822151184082 1.0920318365097 2.56903171539307 12.7024250030518 13.7539091110229 12.0429639816284 6.5119423866272 11.6847867965698 12.5551977157593 12.7487382888794 9.61950206756592 3.86453652381897 2.77451705932617 3.46871042251587 2.82988262176514 12.1869955062866 4.15600061416626 1.50708913803101 3.44514465332031 4.108078956604 2.38653516769409 8.04123497009277 10.6334180831909 22.6645088195801 21.5150489807129 19.400333404541 33.4603385925293 31.893648147583 -3.46914649009705 -3.6032931804657 -3.53148508071899 -2.59871506690979 10.6594743728638 7.26519966125488 4.0834174156189 8.62343406677246 5.45438957214355 4.81800889968872 -3.231529712677 -3.52663898468018 12.0392189025879 -4.56515884399414 -4.14659929275513 -3.92139601707458 -3.72885799407959 -0.248788148164749 2.82876586914062 4.9132251739502 -1.9669007062912 -1.9490305185318 0.731577038764954 1.43890810012817 1.89473235607147 18.0496139526367 34.2958946228027 28.5710601806641 -0.324254721403122 -0.296748518943787 -0.320584803819656 -0.340834647417068 0.191415011882782 -0.250977367162704 -0.158217862248421 -0.0284664928913116 0.345526903867722 0.957284867763519 23.7210597991943 14.2868022918701 4.18716859817505 16.7862339019775 7.44501638412476 0.131049886345863 10.6609668731689 1.20030200481415 -3.30612540245056 13.5859327316284 13.1314830780029 16.6361408233643 32.4990844726562 15.6599407196045 27.5962905883789 36.0869522094727 40.9158210754395 21.9322891235352 29.2513217926025 18.0995845794678 14.2388153076172 5.85813426971436 2.32331681251526 -1.82095861434937 -1.44145131111145 -0.640289902687073 -1.36577486991882 18.9393348693848 -3.21218228340149 -0.194129571318626 1.97118544578552 10.1655378341675 -0.215207919478416 0.916171669960022 1.45805549621582 -0.301810026168823 0.366543620824814 -1.32884550094604 11.6506853103638 -1.07236778736115 0.387805044651031 -0.262681931257248 -0.0891852974891663 1.09379124641418 2.23460292816162 2.6916823387146
5.52748775482178 5.15966796875 4.7449254989624 4.68948698043823 4.77046394348145 8.17409324645996 9.17922878265381 13.712986946106 17.3882179260254 21.2657070159912 17.1879730224609 11.9191217422485 7.71464681625366 10.2152118682861 3.25203108787537 13.8282117843628 2.57868146896362 4.71646118164062 4.96271324157715 5.12253427505493 5.52067232131958 5.03100061416626 5.45941209793091 5.65608310699463 6.5062313079834 7.69547033309937 10.4651651382446 5.10723257064819 5.02058696746826 5.18640232086182 19.8550453186035 21.4890613555908 38.735408782959 26.2870216369629 32.7632598876953 24.0216121673584 16.6238117218018 4.23253917694092 4.27477025985718 2.34270882606506 2.89021968841553 3.26904273033142 3.67422866821289 2.20556449890137 3.0373113155365 3.23897790908813 5.24611377716064 4.02900457382202 5.42147445678711 10.828143119812 0.903756618499756 -0.0228174198418856 -0.0715759694576263 0.609033048152924 -0.22142082452774 -0.0616177916526794 -0.108019389212132 -0.139975041151047 5.71733140945435 0.102214187383652 -0.0726094245910645 1.48516237735748 1.0658575296402 2.07664251327515 0.95181530714035 8.27180671691895 5.27627515792847 4.40807723999023 8.04794883728027 4.40110778808594 5.39102602005005 1.25642609596252 1.68719005584717 6.34158182144165 4.59787321090698 2.8853166103363 5.59525775909424 3.42815613746643 2.4951548576355 6.95560503005981 2.7512309551239 4.11559295654297 28.7139778137207 8.58408260345459 9.52206993103027 20.4450626373291 33.5091896057129 11.9289598464966 20.3807468414307 5.7236590385437 -3.9131190776825 -3.71574521064758 10.583212852478 7.82131624221802 2.99967527389526 5.30137586593628 3.54424262046814 7.78801965713501 4.37299203872681 13.6326694488525 14.8097743988037 8.35361671447754 3.46631503105164 5.23911428451538 -4.15701818466187 -4.18938732147217 1.44500529766083 -0.65399706363678 -3.16409707069397 -2.56497097015381 -2.90537929534912 -2.86600661277771 30.7541065216064 1.1732302904129 1.29037141799927 15.0935487747192 14.0806226730347 -0.487445294857025 -0.181805372238159 -0.329079121351242 -0.348120808601379 -0.139622449874878 0.189297676086426 0.941538751125336 0.758898913860321 0.631002485752106 0.941157639026642 0.997968316078186 17.2021331787109 10.1038761138916 2.81492614746094 14.0727949142456 4.95509433746338 15.6905488967896 9.37239265441895 14.814998626709 15.1144123077393 -2.58494925498962 7.43801259994507 15.8417997360229 13.7292194366455 15.258807182312 19.6792774200439 27.7444839477539 19.8687114715576 18.4036083221436 22.7179660797119 17.3960781097412 2.08853387832642 -1.00489175319672 -2.73026704788208 -4.28596305847168 -4.01473331451416 4.85185194015503 0.643489181995392 -2.10458993911743 10.0468425750732 -2.46369957923889 -2.50045084953308 -2.6028368473053 4.21410799026489 0.742468297481537 6.61596059799194 27.0268001556396 20.7425746917725 17.7600059509277 17.5915298461914 4.36588430404663 4.41970252990723 6.00489473342896 0.040095180273056 0.402632623910904 0.711188971996307 2.66473650932312
5.08142232894897 4.80380582809448 4.60824632644653 4.53409910202026 4.35620641708374 4.8199462890625 7.30523204803467 13.5353622436523 16.7789764404297 16.055154800415 12.9149036407471 11.1442699432373 7.22312307357788 9.32560062408447 35.2034645080566 28.8252258300781 23.3474712371826 6.85970735549927 4.87063646316528 5.25993633270264 5.29626369476318 21.9393939971924 5.30013942718506 5.5565505027771 6.06365394592285 8.25473690032959 5.00362300872803 5.04934215545654 4.96159601211548 5.13115930557251 16.1413421630859 22.2955284118652 24.1244316101074 23.6735324859619 23.0534954071045 18.1750793457031 27.4344139099121 33.4086685180664 17.2846450805664 3.43630576133728 1.98683702945709 2.10476469993591 3.94549822807312 7.67973232269287 5.42181825637817 6.87771797180176 4.30628824234009 9.46143341064453 5.00175619125366 2.41043972969055 0.153144359588623 -0.458319872617722 7.19795322418213 14.4953622817993 12.8653907775879 0.345067501068115 -0.235785812139511 6.13373899459839 0.268321365118027 8.80703353881836 6.44656848907471 15.5299491882324 0.422483265399933 5.04275417327881 2.56144642829895 2.61897492408752 0.314009964466095 2.90326833724976 4.4741644859314 2.73343920707703 3.86487197875977 9.80277633666992 1.63650166988373 1.59824466705322 1.44247794151306 2.26937770843506 3.0063579082489 3.26143884658813 2.38638234138489 1.99686312675476 18.5231952667236 15.1082725524902 10.9321327209473 8.9328784942627 13.2068681716919 16.220947265625 13.7241849899292 35.6133422851562 13.5355434417725 17.9415149688721 40.3077774047852 29.6459827423096 -3.59602522850037 2.89920735359192 3.29454016685486 2.48568677902222 5.97708654403687 3.57947254180908 4.24416303634644 23.3452987670898 9.36474609375 7.04250812530518 17.0878982543945 13.0944547653198 3.76484751701355 32.8428039550781 5.19444561004639 -3.31278300285339 8.83572101593018 14.7220697402954 32.4282684326172 44.3772277832031 -1.66676616668701 0.998170793056488 2.58433794975281 9.94979095458984 4.10308694839478 -0.589794039726257 -0.44602844119072 -0.432346254587173 -0.470769554376602 0.0872508212924004 -0.104752741754055 0.304896533489227 0.391147822141647 0.638271391391754 0.761590421199799 0.852586030960083 13.3621158599854 7.68875741958618 3.59683418273926 11.3850135803223 23.3205471038818 0.284175962209702 1.95161914825439 2.52783918380737 11.8234415054321 7.9376974105835 -1.38696205615997 11.5115060806274 4.26142263412476 9.0291919708252 15.403657913208 21.6682796478271 14.8850078582764 14.3140106201172 17.8488655090332 2.69864869117737 0.279232531785965 -1.61771821975708 -3.82538628578186 -1.32557415962219 10.3334226608276 -3.39025044441223 -1.36354541778564 0.190795257687569 13.6052713394165 -2.94582414627075 8.81570434570312 -2.07939147949219 15.524881362915 4.31331777572632 3.79304528236389 9.86420822143555 9.77138805389404 16.50905418396 4.80093955993652 10.8984689712524 -0.617303431034088 -0.437486678361893 9.36367034912109 0.140144050121307 0.476773738861084 1.22516310214996
4.96822881698608 4.4983081817627 4.35126113891602 4.1092004776001 4.44057893753052 4.38511991500854 7.22119188308716 11.6252422332764 14.6517848968506 12.3159999847412 11.9192867279053 10.4721221923828 7.68737268447876 32.2276916503906 20.3250312805176 28.202615737915 35.6689910888672 3.70441937446594 6.05623960494995 5.15436697006226 9.08273220062256 5.20909309387207 5.37749147415161 5.36563301086426 5.41585779190063 7.31810998916626 4.94132137298584 4.73229742050171 4.88119697570801 13.0608682632446 13.864408493042 18.2251091003418 19.6880378723145 17.9616775512695 18.8378677368164 14.5987157821655 25.9417495727539 26.8758811950684 4.57223796844482 2.16838216781616 1.96023809909821 2.10904455184937 2.09882974624634 4.11583185195923 4.16588449478149 3.0435037612915 1.34142994880676 1.70969295501709 1.73275482654572 0.276159942150116 0.219704404473305 8.38284015655518 1.89364945888519 4.70597743988037 17.4274654388428 9.05730819702148 -0.49941298365593 0.0280382484197617 0.526244461536407 1.580690741539 1.14922726154327 0.850516438484192 5.68627643585205 5.81431198120117 -0.0206094160676003 0.0480107516050339 -0.144431039690971 0.0339511036872864 -0.507630288600922 1.8533353805542 0.460019499063492 0.858752131462097 0.774495661258698 0.388703793287277 0.551718711853027 11.532262802124 1.84692788124084 37.8432769775391 39.8388481140137 10.3137807846069 25.5171928405762 9.6554126739502 9.89200878143311 7.34717655181885 9.51424789428711 17.2849979400635 30.6579837799072 17.8868217468262 15.6609058380127 32.0828437805176 23.82932472229 7.89783763885498 28.8540744781494 0.143464908003807 2.55377864837646 2.47805285453796 4.92074537277222 3.85003566741943 3.57042288780212 17.0789604187012 2.89668917655945 5.10140085220337 7.46792030334473 6.63737869262695 0.749297916889191 -4.50261402130127 3.38925194740295 9.4800853729248 -3.10390400886536 -1.83265423774719 16.1416110992432 5.07181167602539 34.7625274658203 0.33449912071228 -2.72191524505615 -0.783934354782104 19.8303184509277 -0.795082926750183 -0.634636521339417 -2.29679846763611 -0.629426062107086 -0.00273446692153811 -0.319702088832855 -0.0298972707241774 0.162307068705559 0.377902776002884 0.543144643306732 10.5830383300781 6.26219892501831 1.88156843185425 8.44644641876221 11.059271812439 -0.0534962937235832 5.70705223083496 -0.548431277275085 33.5111122131348 24.0632343292236 14.4430952072144 12.96169090271 6.0481104850769 38.2428512573242 9.39444828033447 5.99874258041382 7.08391809463501 12.2599687576294 14.0059795379639 10.1317548751831 16.4110221862793 42.9746208190918 -2.18524265289307 0.467644482851028 -4.56442260742188 10.4737701416016 5.31986808776855 -2.39451360702515 13.0435247421265 -3.38301706314087 -1.10425174236298 -3.19580602645874 1.8222644329071 0.541982114315033 2.6095232963562 4.8165111541748 3.02768135070801 6.94150733947754 4.78010368347168 -1.49515306949615 -1.11889576911926 -0.937139511108398 -0.448223799467087 0.239324346184731 -0.00753069156780839 0.261841684579849 0.907856523990631
4.85897922515869 4.13765621185303 3.72925591468811 5.75274229049683 5.46410942077637 4.69872522354126 8.10604286193848 9.90801334381104 12.9687204360962 10.972448348999 9.20396995544434 6.1398606300354 7.78868627548218 23.1687068939209 37.8720550537109 23.740364074707 13.8756732940674 37.9168815612793 4.89700698852539 5.13433313369751 6.8540358543396 5.03678560256958 4.95451021194458 5.0238151550293 4.83720922470093 6.47083902359009 4.57199239730835 4.74789476394653 4.94529438018799 11.4772300720215 12.7771148681641 16.0445289611816 17.2212657928467 15.363431930542 11.8555221557617 11.7817764282227 19.7025089263916 20.5448265075684 46.5090751647949 15.279125213623 2.13663411140442 1.45271360874176 1.40759980678558 1.30526101589203 0.838467836380005 0.741282284259796 0.750662505626678 0.565107524394989 -0.635986030101776 0.00643848814070225 9.92029666900635 0.653348684310913 27.9208240509033 6.22478628158569 2.21292114257812 0.289465337991714 22.2524738311768 1.38320791721344 -0.0338987335562706 1.28950333595276 8.90733242034912 7.83908843994141 8.5754861831665 0.0546138919889927 5.25205087661743 -0.373104751110077 -0.39463484287262 -0.580880522727966 -0.934787333011627 -0.350924164056778 -0.148399472236633 -0.138630583882332 0.347308695316315 2.47375226020813 3.95313501358032 1.58764553070068 49.0542640686035 22.370584487915 18.7283191680908 29.5301456451416 11.6345739364624 19.0485782623291 21.8002109527588 11.5080099105835 28.4461498260498 21.9287872314453 16.3759727478027 14.8606309890747 22.7014579772949 25.0524501800537 20.6149635314941 34.3259201049805 25.2197914123535 5.28981733322144 2.100750207901 2.17468905448914 4.09954166412354 3.50820302963257 6.12239980697632 19.8366107940674 4.95650148391724 -1.5049352645874 11.1491708755493 11.1534938812256 5.26723527908325 16.6373043060303 -3.72265219688416 -3.68810844421387 10.1415300369263 -3.192049741745 13.208062171936 11.4243688583374 0.106097839772701 -0.0686839446425438 15.6244812011719 5.18911552429199 -1.21328997612 -1.04739630222321 -2.94560122489929 -2.80040144920349 -0.729426562786102 -0.0623649172484875 -0.298880726099014 -0.122472532093525 0.213860467076302 0.461866617202759 0.548393249511719 8.9897928237915 5.3370304107666 1.53461790084839 6.98445796966553 -3.18540596961975 -3.42416024208069 2.05852794647217 1.72152411937714 5.55558681488037 21.7420082092285 11.0933542251587 13.1416482925415 8.26322841644287 4.61863660812378 7.80813598632812 4.46287298202515 1.98544561862946 5.52712965011597 11.1028089523315 17.2907695770264 23.1351490020752 23.7756671905518 44.6982002258301 13.0113010406494 19.0047206878662 20.0426044464111 18.3660373687744 7.40282964706421 -4.13081932067871 -3.57371544837952 -3.91515684127808 10.3541831970215 4.46215724945068 0.341614246368408 2.35497784614563 5.0912389755249 0.499641567468643 -2.49840521812439 -2.56496047973633 7.76454973220825 -1.3715854883194 7.79825735092163 -0.343301087617874 -0.302700787782669 14.5618677139282 20.9216041564941 0.876156687736511
4.594162940979 3.82874035835266 3.95848178863525 4.45844697952271 3.71807265281677 4.66326761245728 8.30867385864258 10.4645938873291 9.50610065460205 9.4299430847168 8.65175151824951 5.53713178634644 7.04384756088257 21.0431632995605 22.2055606842041 20.9056968688965 31.8079624176025 14.5826015472412 5.03376388549805 4.6810507774353 5.48379707336426 4.71124744415283 4.43437433242798 4.69692230224609 5.40842056274414 4.0133900642395 4.47434616088867 4.65128374099731 4.85610246658325 10.2597188949585 12.6056480407715 14.3396368026733 15.4347534179688 13.7203731536865 10.7103633880615 13.0952224731445 16.0816917419434 27.0620803833008 29.3463020324707 1.56047177314758 1.45827746391296 0.954545497894287 1.12074708938599 0.958073973655701 0.992592215538025 0.751562774181366 1.38407075405121 -0.237609878182411 -0.145748734474182 -0.632644236087799 7.32627725601196 20.6767864227295 1.79287588596344 -0.318448513746262 -0.224540546536446 5.96753597259521 7.33691310882568 1.62301158905029 5.93423461914062 1.28629088401794 3.43697142601013 4.64717197418213 5.15082740783691 19.0123863220215 7.60782957077026 0.757265448570251 -0.403919607400894 10.840726852417 2.25203704833984 -0.183301880955696 1.34179663658142 1.67831742763519 1.83759999275208 13.5427141189575 1.79096055030823 38.2421035766602 14.4284048080444 11.0350828170776 15.8761196136475 12.5073690414429 8.16563606262207 9.29702472686768 17.3632564544678 14.6062040328979 15.5689077377319 16.9041233062744 17.9412422180176 14.6987075805664 17.8208332061768 24.4164924621582 23.0779685974121 23.1574840545654 15.6244401931763 17.5367393493652 1.51792991161346 0.759716153144836 -1.52010536193848 -1.46195244789124 1.39706826210022 26.8931102752686 2.8829824924469 8.83200168609619 5.55596113204956 15.3145027160645 7.74112939834595 -1.03737056255341 -3.84638142585754 22.3633232116699 -3.37548041343689 5.66008043289185 9.60377883911133 7.24138641357422 -0.00658119656145573 24.0450382232666 -2.02958846092224 -2.70243167877197 -2.52014851570129 -2.60434818267822 20.8962078094482 18.8907661437988 -1.05394244194031 -0.613792955875397 -0.323300093412399 -0.109023101627827 0.105444118380547 0.322432279586792 0.403634577989578 7.7668776512146 4.60439872741699 1.59725511074066 5.81960725784302 -3.40896487236023 -1.39560151100159 2.45899558067322 11.09778881073 -0.554727852344513 15.7305612564087 11.399884223938 6.28873777389526 7.04789638519287 4.13860177993774 5.69654273986816 4.1486701965332 1.82402157783508 2.08707022666931 2.72944903373718 10.5984344482422 17.2707633972168 27.090425491333 26.9128036499023 2.3687264919281 9.53424644470215 -3.57512211799622 -2.90798044204712 -3.66716361045837 18.3534469604492 -3.8378119468689 1.00908064842224 3.64617228507996 -0.456685245037079 1.61243569850922 -1.10037159919739 -1.52686107158661 -0.687798619270325 11.6239995956421 2.80284428596497 -2.02727556228638 -1.7112295627594 -1.09740996360779 16.1688575744629 24.9546222686768 6.44704055786133 0.206073775887489 0.517393469810486
4.27051544189453 3.64412212371826 3.24795413017273 3.2400803565979 3.65340185165405 5.73002195358276 8.21902275085449 10.0406475067139 8.52646923065186 9.02788925170898 7.80988311767578 5.73912715911865 16.6333026885986 17.337760925293 20.9715576171875 27.1495761871338 19.4886608123779 4.76880502700806 5.02340745925903 3.96015286445618 4.38269853591919 4.08804702758789 4.12616968154907 3.98758625984192 4.87245416641235 4.09277772903442 4.40151214599609 4.55661916732788 8.84226608276367 10.7235984802246 12.5607805252075 13.5796613693237 11.8206577301025 12.4025535583496 9.74563884735107 12.9360218048096 12.6630573272705 20.4549884796143 24.2737140655518 5.36602401733398 7.98274564743042 0.717534840106964 0.906289637088776 0.767818629741669 0.619621336460114 0.112717889249325 -0.0333842895925045 3.86553287506104 14.0449314117432 25.7866764068604 10.9047365188599 5.96862840652466 0.729155421257019 15.3611316680908 6.92935132980347 3.43530535697937 -0.517417192459106 8.89075088500977 10.4762592315674 7.56436538696289 0.176741525530815 2.55853724479675 9.65605545043945 4.82330989837646 10.0179281234741 19.9474697113037 14.3392353057861 13.0247373580933 22.9054870605469 37.1777954101562 34.2560119628906 37.9306640625 33.9152030944824 29.0955581665039 37.7925338745117 14.5192317962646 9.55454158782959 4.57722949981689 7.99204921722412 4.59286880493164 8.12598609924316 6.40558958053589 8.96051502227783 9.93256664276123 12.4409990310669 16.9710330963135 11.2389898300171 11.6613368988037 20.0215797424316 17.1794662475586 17.429235458374 18.863000869751 3.84998083114624 12.5662155151367 1.51107215881348 3.93956637382507 26.6121006011963 40.796947479248 19.4433879852295 26.8420238494873 36.9259986877441 39.884822845459 16.531644821167 7.97261810302734 8.3630428314209 9.04998111724854 -1.26803886890411 -3.76139950752258 8.97869682312012 17.754280090332 -0.466265112161636 5.17885732650757 -0.392104476690292 -0.0260371062904596 -2.36136841773987 13.6713466644287 -3.22286367416382 -3.08782887458801 -3.26407384872437 -3.48267412185669 -2.61369395256042 -2.43897676467896 -0.342688262462616 -0.15450182557106 0.0524990484118462 0.177525371313095 6.60260629653931 3.90195274353027 1.24852824211121 5.34207916259766 -3.62341833114624 -2.12710762023926 -3.59174942970276 -3.52657461166382 0.630803942680359 6.47378492355347 8.50742149353027 3.48229908943176 3.43214344978333 1.40612292289734 2.35753774642944 3.06852960586548 5.98444747924805 1.47938895225525 1.18202900886536 -0.789784669876099 -0.89608895778656 13.4023666381836 21.8350715637207 25.4856948852539 17.5947761535645 8.17766571044922 -3.89238667488098 -3.95319509506226 12.2270355224609 12.979022026062 4.57888460159302 9.46406269073486 -3.01708555221558 -1.11884748935699 0.0625519901514053 4.52600479125977 -1.68667852878571 -2.2938380241394 -2.96383261680603 -3.07011389732361 -2.67935991287231 -1.00271689891815 -1.191251039505 -0.521856009960175 3.93427491188049 0.139052927494049 -0.339783281087875 4.07682657241821
3.61596584320068 3.21381449699402 2.77699136734009 3.6149046421051 4.34146451950073 6.95740079879761 7.89077138900757 9.74508762359619 8.37780570983887 7.53528451919556 4.81696176528931 5.91104364395142 14.5701217651367 15.5208330154419 18.6485481262207 13.6294364929199 16.0482978820801 4.75744867324829 5.0106987953186 30.9102458953857 4.10261106491089 3.91169929504395 3.94432520866394 3.68081307411194 4.39597463607788 4.2066969871521 4.39821100234985 4.62513208389282 8.30618381500244 10.1457633972168 11.6078910827637 12.5192203521729 10.8791475296021 8.63241481781006 8.63053512573242 11.4833860397339 11.2603607177734 16.4558887481689 29.9474010467529 29.7968235015869 1.52922642230988 11.949951171875 10.0316982269287 4.18675756454468 -0.100832223892212 -0.124105669558048 2.78052186965942 1.36236238479614 7.18345403671265 -0.00833295658230782 11.0364379882812 15.4985256195068 7.51410913467407 5.59819936752319 -0.358320236206055 0.70085072517395 28.1610355377197 3.03153157234192 0.847634077072144 1.42592310905457 11.6319570541382 0.198632642626762 7.06463813781738 4.19425678253174 10.7002267837524 12.4438810348511 8.93884468078613 19.799825668335 20.5342140197754 16.3194694519043 16.3950347900391 21.7857570648193 12.6748332977295 12.4814100265503 16.6387367248535 16.99049949646 9.88433837890625 12.4685411453247 4.24972915649414 4.34821844100952 3.53200387954712 4.98523235321045 12.0347394943237 24.7838611602783 12.3029251098633 11.2591104507446 5.78838491439819 4.47525024414062 16.460807800293 13.9637384414673 15.1954164505005 12.0077018737793 27.2559661865234 2.21066236495972 7.6567587852478 16.4304161071777 22.0398178100586 17.9153060913086 8.85110950469971 19.5241394042969 30.2890453338623 22.3046035766602 5.6142053604126 8.1600341796875 7.12346363067627 -2.62104177474976 9.91794300079346 -4.36574697494507 -3.26991653442383 1.19393312931061 4.30496454238892 -2.74537515640259 -2.70785975456238 -0.00268289819359779 26.4715557098389 -3.44366574287415 -3.92344689369202 -4.01060247421265 -4.04768705368042 -4.07413053512573 -3.96422219276428 -3.409592628479 -1.84880530834198 -0.253562331199646 0.00119432329665869 0.0789883658289909 5.77423095703125 3.32215619087219 0.928772449493408 4.59398460388184 9.47358417510986 -3.49967622756958 -3.70921564102173 -3.65164422988892 -2.62239074707031 0.893257796764374 -0.111187115311623 1.29935526847839 2.02772760391235 0.977950930595398 2.28252720832825 2.06992101669312 4.44262504577637 1.27721989154816 0.528600573539734 6.43987846374512 -1.27664053440094 2.72070264816284 17.9904556274414 29.3601570129395 40.6000061035156 -1.80014586448669 -4.37852001190186 5.99708271026611 1.49280476570129 6.94949579238892 6.00903701782227 17.4276351928711 14.4468002319336 -1.34610891342163 3.42120671272278 12.6224012374878 -1.61475360393524 -3.25173902511597 -3.19157767295837 -3.22567796707153 -3.01671266555786 -2.35030651092529 -2.03559398651123 -1.54228901863098 -0.705245912075043 -0.086264543235302 13.8585844039917 0.560770690441132
