NCOLS 174
NROWS 31
XLLCORNER 353696
YLLCORNER 6700784
CELLSIZE 16 
NODATA_value -3.4e+38 
9.93209743499756 10.2726898193359 10.726863861084 11.2268905639648 11.7540769577026 11.8064641952515 12.7609405517578 13.4797534942627 14.1590671539307 14.3664951324463 13.9883785247803 15.7891845703125 15.1438751220703 19.775749206543 27.7675495147705 23.785457611084 12.819393157959 18.5520763397217 15.5203065872192 24.6087512969971 13.5220308303833 23.1371784210205 11.0845165252686 11.0394687652588 7.3905873298645 10.9826860427856 11.2200660705566 12.7368631362915 13.215311050415 17.4244079589844 18.420295715332 23.0290851593018 25.2803974151611 25.7920932769775 35.7915420532227 16.2124652862549 22.110143661499 15.1340007781982 7.37787675857544 7.88756656646729 17.7924957275391 26.4452457427979 17.5305652618408 30.716329574585 23.6577339172363 16.134464263916 38.5491943359375 16.4945182800293 23.9470520019531 8.29386425018311 2.99526691436768 12.8050155639648 7.17000484466553 28.0945358276367 31.5060958862305 40.2759475708008 7.06012201309204 -1.18850100040436 0.951104700565338 0.892352640628815 2.91847538948059 0.846293985843658 0.803563058376312 -0.397357791662216 3.74963021278381 0.194684252142906 -0.16119772195816 8.26122188568115 8.39590549468994 8.7146692276001 7.47417259216309 1.0176568031311 -0.136434137821198 -1.08155477046967 -1.36980843544006 3.74982380867004 2.54635286331177 2.80025386810303 3.98978400230408 3.6059627532959 1.61161351203918 1.40988326072693 0.659337162971497 0.239791870117188 0.025143276900053 -0.272129327058792 -0.325332909822464 -0.297148376703262 -0.303192138671875 -0.265359371900558 -0.0754596441984177 -0.422763913869858 -0.282740145921707 -0.24767279624939 -0.0987557768821716 -0.107234425842762 -0.374790877103806 -0.423288285732269 -0.426271021366119 0.0495355725288391 0.0681152790784836 -0.527884721755981 -0.261907339096069 -0.269652247428894 -0.341306447982788 -0.136597573757172 -0.128730252385139 -0.266822040081024 -0.42329603433609 -0.284556031227112 -0.285888522863388 -0.382720828056335 -0.369680523872375 -0.653900265693665 -0.314815670251846 -0.809115409851074 -0.635298073291779 -0.600271105766296 -0.735215902328491 -0.622435510158539 -0.0917121395468712 -0.0662477761507034 0.630907416343689 -0.0613370761275291 0.135963305830956 -0.11784665286541 -0.112718068063259 -0.208242699503899 -0.205316141247749 -0.426169395446777 -0.416242092847824 -0.408777952194214 -0.401395171880722 -0.24578033387661 -0.247939005494118 -0.209890380501747 -0.167358487844467 -0.0142813203856349 0.105417594313622 -0.0731921717524529 0.256689518690109 0.349685251712799 1.11969745159149 0.659331679344177 1.13916707038879 1.20389378070831 1.38813316822052 1.30494964122772 1.24762690067291 1.48972535133362 1.70103919506073 1.82184147834778 2.02873492240906 2.22359728813171 2.77591514587402 2.91729688644409 2.2250452041626 2.60108661651611 4.86575603485107 3.54930686950684 5.89155530929565 6.7499885559082 6.53597259521484 3.93514275550842 6.32757902145386 9.95162296295166 11.5035972595215 8.14727687835693 5.32794284820557 8.14700317382812 4.75994348526001 5.15864372253418 5.60699462890625 6.06645393371582
9.75399589538574 10.1200227737427 10.422025680542 10.9273376464844 11.3114347457886 11.835521697998 12.1378145217896 12.8175973892212 12.6491184234619 11.6917734146118 12.423846244812 12.8851690292358 14.4706087112427 14.9505777359009 23.800968170166 22.745943069458 19.4548473358154 24.4994373321533 18.533540725708 21.8572101593018 16.9800662994385 22.2637710571289 19.1311283111572 11.9720506668091 8.42830944061279 10.4843559265137 11.3207006454468 11.5021295547485 12.4075660705566 14.5078582763672 16.3315944671631 17.3599510192871 18.1455688476562 19.8410110473633 29.8017482757568 10.6393213272095 15.854998588562 27.5145416259766 23.0474414825439 10.3272876739502 11.7348690032959 20.2034816741943 16.9209537506104 18.2688827514648 26.1044826507568 19.4816226959229 29.18408203125 27.3918933868408 38.3995475769043 38.4808464050293 21.3338603973389 29.8600177764893 15.8994054794312 19.3305892944336 -1.59735715389252 -1.53823816776276 10.4540309906006 8.29161643981934 34.3761596679688 0.167045578360558 0.119652472436428 -0.684481501579285 -0.865931332111359 0.0799665302038193 -1.35294437408447 0.811959564685822 1.8102775812149 2.72600436210632 5.19369173049927 1.53841400146484 -0.311370313167572 4.37109184265137 3.55034923553467 0.46440926194191 -1.20324206352234 -1.67656540870667 3.1043221950531 2.75509119033813 3.18377900123596 4.10311985015869 2.93741965293884 1.76603829860687 1.35330283641815 0.90604555606842 1.01645481586456 0.665697753429413 0.00595637923106551 -0.379253923892975 -0.468530565500259 -0.469618946313858 -0.3860102891922 -0.45613294839859 -0.274408668279648 -0.142252162098885 -0.399029016494751 -0.403793692588806 -0.444130182266235 -0.459300667047501 -0.00888694636523724 -0.570415198802948 -0.299799144268036 -0.286795616149902 -0.37515264749527 -0.202611148357391 -0.218629986047745 -0.344666421413422 -0.486432075500488 -0.343092441558838 -0.332558125257492 -0.418561071157455 -0.441220194101334 -0.719291031360626 -0.429016828536987 -0.437684893608093 -0.899525284767151 -0.757721364498138 -0.883524477481842 -0.857354402542114 -0.811227083206177 -0.76134067773819 -0.72185754776001 -0.446847200393677 -0.231814563274384 -0.306234300136566 -0.228359147906303 -0.312104374170303 -0.477877676486969 -0.498801648616791 -0.488255500793457 -0.497282683849335 -0.483686536550522 -0.365249991416931 -0.342903643846512 -0.330528378486633 -0.370864391326904 -0.301353871822357 -0.215756058692932 -0.281261026859283 -0.0709075704216957 0.0264826901257038 0.113433122634888 0.0675473585724831 0.594677031040192 0.992930948734283 1.30023539066315 1.33809006214142 1.17016744613647 1.41235780715942 1.44253170490265 1.53179585933685 1.67731606960297 1.98840880393982 2.46856617927551 2.57394933700562 2.23007082939148 2.16952919960022 3.81524014472961 4.15470266342163 3.36646890640259 4.91726541519165 4.07570934295654 3.68695759773254 3.82950663566589 3.9602689743042 4.63781881332397 3.75881338119507 4.21813774108887 4.30531740188599 4.50100898742676 4.83267068862915 5.26855278015137 5.68829870223999 5.83044385910034 5.86447048187256
9.34814262390137 9.45668601989746 10.1949672698975 10.7132425308228 10.748158454895 11.2630023956299 11.1188249588013 10.8648128509521 10.5101470947266 10.9070043563843 11.4776277542114 12.4973316192627 12.5895929336548 15.527813911438 16.0895309448242 16.9618244171143 17.2166519165039 20.4076957702637 19.3695793151855 9.43036651611328 12.9063205718994 17.8910732269287 25.289400100708 7.91924142837524 10.031888961792 9.80105400085449 10.0485887527466 10.6535720825195 11.784309387207 12.3952903747559 11.4109983444214 11.605845451355 13.5138559341431 17.5811672210693 27.0127925872803 11.4407663345337 22.4254093170166 26.5522518157959 31.934232711792 28.2850189208984 13.5658950805664 14.3242969512939 14.7032651901245 13.5917339324951 14.3117723464966 16.2528266906738 19.8819694519043 19.8707370758057 1.4578902721405 0.849920690059662 4.19383335113525 5.82330179214478 10.312403678894 19.2807216644287 12.9699192047119 2.5996425151825 34.3965072631836 0.0951836928725243 2.09160733222961 5.21058130264282 1.2414755821228 -1.24088144302368 -0.0736990049481392 -1.07341277599335 0.399868547916412 -1.6987212896347 -0.478693187236786 0.383214890956879 2.34758448600769 0.633768260478973 -0.216510608792305 1.63885962963104 3.79235649108887 2.25969934463501 5.65735912322998 -1.57803630828857 -1.72757279872894 2.94428110122681 2.69873690605164 3.02204537391663 3.63968348503113 2.43586444854736 1.79538404941559 1.61186563968658 1.76969730854034 1.79826033115387 1.38888680934906 0.321353405714035 -0.414162755012512 -0.571695685386658 -0.645430386066437 -0.629121065139771 -0.618321478366852 -0.425215303897858 -0.469437658786774 -0.469634771347046 -0.0470965728163719 -0.048365656286478 -0.72504460811615 -0.344230204820633 -0.533971190452576 -0.416783541440964 -0.23142609000206 -0.351491332054138 -0.36420351266861 -0.527638375759125 -0.395882964134216 -0.462661743164062 -0.471395224332809 -0.4939945936203 -0.451557904481888 -0.493400990962982 -0.959312558174133 -0.81538587808609 -0.822964072227478 -0.943856418132782 -0.938571095466614 -0.917517006397247 -0.880387306213379 -0.83320289850235 -0.806267440319061 -0.778357923030853 -0.455857962369919 -0.671211242675781 -0.632276594638824 -0.673598945140839 -0.664393484592438 -0.666478157043457 -0.596073567867279 -0.581300795078278 -0.582924842834473 -0.492361575365067 -0.49562281370163 -0.443538904190063 -0.420283079147339 -0.460493206977844 -0.322038233280182 -0.25753515958786 -0.183921068906784 -0.239780068397522 -0.159710824489594 0.663802921772003 0.796399593353271 1.21462881565094 1.16673803329468 1.12796330451965 1.34793090820312 1.28756022453308 1.36926531791687 1.50560939311981 2.19962286949158 2.27603816986084 1.88410496711731 1.88010156154633 3.15053272247314 3.37042045593262 2.46248388290405 3.8577778339386 4.20435190200806 3.51231026649475 3.5793035030365 3.18167471885681 3.51868963241577 3.58754539489746 3.63568305969238 4.09204769134521 4.27014875411987 4.35756015777588 4.78014755249023 5.33403730392456 5.4796199798584 5.51472902297974 5.64622402191162 5.57031965255737
8.72202587127686 9.57340431213379 9.77336597442627 10.1344022750854 9.93272113800049 9.54442405700684 9.12395286560059 9.61868381500244 9.98202896118164 10.1962661743164 10.1567049026489 11.1149110794067 12.1170215606689 12.1159353256226 11.8837919235229 12.570629119873 11.4877691268921 15.3841590881348 21.6281967163086 11.755895614624 13.5067701339722 14.8416137695312 20.7382831573486 9.25152492523193 9.37373161315918 8.53823375701904 7.29607915878296 9.82654857635498 10.5480670928955 9.71207809448242 9.39000415802002 9.40486907958984 11.0048322677612 14.7122955322266 22.6888065338135 11.7759790420532 15.2530612945557 13.9508419036865 11.9655447006226 12.2782163619995 12.568039894104 11.7291412353516 10.861424446106 11.5981483459473 13.5207195281982 13.5808582305908 30.6481075286865 42.9603996276855 13.0841608047485 9.79989147186279 7.70960712432861 7.81686878204346 5.19325923919678 0.35843950510025 36.6967468261719 0.408818155527115 0.0728550776839256 0.0152359073981643 0.334232181310654 8.36381721496582 11.790620803833 2.85580039024353 0.0637451261281967 0.0719657093286514 -0.262430995702744 -0.742151856422424 2.37302732467651 -0.0487568639218807 -0.256771773099899 2.07360100746155 -0.334123820066452 0.588117122650146 0.953412175178528 -1.24493050575256 -0.107538484036922 5.69233369827271 -1.48682069778442 2.71742653846741 2.83279061317444 2.56698346138 2.77495789527893 3.11848926544189 1.69105637073517 1.94236826896667 2.21523070335388 2.39341950416565 2.41595911979675 1.77739655971527 0.454630196094513 -0.28488364815712 -0.715681314468384 -0.668494880199432 -0.690418481826782 -0.673921465873718 -0.50016725063324 -0.0836032629013062 -0.619064390659332 -0.378260999917984 -0.382074803113937 -0.486187636852264 -0.29313737154007 -0.276247948408127 -0.371772736310959 -0.33705997467041 -0.403456568717957 -0.411138117313385 -0.53348708152771 -0.686474978923798 -0.472049623727798 -0.268517732620239 -0.224881187081337 -0.518270254135132 -0.836087167263031 -0.998302102088928 -0.957409560680389 -0.993310749530792 -0.98972076177597 -0.950881898403168 -0.935204088687897 -0.888794958591461 -0.863239824771881 -0.837988257408142 -0.813498497009277 -0.761918246746063 -0.732394993305206 -0.772834420204163 -0.763072788715363 -0.754036724567413 -0.738766014575958 -0.643892645835876 -0.655833780765533 -0.67206746339798 -0.630114436149597 -0.615607619285583 -0.589952230453491 -0.529107689857483 -0.480635106563568 -0.445586085319519 -0.381137847900391 0.286332130432129 0.408036559820175 0.169711112976074 1.00320374965668 0.99201101064682 1.24064230918884 1.2782940864563 1.11577928066254 1.2237457036972 1.65624332427979 2.02398538589478 1.76591873168945 1.72491610050201 1.56626796722412 2.72412252426147 1.98329710960388 3.13059282302856 3.39099550247192 2.91715526580811 3.41192317008972 3.00627398490906 3.0909481048584 3.42096662521362 3.46698617935181 3.89180731773376 3.96433520317078 4.13416624069214 4.41078853607178 4.79622220993042 5.14342641830444 5.09841966629028 5.32270383834839 5.234215259552 5.57640838623047 5.93181562423706
9.05635356903076 9.14101696014404 9.11389827728271 8.5627555847168 8.08614444732666 8.46566200256348 8.77235317230225 8.78312683105469 8.5688362121582 9.20560550689697 9.86709976196289 9.55158996582031 10.4167881011963 9.93439674377441 10.8308124542236 9.19843101501465 10.1386241912842 9.59425640106201 10.129693031311 9.60367298126221 11.1871490478516 8.97710704803467 8.9368953704834 8.75417423248291 15.3301639556885 15.2749786376953 8.29541397094727 7.16007041931152 6.69066905975342 7.79125261306763 7.87133073806763 9.03929042816162 8.8799467086792 8.87792778015137 9.73233032226562 10.6195726394653 10.3980903625488 11.0193815231323 11.076416015625 9.97498893737793 9.51537418365479 9.64312362670898 10.0644617080688 10.2320175170898 17.1317329406738 20.9559135437012 26.5874881744385 3.42791223526001 18.6381874084473 15.3688344955444 3.56605458259583 -0.000162820128025487 41.1286392211914 10.6194000244141 0.876493155956268 8.75204372406006 1.95501899719238 2.42694568634033 1.91691815853119 1.71269094944 2.8296639919281 8.74085903167725 10.6981821060181 9.80972957611084 2.83492016792297 2.38210558891296 1.70820498466492 3.30484914779663 2.72530221939087 1.21405029296875 0.341527432203293 3.35415744781494 1.0152382850647 2.62076425552368 -1.68114805221558 -1.97614669799805 -1.97360360622406 -1.55239641666412 2.67397594451904 2.57507824897766 2.62111496925354 2.93087816238403 2.25780391693115 2.02403330802917 2.39967966079712 2.6405131816864 2.74807643890381 2.52791976928711 1.75168836116791 0.384851545095444 -1.78260147571564 -1.54889965057373 -0.705038547515869 -0.823187828063965 -0.639603316783905 -0.836280703544617 -0.415608257055283 -0.52753472328186 -0.365628093481064 -0.360395938158035 -0.420864403247833 -0.54710179567337 -0.419564515352249 -0.419791042804718 0.263966530561447 0.645719289779663 -0.695689260959625 -0.486080825328827 -0.476978898048401 -0.279147326946259 -0.105632446706295 -0.205735504627228 -0.553144097328186 -0.638185918331146 -0.692329704761505 -1.00392282009125 -1.01948595046997 -0.990143299102783 -0.971356689929962 -0.94378799200058 -0.931171536445618 -0.929237186908722 -0.886143028736115 -0.440842777490616 -0.806798696517944 -0.862342655658722 -0.833588242530823 -0.836633682250977 -0.821673393249512 -0.847420692443848 -1.93930804729462 -0.777904808521271 -0.748847544193268 -0.719365835189819 -0.688818275928497 -0.653508424758911 -0.625621736049652 -0.195067524909973 -0.0370211713016033 -0.612246215343475 0.056266613304615 0.206806913018227 0.802144527435303 1.08240807056427 0.927965939044952 0.905122816562653 1.38206160068512 1.73706221580505 1.83595931529999 1.68401956558228 1.44268047809601 2.08056306838989 2.18224668502808 1.62364792823792 2.58818364143372 2.26671099662781 2.41175603866577 2.40844583511353 2.57659935951233 3.06652641296387 3.30592274665833 3.36166214942932 2.75112152099609 2.7376401424408 2.71576642990112 3.24507975578308 4.85511302947998 4.96247673034668 5.01110363006592 5.13703346252441 5.28356218338013 5.58309173583984 5.8439826965332 5.97799921035767
7.49681806564331 8.6072998046875 7.96464872360229 7.60055017471313 7.8636326789856 7.86500406265259 7.92202281951904 7.99640893936157 8.42637729644775 8.05715370178223 8.47279834747314 8.19372081756592 8.79736614227295 7.62098121643066 7.58942317962646 7.67130899429321 8.318284034729 7.44453954696655 7.93047714233398 8.22514343261719 8.40204906463623 8.19610595703125 10.5315408706665 12.0195207595825 11.890923500061 11.3347816467285 5.26943349838257 6.36681842803955 6.54504156112671 6.97933483123779 7.44265270233154 7.68930101394653 8.37975692749023 9.16411685943604 9.08856678009033 9.60481357574463 9.69510841369629 9.89658737182617 9.14034175872803 8.74343204498291 8.23349952697754 8.7872257232666 11.7694435119629 13.5269546508789 14.3131647109985 25.3661041259766 36.8886528015137 10.7683629989624 11.3044557571411 6.00637578964233 42.8260688781738 0.392902672290802 2.53704833984375 5.72154378890991 3.26540279388428 4.16913604736328 1.30308353900909 6.95315599441528 7.80395364761353 10.2243871688843 4.59434509277344 4.90404605865479 4.4350757598877 3.9014310836792 2.74159002304077 13.5769243240356 13.7362022399902 19.9548473358154 17.0482158660889 15.0257778167725 14.931755065918 2.65878963470459 1.92222380638123 2.53546071052551 9.22086143493652 4.75977325439453 -1.91846060752869 -1.7991578578949 -1.58677637577057 2.6781108379364 2.37567710876465 2.67949080467224 2.93762183189392 2.46785926818848 2.40264654159546 2.68478178977966 2.77639937400818 2.92619562149048 23.0641136169434 24.971549987793 18.6786918640137 -0.828413307666779 -0.813695847988129 -0.803977847099304 -0.945029318332672 -0.582163333892822 -0.435871541500092 -0.428315073251724 -0.472742795944214 -0.46115306019783 -0.588755428791046 -0.468380331993103 -0.453118294477463 -0.346817821264267 -0.707148194313049 -0.496099680662155 -0.393731862306595 -0.500292599201202 -0.474822521209717 -0.396028757095337 -0.482363671064377 -0.383835554122925 -0.476248890161514 -0.419590383768082 -0.492021471261978 -0.856048226356506 -1.02645540237427 -1.04194247722626 -1.04040610790253 -1.03525304794312 -1.019171833992 -0.993693947792053 -0.944174587726593 0.36597940325737 -0.514873862266541 -0.884075224399567 -0.929085850715637 -0.997540950775146 19.7843418121338 29.9333667755127 -2.1036810874939 -0.883535981178284 -0.845631420612335 -0.806889832019806 -0.778730750083923 -0.756060063838959 -0.439158231019974 -0.624761164188385 -0.934363007545471 -0.618995249271393 -0.10982858389616 0.15636844933033 0.563993692398071 0.362687468528748 1.01028025150299 1.31451332569122 1.41757118701935 1.03017640113831 1.06824886798859 1.67743372917175 1.68251168727875 1.2627238035202 1.78605270385742 1.98494267463684 1.58654320240021 1.91063761711121 1.7892028093338 1.30491638183594 2.78562307357788 2.36684417724609 8.21782684326172 12.2347078323364 10.8869733810425 6.56168937683105 3.15116381645203 3.23572397232056 3.29151201248169 3.42290282249451 4.74189519882202 5.12282800674438 5.37802267074585 5.63561630249023 6.02222347259521 6.17468595504761
7.31077718734741 5.40615701675415 7.2360692024231 7.16873121261597 7.01928234100342 7.10872602462769 7.43019199371338 7.65486717224121 7.31703567504883 7.46073436737061 7.42565202713013 7.10281658172607 7.29816055297852 7.15998363494873 6.98996734619141 6.93382406234741 7.15407562255859 7.44186162948608 7.76497220993042 8.00727367401123 7.89475011825562 8.90614128112793 8.18001461029053 8.20353412628174 18.5259704589844 26.0881576538086 9.27659797668457 7.41942739486694 6.69295930862427 6.7212815284729 7.18410062789917 7.60405969619751 7.7823314666748 8.39666175842285 8.55164337158203 8.62736225128174 7.98583984375 7.64346981048584 7.54732084274292 7.45788812637329 7.24720430374146 9.90147972106934 10.41379737854 13.4508495330811 16.5549926757812 9.70069408416748 17.8949337005615 1.60858273506165 37.5059356689453 0.608440518379211 5.88049173355103 4.38299417495728 1.96459317207336 1.31725823879242 1.5176602602005 1.08944869041443 1.58061301708221 2.14489126205444 9.96589946746826 13.3853969573975 9.36875629425049 5.77767133712769 7.86237239837646 10.1548023223877 5.45184230804443 5.4495906829834 6.21830558776855 5.40939378738403 6.12027931213379 8.40114307403564 11.696985244751 1.85979926586151 2.04926037788391 1.64857220649719 10.432635307312 13.1782207489014 8.30234622955322 -1.99508273601532 -1.90925824642181 -1.61274743080139 2.62979912757874 2.38139939308167 2.64070844650269 3.00999736785889 2.77457094192505 2.82474422454834 13.4320955276489 15.7480411529541 8.69199562072754 0.717416226863861 -1.20018017292023 -0.707337319850922 -2.23379588127136 -1.91268122196198 -0.650668978691101 -0.500241935253143 -0.629838168621063 -0.525720775127411 -0.637583673000336 -0.516071081161499 -0.505674123764038 -0.563164234161377 -0.755530416965485 -0.547923266887665 -0.547149181365967 -0.559747457504272 -0.318372815847397 -0.439166963100433 -0.613310515880585 -0.593466281890869 -0.678076148033142 -0.580669045448303 -0.585931479930878 -0.480188995599747 -0.487678229808807 -0.420378416776657 -0.877101480960846 -1.09607124328613 -1.101975440979 -1.10287594795227 -1.09363067150116 -1.06158220767975 -1.00505149364471 0.830444395542145 -0.478667944669724 -0.981045007705688 9.07566356658936 10.7783317565918 -2.89064431190491 -0.0373526848852634 -2.04646039009094 -0.990963995456696 -0.938971817493439 -0.898371696472168 -0.575858116149902 -0.588334321975708 2.36259841918945 6.56591081619263 -1.57053756713867 -0.819240152835846 -0.416941583156586 -0.13818122446537 -0.26021671295166 0.578375399112701 0.918344378471375 0.230344831943512 0.841766953468323 1.22302782535553 1.27828741073608 0.937096834182739 1.24548578262329 1.24676132202148 1.25424575805664 1.15873646736145 1.39942252635956 7.60315895080566 17.0270347595215 1.34195053577423 9.5618314743042 15.5270433425903 17.6376800537109 17.5969924926758 24.6719512939453 15.8702068328857 14.8287239074707 13.6370325088501 3.9741632938385 4.20479679107666 5.06458473205566 5.31984949111938 5.7016224861145 5.83339262008667 5.96541357040405 6.22025775909424
22.5549812316895 6.64275789260864 6.71006011962891 6.42509412765503 6.70319509506226 6.82428455352783 6.93985557556152 6.64746570587158 6.72711706161499 6.90378284454346 6.8341703414917 6.69277858734131 6.6512131690979 6.45997858047485 6.6362771987915 6.84944677352905 7.17697429656982 7.4023699760437 7.19041872024536 7.0659031867981 7.34400177001953 7.51869773864746 11.4710474014282 13.587197303772 6.62446022033691 6.58256816864014 6.66093492507935 7.07318449020386 6.5747275352478 6.75794267654419 6.68517303466797 6.94205331802368 7.22688245773315 7.43506717681885 7.01218795776367 6.75281810760498 6.5757474899292 6.5138635635376 6.13644695281982 7.81047248840332 8.51217842102051 9.08563423156738 10.4952049255371 7.32981824874878 10.0104761123657 29.7919063568115 42.189094543457 0.220585316419601 0.31013822555542 1.19267225265503 9.17680358886719 3.88602495193481 4.32630157470703 5.09483575820923 5.28849649429321 0.598386347293854 0.703111469745636 0.735188126564026 1.1304475069046 5.60430145263672 5.47584819793701 9.88710498809814 3.82838654518127 3.51976895332336 4.16945695877075 4.67514610290527 12.3892469406128 7.09685850143433 9.38411521911621 11.1490697860718 11.7002172470093 10.579288482666 14.0686702728271 5.41276931762695 5.39565801620483 13.8735933303833 5.59827089309692 2.83929467201233 -1.97514498233795 -1.59997737407684 -1.70774245262146 2.65213918685913 2.67592883110046 2.78956389427185 10.039324760437 11.0223360061646 10.0531778335571 2.2106921672821 -1.56307673454285 -1.57186710834503 16.3792037963867 30.4718189239502 -2.21514678001404 -1.87182652950287 -1.86912000179291 -0.696517527103424 -0.888068914413452 -0.695180654525757 -0.574993550777435 -0.619048118591309 -0.768357694149017 -0.600811004638672 -0.611680209636688 -0.827852606773376 -0.76688939332962 -0.665549099445343 -0.461997300386429 -0.395234614610672 -0.625120103359222 -0.691313743591309 -0.787672877311707 -0.834744274616241 -0.861890256404877 -0.660206377506256 -0.316448509693146 -0.412656933069229 -0.555996775627136 -0.680577456951141 -1.1491334438324 -1.15867674350739 -1.15809869766235 -1.00522565841675 -0.941748440265656 1.29109394550323 6.21501731872559 6.65684223175049 32.5911865234375 44.5838279724121 13.8422002792358 -2.27493143081665 -1.90255188941956 -1.08155953884125 -0.76319807767868 -0.731356382369995 -0.171909138560295 -0.223190858960152 13.5640649795532 22.7440929412842 -1.11654150485992 -0.597608983516693 -0.500630438327789 0.114090524613857 0.314099341630936 -0.238298580050468 -0.25952273607254 0.0643679052591324 -0.321641623973846 0.376838982105255 0.844455599784851 1.07093608379364 0.753052413463593 0.724254310131073 0.94793313741684 4.62544107437134 0.412781447172165 0.49029603600502 0.681037187576294 4.04842662811279 5.56597280502319 7.22758054733276 3.04305195808411 3.74003958702087 2.97256445884705 2.94769406318665 2.97054171562195 2.77248692512512 3.57326817512512 3.80513334274292 5.13171672821045 5.51971244812012 5.62703895568848 5.77765226364136 6.02176332473755 6.25043964385986
6.01354789733887 5.8951301574707 5.89952850341797 6.0753436088562 6.28990697860718 6.27448558807373 6.26915407180786 6.41914319992065 6.40765714645386 6.28877782821655 6.2519645690918 6.07521152496338 6.2113881111145 6.32628679275513 6.63399028778076 6.82896900177002 6.66123056411743 6.43236064910889 6.60995960235596 6.75459098815918 7.99532222747803 9.15073013305664 6.14242458343506 6.32217311859131 6.50674343109131 6.42840909957886 6.47444105148315 6.57432985305786 6.6052713394165 6.44014453887939 6.49931859970093 6.51272916793823 5.68513822555542 5.98863983154297 5.69543027877808 5.71171379089355 5.49620676040649 6.42274761199951 6.93952703475952 7.26740646362305 7.60020637512207 5.61319160461426 6.66262340545654 1.09828233718872 19.7531299591064 0.190094977617264 3.18796467781067 8.84228038787842 4.97848463058472 0.358330607414246 0.872766435146332 9.4412145614624 12.3452081680298 6.51472663879395 3.77750539779663 0.559461712837219 0.366623550653458 0.25593239068985 1.4816415309906 3.32499122619629 2.94378924369812 2.51407289505005 2.83355450630188 2.96733665466309 3.39146018028259 4.14149141311646 4.61052942276001 7.96762132644653 7.39976596832275 5.462975025177 6.23910331726074 4.50640726089478 2.90671181678772 2.8205189704895 3.28722310066223 0.611512780189514 2.1541588306427 4.4957594871521 -1.83629179000854 1.86061668395996 -1.70112204551697 -1.89487719535828 2.8275933265686 8.7477388381958 7.51529741287231 11.2665643692017 22.5250968933105 8.93027019500732 31.1334209442139 20.9417285919189 26.706916809082 38.1545600891113 33.0862617492676 32.0900001525879 -2.61519002914429 -1.34420192241669 -0.927856802940369 -0.750132381916046 -0.752329409122467 -0.859277427196503 -0.673921406269073 -0.925976932048798 -0.849611282348633 -0.868561863899231 -0.881616413593292 -0.848031759262085 -0.743775606155396 -0.458057194948196 -0.327273517847061 -0.774245500564575 -0.967891812324524 -0.925225257873535 -0.846593379974365 -0.643851399421692 -0.703648209571838 -0.694867670536041 -0.463695526123047 -0.286258161067963 -0.686258137226105 -1.04782700538635 -1.07173693180084 -1.04956221580505 -0.393634110689163 5.26937675476074 18.2066860198975 21.5252704620361 11.4221363067627 20.379077911377 28.5525512695312 -2.0143575668335 -1.90699064731598 -0.935712099075317 -1.05379390716553 -0.956914603710175 5.52559089660645 6.8568172454834 3.23424172401428 6.51432228088379 -0.766817688941956 -0.223051428794861 -0.0683073848485947 -0.0703561156988144 -0.482411444187164 -0.518471539020538 2.24357795715332 7.57100534439087 -0.553651034832001 0.454251527786255 0.32066997885704 0.350036084651947 0.336988240480423 1.30609548091888 20.576135635376 0.158417150378227 0.0673145577311516 0.39916780591011 0.647151350975037 0.973759114742279 8.3715181350708 5.74022054672241 3.50092720985413 2.46071887016296 2.73007535934448 2.6337411403656 2.49955415725708 3.04545617103577 3.16664481163025 4.55659437179565 4.65268135070801 5.47385263442993 5.70873641967773 5.90922117233276 6.26127004623413 6.5069260597229
5.33150768280029 5.54659032821655 5.77817964553833 5.90887260437012 5.8815450668335 6.02488851547241 6.06050157546997 5.91866874694824 5.83714962005615 5.6913480758667 5.83062648773193 5.91151332855225 6.12788534164429 6.36808252334595 6.31293964385986 6.10364532470703 6.07619762420654 6.12214422225952 5.61665916442871 6.78441429138184 5.75890350341797 5.95240020751953 6.1711688041687 6.32106399536133 6.29297018051147 6.43649911880493 6.47593021392822 6.26800775527954 6.26200485229492 6.20817852020264 5.88346767425537 5.24304866790771 5.02131414413452 4.97347021102905 4.71515083312988 4.79359722137451 5.7832498550415 6.09239482879639 5.98844146728516 6.57774639129639 5.74834871292114 30.016788482666 42.519100189209 28.6379833221436 2.3826892375946 1.59165751934052 0.19739131629467 3.64476490020752 0.075211301445961 6.8668065071106 3.37515950202942 5.71750783920288 7.44432544708252 18.0291175842285 4.47738647460938 9.88030052185059 5.44976425170898 1.24326729774475 0.942309439182281 0.597615838050842 2.71677494049072 2.13693189620972 2.27987456321716 2.81027245521545 3.35471415519714 3.84011220932007 3.38517355918884 7.44985389709473 5.02625703811646 2.87303137779236 2.65755701065063 11.0196552276611 17.1080646514893 12.202826499939 10.8490467071533 3.47822618484497 -0.491256684064865 -1.9125884771347 -1.45106446743011 11.0607318878174 6.39474582672119 2.23635196685791 1.88621532917023 7.01016759872437 13.2468872070312 19.3536682128906 27.6635665893555 12.990592956543 10.6177091598511 20.3909168243408 15.1914472579956 -2.10695648193359 32.2134246826172 24.2026653289795 -1.61997401714325 -0.866822183132172 -2.44298768043518 -0.955910980701447 -0.775625586509705 -0.760107696056366 -1.13186490535736 -0.900029003620148 -0.963779628276825 -0.988619565963745 -0.963145315647125 -0.95231705904007 -0.908180117607117 -0.869146227836609 -0.615419983863831 -0.916440606117249 -0.934164583683014 -0.855252146720886 -0.947751641273499 -0.920459389686584 -0.834719836711884 -0.632105052471161 -0.513835430145264 -0.0769197195768356 -0.185319110751152 -0.869515895843506 -1.12283217906952 3.22893118858337 12.0305271148682 14.3725118637085 7.64508628845215 11.0109462738037 12.8661880493164 14.1605224609375 20.0228519439697 -1.77633881568909 -1.8218582868576 -1.11365640163422 2.67845773696899 3.28061056137085 0.308037132024765 0.5075643658638 -0.887697756290436 -0.380980223417282 -0.280463635921478 -0.258091926574707 -1.083371758461 -1.08603775501251 -0.954997062683105 -0.519872725009918 11.8594408035278 22.1650199890137 0.156283974647522 -0.0913887694478035 0.158778294920921 0.242996856570244 8.34811305999756 21.4144268035889 -0.700150191783905 18.8976497650146 26.7574558258057 26.7309837341309 16.0230560302734 5.86143827438354 1.3549861907959 4.61074924468994 20.1146278381348 16.5392780303955 2.5566246509552 2.83966565132141 3.13227272033691 4.44318437576294 3.78733253479004 3.64179110527039 4.89336156845093 5.52381420135498 5.69418239593506 6.14461517333984 6.27710819244385 6.26600408554077
5.35253143310547 5.56011533737183 5.4366455078125 5.61431074142456 5.71959209442139 5.79948711395264 5.69588327407837 5.5632381439209 5.47638130187988 5.51239538192749 5.71487617492676 5.91381406784058 6.06988000869751 5.93066358566284 5.58622264862061 5.66922378540039 5.80710411071777 5.44001531600952 5.88784837722778 5.60875844955444 5.81050395965576 5.95386028289795 5.91128540039062 6.07769823074341 6.24069738388062 6.18908548355103 6.19847345352173 5.96964597702026 5.61582803726196 5.08831691741943 4.75707578659058 4.3435378074646 4.27700519561768 2.80975270271301 3.87434792518616 4.62081146240234 5.38308048248291 5.24106788635254 5.00970029830933 15.9905662536621 19.6433143615723 15.5115776062012 28.0303726196289 3.95077610015869 4.77172899246216 11.146017074585 4.0861759185791 6.44275331497192 0.832464158535004 0.614597797393799 7.6787691116333 5.44985294342041 10.9928979873657 12.8471803665161 12.1767520904541 11.0793886184692 1.64734435081482 4.16438007354736 4.30711555480957 1.71433222293854 1.51392138004303 1.32427585124969 1.48934817314148 2.0495080947876 5.53888416290283 3.72957921028137 3.30616664886475 7.92311191558838 4.65293645858765 3.26420497894287 5.12204074859619 5.19909286499023 6.08292436599731 10.7780494689941 9.03575706481934 6.35120916366577 1.28836274147034 8.59567642211914 3.8398802280426 13.3890953063965 3.51481604576111 9.07149314880371 0.836263120174408 0.667791664600372 13.4272575378418 10.484338760376 18.1039237976074 25.5097236633301 12.3234949111938 10.3206653594971 16.4600486755371 7.05513191223145 28.1757030487061 3.14456868171692 27.207555770874 38.0663299560547 -0.849519371986389 -0.835801303386688 -1.04750120639801 -0.977205157279968 -0.958972692489624 -1.04565441608429 -1.04676806926727 -1.0402295589447 -0.994353473186493 -1.00878465175629 -1.04713809490204 -1.10862243175507 -1.05609667301178 -0.975438475608826 -0.628662943840027 -1.09705138206482 -1.02489900588989 -0.919797718524933 -0.886330187320709 -0.655771791934967 -0.41862216591835 -0.0580731518566608 0.0921619087457657 2.51633858680725 2.67613792419434 9.46025371551514 5.17405033111572 7.85319089889526 9.07289886474609 8.09933376312256 9.11204147338867 13.4395246505737 11.2152309417725 -0.708691358566284 -1.3177262544632 1.66907954216003 -0.493880152702332 -0.403683662414551 -0.936122238636017 -1.07473456859589 -0.400177925825119 -0.376095741987228 -1.15734529495239 -1.19831788539886 2.94368648529053 3.88232636451721 3.92145228385925 4.99120950698853 -0.592010617256165 -0.36232402920723 -0.652133524417877 -0.230990305542946 4.0342869758606 8.85340309143066 5.16075277328491 19.8160037994385 -0.32588717341423 3.93986630439758 2.8212411403656 1.67464804649353 13.9377470016479 22.6507778167725 14.3317852020264 9.32226943969727 2.09293389320374 6.35326814651489 2.74603819847107 2.63832688331604 2.65718054771423 3.49394488334656 3.45246076583862 3.61381959915161 5.06324481964111 5.69807720184326 5.90764760971069 5.99404907226562 6.03222990036011 7.61412715911865
5.37261390686035 5.24574279785156 5.3644962310791 5.46840476989746 5.30612277984619 5.22467613220215 5.1253080368042 5.2538743019104 5.33709335327148 5.50932836532593 5.66262435913086 5.53713893890381 5.17596340179443 5.31897354125977 5.31017827987671 5.03266191482544 5.12923812866211 5.27069520950317 5.45598316192627 5.57718133926392 5.51904535293579 5.62979221343994 5.82425451278687 5.86532831192017 5.9245753288269 5.90457487106323 5.47032070159912 4.86766767501831 4.6108775138855 3.3466956615448 3.77679538726807 2.80369901657104 2.78462600708008 2.25310730934143 4.12097597122192 3.72565746307373 4.20288848876953 10.6896018981934 12.3084182739258 10.3773317337036 14.6988401412964 25.8035793304443 37.7239379882812 2.85552883148193 3.41301846504211 3.7984676361084 0.780902862548828 3.64596176147461 3.81652927398682 3.51896524429321 7.50874996185303 5.21748208999634 5.15330362319946 6.31531000137329 8.0167818069458 10.2470264434814 9.48618125915527 8.16060447692871 9.14141178131104 5.7138204574585 0.26751720905304 0.118167012929916 1.46830475330353 1.71959817409515 1.89027833938599 2.66722130775452 2.60614609718323 7.58800792694092 2.39718794822693 3.63799405097961 5.02769470214844 4.09647941589355 4.84157276153564 6.04177713394165 1.06921803951263 0.588747322559357 3.0578031539917 7.91547250747681 2.26651573181152 7.91805171966553 4.10841989517212 7.30054903030396 11.2225847244263 3.29208254814148 3.72208166122437 12.5364370346069 10.1896142959595 28.0016136169434 37.9337501525879 35.1899147033691 26.7042369842529 -0.784292221069336 1.76952826976776 9.62406635284424 1.06269598007202 0.483757525682449 -0.206873312592506 -0.988358438014984 -1.01483154296875 -1.09069895744324 -1.08616816997528 -1.09223258495331 -1.0526670217514 -0.900157809257507 -0.913191378116608 -1.10076224803925 -1.12497127056122 -1.11558043956757 -0.953354239463806 -1.04304528236389 -0.921961843967438 -0.936210632324219 -1.01783299446106 -0.883036077022552 -0.743204474449158 -0.707453608512878 -0.409080237150192 -0.27185931801796 2.2079451084137 7.29631042480469 7.94237995147705 4.06908273696899 5.81395435333252 5.28175973892212 6.4988899230957 8.23024368286133 9.03395366668701 10.4120149612427 12.8533668518066 -0.75293642282486 -0.492273926734924 -0.893084526062012 -0.998364210128784 -0.995541512966156 -0.537209331989288 -0.458201676607132 -1.18248474597931 -1.26562130451202 0.677253365516663 0.670194029808044 2.41436505317688 2.54917097091675 -0.912933230400085 -1.20359969139099 -1.57870733737946 1.87637555599213 -0.842669069766998 3.44142031669617 4.63300657272339 19.3812942504883 2.11262202262878 -0.557746410369873 -0.901846289634705 -0.746848583221436 -0.377820581197739 0.12903256714344 0.140775486826897 -0.343897342681885 0.0288895145058632 1.13315308094025 1.63056421279907 1.16223919391632 17.8647994995117 1.68841147422791 8.45169067382812 2.98778700828552 10.5548839569092 4.23736476898193 5.39784479141235 5.66393995285034 5.66039514541626 5.92911911010742 6.0460729598999 8.99812126159668
5.06802225112915 5.19374179840088 4.96581268310547 4.90315580368042 4.72328662872314 4.85058307647705 4.85730504989624 5.08982181549072 5.25075244903564 5.15108203887939 4.81531286239624 4.95122575759888 4.86615753173828 4.7620644569397 4.86396169662476 4.93023538589478 5.09445810317993 5.27707099914551 5.21125316619873 5.28101301193237 5.42919063568115 5.5683741569519 5.54420804977417 5.67106628417969 5.67752265930176 4.73886919021606 4.71318531036377 14.1397438049316 2.66983270645142 10.3064746856689 11.1619577407837 13.4000816345215 18.8143997192383 2.92878937721252 3.0584659576416 3.5615394115448 7.74593448638916 5.80676364898682 9.73737621307373 13.5348377227783 16.5534934997559 25.7994041442871 37.8000068664551 3.13409376144409 5.56739330291748 0.395464211702347 0.257024466991425 2.48057842254639 0.746926724910736 4.32419872283936 3.69338917732239 2.38163924217224 2.1001091003418 5.06157779693604 5.56797933578491 6.17479038238525 11.6007957458496 3.33631348609924 8.52562427520752 19.9645652770996 1.79343283176422 0.571960985660553 0.591262340545654 0.503845691680908 1.88264656066895 1.75455486774445 5.85820817947388 6.95268583297729 2.66494202613831 4.25484800338745 3.58180451393127 4.21467733383179 9.21215057373047 14.2382173538208 3.0875871181488 1.27297735214233 1.80045902729034 5.40363597869873 0.732095062732697 2.98954296112061 7.7107982635498 7.29437732696533 6.11306047439575 4.23600816726685 5.28996849060059 5.59472703933716 19.4168453216553 18.4297866821289 20.8159294128418 23.6603736877441 29.84836769104 35.2781753540039 -2.47757411003113 0.442862540483475 -0.906438827514648 0.0230182204395533 -0.215650454163551 -0.527250170707703 -1.09469294548035 -1.11126017570496 -1.11999654769897 -1.09967827796936 -1.01441502571106 -0.785673558712006 -0.752134501934052 -1.00781321525574 -1.07851886749268 -1.07576978206635 -1.13547575473785 -1.1873265504837 -1.10113000869751 -1.06619429588318 -1.03843665122986 -0.93967467546463 -0.782240867614746 -0.80450576543808 1.72572755813599 5.87741851806641 6.30690479278564 3.12845540046692 4.33713006973267 4.78709506988525 4.06301259994507 4.86817359924316 5.83922576904297 6.99763488769531 7.82207536697388 8.51351737976074 11.5681438446045 2.75073075294495 -1.23775386810303 -1.0415506362915 -0.618248641490936 -0.515024960041046 -0.501462936401367 -1.28649199008942 0.118819110095501 0.109685808420181 -0.791243970394135 1.62840485572815 -0.655063211917877 -1.24225461483002 3.14595580101013 4.84946012496948 6.13331460952759 4.49749326705933 3.26579236984253 0.778605699539185 -1.4878044128418 8.90553379058838 13.4221601486206 13.5319271087646 -1.18857061862946 -1.93350696563721 -1.83660805225372 -1.80941212177277 -0.975231111049652 -0.838120400905609 -0.269489198923111 -0.48645955324173 0.0209304895251989 0.321188122034073 1.4560558795929 4.84311580657959 1.88161873817444 2.97048783302307 3.59562516212463 4.85849475860596 5.30349206924438 5.40270662307739 5.6914644241333 6.10580110549927 22.226037979126 4.48551416397095
4.95264053344727 4.8262505531311 4.66867446899414 4.52261161804199 4.43520402908325 4.61589002609253 4.76111078262329 4.83108329772949 4.72876262664795 4.55769681930542 4.44128799438477 4.23013210296631 4.59692049026489 4.65096521377563 4.80954360961914 4.99634695053101 5.1059308052063 5.00880432128906 5.10799551010132 5.2269344329834 5.20954465866089 5.3303050994873 5.33357048034668 5.05609655380249 4.5381383895874 2.61661052703857 18.7861404418945 26.9487190246582 5.75470209121704 7.92976951599121 8.85544967651367 2.77336478233337 2.78722548484802 3.07171893119812 5.34395503997803 6.00577306747437 5.49810981750488 7.7519736289978 9.69864177703857 13.057448387146 16.4603862762451 23.477258682251 34.754207611084 3.44103026390076 3.88245415687561 4.17286825180054 0.49403589963913 6.97416114807129 1.4031617641449 4.46590709686279 3.73026013374329 2.05450820922852 2.37151265144348 3.68982172012329 4.47647762298584 2.92740964889526 5.97440433502197 6.58162927627563 8.77598571777344 13.8562364578247 17.2676410675049 9.53378582000732 11.9846248626709 0.948462307453156 2.31043100357056 2.27844381332397 2.78243565559387 6.3465723991394 3.04116678237915 3.45024657249451 4.61008644104004 6.32199478149414 8.20199871063232 15.5340480804443 0.702817499637604 1.63750910758972 8.05966281890869 8.67936134338379 0.563472867012024 0.545024037361145 2.71031427383423 7.30940055847168 4.24124336242676 9.33564472198486 6.47343254089355 4.86639595031738 5.63278770446777 14.9821624755859 19.1822891235352 22.1124382019043 34.9311828613281 45.4089965820312 -1.24702954292297 -1.95150554180145 -0.319160878658295 -1.17678391933441 -1.24099862575531 -1.02336812019348 -0.907236516475677 -0.970137298107147 -1.08754086494446 -0.941368341445923 -0.809005796909332 -0.74066960811615 -0.621088564395905 -0.376211732625961 -0.755322873592377 -0.721838295459747 -0.861233651638031 -1.06602001190186 -1.06701123714447 -0.992522835731506 -1.06895399093628 -0.977685451507568 1.32217144966125 1.42268693447113 5.07416725158691 2.46712374687195 3.41738510131836 3.67655611038208 2.94867992401123 3.29699277877808 3.85953092575073 3.91580653190613 4.72474575042725 5.36890316009521 6.4669075012207 6.14029455184937 -1.40877854824066 -1.67653441429138 -2.11249685287476 -0.545571625232697 -0.568828344345093 -1.3028359413147 -1.18620383739471 -0.198843359947205 -0.552227854728699 1.19932341575623 1.17966258525848 -0.0664426162838936 1.48530054092407 1.46111941337585 2.72477436065674 3.11479902267456 2.86980247497559 8.22768211364746 10.1487483978271 7.30244779586792 1.47817027568817 0.822242319583893 9.08213233947754 21.8811721801758 1.18706178665161 -2.789222240448 -2.76646971702576 -2.03440117835999 -1.8357743024826 -0.82886016368866 -1.55555963516235 -1.37279963493347 -1.23338758945465 0.45690792798996 1.22977471351624 1.28386914730072 1.2930496931076 3.29948282241821 4.21519374847412 4.71913862228394 5.16795110702515 4.15430879592896 10.8184499740601 4.96113443374634 3.93830370903015 3.70818901062012
4.49257516860962 4.34926748275757 4.35883808135986 4.32872533798218 4.38695573806763 4.41351222991943 4.30868434906006 4.04813575744629 2.67755722999573 4.08449220657349 4.28037595748901 4.40131235122681 4.50637483596802 4.69089460372925 4.80055809020996 4.73516654968262 4.80268955230713 4.93159627914429 5.03424167633057 5.02003002166748 5.02115821838379 4.75200653076172 4.31947374343872 23.120532989502 8.37589454650879 11.573278427124 4.59356641769409 6.41871309280396 6.78327178955078 3.30367159843445 2.74675416946411 2.92820000648499 4.45780563354492 4.63350915908813 4.02013921737671 4.71536684036255 5.67532014846802 7.35185575485229 9.16685485839844 11.1820306777954 14.2828149795532 24.9406032562256 37.0223731994629 18.3125476837158 5.85780954360962 0.291563719511032 0.847532391548157 0.691978573799133 0.573380768299103 0.693624556064606 1.08616209030151 1.16523444652557 1.60544669628143 1.21009886264801 4.13059043884277 4.71895027160645 3.64140200614929 6.02831172943115 6.21612548828125 5.86641836166382 6.36435556411743 5.65981864929199 8.01177501678467 3.22558951377869 2.87859344482422 1.78690886497498 1.27596127986908 0.980468332767487 0.723727524280548 3.34216094017029 4.25944232940674 5.46214056015015 7.84070444107056 14.1294956207275 2.12474536895752 3.70654892921448 0.261907398700714 3.33104228973389 1.69669997692108 1.88341009616852 2.5617573261261 6.99441003799438 5.12676954269409 11.7461719512939 17.328010559082 14.1329212188721 5.07195615768433 10.2737054824829 22.3727855682373 25.8084945678711 4.09659957885742 23.8786392211914 27.1190490722656 -0.256230115890503 6.2579984664917 -1.75318157672882 -0.827400684356689 -0.901983976364136 -0.634924054145813 -0.670762658119202 -0.682128965854645 -0.665728271007538 -0.592519462108612 -0.629029452800751 -0.221399039030075 -0.448753595352173 -0.881703615188599 -0.621778845787048 -0.530853986740112 -0.685073137283325 -0.800937294960022 -0.790559887886047 1.08640599250793 1.13911592960358 4.20811605453491 4.47431468963623 2.07388043403625 2.91990900039673 2.27854371070862 2.44558596611023 2.753666639328 3.11139345169067 3.06972479820251 2.84767460823059 3.52235579490662 3.5493700504303 10.9714803695679 15.6901216506958 19.3163089752197 29.9622554779053 0.466847628355026 0.119138203561306 -1.16892540454865 -0.482951760292053 -0.44234624505043 0.857680201530457 0.943850576877594 0.1429283618927 0.991272270679474 0.939769208431244 1.78909945487976 1.87225198745728 1.0898289680481 4.2074236869812 4.81628942489624 4.23487854003906 0.698340058326721 -0.469916224479675 2.08420634269714 9.19666194915771 16.0144062042236 24.0360832214355 9.07289123535156 -3.45344424247742 -3.53879714012146 -3.25429749488831 -2.9851450920105 -2.36064958572388 -2.92788887023926 -2.8133499622345 -2.30890035629272 0.255858778953552 0.267220795154572 1.62409055233002 1.85679614543915 2.0711624622345 3.32247233390808 3.76708269119263 4.12208366394043 3.73387503623962 3.90350842475891 9.40628337860107 9.28633308410645 3.29320788383484
4.23235845565796 4.12845468521118 4.20494890213013 4.23909425735474 4.08873128890991 3.70553636550903 17.2274417877197 27.7621726989746 3.44765734672546 3.99441051483154 4.06387758255005 4.2425365447998 4.45183897018433 4.3977518081665 4.47428369522095 4.63903713226318 4.74998760223389 4.71750164031982 4.72683763504028 4.46872758865356 4.05555057525635 12.0666875839233 18.8176708221436 28.2796192169189 3.22472763061523 3.82833051681519 5.42107629776001 3.26892995834351 3.11816453933716 2.91376805305481 2.87207937240601 4.12905120849609 3.11895418167114 3.66818714141846 3.81068563461304 4.28260946273804 5.37673091888428 6.16526794433594 7.72637224197388 11.7058725357056 15.0555047988892 16.7526473999023 24.5257625579834 36.0900917053223 41.3088569641113 0.148864105343819 0.0471381396055222 0.750990450382233 1.6958384513855 0.320110440254211 0.372809112071991 0.542203783988953 0.450451791286469 2.53428077697754 3.83360815048218 2.98546242713928 4.09739971160889 4.19709634780884 4.15563011169434 2.31603384017944 2.99522185325623 1.64199948310852 1.83779573440552 2.62894749641418 9.01534938812256 14.4031991958618 0.562480628490448 6.94395399093628 4.27823448181152 3.45624470710754 5.67720651626587 5.71907758712769 1.92695701122284 4.78298711776733 7.85156774520874 13.2523574829102 1.53098917007446 1.47516167163849 2.17627763748169 2.27180480957031 3.47718477249146 5.89449739456177 6.16967487335205 5.46867322921753 9.72933006286621 17.8326416015625 10.3467569351196 8.75689315795898 21.6298141479492 28.9367733001709 16.2442226409912 11.6476879119873 12.9364652633667 15.9954042434692 22.6248645782471 -0.0660312622785568 -0.760612428188324 -0.710333585739136 -0.548440515995026 -0.445619821548462 -0.39940083026886 -0.14019151031971 -0.386746406555176 -0.409089386463165 -0.140258699655533 -0.268556833267212 -0.668309032917023 -0.689797878265381 -0.445613712072372 -0.625877559185028 -0.763776421546936 0.938819766044617 3.58742952346802 3.77116394042969 1.67858910560608 2.34268116950989 2.50421595573425 1.88626396656036 2.10131406784058 2.26110816001892 2.09249544143677 2.39870262145996 2.14416790008545 1.87362730503082 4.54931783676147 7.7365837097168 11.490026473999 13.2681465148926 -0.715391218662262 2.14164781570435 1.5403333902359 0.906434714794159 0.0148367555812001 -0.564570486545563 0.689926266670227 -0.0751032829284668 0.1200315579772 0.768429517745972 0.43280366063118 1.43470895290375 0.655283272266388 2.88194727897644 3.10482096672058 3.06456398963928 1.86997973918915 5.96631145477295 4.38167858123779 5.98486852645874 8.41674995422363 12.8157873153687 19.0609378814697 30.788402557373 19.7724151611328 6.81495904922485 -2.25209546089172 -0.0266095642000437 -3.17958211898804 -3.19717526435852 -2.87648630142212 -2.57605814933777 -1.98410177230835 -0.964220821857452 0.531306564807892 0.924052536487579 1.9231926202774 2.28087306022644 9.37563419342041 6.25065183639526 10.1359310150146 4.40954160690308 5.21083068847656 8.13865375518799 7.33675003051758 3.41293334960938
4.07462167739868 4.13452959060669 4.10904264450073 3.92679572105408 9.74811363220215 11.3717012405396 3.14842081069946 3.26544499397278 3.69155430793762 3.81649971008301 4.02193832397461 4.14861965179443 4.11736440658569 4.17636251449585 4.37355327606201 4.37004041671753 4.50018310546875 4.4989652633667 3.76441097259521 7.79730415344238 9.40099906921387 8.72432613372803 2.7458016872406 2.92134261131287 4.18317556381226 4.51186895370483 2.66652488708496 2.67775964736938 2.83386063575745 3.90554237365723 3.93771052360535 3.33765411376953 3.36841201782227 3.28673315048218 2.6338677406311 3.95005512237549 1.00413632392883 6.48091554641724 8.15686988830566 9.18797779083252 11.2504873275757 14.7427396774292 18.4124870300293 28.9463348388672 0.107214704155922 -0.13655549287796 0.0849635154008865 0.203802078962326 2.00946521759033 0.192854925990105 0.0857469886541367 0.22142206132412 -0.032009307295084 0.262272894382477 7.73228740692139 2.69740581512451 2.82889223098755 2.27850556373596 2.15724849700928 2.5989294052124 3.36602473258972 1.35722351074219 2.37498736381531 3.07833576202393 9.47852802276611 12.3003044128418 13.6377182006836 3.80914568901062 3.29409313201904 4.54738807678223 1.2852441072464 1.79734718799591 4.67475271224976 6.46121168136597 5.77415752410889 17.4036827087402 12.9491891860962 11.7736368179321 4.20759439468384 2.96180605888367 4.16807222366333 4.5566782951355 3.7037627696991 7.15344095230103 6.29463052749634 12.7556257247925 10.440393447876 1.55990076065063 2.8185932636261 9.7492094039917 10.4911823272705 -1.47126507759094 12.1183023452759 2.79083776473999 1.44493460655212 -0.0449932254850864 -0.7655029296875 -0.52424144744873 -0.417174369096756 -0.335288405418396 -0.257594853639603 0.122640132904053 -0.115046545863152 -0.268377214670181 -0.0172460079193115 -0.138908594846725 -0.469300270080566 -0.642519772052765 -0.587315082550049 0.800573408603668 3.11614561080933 3.20302152633667 1.2993255853653 1.8779855966568 2.03157162666321 1.45427536964417 1.57198333740234 1.732297539711 1.52177143096924 1.67930161952972 1.38433396816254 1.6438490152359 2.54598307609558 4.54747295379639 7.04287099838257 8.37756156921387 6.97409105300903 -1.05741894245148 -2.07483220100403 1.92686140537262 1.8705050945282 1.58884477615356 0.798756837844849 0.64639812707901 0.0919725224375725 0.643562018871307 0.618159055709839 1.2421178817749 1.22283327579498 1.06574237346649 2.39209961891174 2.39725565910339 2.50145220756531 3.75551605224609 4.40562200546265 7.42804384231567 7.64168310165405 9.84375858306885 11.0384693145752 18.6125755310059 15.5916500091553 29.1299457550049 32.3169898986816 -4.22154712677002 1.78705251216888 -4.00882387161255 -3.62063121795654 -3.57475900650024 -3.18414163589478 -2.54467988014221 -2.01671385765076 -1.05929982662201 -0.422553211450577 0.991247951984406 1.52052628993988 2.00783944129944 5.10908269882202 7.31039762496948 2.43872666358948 5.7217812538147 6.86791849136353 13.9870767593384 11.6311864852905 2.73063850402832
3.98675513267517 3.86496901512146 6.95412588119507 7.68606853485107 3.08724474906921 2.80968642234802 3.16847705841064 3.48822379112244 3.61046147346497 3.78579902648926 3.74425411224365 3.79488205909729 3.95076751708984 4.06117725372314 4.01890230178833 4.09674119949341 3.82994794845581 3.47854733467102 6.34613037109375 4.38875007629395 2.54105710983276 2.52359294891357 2.03205442428589 3.46411919593811 2.44082140922546 2.46271181106567 2.6417407989502 3.52298164367676 3.58861660957336 3.15726518630981 3.26443672180176 3.21966648101807 5.95738077163696 6.91050863265991 13.2583494186401 22.4288120269775 1.15012228488922 0.141227513551712 6.30432891845703 8.30559349060059 9.97158432006836 13.8490152359009 27.9475955963135 41.0028114318848 10.9642868041992 7.45094585418701 1.99537599086761 0.162296772003174 10.3361024856567 -0.0262675192207098 -0.0882767662405968 0.0257761217653751 0.789112865924835 0.492257207632065 1.51490414142609 2.43896436691284 1.32705247402191 1.05460178852081 1.50169336795807 4.17270612716675 6.4546275138855 2.56314277648926 5.85654592514038 6.25075101852417 2.14552879333496 1.87327301502228 1.79915142059326 2.93829679489136 4.81657791137695 3.79298543930054 3.61093783378601 2.6531400680542 4.90070962905884 5.15604209899902 5.83820343017578 6.58489465713501 8.32307815551758 9.15933227539062 5.71710824966431 3.30600547790527 1.63621819019318 3.65150308609009 5.5486216545105 6.86660242080688 8.23995971679688 14.2871618270874 10.3657970428467 -1.62302935123444 3.34054398536682 30.8828105926514 41.1801872253418 0.251115679740906 -1.98703837394714 4.21598148345947 1.58440494537354 -0.312438100576401 -0.799143552780151 -0.581114947795868 -0.453997939825058 -0.19520965218544 -0.0894922316074371 -0.0101838810369372 -0.0544260181486607 -0.180379942059517 -0.288628429174423 -0.224606275558472 -0.825354099273682 -1.08968412876129 -0.950197517871857 0.748640894889832 -1.21222102642059 -1.39596545696259 -1.3822705745697 1.04639995098114 1.18805623054504 1.30973958969116 1.42811667919159 1.22970855236053 0.895133256912231 1.00814092159271 0.823206186294556 1.83802890777588 3.52625799179077 5.56008911132812 2.64620637893677 13.4708185195923 21.7091312408447 10.2509231567383 1.60156178474426 1.6285879611969 1.78682458400726 1.80939555168152 1.24900674819946 0.622728943824768 0.594497919082642 1.10431289672852 1.09406971931458 0.823042094707489 2.00410318374634 2.08894515037537 2.06485819816589 2.73769640922546 2.99989604949951 4.52024745941162 5.73476123809814 7.17914056777954 9.42393207550049 14.5610437393188 18.4170379638672 26.6460456848145 20.468132019043 40.1793556213379 46.140567779541 12.3491163253784 6.23371934890747 -4.0189847946167 -3.98846817016602 4.19931077957153 0.639549672603607 -3.52816534042358 -1.71260046958923 -1.38399815559387 -0.885622382164001 0.385571509599686 1.26866924762726 1.49971866607666 4.36922836303711 4.54256010055542 2.2602231502533 2.4831850528717 3.43908500671387 10.1451454162598 12.3545799255371 8.86673355102539
3.37147283554077 5.80698251724243 3.12693214416504 2.99764108657837 2.72324562072754 2.8098886013031 3.04209995269775 3.18024325370789 3.42561960220337 3.48011302947998 3.49620866775513 3.74293518066406 3.66622424125671 3.66773653030396 3.41362500190735 3.14847469329834 4.26853656768799 4.85049390792847 0.784291744232178 1.86479592323303 1.77595794200897 0.846971571445465 0.407357603311539 2.18628454208374 2.35644793510437 2.95715260505676 3.06946873664856 2.79817676544189 2.90646266937256 2.97150015830994 4.14938974380493 4.35209608078003 8.17147350311279 7.53973484039307 12.1937284469604 19.9877624511719 29.3446140289307 4.12547826766968 5.9904408454895 7.72029876708984 12.1093511581421 15.6815567016602 21.9167385101318 -0.111002720892429 0.0282611027359962 4.82027006149292 2.82833313941956 -0.134809911251068 4.66404438018799 12.5702466964722 4.00709772109985 0.34774911403656 0.175680637359619 0.179391145706177 0.434296071529388 0.265648573637009 0.952889442443848 1.37631666660309 1.50453019142151 1.50646603107452 2.84032082557678 0.484620541334152 1.5075386762619 5.52147245407104 1.59051144123077 2.0035982131958 2.13113117218018 2.58491039276123 3.38895916938782 2.35807299613953 4.052170753479 3.74729681015015 3.74485492706299 3.30730438232422 2.85460734367371 6.03581666946411 8.21285057067871 9.59046745300293 11.150013923645 4.49869918823242 4.03552198410034 5.11588621139526 6.54849481582642 5.87846851348877 6.28582525253296 10.5205574035645 17.8588848114014 4.34042501449585 4.5827202796936 4.61669397354126 30.4166698455811 25.947546005249 -1.99957120418549 -2.23590636253357 -2.19276809692383 0.0174737572669983 -0.817831695079803 -0.680254399776459 -0.538642406463623 -0.462249040603638 -0.316878169775009 -0.0679821074008942 -0.0544321276247501 -0.157693982124329 0.655159711837769 19.9464492797852 28.4076595306396 23.7119884490967 16.6101474761963 8.09250736236572 22.1338768005371 20.8047828674316 -0.261455059051514 -0.553601682186127 0.687889695167542 -0.255880087614059 -0.554828584194183 0.685735881328583 0.481122881174088 1.04855608940125 2.35429692268372 3.97933197021484 4.48763418197632 5.85114717483521 9.44602489471436 13.0481214523315 21.2066917419434 -1.22396743297577 1.1051470041275 1.25705420970917 1.13757658004761 1.35353231430054 1.34877502918243 1.09776985645294 1.05004501342773 0.806154847145081 1.74728834629059 1.79210710525513 1.79286813735962 1.42388868331909 2.33395004272461 3.20843386650085 4.88176870346069 6.0027928352356 8.03917598724365 8.73799419403076 9.98820114135742 17.8208465576172 20.5952548980713 30.5240116119385 27.8119087219238 28.9797096252441 27.7579669952393 14.5946569442749 21.0672206878662 1.3420250415802 -0.858612954616547 -3.57408976554871 7.7416524887085 -2.69983172416687 -1.51210248470306 -1.72918915748596 -1.17538690567017 -0.565892338752747 0.565931260585785 1.69384825229645 1.87125790119171 2.2329728603363 2.40870594978333 2.94254398345947 3.91122078895569 3.15141034126282 2.72617864608765 2.14402532577515
4.96845960617065 2.89831399917603 2.64389038085938 2.35162615776062 2.73585820198059 2.44699025154114 3.12779068946838 3.28553080558777 3.28629636764526 3.31202101707458 3.39157724380493 3.46118068695068 3.48445439338684 2.90717315673828 2.99869656562805 3.25535202026367 28.0106048583984 39.882682800293 0.459308624267578 0.427004188299179 -0.0115976873785257 0.0057565588504076 -0.25583353638649 0.175246298313141 2.39509272575378 2.11074471473694 2.36903405189514 2.53212070465088 2.68433165550232 2.97454905509949 6.06541633605957 6.63377475738525 7.32242059707642 10.4389629364014 12.5638151168823 3.38758754730225 3.84687089920044 4.05470752716064 6.72449207305908 8.20867252349854 9.33521842956543 23.6642684936523 36.0842666625977 35.0988006591797 -0.461748331785202 -0.183504715561867 5.09089708328247 4.86907768249512 -0.0554098524153233 6.99781703948975 0.739788830280304 6.13475847244263 3.22920608520508 -0.0517491586506367 3.01226854324341 0.336598217487335 0.284327059984207 0.586592137813568 0.695724785327911 5.18379926681519 9.9723424911499 0.76544725894928 1.42047572135925 1.58846318721771 7.54568004608154 9.85613441467285 1.57045245170593 2.49606704711914 1.894158244133 2.42092871665955 2.74039745330811 2.49655508995056 2.6789653301239 2.65868163108826 4.13295316696167 3.99659299850464 5.68188428878784 5.80124950408936 7.53903675079346 7.29651594161987 7.38709831237793 4.78642511367798 4.93767929077148 4.98224687576294 8.09950828552246 8.67566204071045 15.7370252609253 16.164493560791 3.05755829811096 13.9908351898193 31.438943862915 32.2019500732422 17.02073097229 -1.52570974826813 -2.08112978935242 -2.07692718505859 -0.690521955490112 -0.870054602622986 -0.842037081718445 -0.734624207019806 -0.576397240161896 -0.38859024643898 0.099113442003727 10.1401195526123 12.3873310089111 11.0821943283081 11.3541851043701 16.2172546386719 8.60696506500244 8.23296737670898 15.7584667205811 12.1822452545166 13.7746496200562 5.47035455703735 -0.823791325092316 8.08787536621094 0.17073792219162 0.72852087020874 1.75151014328003 2.99834012985229 3.28550219535828 3.24067711830139 5.56759023666382 6.68890190124512 7.30633163452148 11.8303003311157 19.7959403991699 -1.2881942987442 0.714736223220825 0.861197054386139 0.959492146968842 1.03573203086853 1.18219482898712 1.37499976158142 1.41767156124115 1.65281021595001 1.61923289299011 1.26043903827667 1.95158159732819 2.11823511123657 2.7140109539032 5.02560234069824 6.79067516326904 7.44828271865845 15.2241010665894 11.3428955078125 13.4075908660889 23.2102298736572 25.6401386260986 22.1935615539551 17.2175769805908 30.0575313568115 43.3322105407715 25.123010635376 31.0014457702637 8.16408920288086 2.96637082099915 4.13482713699341 -2.91844367980957 3.99825143814087 13.6228485107422 10.7687149047852 -0.925442516803741 0.116534270346165 0.936979830265045 1.66094946861267 1.8350282907486 3.11518001556396 2.01863741874695 2.52329134941101 2.55675888061523 15.1290464401245 1.82900869846344 1.68897104263306
2.55551385879517 2.33265018463135 2.2564263343811 2.23989820480347 2.23419141769409 2.33394432067871 2.99657559394836 3.23205375671387 2.92137455940247 3.2417209148407 3.26486468315125 2.99837851524353 2.7525315284729 2.57279443740845 14.1621408462524 17.0174179077148 24.5809459686279 35.0486373901367 6.65129137039185 -0.25156244635582 4.50422143936157 -0.744866609573364 -0.967347800731659 -1.02234840393066 1.60154414176941 1.86099278926849 1.87685346603394 2.25293564796448 2.28466248512268 4.76178598403931 5.36013412475586 7.70054244995117 8.44757843017578 3.09375190734863 3.60224151611328 3.8527193069458 3.99082064628601 4.82976770401001 5.89567422866821 10.7158002853394 13.3705177307129 12.4603242874146 26.725212097168 -1.75256836414337 -1.15076756477356 -0.306002497673035 2.09987497329712 -0.00985728576779366 2.03777384757996 16.1735820770264 14.7526960372925 6.55131912231445 3.430743932724 5.559654712677 7.99712944030762 0.289820998907089 0.208634689450264 -0.0540623441338539 0.392888367176056 0.179096937179565 0.0435709692537785 0.594945073127747 0.649906873703003 1.36318778991699 1.56500053405762 2.24333572387695 2.51676416397095 4.9366135597229 2.24327635765076 3.95859575271606 2.13520932197571 1.83361732959747 2.54069256782532 2.99728465080261 2.71988010406494 0.859022259712219 2.80682849884033 4.64722013473511 4.5429859161377 4.50932359695435 2.79241132736206 2.8313581943512 3.34799981117249 3.69366884231567 6.02318429946899 6.3836989402771 11.5309705734253 14.4972314834595 3.73272228240967 12.7610549926758 19.239709854126 36.3481636047363 30.2004661560059 23.9877529144287 10.151951789856 -2.29607510566711 -2.42245888710022 -2.63118743896484 -1.25693941116333 -1.09286379814148 -0.871686398983002 6.36635112762451 7.48860120773315 6.72217607498169 7.56743288040161 7.83546829223633 10.3594121932983 7.5265908241272 -0.624373078346252 4.84085845947266 5.87387180328369 1.86502373218536 7.77894878387451 14.1391906738281 -0.942521572113037 1.16864395141602 -1.69789826869965 1.46147859096527 2.60285139083862 0.160712227225304 2.41233038902283 4.29262971878052 3.62573933601379 4.74065256118774 6.42554378509521 17.0262470245361 27.0843334197998 -1.13908433914185 0.576465487480164 0.707679629325867 0.985764741897583 1.11046302318573 1.17740738391876 1.60658311843872 1.60166597366333 1.56958830356598 1.78986978530884 1.88357901573181 2.25066924095154 3.865149974823 4.55513906478882 6.12741470336914 9.34467220306396 10.8965110778809 13.4060831069946 18.7659072875977 20.0681686401367 16.2182350158691 29.3125648498535 13.4021425247192 32.2485313415527 19.940221786499 22.9871139526367 21.5690269470215 10.9211921691895 11.6911306381226 2.29641437530518 14.1574296951294 -2.41410732269287 0.803253352642059 4.43481111526489 12.8522319793701 8.47100162506104 0.0836196690797806 0.793833494186401 1.60564661026001 6.81670665740967 15.7747859954834 2.29090285301208 4.32254457473755 17.7645645141602 20.8814334869385 5.09085130691528 3.27541208267212
2.18417549133301 2.06567931175232 2.17735767364502 2.11795330047607 2.05000257492065 1.87616634368896 2.12175393104553 2.66374969482422 2.77857351303101 2.82251167297363 2.56956315040588 2.42982316017151 9.33200168609619 10.7721843719482 12.7334938049316 15.3092613220215 19.5337047576904 31.1214828491211 13.7177877426147 2.25800371170044 4.15687465667725 9.99262619018555 -1.04642200469971 -0.939823389053345 0.960679531097412 1.47261083126068 1.82422578334808 3.32740783691406 3.8379340171814 4.20768547058105 6.45885896682739 2.88233590126038 2.83305907249451 3.34876680374146 3.91357827186584 5.78767442703247 4.84529066085815 6.53859710693359 7.903076171875 7.29791831970215 13.0211143493652 37.3176193237305 20.2184200286865 1.91813731193542 -1.15510737895966 -0.139787927269936 0.661595225334167 0.0448419749736786 0.0624687075614929 6.66903305053711 4.65996932983398 16.9681167602539 1.57565188407898 3.21021747589111 3.60787725448608 4.87817811965942 2.47660994529724 0.151888564229012 -0.0721763148903847 -0.0630229040980339 0.373462557792664 0.415611445903778 0.464208602905273 1.24967682361603 1.74515092372894 3.75676012039185 2.22918128967285 1.90421223640442 4.42278718948364 5.52141714096069 6.33707857131958 2.71711802482605 2.96332144737244 4.03385353088379 2.06873536109924 2.19768095016479 3.17977952957153 4.15471363067627 2.09402298927307 2.44453382492065 3.30861163139343 2.26904058456421 5.80614757537842 4.07887077331543 6.09196758270264 7.72728633880615 10.9216642379761 11.3085155487061 5.34388875961304 6.95735120773315 15.205867767334 24.1124458312988 3.15085363388062 27.4756870269775 25.4206676483154 3.58842825889587 2.325608253479 -3.48380899429321 -3.27730870246887 -2.50103950500488 -1.20139098167419 4.10708904266357 4.86599493026733 6.00804424285889 7.15172100067139 0.124335773289204 11.5938501358032 6.63188028335571 3.5289158821106 1.29173183441162 3.9369044303894 4.20650815963745 5.56690454483032 10.0790729522705 -1.70156157016754 3.76331758499146 0.733310401439667 2.23063993453979 1.68699848651886 3.13307571411133 3.44548606872559 2.52740049362183 3.05745363235474 7.37982034683228 9.72604274749756 9.82078075408936 16.6940784454346 -0.973250389099121 0.868799030780792 0.905890583992004 0.857845902442932 1.49080264568329 1.51535820960999 1.51849246025085 1.39717507362366 1.72712302207947 2.05762219429016 3.49936437606812 4.00393438339233 5.34794998168945 5.89254379272461 8.48007106781006 11.2351360321045 12.6013870239258 16.3783054351807 17.3765335083008 17.1925086975098 24.9838790893555 45.8681793212891 14.5262660980225 35.9235916137695 16.3734359741211 24.330883026123 10.8781499862671 4.02406406402588 9.80813694000244 -2.04886102676392 9.47755718231201 -2.27926874160767 0.603777885437012 2.47500371932983 2.76084899902344 10.6070909500122 0.40309801697731 1.01069819927216 1.61356377601624 4.91353559494019 9.07138061523438 6.45585060119629 10.1523332595825 22.3633308410645 31.0327110290527 25.6329154968262 20.9375820159912
1.99857771396637 1.90642511844635 1.98924553394318 2.00286889076233 1.62273836135864 1.67439997196198 1.83159840106964 1.96850883960724 2.1063060760498 1.88445043563843 2.00115585327148 7.62321662902832 8.49365234375 9.46610736846924 9.95547294616699 17.0461196899414 10.2077856063843 33.7725791931152 44.7047233581543 2.92321133613586 -1.22430002689362 5.22293663024902 30.6087322235107 0.11527656763792 0.330700367689133 0.983631610870361 2.20204401016235 2.79444932937622 4.751877784729 5.289381980896 2.53774476051331 3.01517915725708 3.22445631027222 4.12346506118774 4.59858846664429 5.47716236114502 4.06648635864258 2.15522527694702 8.9866828918457 21.6692848205566 28.8285331726074 38.9367980957031 19.4759750366211 0.0807230994105339 -1.12492704391479 -0.872704744338989 -0.321801573038101 1.58608055114746 -0.07063989341259 6.2869987487793 5.26195383071899 11.1337890625 9.73435878753662 2.26049208641052 4.48233413696289 7.0155177116394 7.86491298675537 11.7466812133789 2.97964191436768 0.324681878089905 0.226046845316887 -0.131100192666054 0.215261161327362 0.262691676616669 1.28204536437988 1.52936100959778 2.70022630691528 1.54479610919952 2.39284920692444 4.0649881362915 2.65007138252258 3.5033757686615 1.08967280387878 1.67786645889282 2.60451793670654 2.76426672935486 0.89623886346817 1.36564946174622 4.79726552963257 2.32638907432556 6.95166206359863 3.24557590484619 4.35802555084229 4.90476560592651 5.52214765548706 10.3257417678833 9.523362159729 8.16156768798828 3.92998862266541 3.15289640426636 13.8818550109863 20.8423404693604 19.9603633880615 24.5479221343994 18.2954978942871 26.8295822143555 2.51721596717834 -3.64419150352478 -2.3079981803894 4.61488723754883 0.673124730587006 2.86080050468445 4.38527059555054 21.7685089111328 32.0395927429199 7.8473858833313 -0.602266728878021 0.315248429775238 -1.26390087604523 2.74028587341309 2.86215019226074 2.67407059669495 7.82689046859741 -2.71862149238586 -2.5120062828064 -1.00685966014862 -2.80139589309692 -2.99393510818481 -3.36210417747498 1.72394025325775 1.88727056980133 4.45541906356812 5.24797248840332 3.56604099273682 5.07097959518433 11.1882181167603 0.870709478855133 -1.56827735900879 0.726704120635986 1.32911169528961 1.36952650547028 1.40567982196808 1.16527104377747 1.6306324005127 1.80849695205688 3.27384161949158 3.67493605613708 4.80248594284058 5.24491214752197 7.39275026321411 8.62470054626465 10.1891212463379 13.7495059967041 14.581582069397 13.3831338882446 19.5457611083984 12.3581132888794 13.2841930389404 39.9788246154785 23.6751003265381 14.2388143539429 31.2909202575684 36.0436706542969 25.4950923919678 5.65962409973145 4.73660564422607 1.671910405159 2.77930784225464 -0.751137256622314 -0.237900599837303 -0.0238499883562326 0.0468360893428326 7.06497287750244 0.554047286510468 0.537236452102661 1.51554763317108 10.0096368789673 10.1776914596558 9.29270458221436 9.79385852813721 11.2255935668945 11.9487838745117 8.65508365631104 13.4002962112427
1.76060783863068 1.93107569217682 1.56969547271729 1.50963592529297 1.94656527042389 1.77606308460236 1.61226856708527 1.68671989440918 1.73536789417267 6.05510568618774 6.48971748352051 6.83822536468506 6.56413984298706 11.437084197998 17.4096393585205 25.8689632415771 22.1551036834717 32.6494941711426 43.9999847412109 49.6092987060547 5.74127244949341 4.34310007095337 4.55194759368896 0.168611288070679 0.124845631420612 0.41125163435936 2.50968980789185 3.68625068664551 2.08221888542175 2.53123021125793 2.73381280899048 3.17974758148193 3.89648246765137 4.32402944564819 11.5855550765991 17.2582721710205 22.5777130126953 15.5431146621704 17.5323581695557 19.9128532409668 23.1942100524902 14.807822227478 42.9500274658203 4.75662469863892 -1.24290204048157 -0.243282690644264 -0.282195866107941 0.218375131487846 0.172926262021065 0.55070561170578 2.20606637001038 7.24218463897705 14.7078866958618 10.8364934921265 5.47643899917603 6.80218076705933 10.7440481185913 10.7329397201538 7.14274930953979 15.3531274795532 0.945822954177856 0.126943722367287 0.843115627765656 0.910174369812012 1.11674880981445 1.32615065574646 6.41486930847168 2.39159345626831 3.42602896690369 1.48177623748779 1.72056221961975 4.80024290084839 1.59985387325287 6.88121175765991 0.266686081886292 0.969067454338074 0.710128128528595 1.06353974342346 1.28501379489899 3.14800643920898 1.12862598896027 1.62738120555878 2.92959690093994 5.45575475692749 4.09110021591187 5.76670598983765 11.068097114563 16.5975914001465 1.80185997486115 6.86386871337891 8.78365230560303 16.3763427734375 25.6500091552734 22.1880836486816 38.8157272338867 48.4008560180664 18.7512645721436 -2.40301489830017 -1.2204692363739 -0.0270802862942219 -1.5199773311615 -0.0843923017382622 4.72059488296509 0.911365807056427 -0.0216702222824097 16.5364799499512 15.8511791229248 23.1024627685547 2.08284592628479 2.00063753128052 4.08068180084229 20.9506950378418 29.1197471618652 33.8937530517578 17.289119720459 20.0654907226562 30.4351425170898 39.2122344970703 -1.62758445739746 -2.65453910827637 -0.632432341575623 1.85580158233643 2.29207015037537 4.14929485321045 8.71986675262451 20.2164649963379 0.560162425041199 -0.76798415184021 1.18541014194489 1.24095165729523 1.0290744304657 1.4768693447113 1.59902143478394 1.82442390918732 3.4141252040863 4.43762493133545 4.80537557601929 6.56765031814575 7.67377281188965 5.70936489105225 8.14828586578369 11.935601234436 7.93991994857788 9.76135158538818 10.3141851425171 10.2481622695923 12.0349473953247 17.4885063171387 23.8135795593262 30.9502449035645 16.4221782684326 28.6489772796631 26.8086624145508 16.5635623931885 -1.12850916385651 35.9008026123047 35.705135345459 -1.54474258422852 0.992769360542297 1.47484564781189 6.93821096420288 0.426490932703018 5.06777906417847 5.52117586135864 2.59679698944092 3.25272679328918 8.36743450164795 8.34442138671875 6.6065731048584 7.11248970031738 6.46251726150513 4.6452317237854 2.75103616714478 3.18175554275513
0.215093180537224 1.01828122138977 0.93557745218277 1.14943099021912 1.33483040332794 2.37308692932129 2.3026294708252 5.24443626403809 5.47659397125244 5.58986234664917 5.67555236816406 5.51096868515015 9.42766189575195 12.9024438858032 14.6130495071411 18.2151775360107 21.6056671142578 25.2439270019531 28.0183944702148 40.2833786010742 11.8774690628052 6.21108436584473 6.87851715087891 8.19320011138916 0.0436486043035984 0.405550539493561 0.98180890083313 1.69903922080994 2.1439790725708 2.55305409431458 3.11402583122253 3.57426071166992 5.98672819137573 8.59420490264893 10.5995950698853 7.03108263015747 13.7632875442505 13.9000387191772 15.3119602203369 24.829122543335 35.2145919799805 32.8605079650879 28.9654884338379 16.9715480804443 -0.545328319072723 -0.421356558799744 0.116349317133427 -0.0163432657718658 0.228340730071068 0.330399513244629 1.03254389762878 3.41873264312744 5.06511735916138 4.4562931060791 6.19052648544312 7.25452041625977 5.51295948028564 10.4759254455566 12.7237787246704 11.1067934036255 3.81825065612793 4.39726972579956 1.10676407814026 1.00221037864685 0.683586657047272 1.24494338035583 1.9248970746994 1.98279869556427 4.60835361480713 1.54811561107635 4.62536478042603 2.13921928405762 2.48303556442261 7.74016523361206 3.79599165916443 9.58606243133545 2.53380155563354 1.87136626243591 2.15985178947449 6.03828859329224 9.16996288299561 2.75871729850769 3.73481941223145 10.3543157577515 5.85225772857666 4.93620347976685 7.34313774108887 21.8123359680176 4.52006578445435 5.16248226165771 8.49336624145508 12.28688621521 26.4768848419189 30.4002151489258 31.9664402008057 34.2085227966309 33.9037551879883 7.51888799667358 -1.96066188812256 -1.52081668376923 -1.04951167106628 -2.09671473503113 -0.875898540019989 13.5069408416748 7.67996025085449 9.61440277099609 1.41688334941864 1.55294680595398 3.45992946624756 12.1800880432129 7.0140175819397 3.49594187736511 -3.97148895263672 -3.66759014129639 -3.90022563934326 -3.68558478355408 -3.12708425521851 12.6238594055176 22.848934173584 13.3692455291748 0.305965900421143 1.64499545097351 2.95858192443848 8.83258056640625 17.857608795166 28.6620960235596 5.39262008666992 -0.392270058393478 1.10114943981171 1.26207423210144 1.39578604698181 1.60431170463562 2.88121175765991 3.22433066368103 4.19840526580811 6.02157020568848 6.93196725845337 23.5682353973389 34.1417121887207 21.0751056671143 19.8483219146729 28.4814472198486 25.6960315704346 33.0065269470215 36.0558128356934 28.0539569854736 13.2269659042358 15.2845735549927 19.5746383666992 26.6264705657959 13.6485280990601 28.2116527557373 39.7866821289062 39.6078491210938 8.0792818069458 26.8821029663086 38.9466934204102 13.0629110336304 -0.669893205165863 5.17592573165894 4.52535915374756 0.346373915672302 0.800203859806061 0.73365706205368 4.08883762359619 2.26481175422668 5.37689352035522 5.92661619186401 7.11781644821167 2.0133376121521 2.25867319107056 4.12985372543335 2.42282342910767 5.50951766967773
-0.757092595100403 0.687673211097717 0.812462985515594 1.16935586929321 1.64213168621063 1.62554669380188 4.7594952583313 4.84753799438477 5.04129457473755 4.81176090240479 7.44452667236328 7.98964023590088 10.4863176345825 12.3149919509888 14.905387878418 17.0148849487305 16.2541103363037 18.6498966217041 5.3116307258606 6.21349334716797 8.56483459472656 6.60882616043091 7.76439046859741 11.0709047317505 6.28153991699219 -1.20704567432404 0.46147409081459 1.38079571723938 2.16533803939819 2.72622728347778 2.87037444114685 5.15359020233154 6.50575351715088 5.92478847503662 11.099552154541 12.0954036712646 11.8890027999878 14.6055326461792 17.4390754699707 20.2851982116699 24.2974586486816 30.293550491333 20.6848888397217 23.5228424072266 23.720287322998 21.9298477172852 12.258505821228 -0.0144819403067231 -0.130331575870514 0.0774991139769554 0.117894187569618 1.41599035263062 3.22651791572571 2.06267857551575 3.18519973754883 2.81563019752502 4.43045949935913 5.4935736656189 7.24503469467163 18.9706630706787 2.95944881439209 0.991750001907349 1.47097814083099 2.91509342193604 2.61815786361694 1.77884614467621 0.447968035936356 1.22462224960327 1.27176094055176 2.04585742950439 2.12047648429871 0.198768347501755 3.05305409431458 1.63464725017548 1.03890752792358 10.7597761154175 10.2676687240601 7.90487766265869 5.01534605026245 8.64644336700439 8.72666931152344 7.43931770324707 4.54734468460083 4.25236082077026 5.34776496887207 5.86590099334717 3.99106049537659 11.5435848236084 4.97910690307617 3.80288100242615 11.9908962249756 12.9089860916138 13.72682762146 22.9916191101074 27.2473545074463 29.1441059112549 23.6686611175537 15.0459566116333 19.1636543273926 17.1800403594971 -2.33980917930603 -2.29088735580444 -2.25121164321899 0.0424250587821007 1.27475368976593 2.2203094959259 1.47825694084167 7.86112499237061 16.1704998016357 22.2509593963623 16.0839767456055 15.7418794631958 4.27247524261475 -4.52362775802612 -4.37720966339111 -4.11219263076782 -3.20204281806946 -2.43892049789429 -2.10342597961426 -0.870614886283875 -1.36844313144684 2.0401029586792 -0.711893975734711 10.1399240493774 15.2006092071533 24.7054328918457 20.722806930542 0.632570624351501 1.0089213848114 1.30476474761963 2.51166486740112 2.82668805122375 3.76909708976746 4.1352219581604 5.61798715591431 12.8959350585938 15.5561246871948 9.75587940216064 11.0396060943604 13.3316402435303 13.3706502914429 14.186450958252 11.6457815170288 8.86251926422119 8.77057647705078 8.41788578033447 7.49357080459595 14.7739706039429 18.1352310180664 25.4481678009033 23.1418075561523 26.6642799377441 26.3848762512207 34.2034530639648 21.0982780456543 7.57668781280518 15.7070617675781 25.2858390808105 -0.323532372713089 -0.0555799156427383 -0.282549858093262 -0.287007302045822 -0.0819932222366333 0.804812550544739 15.3543100357056 4.87156105041504 2.68802523612976 5.87909936904907 10.6294412612915 2.12271618843079 1.91794061660767 1.9394451379776 1.77201235294342 1.94995939731598
0.776927590370178 0.659261643886566 1.40988397598267 1.43242132663727 4.11491918563843 4.3398118019104 1.48068463802338 4.03956508636475 6.47483396530151 6.70486164093018 8.4747953414917 8.90211391448975 9.94349670410156 11.8783864974976 10.8045978546143 12.3443727493286 4.19208145141602 4.19856834411621 4.95564126968384 5.53730058670044 6.32261991500854 7.21074295043945 6.60044479370117 33.4651222229004 12.2796382904053 -0.910506248474121 -1.36332440376282 1.27625012397766 2.03765249252319 2.91291761398315 3.67598271369934 1.90201616287231 8.97189140319824 9.83264636993408 9.41743850708008 10.360239982605 12.5754098892212 14.6599435806274 16.5806674957275 17.8082504272461 21.6055908203125 31.2170391082764 23.5126934051514 18.778938293457 15.3927946090698 26.009449005127 25.2826919555664 1.90524482727051 0.711418688297272 -0.175162479281425 0.512511610984802 1.22912836074829 6.84435224533081 1.34059631824493 2.39859628677368 2.56871151924133 4.40135669708252 3.4751923084259 5.18071746826172 13.2915496826172 1.15502309799194 1.00458002090454 1.17748486995697 1.44326674938202 0.645301580429077 0.892532527446747 1.19686102867126 1.58200287818909 1.9110826253891 0.0853712111711502 0.468228697776794 0.610496282577515 0.569244623184204 1.34066665172577 1.42925620079041 4.10347986221313 3.8440248966217 2.39170432090759 3.5533299446106 3.20792198181152 3.15294981002808 3.11751365661621 3.70070767402649 5.3212890625 5.48176050186157 3.98398876190186 4.83222484588623 3.87593412399292 7.40438318252563 9.48601055145264 10.1304082870483 14.2341804504395 19.5165214538574 20.0703659057617 24.3867568969727 31.6605930328369 33.3244323730469 4.4734673500061 25.5823535919189 24.2794017791748 -2.70398187637329 -2.57744765281677 -2.07243967056274 -0.87177437543869 0.876307129859924 2.21578121185303 8.64195442199707 12.5015068054199 23.6487770080566 34.2653999328613 19.8481559753418 19.6082801818848 27.6877288818359 -1.09708261489868 -3.64513611793518 -3.81954288482666 -3.89985990524292 -3.20915794372559 -2.7222728729248 -1.94842898845673 -2.04932355880737 -1.94291365146637 5.52668714523315 7.86765813827515 6.19825410842896 0.416502237319946 0.825361251831055 1.15182650089264 2.2969696521759 2.5510196685791 3.42675185203552 3.80894041061401 5.16611051559448 8.99918174743652 10.2037754058838 8.8146915435791 9.14883232116699 8.65818500518799 9.36137866973877 10.61545753479 12.2014856338501 24.616138458252 21.1849956512451 8.10202312469482 15.6993656158447 22.4599323272705 9.02485656738281 2.8678674697876 16.0315418243408 18.1265830993652 14.8837671279907 17.3846702575684 15.3062791824341 7.00333166122437 10.4414348602295 11.866286277771 11.2976846694946 17.533655166626 -1.85420143604279 -1.47420513629913 -1.43828308582306 -0.887805044651031 -0.430462002754211 1.74366676807404 2.98373079299927 15.7117881774902 1.78969287872314 1.59510266780853 1.41715002059937 7.85856580734253 6.19614458084106 6.17460012435913 1.95725679397583 16.9577026367188
1.38728761672974 1.36907851696014 3.656334400177 3.78596973419189 17.8846187591553 0.724072217941284 4.09119892120361 2.87807035446167 7.27715587615967 7.71577930450439 8.38753318786621 9.76753520965576 10.4003038406372 8.38543796539307 2.3536651134491 3.17839527130127 3.65969657897949 4.16332101821899 4.48599767684937 5.37785720825195 4.92673683166504 20.030704498291 30.4340476989746 42.2945861816406 28.479154586792 31.5895309448242 -0.808476328849792 1.75677263736725 2.27515888214111 6.31613063812256 13.2258453369141 7.88114929199219 7.50025987625122 8.28638744354248 9.86791706085205 10.9086875915527 12.5218439102173 13.6130332946777 14.5225067138672 14.8218202590942 13.897611618042 12.5296535491943 11.4239482879639 13.4310121536255 16.4687080383301 24.669942855835 37.5408134460449 24.0758113861084 17.3259105682373 -0.118352726101875 0.243111833930016 0.850641667842865 6.16587924957275 2.34548854827881 4.62126350402832 3.20808482170105 4.32861661911011 5.78671264648438 10.844783782959 6.56193733215332 4.50197601318359 1.04679667949677 2.08005881309509 14.3570766448975 5.05284118652344 1.69223988056183 1.51235044002533 1.49790728092194 2.50310182571411 6.14998340606689 2.29228544235229 8.66394519805908 1.07091546058655 3.15875387191772 1.53357028961182 1.58511245250702 1.51190578937531 2.82249164581299 4.95659971237183 2.85415697097778 2.87901306152344 3.77763056755066 2.63884925842285 3.2802140712738 3.49299931526184 3.59501624107361 7.33453512191772 7.67307615280151 8.26403999328613 9.23135375976562 13.0597810745239 14.301251411438 18.9166736602783 17.9962940216064 14.9185857772827 20.2740535736084 12.0128202438354 19.2487621307373 28.4691162109375 33.4848022460938 25.2713012695312 8.4118480682373 -2.25485610961914 -0.299524545669556 5.19692659378052 8.25434970855713 14.4403390884399 16.3571109771729 19.4688186645508 29.8169269561768 18.9169254302979 18.9375057220459 22.8416900634766 11.3151082992554 4.8530855178833 6.29992246627808 -3.29720187187195 -2.94058179855347 -1.5363335609436 20.9656620025635 31.6346397399902 1.74572956562042 -1.3822546005249 0.122816532850266 0.396232545375824 0.632503807544708 0.11825343221426 2.23341798782349 3.08057522773743 3.42377996444702 4.63010215759277 5.4643816947937 7.36330509185791 6.98161697387695 8.30145645141602 7.41229915618896 8.34616374969482 9.411789894104 9.74293041229248 13.4973154067993 16.1907825469971 18.3215560913086 25.7798614501953 6.94898986816406 7.21022033691406 19.4066715240479 39.5641021728516 4.53725290298462 2.66828727722168 11.1161460876465 2.36157822608948 2.07937955856323 7.67884302139282 8.49101161956787 7.17958354949951 8.0419750213623 21.2067451477051 7.895827293396 3.61730742454529 2.21564531326294 -1.84176099300385 -1.40120601654053 -0.15158998966217 0.224766448140144 0.838749408721924 0.955515265464783 14.6282730102539 9.1066255569458 3.79312443733215 1.71669542789459 14.5689315795898 2.13278722763062 2.1349823474884 2.72123503684998
3.41943311691284 3.43268799781799 9.22606182098389 21.4798545837402 31.3919296264648 2.32516980171204 2.85161995887756 3.70406675338745 7.28763198852539 8.66145515441895 9.00761890411377 7.29367876052856 7.41010761260986 2.20722985267639 2.05127596855164 2.79206705093384 3.26101279258728 3.78668832778931 3.67345428466797 14.0285587310791 17.3230819702148 21.7476711273193 22.55934715271 26.4682884216309 17.7542171478271 28.4873161315918 0.267994374036789 -0.311488002538681 3.35286068916321 6.28921127319336 7.01303482055664 6.64995431900024 7.85059690475464 8.68416213989258 9.81929016113281 10.8474960327148 11.8163766860962 10.1283559799194 10.6296253204346 8.55684661865234 8.08455467224121 10.0840940475464 11.3198566436768 13.3319120407104 16.2765159606934 16.0174217224121 18.516996383667 30.1689834594727 4.80070924758911 0.189641833305359 0.0827764794230461 0.577141046524048 1.5496301651001 2.6775119304657 2.62230968475342 3.03898239135742 0.973761558532715 2.638596534729 4.87941408157349 4.53866147994995 7.77096748352051 0.690010726451874 1.04285657405853 2.28657627105713 17.5594787597656 9.01343727111816 -0.40368664264679 0.333983451128006 0.190548852086067 0.101472049951553 0.966625273227692 1.61014831066132 0.937207520008087 5.45847082138062 1.02696478366852 1.5291268825531 1.67838561534882 1.62076008319855 1.56976974010468 1.8123699426651 1.43021965026855 2.58295512199402 2.65045619010925 2.23274970054626 2.62063384056091 7.63883495330811 6.97371578216553 32.027271270752 29.3861885070801 10.8599662780762 14.8834009170532 12.7433662414551 17.641471862793 17.5393161773682 10.4439125061035 25.3099594116211 20.2282543182373 24.0957412719727 20.9268245697021 21.372974395752 21.6983985900879 19.974702835083 0.66765695810318 2.03115510940552 8.3176736831665 11.8028392791748 12.656982421875 17.8047256469727 21.6425914764404 30.3703784942627 12.7830781936646 12.8975191116333 7.07880353927612 7.82677936553955 -3.96361756324768 -4.53298854827881 -2.75768065452576 0.0325444303452969 -0.16491287946701 -1.33441245555878 6.58341121673584 20.4731731414795 -0.0577087216079235 0.221283122897148 -1.57240045070648 0.439589977264404 1.92703855037689 2.74967288970947 4.13761329650879 3.87746906280518 5.59448957443237 6.27914142608643 7.49535703659058 7.80937433242798 7.38765668869019 7.87877416610718 8.85847568511963 9.5444164276123 10.7565650939941 10.0200958251953 11.7592697143555 23.4472770690918 6.16935968399048 13.6713390350342 13.7512884140015 30.3728408813477 31.2772960662842 12.1441450119019 8.81001472473145 11.7458744049072 1.92871582508087 2.53120541572571 -3.98685765266418 -1.75226378440857 11.6679773330688 19.84543800354 26.6159362792969 24.2162971496582 35.7564964294434 -0.747822761535645 -2.10196852684021 -1.77946162223816 -0.343524247407913 0.493758738040924 1.06914365291595 6.38626480102539 1.32542502880096 1.01170313358307 1.19396269321442 1.51991879940033 1.99816334247589 1.80605292320251 2.31159901618958 2.15735459327698
6.85108757019043 11.5816631317139 13.8401737213135 20.3171081542969 29.7055587768555 26.3597869873047 3.44431138038635 3.17107510566711 7.94454908370972 6.56857299804688 6.79247760772705 5.79420375823975 5.54063272476196 6.67954540252686 2.74768924713135 2.4715461730957 2.62525391578674 2.82547354698181 11.5953073501587 13.4910478591919 15.0736417770386 17.7448425292969 18.2491722106934 22.5325813293457 27.1804828643799 10.5722894668579 16.6513690948486 5.06071043014526 5.9307222366333 5.35619497299194 5.85145950317383 6.94104862213135 7.75350666046143 8.67576026916504 9.52888679504395 9.32509613037109 8.75006771087646 9.22247791290283 7.19941663742065 7.19847869873047 8.81260204315186 9.84948539733887 11.1253690719604 10.6641597747803 11.832932472229 14.4644823074341 25.2773132324219 37.8861694335938 38.9847793579102 8.96402549743652 0.187188044190407 0.0891228169202805 0.691543638706207 0.801311910152435 0.775056958198547 0.581667244434357 1.21616208553314 2.62854409217834 0.848613858222961 0.0360975824296474 8.8630256652832 0.913202166557312 18.0232772827148 4.17632102966309 8.13006496429443 7.22996425628662 9.30001544952393 0.0939256921410561 0.552846431732178 0.864017307758331 4.63534927368164 3.15125393867493 8.1431131362915 1.20406115055084 3.3961763381958 1.18595838546753 1.26407372951508 0.570325314998627 0.525755703449249 1.38906621932983 1.62763941287994 2.04062294960022 2.57492280006409 4.84175300598145 5.73085403442383 6.24122476577759 17.7183837890625 17.3925075531006 22.1649208068848 12.6345338821411 12.6603631973267 14.1901044845581 30.4564380645752 24.9858798980713 16.2917881011963 18.5384712219238 14.4525518417358 14.8731994628906 19.5999660491943 18.4031925201416 22.220365524292 24.5457077026367 14.8101472854614 5.83763408660889 9.68728923797607 11.2155609130859 14.9558410644531 16.9965438842773 28.2608318328857 38.6891136169434 13.8297777175903 7.48747587203979 14.1946659088135 19.2398204803467 15.4258546829224 -3.62405109405518 -2.4408016204834 -2.31478261947632 0.168002590537071 -2.06843400001526 -0.676978647708893 -0.508830785751343 22.3172645568848 36.2339363098145 0.0467134825885296 1.36326229572296 2.64317274093628 9.73541164398193 2.92254495620728 3.85829067230225 6.69299697875977 6.98863506317139 6.70427131652832 7.12785053253174 8.07503509521484 8.35635375976562 8.54432773590088 7.81793165206909 8.08521747589111 13.1920785903931 24.4517021179199 6.56734371185303 5.42278051376343 11.0952453613281 11.2243375778198 17.2209854125977 24.1530685424805 8.74813842773438 11.4322872161865 0.18774339556694 5.34770917892456 19.7569732666016 -2.92996215820312 -3.26250147819519 6.06944179534912 16.1844730377197 17.31787109375 27.8626117706299 38.5052757263184 34.2498626708984 9.40710258483887 -1.87297809123993 5.07832908630371 14.1790885925293 5.10066509246826 -0.274693697690964 1.09783101081848 0.34343147277832 1.17687833309174 1.85830473899841 1.73421573638916 1.72313749790192 2.11729264259338 2.03534913063049
9.33512210845947 11.27099609375 13.2295761108398 11.1308622360229 17.5372943878174 25.798828125 25.1800842285156 7.22173976898193 6.02471256256104 4.23253870010376 4.75137710571289 4.65004396438599 3.17285919189453 3.47965979576111 3.81487512588501 3.37563323974609 8.59060096740723 9.36445236206055 9.92268562316895 12.6859006881714 12.0046367645264 14.0541973114014 11.4562339782715 14.4570388793945 23.3875484466553 7.19387340545654 10.5835628509521 4.82563495635986 5.0528621673584 5.72076797485352 6.11840105056763 6.81507682800293 7.65343236923218 7.26113986968994 6.97661638259888 7.4595193862915 5.85358428955078 5.88758373260498 7.06375122070312 7.77005481719971 8.57084655761719 8.32086944580078 9.15049076080322 10.4106369018555 13.92223072052 16.9977550506592 18.4457130432129 23.2281513214111 34.8305435180664 0.0583202503621578 1.48158144950867 0.5865198969841 0.842068731784821 0.725603938102722 1.0297623872757 1.86583721637726 7.73896646499634 1.81746649742126 -0.289263665676117 0.57552182674408 12.4277038574219 3.32260584831238 4.73912668228149 1.06755459308624 0.224695846438408 0.820372581481934 10.5648517608643 2.86639928817749 0.445459097623825 0.913406074047089 3.1183032989502 7.56372594833374 15.0543088912964 11.2915201187134 11.4946260452271 3.412034034729 4.81240129470825 6.78056621551514 1.32304728031158 1.76936233043671 1.95653593540192 4.29085779190063 4.72307300567627 6.23117923736572 6.10534954071045 9.80961990356445 11.0095710754395 9.46908092498779 10.741042137146 11.0129060745239 11.6373987197876 18.3413200378418 26.0365428924561 13.9424257278442 14.3232402801514 13.2377872467041 14.4514684677124 16.8279094696045 18.1833934783936 19.5260982513428 12.7933502197266 15.3052225112915 20.6423683166504 6.40283918380737 11.4458827972412 10.4802808761597 7.5284252166748 6.91815328598022 10.8791160583496 38.0916328430176 9.77489185333252 12.6994352340698 12.1234512329102 20.19313621521 0.208277761936188 -2.73167204856873 -2.53110456466675 -0.674187004566193 -2.31368350982666 -1.8309725522995 8.66833114624023 12.1319093704224 14.8453197479248 26.9171180725098 0.708321928977966 1.77191030979156 8.78486824035645 11.2764949798584 10.3282461166382 5.19285678863525 5.24865961074829 6.35908317565918 7.32872200012207 7.62025547027588 7.7730131149292 8.05065441131592 7.37138271331787 9.30729103088379 13.9785432815552 29.3373699188232 39.6989593505859 3.90991926193237 4.23823976516724 8.63713836669922 10.282527923584 7.06669998168945 19.3165340423584 10.8673267364502 10.2409744262695 10.2007303237915 7.80153274536133 13.9735221862793 10.8985643386841 -1.60475051403046 0.0857204794883728 3.71385908126831 17.8333301544189 18.1682643890381 21.6168994903564 32.5869750976562 -2.95288610458374 -2.26850938796997 -1.09991455078125 13.473105430603 15.1665735244751 3.69142627716064 2.36004614830017 0.454992115497589 1.90603685379028 1.48638808727264 1.65740633010864 1.22106063365936 1.53734016418457 1.72088539600372
