NCOLS 174
NROWS 32
XLLCORNER 353840
YLLCORNER 6700992
CELLSIZE 16 
NODATA_value -3.4e+38 
19.1342620849609 28.2101383209229 13.5578966140747 24.3190116882324 32.5683441162109 31.874979019165 14.6005840301514 10.504734992981 3.17146730422974 6.50846815109253 -0.110384605824947 0.0803884640336037 6.0169529914856 -4.14958000183105 -4.31468486785889 -4.11199760437012 -1.54542326927185 1.55020332336426 18.0906391143799 4.10364723205566 9.2789192199707 11.6820125579834 -1.91540348529816 -0.26892164349556 0.0855272337794304 7.60528755187988 21.330379486084 3.53108668327332 -3.81582403182983 7.67418718338013 8.79809188842773 -0.525581061840057 -3.37572765350342 -3.338782787323 -2.10977149009705 -3.71024942398071 -3.76811289787292 -3.98492932319641 -3.62762856483459 -2.40823864936829 -2.22622966766357 -1.65932667255402 -1.68690931797028 -1.27125930786133 -1.30522429943085 -1.66647672653198 1.48890614509583 -1.27682876586914 -0.4761922955513 -1.14723598957062 -1.53192102909088 -1.70925784111023 -2.1677463054657 -2.12427544593811 -2.12551474571228 -1.60139322280884 -0.861479222774506 17.5222072601318 -1.532790184021 -1.38030982017517 -1.04244220256805 -0.592507898807526 -0.631935775279999 0.202762544155121 0.233500599861145 0.242203399538994 0.250803530216217 0.247583732008934 0.258818238973618 0.271797209978104 0.291339606046677 0.303991138935089 0.320230275392532 0.291196912527084 0.237619981169701 0.287566334009171 0.38092103600502 0.441327035427094 0.760058999061584 1.0128710269928 1.18894493579865 1.27007162570953 1.37201344966888 1.76903784275055 2.63592457771301 2.72428727149963 1.79484057426453 1.74642658233643 1.92882561683655 1.85444235801697 1.9884580373764 0.86243087053299 0.991814196109772 1.10016560554504 1.59454739093781 1.66136789321899 1.23692166805267 0.963874220848083 0.855491578578949 1.623455286026 1.69961106777191 1.3510320186615 1.58326709270477 2.06269359588623 2.10884785652161 1.24581038951874 1.93169820308685 1.93432509899139 1.75609707832336 1.8097677230835 1.74585461616516 1.45395493507385 1.56626772880554 1.88342702388763 1.96741449832916 3.11993193626404 14.5381765365601 8.26897621154785 13.5152912139893 5.06705856323242 4.50766849517822 10.3056144714355 1.12555813789368 1.13667142391205 1.48277986049652 1.31180763244629 2.78375220298767 0.0322904586791992 -0.0339607708156109 0.0532469600439072 0.119109228253365 0.0683344006538391 0.220684736967087 0.572154521942139 0.968213856220245 1.01196300983429 1.08786106109619 1.13837099075317 1.90035092830658 1.99878597259521 1.45939302444458 1.14696884155273 1.39111602306366 1.72806203365326 1.83036828041077 5.5132303237915 8.40534114837646 5.11953067779541 5.65574979782104 3.66039133071899 2.94771814346313 3.91506624221802 4.26370096206665 3.64530301094055 2.77780532836914 3.30822920799255 2.96679544448853 3.43187928199768 3.97160291671753 4.2629280090332 4.49407577514648 4.57933330535889 4.71179866790771 4.99625253677368 5.60088634490967 5.71391725540161 5.82150363922119 6.0838942527771 6.34070158004761 6.62532615661621 6.93973350524902 7.12087821960449 8.66995525360107 10.6405010223389
10.1821756362915 12.8879375457764 8.76995277404785 14.3891859054565 20.9367923736572 10.2400350570679 7.66419363021851 2.81323385238647 5.63230323791504 0.97524482011795 0.577383935451508 4.68512105941772 8.09401226043701 -4.25825786590576 -3.86379289627075 -3.79335188865662 0.326691955327988 0.260031670331955 5.0089282989502 -2.07007956504822 1.74229037761688 -0.88120037317276 -2.23973274230957 0.783203661441803 2.35144257545471 11.2064256668091 2.60004329681396 5.51436233520508 0.148741751909256 7.63958692550659 -1.93167853355408 2.01853942871094 8.54640674591064 -3.58127307891846 -3.04473519325256 -3.24990892410278 -3.14143300056458 -3.16066217422485 -3.36262083053589 -3.30620765686035 -1.90405786037445 1.7005113363266 -1.24095046520233 -1.15249240398407 5.850661277771 14.2054929733276 -1.09373009204865 0.149206042289734 -0.617425203323364 3.84108710289001 -0.480692386627197 -0.459843218326569 -0.761878728866577 4.68772077560425 9.54495334625244 2.75147128105164 -1.28976905345917 -0.606020212173462 -1.39519095420837 -1.25459456443787 -0.67580246925354 -0.625294625759125 0.316023856401443 0.343417078256607 0.368097066879272 0.360892772674561 0.349013835191727 0.316868901252747 0.300450891256332 0.32476133108139 0.342120051383972 0.342214077711105 0.345740288496017 0.33635151386261 0.312811464071274 0.329255193471909 0.409839481115341 0.514633357524872 0.646380066871643 0.927942633628845 1.11710929870605 1.17257189750671 1.37119686603546 1.47013247013092 1.54626858234406 1.94435155391693 2.8514256477356 1.89208602905273 1.87358069419861 2.0970938205719 2.22249317169189 2.14090514183044 2.25097870826721 1.05192136764526 1.33009028434753 1.20051050186157 1.72105419635773 1.26510059833527 1.45203959941864 1.05813324451447 1.67155480384827 1.7770015001297 1.80423271656036 1.835733294487 1.89750802516937 2.16401767730713 1.89943635463715 1.99526286125183 2.05215525627136 2.06160473823547 1.86664807796478 2.12221741676331 1.83785402774811 1.93798744678497 1.92542827129364 1.97177302837372 1.62133598327637 1.72376883029938 0.912118494510651 0.808143556118011 1.02959811687469 11.8259248733521 10.802321434021 6.58238506317139 1.46589481830597 1.52996647357941 1.55365359783173 1.3707355260849 0.0496096685528755 0.00976376887410879 0.00560515560209751 0.00915294513106346 0.0779895111918449 0.0811624825000763 0.606379449367523 0.626417398452759 1.16151249408722 1.32078778743744 1.32111918926239 1.91519153118134 2.13829636573792 2.25908732414246 1.65857899188995 1.27613162994385 1.57277071475983 1.9378137588501 2.1974630355835 1.53159785270691 1.80537545681 0.437715232372284 3.99119853973389 6.1658501625061 7.44300651550293 4.98349714279175 4.74712657928467 5.84062051773071 5.20730209350586 8.39011669158936 3.59302949905396 3.89335775375366 4.21456146240234 4.47895050048828 4.72089815139771 4.86311006546021 5.07107400894165 5.47697496414185 5.88930988311768 5.99870920181274 6.12882280349731 6.60192108154297 6.91040515899658 7.14978790283203 7.41031312942505 7.62204217910767
14.1136207580566 18.8010807037354 13.4564304351807 10.6192855834961 14.504506111145 23.8907985687256 33.4261512756348 13.9717750549316 4.06289005279541 3.11695384979248 3.05402803421021 12.0841207504272 -0.344181537628174 -3.78605532646179 -3.97158741950989 -2.99865484237671 -0.757399618625641 18.03635597229 -2.33877205848694 0.453593581914902 0.24987319111824 2.87745714187622 4.20774364471436 1.66105222702026 11.8762903213501 7.87625026702881 12.9902315139771 16.3576183319092 15.0785894393921 1.33442747592926 -3.9214506149292 -3.70739483833313 -3.25440907478333 -3.84580683708191 -3.45840740203857 -1.2077910900116 0.232915356755257 4.91846609115601 8.51614570617676 1.49354732036591 1.16001224517822 1.67558872699738 -0.595249712467194 0.0230935644358397 0.152481466531754 -0.839317321777344 -1.18233501911163 1.97405636310577 6.61706924438477 5.35179138183594 10.6677856445312 11.6066255569458 -0.300350546836853 -0.523371517658234 -0.558662593364716 -1.33572018146515 -0.946638703346252 -1.1168110370636 -1.06613862514496 -0.718737483024597 -0.141038402915001 0.0359417535364628 0.489303201436996 0.497893959283829 0.495617687702179 0.471889346837997 0.446174055337906 0.39584019780159 0.380636692047119 0.380865275859833 0.384939789772034 0.384678155183792 0.383750319480896 0.377179473638535 0.373528689146042 0.418007582426071 0.42844945192337 0.510437190532684 0.591260075569153 0.817578315734863 1.01576614379883 1.05691623687744 1.2628720998764 1.46391892433167 1.53520429134369 1.62687027454376 1.69690251350403 2.99873089790344 3.12939071655273 2.15456771850586 2.10832762718201 2.31589293479919 2.43094110488892 2.35315275192261 2.45572829246521 1.35888373851776 1.41025364398956 1.77935695648193 1.84530293941498 1.48842144012451 1.53211212158203 1.44733786582947 2.10188269615173 2.78866338729858 2.90608859062195 2.81432127952576 2.60544586181641 2.54151773452759 2.64293837547302 2.91592025756836 2.99304127693176 2.77353572845459 2.16832399368286 2.21535515785217 1.98105370998383 2.00798058509827 1.98238289356232 1.81098604202271 1.78046309947968 1.8307877779007 2.95329833030701 9.98161220550537 14.9602069854736 1.16169929504395 1.29325366020203 7.04789972305298 1.55861628055573 1.62644219398499 1.66445970535278 1.78783774375916 0.458480268716812 0.0705296024680138 0.116793744266033 0.0205438062548637 0.0319536440074444 0.261284589767456 0.66709566116333 1.04734563827515 1.16307663917542 1.31270778179169 1.43967485427856 2.16829252243042 2.44745635986328 2.54373455047607 1.85025465488434 1.65049386024475 1.81308329105377 2.52259516716003 2.80413556098938 2.48241448402405 5.0058274269104 2.69070744514465 4.20234489440918 2.27211213111877 5.65706586837769 6.5032262802124 8.60433101654053 13.4313869476318 3.10128092765808 12.3126096725464 4.8576865196228 4.30460739135742 4.61606454849243 4.86281156539917 4.96052742004395 5.11137008666992 5.32249402999878 5.74709558486938 6.23049879074097 6.3670129776001 6.53348922729492 7.21518564224243 7.51931571960449 7.77796411514282
36.7730178833008 32.9512329101562 14.9223537445068 15.007303237915 9.18684577941895 14.1888456344604 11.0729761123657 7.42198467254639 15.7151737213135 7.63093662261963 4.98618268966675 4.50079202651978 -3.60840535163879 -3.41639924049377 -3.06758832931519 -2.77495074272156 11.5180759429932 20.0929718017578 -2.9064781665802 -0.908260762691498 -1.22962856292725 1.95412135124207 1.333336353302 13.3500413894653 19.1081047058105 5.90480279922485 13.2266817092896 7.97891139984131 14.5804176330566 5.11717510223389 6.60759925842285 -3.70131230354309 -3.48135948181152 -3.59914088249207 4.59167957305908 0.694282412528992 3.82078647613525 11.8855981826782 15.0960721969604 9.50833415985107 20.3707275390625 5.9968523979187 -1.98262751102448 7.91082143783569 1.37547385692596 6.68331384658813 7.88918018341064 -0.812744498252869 -0.672660946846008 -0.712430715560913 -0.512443780899048 -0.518880724906921 -0.0900658965110779 0.271765291690826 0.211855173110962 -0.0312127601355314 3.9619448184967 -0.779103875160217 -0.639407277107239 -0.31256502866745 -0.131537362933159 0.61092734336853 0.646325767040253 0.636767983436584 0.614597082138062 0.74441385269165 0.540528774261475 0.485693335533142 0.449914455413818 0.442452967166901 0.437967628240585 0.428992033004761 0.43628141283989 0.425887048244476 0.435755580663681 0.473935723304749 0.498394012451172 0.527080416679382 0.980358600616455 1.26322031021118 1.60693883895874 0.926366329193115 1.13559055328369 1.34644138813019 1.40534174442291 1.61265254020691 1.69323194026947 1.80409932136536 2.24570369720459 3.26252961158752 3.37259435653687 2.30038952827454 2.27820420265198 2.51677203178406 2.64204335212708 2.55178046226501 1.3890038728714 1.52468311786652 1.79056489467621 1.90204620361328 1.973149061203 1.64377152919769 2.7790310382843 3.27337455749512 3.50292611122131 3.65689921379089 3.52607393264771 3.16041016578674 3.45706534385681 3.51649975776672 2.98910999298096 3.05892825126648 3.12740445137024 2.90060257911682 2.25819659233093 1.97184836864471 2.04010248184204 2.03794765472412 2.37133812904358 2.70271682739258 3.11475253105164 2.44152426719666 4.13992738723755 1.45434641838074 1.17460787296295 7.13522100448608 1.35638356208801 1.93705558776855 1.99266219139099 2.09462976455688 2.00183367729187 1.90259730815887 0.482848674058914 0.0240155532956123 0.0314794927835464 0.140704661607742 0.0433137342333794 0.274678379297256 0.743129789829254 1.25019991397858 1.39887046813965 1.59583652019501 1.67779469490051 2.49468779563904 2.80543327331543 2.10703158378601 1.55775213241577 2.02330923080444 2.98366451263428 3.4869909286499 4.20499563217163 9.99273777008057 11.5691118240356 5.75311326980591 6.59354257583618 5.59839200973511 8.95523834228516 10.1197195053101 2.76536464691162 3.10000324249268 3.21892261505127 3.72143483161926 4.20116662979126 4.55724620819092 4.85881900787354 5.1132640838623 5.20844125747681 5.38309621810913 5.77062320709229 6.44091463088989 6.68060541152954 6.92438983917236 7.20673942565918 7.94805145263672
31.233154296875 17.5910930633545 9.9850606918335 15.2701063156128 21.3653373718262 8.7489767074585 12.7002401351929 13.6468315124512 22.1859188079834 11.9964456558228 -3.44668579101562 -3.41166019439697 -3.45859670639038 -3.24456214904785 -3.00601625442505 0.673506557941437 1.89320516586304 11.1756191253662 -2.47373485565186 -2.42846059799194 4.0684380531311 -0.175818726420403 5.14572048187256 5.37435817718506 4.99735403060913 25.6365985870361 28.368860244751 4.99905490875244 4.78329086303711 3.04819536209106 -3.19721674919128 -3.27276206016541 -3.25226068496704 -2.49607086181641 -1.31259381771088 1.46059012413025 6.87989473342896 13.5914154052734 9.40188312530518 18.9536628723145 16.1212005615234 0.82247930765152 5.18896675109863 -1.77952766418457 -1.44924867153168 -0.568840026855469 4.09282541275024 -0.889440536499023 0.953360319137573 -0.402214974164963 -0.346761584281921 0.274216800928116 0.0286372806876898 1.68209874629974 1.94160676002502 1.51219284534454 5.95141983032227 0.696408569812775 0.255585342645645 0.144813999533653 0.478899568319321 0.76673424243927 1.14655995368958 1.53856301307678 1.60491895675659 1.02706909179688 0.615827560424805 0.578146576881409 0.544763147830963 0.515108704566956 0.507093906402588 0.480126649141312 0.492236912250519 0.491795539855957 0.498724043369293 0.531476259231567 0.550200402736664 0.576297461986542 0.660354673862457 1.03882658481598 1.33240246772766 1.68860995769501 1.73936307430267 1.20175957679749 1.24989008903503 1.48061716556549 1.5461345911026 1.75109052658081 1.85108065605164 1.92589461803436 2.39693117141724 3.49685549736023 3.6411600112915 2.51866698265076 2.48593020439148 2.74542856216431 2.66181540489197 2.79008412361145 1.78412127494812 1.7931090593338 1.94806563854218 2.02615880966187 2.99789810180664 3.95719695091248 4.42513465881348 4.85212659835815 4.8595552444458 4.22899484634399 4.5704984664917 4.69003343582153 4.32754516601562 3.67364549636841 3.12884950637817 3.20109820365906 2.96164464950562 2.54063630104065 2.34614610671997 2.08148455619812 2.39070582389832 3.24599432945251 3.5119833946228 2.85492753982544 2.03235268592834 2.02492523193359 8.49634838104248 1.52031230926514 1.56507468223572 1.83561897277832 1.78356516361237 2.08289074897766 2.19722390174866 2.25255584716797 2.02043437957764 0.499370127916336 0.0337913073599339 0.0537832230329514 0.0797861441969872 0.0566141344606876 0.0879869163036346 0.364573866128922 0.875889778137207 1.54006028175354 1.75057208538055 1.89297807216644 2.04089879989624 3.07970833778381 3.38369512557983 2.44123077392578 1.86872410774231 2.59574007987976 4.52916717529297 5.63053369522095 8.35892009735107 1.02327764034271 1.53843641281128 8.45442199707031 10.4633255004883 5.19207096099854 10.4030914306641 15.9452657699585 3.17994165420532 3.29694890975952 3.9928514957428 4.32586002349854 4.4404444694519 4.78692674636841 5.11383819580078 5.40925598144531 5.73203945159912 5.98338651657104 6.3395528793335 6.89512205123901 7.35758876800537 7.73816394805908
25.8787422180176 16.0626373291016 17.2001342773438 17.8045749664307 17.3814277648926 10.6728010177612 25.1159362792969 14.1011543273926 14.8039083480835 13.7728710174561 1.84757089614868 -2.92875814437866 -2.55997514724731 -2.97945117950439 -2.79210448265076 2.99181914329529 4.74931621551514 15.4717836380005 8.26420211791992 -2.37641787528992 -0.859714508056641 -2.34538841247559 5.84296607971191 7.84187602996826 5.58156538009644 9.41881656646729 10.5955562591553 -2.8383355140686 1.28434753417969 4.41475820541382 -2.84528923034668 -2.18588447570801 -2.66492867469788 -2.17278790473938 -1.07631349563599 3.44163775444031 5.56933116912842 8.0448694229126 23.8171310424805 19.1308422088623 11.1584138870239 -2.81422591209412 -2.67317223548889 -2.52470397949219 2.20230841636658 14.277361869812 -0.45952695608139 -0.446776121854782 -0.548163652420044 -0.299422949552536 -0.329499781131744 0.799658954143524 2.06022787094116 8.72904396057129 12.286768913269 1.97591280937195 7.45178937911987 1.51255643367767 3.01673173904419 11.647554397583 11.4444456100464 17.9357738494873 1.22960186004639 1.46785604953766 1.69073593616486 0.859505176544189 0.668594300746918 0.637366831302643 0.613947212696075 0.587628543376923 0.568947613239288 0.547524750232697 0.551331043243408 0.553364038467407 0.566261112689972 0.587315320968628 0.600507497787476 0.618171513080597 0.854324340820312 0.700513422489166 0.731738865375519 1.14095163345337 1.44676768779755 1.81206274032593 1.07911396026611 1.31655192375183 1.34492385387421 1.57421851158142 1.79873478412628 1.86395967006683 1.97915840148926 2.06805562973022 2.57915043830872 3.79860758781433 2.60782480239868 2.57300400733948 2.84844136238098 2.98984217643738 2.8990535736084 3.02790212631226 2.00118327140808 2.28118991851807 3.38514089584351 4.45284080505371 4.88960981369019 4.80619144439697 4.98369693756104 5.09811735153198 5.09727764129639 4.70982313156128 4.80450487136841 4.89915704727173 4.52264308929443 3.19940543174744 3.28053903579712 3.34117698669434 3.08737659454346 2.39302015304565 2.43352961540222 2.51362752914429 2.24533367156982 2.05176949501038 1.8462495803833 1.86313986778259 2.06167125701904 2.18083882331848 1.65092253684998 2.19020009040833 2.23620057106018 1.96741759777069 2.18548965454102 2.25043368339539 2.38054466247559 2.46623849868774 2.19477939605713 0.530987739562988 0.0552368238568306 0.0608869604766369 0.31727933883667 0.0651313215494156 0.476986825466156 1.04972100257874 1.05447506904602 1.8536297082901 2.05876874923706 2.41065859794617 3.08365440368652 3.72641110420227 4.11292743682861 3.0557975769043 3.27648711204529 3.74176049232483 8.90534019470215 9.8340368270874 1.13056743144989 3.11293029785156 1.78317701816559 11.4858779907227 14.5307092666626 2.35859990119934 2.04877257347107 3.50666213035583 3.73819279670715 3.87337708473206 4.19110345840454 4.54827070236206 4.94119215011597 5.34250497817993 5.6048321723938 5.74078035354614 6.55789995193481 6.93012666702271 7.29248523712158 7.85152053833008
18.0976066589355 27.5414218902588 17.0263595581055 18.1180095672607 5.43280935287476 7.8445930480957 8.67306900024414 0.0206218995153904 14.1005926132202 22.3748111724854 4.4312858581543 -3.27478051185608 -2.82235026359558 -2.04321622848511 0.610876381397247 4.83294153213501 9.6124324798584 7.03302669525146 3.85242819786072 -2.355224609375 -0.633490920066833 0.417643874883652 2.37366628646851 10.2736368179321 10.6986236572266 14.2262392044067 9.4338493347168 6.29479932785034 7.38770055770874 7.75437784194946 15.2683620452881 6.13372945785522 -2.65278887748718 -1.97744834423065 0.425778985023499 2.0713038444519 7.94850635528564 19.037317276001 27.3262271881104 16.6150875091553 5.04737234115601 2.50222635269165 2.18674850463867 3.80639338493347 -2.2734227180481 3.56690883636475 -1.56403398513794 1.8556946516037 7.27377843856812 0.305024117231369 0.532070279121399 0.748731017112732 10.0177421569824 20.4685535430908 1.50993824005127 0.775498330593109 4.06847476959229 27.0909576416016 30.2219181060791 24.1926116943359 14.6985425949097 21.1307315826416 1.46755301952362 1.68850493431091 1.97448170185089 1.1857488155365 0.721513330936432 0.690774917602539 0.678069949150085 0.662605464458466 0.632293343544006 0.613991260528564 0.613745093345642 0.611563205718994 0.623659431934357 0.64826500415802 0.649442791938782 1.21777594089508 1.53237283229828 0.893402993679047 0.918936014175415 0.766015768051147 1.19266784191132 1.50730681419373 1.88225936889648 1.92861568927765 1.14440393447876 1.37753081321716 1.61200225353241 1.67362260818481 1.91553378105164 2.00166940689087 2.13054084777832 2.24294376373291 3.94462370872498 4.12030506134033 2.83190083503723 2.79461479187012 3.09033608436584 3.23058390617371 3.1491174697876 3.29912090301514 3.31259894371033 5.11363077163696 4.73876047134399 5.09229946136475 5.29280185699463 5.0464301109314 5.23851251602173 5.23153495788574 5.01507520675659 4.92648363113403 5.01928329467773 4.6337776184082 3.93822598457336 3.34487676620483 3.4180474281311 3.4961109161377 3.20516204833984 2.45196461677551 2.09286046028137 2.10169458389282 2.05919504165649 2.13992214202881 1.87375295162201 2.07378435134888 2.25907444953918 2.19247722625732 2.24819445610046 2.32259583473206 2.40078330039978 2.01115298271179 2.36071753501892 2.45050668716431 2.60358166694641 2.71691298484802 2.41683959960938 0.57635509967804 0.112328395247459 0.0825601890683174 0.0719951614737511 0.068762980401516 0.425188332796097 1.24312973022461 1.80846512317657 2.44026684761047 2.86559700965881 3.31091403961182 4.38667154312134 5.35101461410522 3.40591669082642 2.61711382865906 4.90304565429688 4.94590520858765 0.420076012611389 0.857189357280731 1.3567476272583 2.60496163368225 1.95864307880402 1.79276967048645 2.86697363853455 2.73682332038879 3.19745683670044 3.73509240150452 3.9678099155426 4.09123182296753 4.46313524246216 4.82781457901001 5.30125188827515 5.6753101348877 5.98105907440186 6.15896224975586 7.63117742538452 7.71816873550415
15.9148254394531 24.4664440155029 25.8318195343018 8.16856861114502 9.7235746383667 10.4112396240234 15.1424417495728 -2.42247581481934 12.3976783752441 8.92218971252441 -2.84151649475098 -3.11907935142517 -3.05629801750183 -2.72061824798584 0.925156772136688 -2.16682696342468 10.1209735870361 -2.31145095825195 -0.150990679860115 -2.20429039001465 0.675299525260925 4.56961250305176 3.36040592193604 3.66480541229248 6.50838613510132 -0.288035869598389 2.21557950973511 -0.688899338245392 12.2143144607544 15.0461349487305 -2.48797821998596 -2.67427158355713 -2.71356606483459 -2.18039560317993 1.04945254325867 4.21933746337891 8.9925708770752 15.9782400131226 7.74364376068115 1.14189743995667 -2.57715773582458 -0.855487525463104 1.15009593963623 -2.19424438476562 -2.61420035362244 -1.77972292900085 -1.53469514846802 -0.292202144861221 3.62737107276917 -0.448628455400467 4.24181604385376 1.25446236133575 2.19381403923035 2.75366997718811 1.17896270751953 20.3598232269287 31.5520114898682 20.8667297363281 2.5121738910675 2.05475687980652 2.14502692222595 2.10062336921692 1.24896001815796 2.63717031478882 2.05864644050598 1.71491277217865 0.806299984455109 0.753737092018127 0.732711970806122 0.720840513706207 0.705353081226349 0.6874098777771 0.674724102020264 0.682353138923645 0.681016981601715 0.706087470054626 0.712656855583191 1.21795964241028 1.27453410625458 1.5888819694519 1.61603426933289 0.958411931991577 0.809021294116974 0.845396816730499 1.28185546398163 1.59650802612305 1.97909605503082 2.02469944953918 1.40114426612854 1.45002055168152 1.72268760204315 1.78999948501587 2.06904363632202 2.17167019844055 2.30196166038513 2.88305330276489 4.27153015136719 4.4786901473999 3.06708598136902 3.0060887336731 3.35701894760132 3.52072978019714 3.36992502212524 4.39883756637573 5.2345404624939 5.40289449691772 5.32638359069824 5.41998958587646 5.54566717147827 5.37414360046387 5.48518371582031 5.48812913894653 5.03517913818359 5.147864818573 5.2487268447876 4.8403959274292 4.11332750320435 3.50528883934021 3.5699360370636 3.26748442649841 2.73514866828918 2.47502207756042 2.14704489707947 2.17473196983337 2.18117713928223 2.33425426483154 2.15746402740479 2.3586094379425 2.40532422065735 2.36317420005798 2.39041352272034 2.49504613876343 2.19983720779419 2.19923233985901 2.58750486373901 2.7055971622467 2.89793539047241 2.70853066444397 2.60415267944336 0.62062793970108 0.0987457260489464 0.0969937518239021 0.0892684608697891 0.0880104824900627 0.573508620262146 1.63192999362946 2.92760229110718 3.34736800193787 4.43390417098999 5.45542526245117 8.76145267486572 13.4752607345581 4.66298007965088 3.83619379997253 8.82337093353271 7.04385662078857 7.96082782745361 2.04814577102661 1.98430800437927 2.34304189682007 2.2939658164978 3.0346360206604 2.854900598526 2.87842416763306 3.87222838401794 4.13647985458374 4.21869993209839 4.63429260253906 5.03245162963867 5.16587352752686 5.64896965026855 6.08027648925781 6.42661666870117 8.46084022521973
12.1735992431641 18.9952049255371 24.8842010498047 15.6717729568481 6.79179763793945 9.61937713623047 5.77912092208862 -2.10578656196594 -1.98465943336487 2.13912582397461 9.62263298034668 -1.99552285671234 -2.11967015266418 -2.41190433502197 -2.0583291053772 17.3155479431152 2.99251556396484 8.52251052856445 -2.03643679618835 -2.08308482170105 0.114917539060116 3.25915145874023 3.83971166610718 9.58455657958984 5.02002429962158 8.24671649932861 1.1118791103363 8.90682315826416 -2.26884961128235 2.41157197952271 -2.52281928062439 -2.47119069099426 -2.11635398864746 -2.01766419410706 1.99124813079834 8.38160610198975 9.91659641265869 20.5923118591309 9.83179664611816 5.52231645584106 -0.143783643841743 -1.99740397930145 -1.79893124103546 -1.8653758764267 -0.87350994348526 -1.67702567577362 9.55947303771973 20.2383136749268 -0.424381136894226 -0.717703402042389 -0.223031207919121 1.17181265354156 5.68737363815308 10.3026342391968 26.0087738037109 28.4772186279297 12.5679779052734 0.323030680418015 11.5961246490479 0.939188897609711 10.748706817627 9.49088764190674 12.9843454360962 3.89512467384338 3.6174213886261 3.01114344596863 1.37521958351135 0.819961547851562 0.785946905612946 0.768458306789398 0.760295629501343 0.744004130363464 0.722135841846466 0.723308563232422 0.74924224615097 0.764720618724823 0.786683797836304 1.19683218002319 1.26907455921173 1.30346584320068 1.35219359397888 1.68056225776672 1.00054216384888 1.03097569942474 0.863290727138519 0.890091896057129 1.34442532062531 1.67034077644348 2.06765341758728 1.21508884429932 1.49254286289215 1.56420373916626 1.85281848907471 1.93822991847992 2.22344660758972 2.36365795135498 2.47300720214844 3.11969041824341 4.62529850006104 4.86977672576904 3.35013246536255 3.25819230079651 3.5796115398407 4.57865524291992 4.6521782875061 5.19203281402588 5.52618265151978 5.65667152404785 5.58050346374512 5.68476152420044 5.42466354370117 5.6014838218689 5.75020551681519 5.73479080200195 5.26651668548584 5.37965440750122 5.50276947021484 5.07560539245605 3.59025764465332 3.65611052513123 3.7200026512146 3.38598895072937 2.56175446510315 2.6012921333313 2.30060911178589 2.6432933807373 2.47684478759766 2.67647480964661 2.48355054855347 2.62215137481689 2.54385328292847 2.54437565803528 2.63321805000305 2.71412205696106 2.41259717941284 2.48486042022705 2.89334774017334 3.08843016624451 3.2254376411438 2.88262057304382 0.66302889585495 0.110839009284973 0.113697998225689 0.111933968961239 0.147752493619919 0.137444585561752 1.97948312759399 2.26556968688965 4.4381947517395 5.46031761169434 8.88575267791748 13.5743503570557 4.23931741714478 8.8201732635498 7.93748712539673 5.50930738449097 0.850493729114532 1.35368657112122 2.14732193946838 2.28783178329468 2.9314591884613 2.83108711242676 3.17974948883057 3.26093459129333 3.01081728935242 3.45744824409485 4.12519598007202 4.41568899154663 4.53736019134521 4.94743871688843 5.35155630111694 5.49875211715698 6.09669733047485 6.54977655410767
8.76958751678467 12.3647861480713 23.5032730102539 27.4589805603027 10.1758213043213 1.42241811752319 7.59522104263306 -1.44226443767548 -1.5286180973053 -1.55315244197845 -1.6423864364624 -1.69949340820312 -1.74073016643524 -1.78050196170807 2.45576596260071 5.57174348831177 -1.8961615562439 -2.20344543457031 -1.86107242107391 -0.308454781770706 0.821682095527649 1.38663697242737 2.29320359230042 13.618408203125 3.65851211547852 15.648609161377 0.827741086483002 5.81994104385376 -1.65915811061859 -1.97689950466156 -1.82497346401215 -2.22456407546997 -1.84028136730194 -1.74592566490173 -0.958050012588501 5.31190299987793 7.06046867370605 19.470911026001 5.17290210723877 1.03210747241974 0.305454909801483 8.58810424804688 -2.12793445587158 -1.4517605304718 -0.774255096912384 -0.307067424058914 0.137563109397888 3.54417729377747 -1.21410763263702 -0.413390755653381 3.1417350769043 3.31040167808533 0.772342801094055 26.3100605010986 30.7997798919678 1.55383825302124 2.85088181495667 5.12665891647339 8.37364768981934 37.3262367248535 22.4057846069336 0.917935788631439 2.73533844947815 3.9026038646698 4.03665733337402 3.77919912338257 3.75635600090027 3.14735078811646 1.34352946281433 0.821016848087311 0.80629700422287 0.802716195583344 0.789453387260437 0.792917430400848 0.816643118858337 0.837441623210907 0.861450910568237 1.49923634529114 1.24011385440826 1.26775884628296 1.35036790370941 1.39593911170959 1.72869193553925 1.761225938797 1.04490721225739 1.07880640029907 1.05740451812744 1.36418271064758 1.70122110843658 2.11437702178955 2.18137836456299 1.30408453941345 1.60621225833893 1.66731798648834 1.98334324359894 2.28688263893127 2.39105319976807 2.55166220664978 2.63756203651428 3.35902690887451 5.09032487869263 3.44223642349243 3.34287524223328 3.81435751914978 4.66716384887695 4.77893686294556 5.29459285736084 5.60735321044922 5.79080390930176 5.71500110626221 5.81411409378052 5.93644094467163 5.66004991531372 5.90072727203369 5.88451099395752 5.60023164749146 5.53929901123047 5.66693782806396 5.21946907043457 4.44406270980835 3.75844645500183 3.83777856826782 3.9021942615509 3.56806874275208 3.32486987113953 2.89861083030701 2.76438355445862 2.89130473136902 2.8369038105011 2.6281750202179 2.76796960830688 2.85719132423401 2.67524147033691 2.76392340660095 2.85616374015808 2.99494242668152 2.68578720092773 3.08123373985291 3.21583676338196 3.4749481678009 3.63815426826477 3.24676918983459 0.714229881763458 0.127291351556778 0.226383998990059 0.279674500226974 0.238265722990036 0.900136649608612 2.90670323371887 3.60310363769531 8.73646545410156 13.2473583221436 0.520342409610748 4.25439977645874 11.4223051071167 26.046215057373 16.9873199462891 10.6352634429932 2.78056192398071 3.30025362968445 3.15794968605042 3.27338790893555 3.11322045326233 2.99760055541992 3.40548896789551 3.48849582672119 3.21244478225708 3.72975158691406 4.4339451789856 4.73257827758789 4.85254096984863 5.27961492538452 5.7301197052002 6.40025949478149
6.89841556549072 11.6996803283691 14.1781053543091 20.527473449707 3.84978652000427 -0.0444820262491703 2.43342971801758 1.83979570865631 7.59098863601685 7.43355464935303 1.89570665359497 3.16762685775757 -1.25824761390686 -1.2976667881012 -1.15403413772583 -1.18819618225098 -1.58818697929382 -1.81737673282623 -1.58324527740479 -1.32194006443024 0.957503616809845 2.60571432113647 1.84406650066376 12.3186435699463 3.63110208511353 -1.54855227470398 -1.80211091041565 11.1418437957764 -1.82140898704529 -1.6114045381546 -1.63796257972717 -1.46801424026489 -1.4556782245636 -1.14079451560974 1.05581116676331 0.472750455141068 0.646349668502808 8.87835884094238 -1.67764484882355 -1.956183552742 -1.52961122989655 -2.23872399330139 -2.33291077613831 -1.51488435268402 -1.07658910751343 -0.60492342710495 3.21858501434326 2.12384915351868 0.000115457864012569 6.64645624160767 4.12301921844482 15.1132001876831 28.630033493042 27.3181705474854 2.85389828681946 1.77752876281738 3.66885638237 8.91504955291748 34.2085609436035 1.2681976556778 1.63412833213806 25.2461624145508 5.39590978622437 1.89967060089111 4.77996063232422 4.76697301864624 4.213698387146 3.99627947807312 4.07447242736816 3.48324704170227 0.881130993366241 0.860228002071381 0.861752927303314 0.868177533149719 0.872319281101227 0.907987236976624 0.959127485752106 1.1700975894928 1.54871571063995 1.57437181472778 1.3065470457077 1.38717520236969 1.40535354614258 1.44370782375336 1.78938114643097 1.83619236946106 1.22866404056549 1.22106552124023 0.935067236423492 1.40960001945496 1.77569353580475 2.23667287826538 2.32253003120422 1.37660241127014 1.69606792926788 2.03295707702637 2.13020539283752 2.44168090820312 2.54403686523438 3.15499997138977 2.88261342048645 5.33005475997925 5.62719821929932 3.76001238822937 4.12566947937012 4.26766872406006 4.87067985534668 4.93979120254517 5.52820539474487 5.90969038009644 6.07413530349731 5.98837804794312 6.09662008285522 6.2390570640564 6.05257177352905 6.20383977890015 6.21403884887695 5.7096529006958 5.85824108123779 5.98274326324463 5.5090446472168 4.69134855270386 3.96639609336853 4.05226564407349 4.1535267829895 3.84516310691833 3.53804707527161 3.11605954170227 3.01515030860901 3.02708840370178 3.1869969367981 2.92595314979553 3.03713274002075 3.13153958320618 2.93638372421265 3.06954622268677 3.16950345039368 3.27713990211487 2.96494889259338 3.45471811294556 3.62470197677612 3.94131231307983 4.16046190261841 3.71297359466553 0.774924874305725 0.141733214259148 0.185150682926178 0.248568251729012 0.333574265241623 1.26797819137573 5.61479187011719 5.84032821655273 0.900664746761322 0.829582512378693 2.05508303642273 12.2315092086792 2.21266746520996 2.88694143295288 3.12697339057922 3.81024813652039 4.04841184616089 3.57527375221252 3.42972254753113 3.44489026069641 3.17027163505554 3.3387463092804 3.63877129554749 3.74357032775879 3.44836568832397 3.97043609619141 4.76524639129639 5.07400512695312 5.1578631401062 5.68548488616943
2.22672653198242 7.68052625656128 13.8140964508057 22.6787223815918 19.0195026397705 2.02718424797058 12.3719596862793 2.81739687919617 5.32018089294434 4.651686668396 -0.897407531738281 -0.873146772384644 -1.09278523921967 -1.08611106872559 -1.11233735084534 -0.949069321155548 -0.578108489513397 1.74304163455963 -1.18739712238312 -0.997329831123352 -0.738706409931183 -0.975614309310913 -1.00006294250488 9.66992092132568 8.98703670501709 1.32566690444946 6.72050189971924 -1.49257159233093 -1.66791522502899 -1.32695019245148 -1.41849339008331 -1.16274547576904 -1.13272511959076 -1.01167964935303 -1.21973371505737 -1.1012157201767 1.94855082035065 3.43775534629822 1.31285917758942 -1.44479393959045 -1.63753950595856 -1.73499250411987 -1.3175984621048 -1.46972119808197 -1.31355452537537 -0.242091670632362 0.409801423549652 1.85966122150421 1.0038183927536 5.00183248519897 18.8403358459473 32.0205535888672 20.5472526550293 0.454694807529449 1.68662190437317 1.96880209445953 38.5590286254883 37.6880187988281 4.70960474014282 2.86743211746216 4.99785852432251 10.6012115478516 10.3568410873413 0.98135769367218 3.44780373573303 4.54580450057983 4.97289609909058 4.46958684921265 4.53654956817627 4.47782373428345 3.82048916816711 1.44102454185486 0.982532441616058 0.951710343360901 0.942720592021942 0.992547035217285 1.16491830348969 1.25283169746399 1.25402069091797 1.26870489120483 1.61229610443115 1.38400197029114 1.64630115032196 1.42021250724792 1.42545604705811 1.47847616672516 1.86474931240082 1.13416814804077 1.10558831691742 1.07286369800568 1.09512054920197 1.4685366153717 1.86733388900757 2.36923933029175 2.45594906806946 1.72819137573242 1.81813943386078 2.15454626083374 2.2491934299469 2.79263353347778 3.21715497970581 3.3040759563446 3.82329416275024 5.87944602966309 6.19611597061157 4.18319797515869 4.33446645736694 4.96132230758667 5.09183597564697 5.64608240127563 5.81190729141235 6.22817039489746 6.40396451950073 6.27264928817749 6.38756513595581 6.12119770050049 6.42530965805054 6.60441637039185 6.61324214935303 6.06596708297729 6.22659635543823 6.34255838394165 5.82054567337036 4.96184253692627 4.21219539642334 4.3336935043335 4.0348482131958 3.67139363288879 3.50276970863342 3.51512598991394 3.28975009918213 3.35859513282776 3.49193692207336 3.22248697280884 3.32321047782898 3.15324306488037 3.28972411155701 3.42754077911377 3.50619602203369 3.17843294143677 3.37222027778625 3.92650485038757 4.14396047592163 4.57184219360352 4.14897775650024 3.96706390380859 0.837696075439453 0.194496363401413 0.269641757011414 0.298287570476532 0.341063380241394 2.3845682144165 0.294285088777542 7.7003755569458 5.39736318588257 11.5903749465942 3.4067554473877 3.05290126800537 3.50762701034546 3.8564760684967 4.27191400527954 4.31328964233398 4.45240879058838 4.09739303588867 4.07672500610352 3.98634696006775 3.44618558883667 3.50646805763245 3.91835784912109 3.64635562896729 3.70751094818115 4.98885107040405 5.31396341323853 5.48377847671509
2.90029382705688 3.28552317619324 3.42849254608154 11.5728330612183 5.37884473800659 0.659089207649231 7.87030601501465 0.378380358219147 1.01452255249023 7.11564350128174 -0.458191990852356 -0.755688071250916 -0.738900661468506 -0.779323279857635 -0.975320994853973 -0.770736157894135 -0.428727954626083 -0.143091961741447 -0.537100911140442 -0.422329992055893 -0.248675391077995 -0.422445356845856 0.163227066397667 4.84182691574097 13.8718929290771 -1.00549590587616 -1.25192058086395 -1.38473403453827 -1.13370311260223 1.64170908927917 -1.10100722312927 0.831052720546722 -0.601494371891022 -0.893342912197113 -0.903982639312744 -0.844119310379028 1.63583815097809 -0.713769972324371 -0.53963041305542 -0.759845495223999 -1.0510915517807 -0.792662024497986 -0.904216885566711 -0.76973420381546 -0.17519573867321 -0.236116886138916 1.18492543697357 1.69185638427734 3.02328276634216 1.96556460857391 15.026177406311 14.3588647842407 0.931240975856781 7.75234842300415 37.9004058837891 32.5466194152832 4.02300262451172 1.08903074264526 1.91057670116425 2.10370063781738 2.37162637710571 5.07471609115601 0.847814619541168 39.2650985717773 2.55438351631165 3.69500231742859 2.9785041809082 5.25474977493286 5.4325213432312 4.9112811088562 5.09769487380981 5.24248647689819 4.53300428390503 1.52972233295441 1.11822748184204 1.19249820709229 1.29604482650757 1.72569847106934 1.4284610748291 1.53601336479187 1.68328523635864 1.98480987548828 1.9028867483139 1.47104620933533 1.35521376132965 1.44035089015961 1.49163556098938 1.88075625896454 1.93543612957001 1.10516333580017 1.14682447910309 0.93491917848587 0.976523280143738 1.54216396808624 1.98717772960663 2.5212345123291 2.22676134109497 2.26860451698303 1.90983021259308 2.30222821235657 2.84314894676208 2.91400122642517 3.34422874450684 3.28299760818481 4.15708780288696 6.52829456329346 6.93283796310425 4.58177900314331 4.53064250946045 5.26148176193237 5.38827753067017 5.97559213638306 6.41179847717285 6.5853533744812 6.4250168800354 6.59714555740356 6.77442455291748 6.52535676956177 6.83493328094482 7.0595235824585 7.05760908126831 6.4370436668396 6.60749769210815 6.72661590576172 6.15975427627563 4.38046026229858 4.57518339157104 4.76894235610962 4.50144100189209 4.00040054321289 4.21445178985596 4.1104302406311 3.57893562316895 3.68487763404846 3.82709050178528 3.6286289691925 3.74903154373169 3.51527810096741 3.68285369873047 3.86981678009033 3.94922828674316 3.57780742645264 4.0097279548645 4.55922317504883 5.06584072113037 5.4112811088562 4.73697137832642 0.868132531642914 0.376960217952728 0.195084542036057 0.260718911886215 0.356708556413651 0.510834217071533 1.19400894641876 2.1905529499054 2.43559169769287 3.02041983604431 11.9990358352661 8.54603672027588 4.04321002960205 4.02207231521606 4.39165830612183 4.59596347808838 4.58636569976807 4.67193698883057 4.29378223419189 4.27003335952759 4.17947626113892 3.626380443573 4.10388040542603 4.22760486602783 3.88644194602966 4.45926094055176 5.40515279769897
2.29718518257141 2.34627985954285 4.5322151184082 5.61712646484375 7.62417888641357 17.0150184631348 6.76590156555176 3.24479508399963 7.02834224700928 2.15489220619202 -0.132251977920532 -0.384333997964859 -0.214429959654808 -0.548002958297729 -0.18305504322052 0.142359733581543 0.0255780909210443 0.782658874988556 1.64633858203888 1.8869936466217 1.22944843769073 0.737343430519104 4.48050594329834 5.78069448471069 11.4148406982422 11.8760776519775 -0.342239260673523 0.845205724239349 -0.734362363815308 -0.657446563243866 -0.00450778007507324 -0.484861046075821 -0.649905264377594 -1.06415438652039 -0.0670421198010445 0.268742591142654 -0.541597127914429 -0.541927874088287 -0.328790068626404 -0.224246948957443 -0.363440960645676 0.971950590610504 7.03710317611694 6.4053955078125 1.70317947864532 0.379925072193146 2.36341333389282 1.53930950164795 29.6420021057129 25.0044708251953 3.40306043624878 15.687891960144 36.9966735839844 39.0254554748535 8.06658458709717 0.862742722034454 7.11158275604248 6.2928295135498 8.66658210754395 6.18836784362793 10.8549461364746 14.5975570678711 4.97016906738281 2.00376749038696 1.76397275924683 5.04194211959839 3.98148512840271 4.01447105407715 3.28346967697144 5.87426805496216 5.97945404052734 5.61156797409058 5.98540019989014 6.43486213684082 5.5823073387146 1.42001628875732 1.67577373981476 1.74252510070801 1.82014524936676 1.88414871692657 2.00675821304321 2.0893075466156 1.910924077034 1.63797605037689 1.67259156703949 1.62585926055908 1.44091749191284 1.4730623960495 1.54114329814911 1.96454811096191 2.03443169593811 1.15462839603424 1.82495331764221 1.77420544624329 2.12098026275635 2.35009980201721 2.58027720451355 2.67283272743225 2.30620765686035 2.35380458831787 2.42299461364746 2.61599493026733 2.93576312065125 3.39258766174316 3.99607753753662 3.88227009773254 4.57829093933105 7.43416833877563 4.87543964385986 4.82124948501587 5.73420190811157 6.33185911178589 6.54488945007324 7.25548267364502 6.77409267425537 6.96525573730469 6.82809591293335 7.00098037719727 7.20105934143066 6.97492027282715 7.3098201751709 7.30086898803711 6.88890933990479 6.8289041519165 6.98064804077148 6.41135454177856 5.56044006347656 4.84898805618286 5.12966632843018 5.36244487762451 5.06432390213013 4.57110929489136 4.88920640945435 4.76808977127075 3.97217702865601 4.09397172927856 3.89768266677856 4.09662246704102 4.22374439239502 3.96152353286743 4.18563604354858 4.42477369308472 4.51769399642944 4.32880878448486 5.0392689704895 5.42278051376343 5.98038673400879 6.592200756073 5.93470239639282 0.953904807567596 0.230726480484009 0.323681354522705 0.474602937698364 1.88066232204437 2.67553472518921 2.9848940372467 3.57885432243347 3.62199926376343 3.95523238182068 4.00588464736938 4.34296035766602 4.43890905380249 4.76232719421387 4.76338815689087 4.84944725036621 4.81243848800659 4.73867321014404 4.44395208358765 4.30774688720703 3.83828973770142 3.79847693443298 4.43974494934082 4.60087013244629 4.20604038238525
3.39823007583618 2.98714661598206 2.46219873428345 2.26363921165466 9.61575412750244 12.7296886444092 3.67208909988403 0.672087967395782 1.16479873657227 0.664692223072052 0.560962498188019 0.254001051187515 0.367610216140747 0.268842697143555 0.544945180416107 0.00339880422689021 1.40978479385376 1.52513194084167 1.35466980934143 1.7730473279953 2.50046443939209 2.82815647125244 4.79815578460693 6.24519824981689 12.4257965087891 17.7661571502686 0.341710031032562 0.674082458019257 0.033861193805933 -0.579965233802795 -0.602522313594818 0.293820023536682 0.689799845218658 1.02431774139404 5.28038787841797 8.18778800964355 6.45894145965576 15.5340690612793 1.25344407558441 2.52192068099976 -0.189140751957893 -0.209806978702545 4.64870262145996 10.9188995361328 39.2898941040039 37.6971702575684 26.2040748596191 24.8760623931885 1.88434338569641 2.11319732666016 9.97425746917725 40.3561058044434 4.6270751953125 3.07200789451599 1.27327275276184 13.6239719390869 3.81484436988831 1.6159725189209 10.9154558181763 12.5206890106201 18.8191452026367 8.06622409820557 2.16017699241638 2.13433027267456 6.67938709259033 1.85822653770447 5.40407419204712 5.51856899261475 4.50007057189941 4.23460483551025 3.6682665348053 6.4931812286377 6.78004837036133 6.60031700134277 7.55275201797485 6.55551719665527 1.6871954202652 1.68823564052582 1.91265118122101 1.87296557426453 2.1014621257782 2.15059924125671 1.97306847572327 1.69791531562805 1.646040558815 1.67676639556885 1.35127437114716 1.43514621257782 1.47526824474335 1.51899206638336 1.96194100379944 2.082674741745 2.15249872207642 1.85110569000244 1.88466954231262 2.15644335746765 2.37564420700073 2.42797231674194 2.76388931274414 2.87922644615173 2.38680839538574 2.44402670860291 2.49204683303833 2.97139763832092 3.28875756263733 4.0462327003479 4.1305079460144 4.02514171600342 8.05171585083008 8.77726173400879 5.83788728713989 5.78666114807129 6.95301055908203 7.75049781799316 8.28553581237793 6.71372652053833 7.18440580368042 7.46911954879761 7.24083137512207 7.4462308883667 7.65140247344971 7.56748056411743 7.81426429748535 7.80803346633911 7.09971857070923 7.32477903366089 7.51621961593628 6.99463605880737 6.18412685394287 5.43717813491821 5.75680589675903 5.96943807601929 5.60240936279297 5.41651058197021 5.23683595657349 4.39582443237305 4.37193298339844 4.56975269317627 4.44255447387695 4.68981647491455 4.83284187316895 4.53319454193115 4.85287523269653 4.95370292663574 4.98193216323853 5.19160985946655 6.09249496459961 6.85205793380737 7.7259783744812 6.89909410476685 6.32882261276245 1.07781159877777 1.62512278556824 1.11096715927124 2.31046676635742 3.44500017166138 3.77259731292725 4.05926942825317 4.03146266937256 4.4305214881897 4.50709342956543 4.47105407714844 4.83702707290649 4.92620801925659 4.99462509155273 5.00045919418335 5.08423709869385 5.06363773345947 4.86984586715698 4.6387505531311 4.52803993225098 3.91927003860474 4.01783084869385 4.8552188873291
2.95842289924622 3.55139756202698 3.11769318580627 2.58334875106812 2.649982213974 2.44195318222046 1.63115870952606 1.75395369529724 4.63811159133911 1.53140270709991 1.98737275600433 1.23012590408325 4.41484260559082 9.48233413696289 0.640309691429138 1.40467655658722 1.55886483192444 1.64604246616364 1.89434134960175 1.74647760391235 1.86844325065613 2.5311017036438 3.59766674041748 3.15266036987305 13.1244287490845 20.3485794067383 1.14483213424683 1.25148046016693 1.8433164358139 1.76376783847809 0.932426989078522 1.24053621292114 4.65244770050049 7.55925559997559 4.42097902297974 10.6234636306763 13.21799659729 26.3591747283936 37.642448425293 38.3616333007812 28.6684513092041 25.8160076141357 30.6010208129883 27.631649017334 30.4538688659668 -0.232723340392113 0.606314659118652 5.5770092010498 7.05585145950317 37.5521354675293 2.76192164421082 3.94618487358093 2.13881206512451 2.0701265335083 8.73863697052002 3.54347681999207 1.0960351228714 1.24960589408875 10.4360828399658 17.6987590789795 4.3083028793335 1.60699379444122 1.98011839389801 2.85370469093323 2.5576229095459 2.33382749557495 2.15616631507874 5.13534450531006 6.04151201248169 6.29568481445312 5.33211374282837 4.68780612945557 6.87483549118042 7.45687961578369 7.51660871505737 9.09858417510986 10.2119979858398 8.60101699829102 1.87710499763489 1.87529098987579 2.10273551940918 2.08191847801208 1.90225958824158 1.77377772331238 1.47788047790527 1.20213150978088 1.67882513999939 1.72261250019073 1.37739014625549 1.42089450359344 1.54918968677521 1.61809778213501 2.05681753158569 2.21257543563843 1.75418019294739 1.99832451343536 2.38780403137207 2.24006772041321 2.47840023040771 2.3285551071167 2.96695017814636 3.06725597381592 2.45041823387146 2.50931715965271 2.71156406402588 3.15692663192749 3.40352892875671 4.19310140609741 4.09632778167725 5.5592999458313 9.76302433013916 10.8119316101074 7.12159252166748 7.06147384643555 8.939528465271 9.69951438903809 11.0106029510498 7.08816719055176 7.73178386688232 7.85614633560181 7.68827724456787 7.9153037071228 7.6904149055481 8.13489055633545 8.43121242523193 8.42790794372559 7.66933107376099 8.0199031829834 8.27336120605469 7.69262361526489 6.85789728164673 6.06769227981567 6.32945346832275 6.10176753997803 5.97800302505493 6.51337432861328 6.29641199111938 5.22063064575195 4.90652227401733 5.14971113204956 5.14864301681519 5.30688571929932 4.99658346176147 5.36111736297607 5.73306369781494 5.84560251235962 5.27771282196045 7.32122707366943 8.39549255371094 9.48997688293457 10.6455039978027 9.49828624725342 1.16266870498657 1.67386841773987 2.0192723274231 3.01814103126526 3.54595017433167 3.88411235809326 4.18403911590576 4.26214075088501 4.2370491027832 4.66301012039185 4.63097381591797 4.84834241867065 5.08522748947144 5.15103435516357 5.15442180633545 5.24557495117188 5.23466873168945 5.34733247756958 4.91207456588745 4.88539123535156 4.79273414611816 4.16631460189819
3.07907485961914 3.15127944946289 3.70247912406921 3.7929379940033 3.33810591697693 2.77206635475159 2.84288883209229 2.61028647422791 2.56559705734253 2.32343792915344 1.48379099369049 5.2684383392334 6.02591466903687 3.16728019714355 1.20534729957581 11.7550277709961 15.4418916702271 1.76540565490723 1.93764209747314 2.22866725921631 2.40482378005981 2.48496580123901 2.65837097167969 4.43966197967529 4.94419765472412 4.43007755279541 1.82364118099213 4.31619215011597 3.71062469482422 5.43770980834961 5.99354934692383 7.43647909164429 5.51037836074829 6.96369934082031 10.9787178039551 13.8802442550659 8.87457370758057 23.5307960510254 34.1693344116211 -0.192123606801033 -0.124284684658051 1.449991106987 6.43039417266846 2.12642455101013 3.92358112335205 2.15135526657104 7.91631555557251 40.4156188964844 1.27519476413727 1.37648677825928 2.19021940231323 2.83402752876282 2.1191782951355 4.52197408676147 2.17546725273132 2.16183829307556 1.7002170085907 2.22635293006897 2.62343811988831 1.83162653446198 1.01051127910614 1.70714938640594 2.1591203212738 3.14915823936462 2.86280727386475 2.98280596733093 2.89674186706543 2.41343784332275 5.66213989257812 5.75542163848877 6.89162254333496 6.25378322601318 6.23249578475952 4.51878309249878 8.3077335357666 8.91470432281494 9.40767002105713 12.9400949478149 15.2818288803101 12.6343355178833 2.1009316444397 1.90086054801941 1.77769875526428 1.77595269680023 1.80457258224487 1.25800287723541 1.28137874603271 1.23267269134521 1.73724544048309 1.7903311252594 1.45398306846619 1.52175080776215 1.66634571552277 2.09627556800842 2.27222442626953 2.33605599403381 2.03361797332764 3.19608545303345 2.50167322158813 2.52908778190613 2.58713603019714 2.48186802864075 3.1478066444397 2.4939124584198 2.53648734092712 2.59964656829834 2.93143820762634 3.44779586791992 4.27196884155273 4.38386058807373 4.82022476196289 6.77563190460205 12.2731847763062 8.07087516784668 8.05706691741943 10.2985391616821 11.4590139389038 13.2388257980347 16.2583446502686 7.94331312179565 8.21128177642822 7.82266807556152 8.14779567718506 8.45120143890381 8.29866504669189 8.8230037689209 9.19272041320801 9.26739311218262 8.44299411773682 8.84950160980225 9.12923145294189 8.51577281951904 6.49866724014282 6.90808773040771 7.29330539703369 7.40407609939575 7.38354253768921 8.03626537322998 7.74437046051025 6.45495748519897 5.57319116592407 5.87456464767456 6.06957769393921 6.82644128799438 6.01741123199463 6.55871486663818 7.03296566009521 7.19856023788452 7.92640924453735 10.9132242202759 13.4420824050903 15.1354522705078 16.8822650909424 15.0928354263306 1.9730396270752 2.66408133506775 3.50436782836914 3.64705753326416 3.72854399681091 4.08080768585205 4.39904975891113 4.3932671546936 4.82199287414551 4.92073631286621 4.88705682754517 5.24401140213013 5.34750127792358 5.42574739456177 5.42683219909668 5.52139568328857 5.52917098999023 5.42484712600708 5.09768867492676 4.9658374786377
3.15302443504333 3.2224805355072 3.27537202835083 3.28542804718018 3.96215009689331 4.06612205505371 3.57414293289185 2.96604013442993 3.00566554069519 2.45888257026672 2.62789797782898 2.59778475761414 2.4755175113678 8.50450992584229 9.86445999145508 6.59237670898438 2.1643123626709 1.00358557701111 1.80865120887756 2.06135010719299 2.40893721580505 2.83940172195435 3.15482878684998 3.22476768493652 4.10653781890869 5.61996746063232 6.45460176467896 6.01464128494263 6.819091796875 6.40616703033447 5.54547214508057 7.8784966468811 9.71776485443115 11.0008678436279 9.2849645614624 10.8922891616821 23.6828346252441 34.6638259887695 14.1627740859985 1.17398262023926 10.6207809448242 12.3684997558594 0.617972314357758 1.02510380744934 0.127648904919624 36.1439895629883 0.78372985124588 0.259810924530029 1.16051363945007 1.19538700580597 7.96891307830811 2.34017848968506 2.21701431274414 2.21967124938965 2.26887488365173 2.239173412323 2.26174283027649 2.43496918678284 1.89648580551147 1.2085428237915 1.34063541889191 1.6408988237381 1.90200471878052 2.35626721382141 4.11170721054077 4.32780599594116 9.73430252075195 3.32618546485901 6.56053733825684 6.11933326721191 6.32684278488159 7.59835577011108 8.04310321807861 7.21348667144775 5.96260595321655 5.68820667266846 10.3240203857422 11.0794429779053 12.2229375839233 22.80100440979 32.5200042724609 27.6312217712402 1.86838233470917 1.77644801139832 1.81594431400299 1.82000076770782 1.3592689037323 1.29619812965393 1.24000310897827 1.27653753757477 1.83737456798553 1.92297923564911 1.57241880893707 1.97807705402374 2.04552149772644 2.22322726249695 2.42309999465942 2.97372722625732 3.28016424179077 3.34725284576416 3.22557663917542 2.63698935508728 2.67954444885254 3.27006053924561 3.4030876159668 2.58625960350037 2.63075065612793 2.95289897918701 3.36791467666626 4.08641052246094 4.5760498046875 5.31179141998291 5.91236209869385 14.4107084274292 16.8437213897705 11.0208330154419 10.2483673095703 13.9218502044678 17.2498588562012 23.4777870178223 36.0421562194824 8.43446159362793 8.75215530395508 8.42169284820557 8.76197624206543 9.13242340087891 8.99081802368164 9.64272022247314 9.71772861480713 9.14660930633545 9.40062808990479 9.71269416809082 9.09531879425049 8.30785083770752 7.45566844940186 8.28433418273926 9.09448909759521 9.09909820556641 9.32945251464844 8.97976970672607 7.44990253448486 5.97524261474609 6.08908796310425 6.67791891098022 8.5005464553833 10.6045303344727 7.58624649047852 9.04555702209473 8.51212978363037 8.93968963623047 11.7828235626221 21.0618095397949 31.3392448425293 34.5087471008301 37.6153907775879 34.4116744995117 3.41551995277405 3.83118367195129 4.05186748504639 4.22808313369751 4.21947526931763 4.55681324005127 4.65094518661499 4.63718938827515 5.08713817596436 5.19419431686401 5.66085386276245 5.52943515777588 5.64767789840698 5.72363710403442 5.72733592987061 5.82310199737549 5.87399482727051 5.58877801895142
3.3712260723114 3.53442883491516 3.34890604019165 3.4109046459198 3.49636626243591 3.51418828964233 4.24449682235718 4.34817934036255 3.79850625991821 3.13174223899841 2.83383965492249 2.57342290878296 3.02638483047485 2.34458017349243 2.64159941673279 15.0434694290161 14.8210830688477 1.87519311904907 1.84300863742828 2.13291430473328 2.38589835166931 2.71603488922119 3.16263294219971 3.50063610076904 3.98750877380371 4.29052019119263 5.96615695953369 8.50864505767822 6.60648918151855 8.2833423614502 7.71817493438721 7.38939237594604 9.77576541900635 11.2269439697266 15.3038177490234 18.8054237365723 14.6454944610596 17.9677314758301 0.749265909194946 24.4751739501953 15.5622415542603 2.45967578887939 -0.0613109953701496 37.6521987915039 10.3982887268066 0.121126502752304 7.27762794494629 0.846873044967651 0.890525221824646 0.619079172611237 1.33174049854279 1.42618358135223 1.60270726680756 2.44938540458679 2.27406740188599 2.54449653625488 2.56550979614258 2.54646062850952 2.57615208625793 2.60240292549133 2.11283659934998 1.70912599563599 3.74422788619995 2.38821887969971 2.76173281669617 2.98362970352173 2.66597604751587 2.8874397277832 3.43486452102661 7.09749555587769 7.35938215255737 6.93830251693726 7.30438756942749 9.01739501953125 9.52884483337402 9.75114345550537 7.0950174331665 12.0940504074097 13.4120121002197 15.2260875701904 17.8467769622803 1.41897559165955 0.54857325553894 1.84516632556915 1.74095094203949 1.82806789875031 1.83097147941589 1.887540102005 1.30764138698578 1.35495412349701 1.3011782169342 1.36480236053467 1.97747588157654 1.82842683792114 2.08337640762329 2.08720684051514 2.27812576293945 2.68021655082703 3.08494853973389 3.14060544967651 3.42877054214478 3.29054379463196 3.34366846084595 2.74635076522827 2.74989533424377 3.57484936714172 3.7232620716095 2.68047642707825 3.00134491920471 3.62606811523438 3.92967987060547 4.99669885635376 5.44943618774414 6.6295919418335 10.366003036499 21.1313991546631 24.9690971374512 15.8338823318481 15.1672859191895 25.0627288818359 36.3644828796387 5.99505138397217 8.13652610778809 9.0946626663208 9.48398590087891 9.67101860046387 12.2939367294312 9.83449077606201 12.3266658782959 11.9554510116577 10.3530654907227 9.89182758331299 10.4625244140625 10.8465089797974 10.1666240692139 9.78197765350342 8.39825057983398 10.3206844329834 10.3994026184082 10.9601125717163 12.447057723999 11.6965770721436 9.31840133666992 6.61886596679688 7.15714454650879 8.52558612823486 16.4830017089844 25.7686729431152 14.3792676925659 22.1399784088135 20.7926578521729 21.3704509735107 26.344539642334 5.8375129699707 4.65814542770386 1.66072690486908 4.73063278198242 36.281623840332 4.42313003540039 4.24841594696045 4.45404148101807 4.45587682723999 4.71755504608154 5.22567987442017 5.33021450042725 5.54972839355469 5.62670755386353 5.82663249969482 5.93070697784424 5.84742116928101 5.93173027038574 5.92879724502563 6.06791067123413 6.09842824935913
2.88270163536072 2.70850682258606 3.85558342933655 4.07444143295288 3.57001781463623 3.64423942565918 3.73222494125366 3.74536609649658 4.5295295715332 3.95006465911865 3.44074773788452 3.29492926597595 3.02356696128845 3.43549609184265 3.3785662651062 2.37036633491516 2.6451199054718 1.30828726291656 2.23474788665771 2.22150659561157 2.52508521080017 2.87963008880615 3.02849197387695 3.74581456184387 4.59924173355103 5.42018747329712 6.05340671539307 6.11492204666138 10.409779548645 11.9827213287354 10.0724201202393 11.5129804611206 10.7400922775269 9.53605079650879 14.9862575531006 18.3755340576172 29.3316516876221 41.6473426818848 21.836311340332 18.8927516937256 1.63155424594879 36.3867416381836 0.515183568000793 1.97522044181824 3.21928262710571 4.64226770401001 1.80289936065674 0.147970169782639 0.449718326330185 1.19204497337341 0.763306736946106 1.54376840591431 1.63121008872986 1.7787172794342 2.47222423553467 2.53357410430908 3.16528391838074 3.31567907333374 4.31881618499756 3.47099494934082 8.94721221923828 17.9334125518799 3.37142109870911 2.33899974822998 2.56324863433838 2.99562811851501 3.85715007781982 3.11170315742493 3.53059601783752 3.50456714630127 4.86731910705566 8.04116153717041 7.73290920257568 8.21018981933594 8.75739860534668 12.0033159255981 14.4399452209473 14.3302412033081 12.4759855270386 16.7053623199463 16.2168045043945 21.6847171783447 36.0884132385254 29.8158340454102 1.89787900447845 1.79285573959351 1.83601379394531 1.88732051849365 1.91171383857727 1.9840886592865 1.38029193878174 2.13754224777222 2.41481375694275 2.03464913368225 2.12606048583984 2.12311959266663 2.17880988121033 2.50363636016846 2.73679327964783 2.82063841819763 3.20564317703247 3.48923444747925 3.55758023262024 3.73040795326233 3.38148808479309 2.83949208259583 2.98728489875793 3.94570112228394 4.15365171432495 2.81036853790283 3.66834187507629 4.09632635116577 4.58769798278809 6.27311420440674 8.19426727294922 9.02804088592529 13.8719367980957 35.5613975524902 48.0063667297363 33.6545829772949 32.5800552368164 5.21157646179199 7.62839698791504 8.42989349365234 8.78182792663574 9.94000339508057 9.97855091094971 17.4831581115723 27.9883327484131 9.63594722747803 10.6339454650879 12.0526895523071 12.234076499939 11.0744619369507 11.833345413208 12.1908493041992 11.3088254928589 10.5152082443237 11.8285388946533 13.6817111968994 13.2809505462646 14.5161285400391 17.4645481109619 16.7527198791504 13.9182176589966 11.0222129821777 13.6917562484741 22.1879577636719 5.68208456039429 11.6163635253906 7.9802451133728 9.82960414886475 9.9857006072998 5.91365814208984 1.10147297382355 1.67696487903595 2.12127757072449 2.68537998199463 3.32427287101746 4.55875015258789 4.65961313247681 4.58576202392578 4.84657621383667 5.34805297851562 5.72427225112915 5.62030696868896 5.71839094161987 5.81186485290527 5.89302778244019 6.11288690567017 6.06391191482544 6.20111799240112 6.29066944122314 6.31409978866577
1.92963171005249 3.14127087593079 3.31495976448059 2.88743948936462 4.49808216094971 3.71493864059448 3.80546140670776 3.87960457801819 3.97115588188171 4.71626615524292 4.82783603668213 4.2101674079895 4.14696788787842 3.53382253646851 3.19028377532959 3.7904839515686 3.79190826416016 2.90952134132385 2.90871977806091 2.77746248245239 2.6284339427948 2.90154838562012 3.2361171245575 3.81106638908386 4.36803245544434 5.5186562538147 6.14785766601562 7.27045059204102 7.26709890365601 9.65163230895996 15.646538734436 19.1219062805176 15.0756225585938 18.5893516540527 17.4334087371826 15.5109243392944 28.4899768829346 40.6094970703125 -0.0323752276599407 38.8261070251465 -0.105120733380318 1.18487441539764 2.87294173240662 2.94926285743713 3.20566463470459 3.53725290298462 1.61760902404785 2.45298051834106 0.278042078018188 1.08333933353424 2.22116208076477 1.53834581375122 1.13704538345337 1.81572806835175 1.95027041435242 2.19784188270569 3.07924056053162 3.10668468475342 3.39463901519775 4.45702266693115 4.4196891784668 4.88589429855347 2.94263410568237 2.39529752731323 2.6843204498291 6.9488263130188 10.3909378051758 9.06906795501709 3.12152719497681 2.98693656921387 3.41771197319031 5.00429344177246 8.83972454071045 9.2996768951416 10.1792221069336 11.9426336288452 13.0070877075195 21.731538772583 30.7073040008545 21.5203475952148 10.0103940963745 20.4976177215576 38.804630279541 1.00862503051758 6.52330207824707 1.67342102527618 1.75845873355865 1.84578907489777 1.91171395778656 1.99504804611206 2.03602766990662 2.31241869926453 2.41118502616882 2.46750450134277 2.53039908409119 2.24694633483887 2.29047226905823 2.23418235778809 2.54027271270752 2.64589428901672 3.0038013458252 3.24385571479797 3.36090064048767 3.70428538322449 3.79369521141052 3.86940503120422 2.91079378128052 2.95434999465942 3.26995801925659 4.35116004943848 3.35554504394531 3.28926157951355 3.82422685623169 5.30211400985718 7.7752161026001 8.29467582702637 10.210036277771 12.6801042556763 23.3615474700928 2.98701953887939 4.23546504974365 4.54623889923096 6.56659173965454 7.94454860687256 8.31575012207031 9.14283466339111 10.3772277832031 10.8457193374634 14.5584936141968 9.00175380706787 11.1158714294434 11.6232318878174 12.8500881195068 13.6713190078735 13.7835206985474 12.4773082733154 20.2190189361572 13.6833200454712 14.2317037582397 10.0381212234497 15.7550172805786 18.9002532958984 18.555269241333 25.0894355773926 37.7260284423828 37.8402099609375 25.0872116088867 9.61526203155518 8.01506519317627 13.9775667190552 26.5523147583008 27.9136619567871 30.3136024475098 31.9046974182129 19.529224395752 14.8369789123535 8.53172874450684 3.14087510108948 3.86767315864563 4.70916557312012 4.81235218048096 4.80869197845459 5.16884088516235 5.35266351699829 5.55349016189575 5.89110040664673 5.99882745742798 5.88370275497437 5.98670530319214 6.07807016372681 6.31405591964722 6.43201112747192 6.43787956237793 6.59965896606445
1.7919921875 2.00195288658142 2.07249617576599 3.64137125015259 2.99724316596985 4.97515964508057 5.33437252044678 3.95710110664368 4.05326700210571 4.12541484832764 4.58777713775635 5.07739162445068 5.22908353805542 4.89022064208984 3.73351812362671 3.74028158187866 3.25834846496582 4.49867296218872 2.96440887451172 2.97997999191284 3.08599424362183 3.22843718528748 3.15311908721924 3.70292782783508 4.54994344711304 5.20115375518799 5.54651880264282 7.33029222488403 8.85148048400879 10.242449760437 10.171365737915 14.4264831542969 29.5494937896729 42.0388412475586 28.7372436523438 41.0285987854004 39.0315170288086 35.6515960693359 0.182829618453979 0.0836876332759857 2.43932795524597 4.37509727478027 2.51041054725647 3.55328488349915 5.24311971664429 7.16045236587524 0.112253047525883 0.0060676415450871 0.426058977842331 0.564494848251343 3.43495774269104 0.984624147415161 5.31244659423828 1.61811244487762 1.88191843032837 2.13402032852173 2.47407031059265 5.09892559051514 7.52239561080933 12.0715351104736 3.85345959663391 3.69060373306274 5.01551055908203 10.8420152664185 8.1035270690918 15.3917837142944 17.6213703155518 2.84805727005005 3.02592420578003 3.24693393707275 6.27312421798706 6.34680128097534 5.18794536590576 5.96994829177856 10.5437450408936 11.8248844146729 18.2365055084229 25.920093536377 14.5560007095337 9.71374034881592 2.72140622138977 7.35181713104248 7.88675308227539 8.29251766204834 18.6866054534912 1.31097328662872 3.85332632064819 1.6446179151535 1.88480651378632 1.90293633937836 2.47522735595703 2.42120313644409 2.69939017295837 2.58305072784424 2.50781846046448 2.56964325904846 2.28418684005737 2.65267300605774 3.2118866443634 3.69794201850891 3.87142491340637 3.5712742805481 3.34744763374329 3.72795391082764 3.77255249023438 3.96971988677979 3.92736792564392 3.6493079662323 3.00168061256409 3.4272301197052 4.60932397842407 4.94574069976807 3.49778008460999 4.32256078720093 6.50169610977173 6.84883594512939 9.3845796585083 10.9827632904053 16.5996589660645 10.9044809341431 4.14247274398804 4.90423774719238 6.41090154647827 6.72678804397583 7.09970760345459 8.63429546356201 8.72822856903076 9.87517261505127 11.5497827529907 11.2575197219849 11.341456413269 12.432201385498 13.2875556945801 13.0556402206421 14.4890966415405 19.4131622314453 33.2759284973145 12.5476913452148 14.5301303863525 16.6361122131348 20.0170974731445 11.1140041351318 26.1421489715576 39.066291809082 40.1538352966309 4.09158515930176 3.31847167015076 3.95847773551941 8.96609401702881 12.6770677566528 22.2676086425781 15.1387100219727 16.5167751312256 4.51377058029175 2.982013463974 3.29544401168823 9.71329975128174 2.82588839530945 3.27092814445496 4.63763284683228 4.73153972625732 4.94711780548096 4.9466290473938 5.31911182403564 5.50716876983643 5.71295499801636 5.81451034545898 6.17930030822754 6.06575298309326 6.18493890762329 6.30956840515137 6.39520931243896 6.63887119293213 6.77919816970825
1.65282595157623 1.70262694358826 1.87028086185455 2.1768000125885 4.04488563537598 4.32516527175903 3.19434523582458 5.99718284606934 6.51755332946777 4.22334051132202 4.31555700302124 4.43385410308838 5.84846115112305 5.54126358032227 5.90321159362793 6.48268556594849 3.99839925765991 3.8101966381073 5.17106962203979 5.0998797416687 3.29313015937805 3.13893580436707 3.41982054710388 3.86780691146851 4.42376756668091 5.41409921646118 6.09885120391846 6.66718769073486 8.90614414215088 10.3043880462646 13.3539361953735 16.435417175293 16.50315284729 27.7871150970459 0.0944235548377037 39.0469169616699 0.941033184528351 3.50607752799988 10.8378601074219 0.531965494155884 0.186818137764931 0.141405612230301 3.31216406822205 10.2407236099243 5.50504064559937 0.063664972782135 0.465301752090454 0.50307434797287 0.124460242688656 4.54309225082397 2.12053966522217 3.34451770782471 1.71822440624237 1.25121760368347 1.67708170413971 4.66875219345093 8.36436939239502 3.52696514129639 8.2233829498291 6.67384719848633 3.72403287887573 4.25841379165649 3.98154020309448 4.89934206008911 3.47780084609985 3.40209221839905 3.21449255943298 2.86011648178101 2.92562961578369 2.99397420883179 3.39816403388977 3.75189256668091 3.60967516899109 5.12860298156738 6.00801181793213 6.94546699523926 15.0142278671265 17.5077171325684 8.50486850738525 19.2091655731201 31.4299430847168 39.7290344238281 19.715669631958 28.3822288513184 23.6385879516602 0.71625280380249 32.1540756225586 4.34614992141724 4.30068445205688 1.91247141361237 2.21353530883789 2.57279086112976 2.80153727531433 2.73277688026428 2.78613686561584 2.85896396636963 2.89186429977417 3.08149671554565 3.58043670654297 3.76576137542725 3.79714274406433 3.91337919235229 3.98952555656433 3.72472214698792 3.79627156257629 3.85720801353455 4.01385402679443 4.08733940124512 4.07371616363525 3.67801380157471 3.10597729682922 3.81563115119934 5.47398853302002 6.3048038482666 5.15801382064819 5.88175678253174 7.68553495407104 8.84505844116211 15.2537975311279 21.20432472229 4.12448644638062 4.38913297653198 6.42890119552612 6.7270679473877 6.96081686019897 7.24513912200928 8.97720336914062 9.41098213195801 10.3676023483276 10.7745151519775 12.7780275344849 13.534839630127 12.6306257247925 13.9862298965454 13.9541854858398 15.3562965393066 16.8921432495117 13.4043655395508 14.850736618042 15.6487064361572 16.3830966949463 27.4988975524902 39.9564399719238 21.2492256164551 6.96956396102905 5.71648979187012 4.57110548019409 4.94827938079834 14.6918458938599 20.5917453765869 10.7405815124512 9.66604709625244 1.62426781654358 2.19157195091248 2.7513964176178 2.11620497703552 2.28220915794373 1.72036683559418 3.90181446075439 4.22430038452148 10.0467519760132 4.86038446426392 5.24331998825073 6.5486159324646 8.42769050598145 13.0977802276611 5.76865339279175 5.9841194152832 6.37678813934326 6.50705862045288 6.39066076278687 6.52060985565186 6.65019845962524 6.76920366287231
1.92952978610992 1.65100073814392 1.74311494827271 1.93050765991211 1.9774169921875 2.37104296684265 4.92384386062622 5.31236505508423 3.41525888442993 7.57781744003296 4.41680812835693 4.54106664657593 4.67469882965088 7.0554256439209 8.00386047363281 6.06027412414551 8.2635498046875 8.97799396514893 4.12108135223389 3.97226428985596 6.5318775177002 7.41062688827515 5.15606355667114 8.98888301849365 4.82236480712891 5.12120676040649 5.8839635848999 7.321373462677 8.05842590332031 9.35263061523438 13.5230312347412 16.6883316040039 25.8796520233154 37.6150360107422 36.7915077209473 0.366891741752625 0.312144756317139 0.123648881912231 3.16327428817749 0.0448529236018658 0.419891744852066 0.789223432540894 0.925358593463898 0.750665366649628 3.17897009849548 0.103782072663307 1.66382086277008 1.16608798503876 2.24037432670593 1.84923708438873 0.414778411388397 6.68743276596069 1.02497780323029 0.992587625980377 1.78620660305023 4.14976739883423 2.98330926895142 1.93212521076202 8.17365169525146 5.90432262420654 2.92920398712158 5.44152688980103 8.48736000061035 8.810378074646 6.25996971130371 7.88129663467407 4.31844329833984 3.48201084136963 3.34899806976318 3.17900609970093 6.63927745819092 3.33367443084717 5.14553594589233 4.05399084091187 5.30958461761475 5.37608623504639 7.26244354248047 15.1732521057129 26.3186340332031 18.803108215332 34.5218315124512 35.5635414123535 1.40129923820496 21.4240131378174 1.1003839969635 1.93750309944153 3.53032422065735 1.11085951328278 4.57706832885742 4.88390159606934 4.87094783782959 2.33868384361267 2.61378121376038 2.83750700950623 2.95916152000427 3.24837493896484 3.00204920768738 3.16699385643005 3.4812536239624 3.75109052658081 3.79466438293457 3.88428664207458 4.02115917205811 4.04313945770264 4.17509651184082 3.96736192703247 3.92338562011719 3.96359610557556 4.16839218139648 4.13781261444092 4.20767736434937 3.15307688713074 3.29713249206543 5.18954420089722 7.52095079421997 3.78013157844543 5.77997398376465 8.20080471038818 11.9391374588013 16.689661026001 4.50423717498779 4.8620138168335 5.79950571060181 6.07598257064819 6.9825005531311 7.26982688903809 7.49328804016113 7.79761981964111 9.91158294677734 10.3819665908813 11.3511085510254 11.9470653533936 14.4017677307129 13.2991218566895 14.6031875610352 15.9668407440186 16.39284324646 18.2970123291016 19.8074131011963 20.3049755096436 30.8111915588379 20.9643821716309 27.5185432434082 11.651237487793 11.9786987304688 17.7357501983643 18.5995864868164 16.9760818481445 16.5392761230469 7.0019383430481 7.14332342147827 14.5844135284424 17.4921016693115 16.5929374694824 1.27027559280396 2.95016503334045 3.30482077598572 6.12326908111572 0.892785668373108 9.29511260986328 9.48966884613037 12.7823343276978 15.9087982177734 5.12231111526489 10.2541265487671 15.8620309829712 5.31909036636353 5.94484281539917 6.17984342575073 6.30628967285156 6.72598171234131 6.86565637588501 6.74442052841187 6.87770366668701
5.30875825881958 2.1182336807251 1.65371692180634 1.78485441207886 1.82449078559875 2.02681088447571 2.1419460773468 2.56890225410461 6.22939157485962 3.58532762527466 9.14403533935547 10.431022644043 4.79575872421265 4.92744541168213 5.08040332794189 10.2870254516602 12.2086095809937 6.49152517318726 12.2921924591064 16.8251285552979 5.87388038635254 7.81679630279541 11.7886991500854 19.2881851196289 3.19733905792236 4.58439874649048 5.61438751220703 6.58043193817139 8.85914134979248 10.2560501098633 12.2011795043945 15.0931520462036 25.8754367828369 37.6914138793945 3.37823987007141 2.14940524101257 7.09021186828613 0.336609214544296 0.320167809724808 0.251993149518967 0.126274883747101 7.65757846832275 0.796672999858856 1.22783756256104 0.9986372590065 1.44143116474152 2.0106029510498 2.08550500869751 2.78030967712402 3.54432201385498 11.2108001708984 11.4853610992432 1.98363769054413 1.32801878452301 2.48171591758728 6.21971035003662 1.74300098419189 4.38596248626709 13.9623594284058 3.82600164413452 3.31241869926453 4.73531723022461 5.61710691452026 9.82533550262451 19.3620758056641 12.6401519775391 4.09730958938599 3.66796255111694 4.5944037437439 4.36543321609497 9.66879272460938 3.55603313446045 5.53305101394653 3.55965375900269 3.92292141914368 5.68273210525513 5.58493757247925 8.66528701782227 9.93539619445801 20.9819622039795 10.1525096893311 10.3179197311401 6.4515528678894 24.134651184082 2.79220914840698 3.98148775100708 3.78820657730103 3.54953908920288 3.96240711212158 4.59606027603149 5.28215551376343 5.28803968429565 2.56958913803101 2.625155210495 2.82570457458496 2.99629974365234 3.28466129302979 3.42894220352173 3.87140870094299 3.51316380500793 3.97389626502991 3.86823582649231 4.06015682220459 4.1034836769104 4.2053050994873 4.24485778808594 4.33947992324829 4.12283277511597 4.09133100509644 4.24301242828369 4.3151683807373 4.31472063064575 4.07381296157837 3.97312378883362 6.2682318687439 8.56512451171875 9.09954643249512 4.20089769363403 8.58849811553955 3.8707971572876 3.52339792251587 4.25761079788208 6.10125350952148 6.37397050857544 6.32963562011719 6.64926338195801 7.59175062179565 7.82647323608398 8.22657108306885 8.56706142425537 11.0251417160034 11.6271018981934 12.5343141555786 15.2846879959106 16.4011402130127 15.2979946136475 19.2992992401123 17.9000015258789 19.6110782623291 22.294828414917 22.3726043701172 15.5585432052612 19.7363872528076 17.7664432525635 24.0394058227539 31.4019470214844 30.9123420715332 31.0259017944336 30.791223526001 32.5767211914062 31.628927230835 25.7720737457275 14.4273338317871 12.6060848236084 1.9593905210495 9.11891841888428 2.0432186126709 3.64092636108398 3.13816046714783 12.552300453186 15.6759433746338 19.3556365966797 14.2264089584351 24.3483982086182 35.6126861572266 11.9844102859497 5.08981370925903 12.6743307113647 6.0621132850647 6.28722095489502 6.52191734313965 6.65573930740356 7.10804462432861 6.97041797637939
7.3261866569519 6.15135478973389 2.33713054656982 2.50767183303833 2.02772188186646 1.88627946376801 1.9249655008316 2.12139964103699 2.52032327651978 7.33149385452271 8.3582239151001 3.83284616470337 13.2440128326416 16.3292427062988 5.19125127792358 5.36457109451294 5.50544881820679 16.9167518615723 22.9135456085205 6.89265727996826 4.3963189125061 4.29701995849609 4.11138010025024 2.91189527511597 1.36164474487305 4.08405923843384 5.98481559753418 6.99731349945068 8.03106689453125 8.74423694610596 13.3334913253784 16.4337158203125 23.5295543670654 34.8976936340332 3.13713049888611 7.149254322052 9.64873027801514 0.526564538478851 3.8039026260376 0.369335800409317 1.23257410526276 9.09181690216064 1.0305507183075 1.24368715286255 1.11279499530792 1.40577471256256 1.80964362621307 2.19949984550476 2.40062165260315 12.7846450805664 15.2126779556274 1.22019052505493 1.18806314468384 10.624960899353 2.55312609672546 1.74138641357422 1.6806914806366 2.60198211669922 11.0919952392578 1.75290858745575 2.95547771453857 6.32653427124023 5.88149261474609 8.04306793212891 12.7030630111694 3.29633808135986 3.13150238990784 4.65224266052246 11.5073184967041 4.86502313613892 5.21055507659912 4.81806468963623 4.26760768890381 5.23658752441406 3.62863039970398 5.03743314743042 9.08976364135742 5.97578239440918 6.65545558929443 11.5270071029663 12.9280824661255 26.6163349151611 26.0014133453369 2.42329168319702 3.09347176551819 3.66512060165405 4.20433521270752 4.3729681968689 4.70251035690308 4.35393381118774 5.03429174423218 5.79470252990723 6.2821192741394 6.23607969284058 2.71097850799561 3.09432792663574 3.16450500488281 3.50556945800781 3.46895670890808 3.93470478057861 4.07229328155518 4.02194786071777 4.0970287322998 4.13278388977051 4.21268033981323 4.2859206199646 4.38040971755981 4.43378114700317 4.22109460830688 4.17821884155273 4.61079597473145 5.01755237579346 4.53409385681152 4.57647228240967 4.3694920539856 6.07725667953491 8.63702392578125 11.049861907959 12.5061569213867 3.74810981750488 3.88496971130371 4.07678842544556 4.83527135848999 5.19353199005127 6.66065549850464 6.9511661529541 6.95117616653442 7.97540950775146 8.36162567138672 8.64743614196777 9.03381443023682 9.4174690246582 12.3351802825928 12.6211748123169 14.3468065261841 17.0758609771729 19.5172214508057 16.7651405334473 21.1142272949219 20.1662559509277 25.6557197570801 26.0813617706299 23.7202377319336 30.4037570953369 32.4618263244629 28.6170654296875 23.0300788879395 20.7703227996826 23.6467914581299 31.9675559997559 33.0455093383789 28.8503017425537 4.59574222564697 12.9135284423828 3.30875682830811 17.3163280487061 1.78244364261627 4.13318967819214 7.35546970367432 15.3588247299194 20.6519336700439 23.0409641265869 29.1267757415771 41.464729309082 32.2787208557129 4.44139623641968 5.13319778442383 13.1572885513306 5.53958797454834 6.07479476928711 6.42418909072876 6.64124584197998 6.88327789306641 7.36454677581787
8.59173107147217 8.36186981201172 6.73252105712891 6.90105772018433 2.80957436561584 3.08049297332764 1.93560421466827 1.98361778259277 2.19334626197815 2.45027542114258 2.9391872882843 10.777663230896 13.2063894271851 4.17019462585449 24.8399410247803 35.9993858337402 5.46298408508301 5.63814878463745 5.78803396224976 3.90223145484924 7.69151163101196 7.77882051467896 6.45514965057373 5.16558122634888 5.03062152862549 4.69284152984619 4.56589078903198 5.37409639358521 8.21805953979492 9.33546447753906 10.5672149658203 13.0457782745361 25.5517387390137 37.4977836608887 6.79746246337891 10.0488262176514 0.399000763893127 0.153098285198212 0.755467772483826 0.470506221055984 2.94220972061157 2.83477187156677 1.34173965454102 0.806138217449188 2.71817946434021 2.31615042686462 2.88220858573914 8.66854763031006 4.36920213699341 2.44836711883545 7.66689014434814 2.18433117866516 2.12846088409424 1.96109735965729 2.32016849517822 4.38539123535156 6.55936908721924 3.20958590507507 1.75007653236389 1.7165709733963 7.94393110275269 3.40491509437561 4.01146745681763 8.7077054977417 13.467661857605 2.43214344978333 4.18645620346069 6.41397571563721 14.5085248947144 4.70637845993042 5.06484842300415 5.87173318862915 5.7027792930603 5.545738697052 5.41379404067993 12.8593549728394 3.69229197502136 11.6313104629517 13.4421768188477 6.1979284286499 7.86270093917847 16.5728416442871 16.3115634918213 2.7510507106781 5.06139469146729 4.86667776107788 6.83893585205078 4.46547651290894 4.64792156219482 5.23975658416748 5.74238920211792 5.33001804351807 6.07803249359131 6.96016263961792 7.6187219619751 7.42731046676636 3.11988139152527 3.19592213630676 3.66024708747864 3.60929822921753 3.87258219718933 4.13270044326782 4.2179012298584 4.16838359832764 4.18522644042969 4.29339218139648 4.35726070404053 4.47337198257446 4.54170322418213 4.63445711135864 4.39178228378296 4.37099599838257 5.74480772018433 4.66267251968384 4.78977012634277 4.87254238128662 4.53818273544312 10.1067981719971 14.1513690948486 20.1364212036133 23.6355285644531 3.68512630462646 4.68006229400635 4.82703113555908 5.40264129638672 5.72350978851318 7.27063894271851 7.55175161361694 7.6888165473938 8.76932525634766 9.14577770233154 9.52158164978027 9.92990207672119 13.2318811416626 14.1649122238159 15.1342716217041 16.1186218261719 21.3349933624268 18.5375213623047 21.0202159881592 27.2286052703857 31.3569850921631 40.3773307800293 34.8339920043945 25.5366287231445 24.2671642303467 22.9547500610352 25.6270771026611 28.4815845489502 27.4915523529053 1.61176550388336 2.16280484199524 2.97725367546082 16.798397064209 15.956690788269 3.66643142700195 4.78716850280762 4.59961748123169 13.793830871582 34.0088729858398 23.4793109893799 35.120906829834 43.5342102050781 46.4455909729004 2.33631443977356 10.2430973052979 3.74242305755615 5.15699863433838 5.41176605224609 6.04884386062622 6.43023252487183 6.64172744750977 6.87395286560059 7.1309289932251
8.95872020721436 9.55830860137939 9.13474464416504 9.51429080963135 7.97738742828369 8.49711227416992 3.58144497871399 3.21555471420288 2.11624932289124 2.11244773864746 2.31547522544861 2.70349216461182 3.2614963054657 20.529447555542 29.7712879180908 4.32008981704712 2.74364018440247 5.90056324005127 6.12013101577759 6.16541767120361 6.26398658752441 7.65073490142822 8.16527557373047 6.85191583633423 5.62063789367676 6.03711462020874 6.29883003234863 6.09542083740234 6.44741249084473 10.0051221847534 11.8568811416626 12.9169569015503 16.7207698822021 25.7373218536377 4.4596095085144 4.0976996421814 0.467471539974213 0.460165500640869 2.70019745826721 1.17688286304474 8.86532497406006 5.71191692352295 1.17708873748779 2.03540229797363 3.12194418907166 8.60791492462158 10.2856407165527 3.51161956787109 2.5292751789093 2.578449010849 2.60673952102661 3.35363006591797 2.66509199142456 3.76110863685608 2.40394973754883 7.21407699584961 9.01380634307861 12.6826696395874 18.4862747192383 5.89596939086914 3.64835715293884 1.7787606716156 2.8886251449585 4.65760374069214 6.88159465789795 2.15631127357483 10.4087762832642 12.3903141021729 13.6120176315308 3.98304724693298 4.77153253555298 5.3899998664856 6.83174467086792 6.0556788444519 6.40980386734009 5.99988031387329 4.40730905532837 3.81414532661438 6.75678873062134 19.8900680541992 26.9224624633789 6.08553552627563 9.71000194549561 5.1562671661377 4.8368616104126 22.4815483093262 5.07037258148193 4.86046648025513 4.26476812362671 4.93455457687378 5.20217990875244 6.58003425598145 6.10028982162476 6.66556978225708 7.53780937194824 8.59189701080322 8.46218490600586 3.74429845809937 3.92373442649841 4.23117542266846 3.78778219223022 4.01918315887451 4.13794946670532 4.29783487319946 4.26406955718994 4.3352952003479 4.38702917098999 4.49251270294189 4.58357191085815 4.68857336044312 4.76185321807861 4.85013961791992 4.61328744888306 6.68135118484497 7.7143816947937 5.03465795516968 5.30706596374512 5.23330783843994 4.22351121902466 3.3276059627533 2.94825983047485 2.87062883377075 4.27059364318848 4.29817771911621 5.00329828262329 4.99373769760132 6.09839916229248 7.66532564163208 8.10234069824219 7.92036437988281 8.45852947235107 9.67146778106689 10.1180620193481 10.6464824676514 11.2616510391235 15.5645055770874 16.6956100463867 17.5388050079346 24.1623992919922 27.1755599975586 27.6863212585449 33.3992538452148 40.6244430541992 34.9315376281738 34.3584594726562 38.6907997131348 35.4330978393555 22.7726287841797 40.016902923584 36.1973686218262 26.043025970459 4.63045501708984 3.27599000930786 5.36497497558594 4.25503826141357 6.47022008895874 6.67562246322632 20.5393657684326 21.8246459960938 40.0934295654297 9.36076736450195 36.7982177734375 15.6907424926758 11.5352277755737 0.4629065990448 2.23436331748962 3.26974248886108 4.55708456039429 11.9660415649414 5.96619129180908 6.12015771865845 6.68526983261108 6.87742185592651 7.06289768218994
9.02604579925537 9.77044486999512 10.9883842468262 11.0841856002808 10.7816247940063 11.6408939361572 9.84322929382324 4.20917701721191 4.82403945922852 4.93359422683716 2.95304560661316 4.07694149017334 2.61706876754761 2.82718062400818 3.35753774642944 1.14681947231293 4.64841985702515 4.82718753814697 5.95969724655151 6.263352394104 6.46514225006104 6.5977988243103 8.76085186004639 9.67736148834229 11.0845975875854 7.9169020652771 6.8068470954895 7.71820163726807 7.34022283554077 7.9679217338562 9.63063430786133 15.1668577194214 18.9613094329834 20.5330657958984 14.5857763290405 8.45934581756592 1.16183686256409 1.57231736183167 1.0534942150116 2.48401641845703 3.78381061553955 3.81781959533691 3.23476386070251 5.14018392562866 1.49052011966705 7.24840784072876 3.4385073184967 1.15429306030273 2.21735596656799 3.10505986213684 2.65471792221069 2.72801899909973 2.65533256530762 2.95620703697205 3.36630940437317 11.3884515762329 12.4072179794312 2.71996402740479 2.28490471839905 2.18696355819702 1.97720921039581 1.90835392475128 2.55201411247253 2.28709030151367 2.44711995124817 7.12414026260376 13.7909870147705 2.51689195632935 4.65308427810669 2.78269481658936 4.14638328552246 4.30388355255127 6.59949922561646 6.38951778411865 7.09339666366577 7.44322633743286 8.92767715454102 4.86155557632446 9.86154460906982 19.9970779418945 6.12353992462158 5.2333288192749 6.34659862518311 6.15019702911377 5.64866399765015 6.66044998168945 4.9088568687439 5.70829248428345 5.86750841140747 5.39465856552124 4.86927366256714 5.58960390090942 7.75508213043213 8.93045234680176 8.13495922088623 8.89741516113281 10.0185432434082 11.3086776733398 11.1415758132935 4.0132360458374 4.31961250305176 4.39898920059204 4.10441589355469 4.18291664123535 4.39847755432129 4.49753761291504 4.45666122436523 4.56773233413696 4.62148857116699 4.73428392410278 4.80173397064209 4.90611553192139 5.04985380172729 4.97224569320679 6.64483642578125 10.11048412323 13.0862255096436 7.86676740646362 10.915057182312 5.01809549331665 4.59816122055054 4.74457406997681 4.02486181259155 4.49275636672974 4.739501953125 5.2058892250061 5.39406490325928 5.74516201019287 6.92362213134766 8.72633266448975 9.26705932617188 8.73142623901367 9.47095584869385 10.8716192245483 11.4960746765137 12.208291053772 12.9591760635376 18.0818347930908 18.7434749603271 21.3187007904053 31.9133338928223 36.5250015258789 42.2768096923828 40.8407783508301 29.1997756958008 13.0272283554077 4.14221334457397 0.31820872426033 18.765438079834 1.8778692483902 -3.96071934700012 -3.47032833099365 0.91410768032074 3.38238668441772 6.48479032516479 7.7340030670166 8.78989028930664 12.2256317138672 8.22467231750488 9.73907566070557 5.06840467453003 6.56264209747314 12.9134187698364 6.50554990768433 -0.311129957437515 0.380441844463348 1.24773633480072 3.62575697898865 5.3697361946106 5.03658056259155 6.14165735244751 6.40814352035522 6.75455617904663 7.1771411895752
9.41341876983643 9.89393138885498 11.0378589630127 12.7542371749878 14.7808170318604 13.4885454177856 13.4555692672729 11.6670713424683 13.3618488311768 6.0223503112793 7.23731660842896 9.34980773925781 2.27302980422974 2.37701559066772 2.51812076568604 3.14960145950317 3.88213491439819 3.56605195999146 5.06446266174316 5.14112567901611 6.3039083480835 6.63732671737671 6.98577117919922 8.40099430084229 11.7496776580811 16.1467533111572 25.5068645477295 9.95921421051025 9.22548484802246 11.1992826461792 10.792781829834 12.3570470809937 15.8276491165161 28.9931716918945 41.5460929870605 43.7177047729492 0.322065860033035 0.205684810876846 3.71973347663879 7.52643728256226 2.67960667610168 3.64943647384644 9.34235191345215 6.34950160980225 1.58031237125397 3.23228526115417 2.59983777999878 3.88889360427856 2.82098293304443 2.21798062324524 2.14590835571289 2.58841061592102 2.7566933631897 2.84008169174194 3.12864542007446 8.10377883911133 3.55369591712952 2.41087985038757 2.83977675437927 3.27742409706116 3.61039996147156 3.43654370307922 2.14806437492371 2.89643955230713 6.9221396446228 2.41928315162659 3.56798648834229 1.817263007164 2.04460215568542 2.58783459663391 2.99493598937988 3.43184638023376 6.73843288421631 5.75939989089966 7.19397163391113 7.55581760406494 12.3571691513062 16.3574619293213 7.07042455673218 17.013650894165 29.1902885437012 39.0881729125977 6.14246559143066 6.48941516876221 6.50325775146484 6.46534109115601 7.01046943664551 7.26984453201294 6.97095489501953 6.3687105178833 6.61007785797119 6.06295251846313 5.61951208114624 6.3816876411438 11.2164344787598 13.7436790466309 12.5403661727905 13.514084815979 15.4013118743896 17.7218379974365 17.2723217010498 4.20069217681885 4.68058681488037 4.45555734634399 4.27918481826782 4.31593418121338 4.62414741516113 4.73653745651245 4.70231342315674 4.71139240264893 4.85042476654053 4.91615390777588 5.06460618972778 5.23739671707153 6.38903379440308 8.32355308532715 14.1997690200806 22.9781398773193 29.2509765625 5.37816858291626 5.78070020675659 5.61657476425171 5.09153413772583 5.28962182998657 4.52167320251465 5.23206901550293 5.36722421646118 5.62404727935791 5.78531217575073 7.44286155700684 7.87186908721924 10.1724138259888 10.9647970199585 10.2415142059326 11.765775680542 12.1652326583862 13.3035364151001 14.0020685195923 19.8751354217529 21.9595241546631 27.5010814666748 29.5072917938232 46.7045631408691 46.085075378418 13.4556837081909 8.49481678009033 16.587381362915 5.08952522277832 11.1029443740845 3.20455408096313 1.40986788272858 -2.99655079841614 -1.90921413898468 0.152537152171135 4.76261377334595 8.28836536407471 10.555965423584 12.5225296020508 12.8160877227783 10.427713394165 9.69252586364746 10.9648513793945 8.17781925201416 7.39891004562378 4.8664345741272 -0.110905133187771 0.566796123981476 1.57731521129608 3.32857632637024 4.65782260894775 5.57604122161865 5.78333282470703 6.61372470855713 7.05149555206299
9.76040554046631 10.6483345031738 11.5003995895386 12.4169940948486 13.3057985305786 18.4436950683594 23.0364952087402 16.4510440826416 17.9584732055664 16.3274631500244 19.0179576873779 9.26004791259766 7.15089750289917 3.51529908180237 3.31053566932678 3.60034394264221 3.85686874389648 4.11822605133057 4.22114133834839 3.64050650596619 5.26780939102173 5.37645053863525 6.76874780654907 7.3959264755249 7.69713544845581 9.52258682250977 21.8571891784668 10.2711753845215 11.7140626907349 11.1743068695068 14.276216506958 18.1351852416992 17.7933235168457 24.8543453216553 36.8461608886719 0.435420662164688 0.390062630176544 0.65388160943985 2.1434268951416 7.03282737731934 4.83815288543701 3.33808517456055 1.01293122768402 0.172721609473228 0.584396481513977 5.383385181427 2.20708250999451 2.48854351043701 4.86583709716797 5.28379106521606 1.64382803440094 2.42989659309387 2.6640830039978 2.82839417457581 2.89866375923157 2.97942614555359 3.15019989013672 5.81910181045532 3.69774007797241 3.05503392219543 4.56286668777466 3.18296980857849 2.86947679519653 2.52430176734924 4.1182279586792 1.82561230659485 2.91915202140808 2.13461256027222 5.69414854049683 2.30029726028442 2.9134566783905 3.60667085647583 4.24433374404907 5.48985481262207 6.48267507553101 6.81772470474243 15.4145250320435 14.6962041854858 7.38625383377075 8.08384799957275 20.1068134307861 28.3268985748291 3.9255702495575 8.08179092407227 6.19365215301514 6.71921730041504 6.83745622634888 6.95873403549194 7.81034994125366 8.22687339782715 7.8528618812561 7.13101291656494 7.54791355133057 6.85371828079224 6.96958255767822 7.4665150642395 21.0482540130615 31.1330127716064 28.3732509613037 30.687650680542 34.385181427002 38.2243194580078 37.1295318603516 5.57556581497192 6.95900583267212 4.38437366485596 4.48493337631226 4.69979095458984 4.86613941192627 4.82457208633423 4.95517492294312 5.00639581680298 5.70468044281006 6.71523952484131 5.87802648544312 7.70802450180054 13.6924209594727 21.9425754547119 4.49545288085938 4.07967281341553 6.39394664764404 6.58967018127441 6.16564559936523 5.69199752807617 5.85409832000732 4.99672985076904 5.76701068878174 6.12573957443237 6.18450975418091 6.00564432144165 6.55735349655151 8.65886974334717 9.33860301971436 12.4966068267822 10.6776533126831 13.0755424499512 14.5111093521118 14.2620334625244 15.584568977356 19.0290260314941 26.2740745544434 23.5792617797852 30.0109481811523 33.6131553649902 6.20116281509399 22.2856483459473 8.76088333129883 -4.85702514648438 -2.18065023422241 -4.93160057067871 -4.37252759933472 -3.97235822677612 -2.42630004882812 -0.644105970859528 1.88584578037262 5.42365121841431 10.3440141677856 12.7925300598145 20.8096885681152 13.5410308837891 16.1954021453857 14.17724609375 15.0123748779297 17.8626022338867 5.16437530517578 -0.105264633893967 0.350602954626083 1.06791818141937 2.3300039768219 3.0776469707489 4.28129863739014 4.95241260528564 9.43776893615723 6.82200145721436
7.42213726043701 9.85928153991699 11.7756862640381 12.9598722457886 14.2373485565186 16.5812644958496 20.5828247070312 32.3533706665039 44.4212265014648 23.8678073883057 23.0557727813721 27.7115345001221 40.472843170166 1.23846912384033 5.08522367477417 5.14764404296875 4.45528745651245 3.87883996963501 3.59113621711731 4.21915721893311 4.39831876754761 5.18653106689453 6.43146228790283 7.40259027481079 7.52550172805786 8.09858322143555 9.16398334503174 6.61179447174072 8.15889453887939 18.6046352386475 16.3854236602783 16.6815738677979 27.891529083252 41.5934410095215 40.679256439209 3.12681913375854 5.28178358078003 5.95900106430054 0.885753810405731 6.95362186431885 0.395794808864594 0.0697113871574402 0.233874797821045 2.52086210250854 0.84617805480957 5.75140857696533 6.72584438323975 1.94453287124634 3.1491973400116 4.17731523513794 11.6295337677002 17.9103031158447 3.79651474952698 3.46261835098267 2.90440940856934 2.94782209396362 2.99842572212219 3.23438906669617 3.41430354118347 5.62957763671875 3.7205171585083 3.70362615585327 3.2778468132019 3.00218367576599 2.98213720321655 2.30050563812256 2.22129034996033 2.70620846748352 2.62646079063416 2.47104859352112 2.21586179733276 2.47888112068176 3.55208992958069 5.02601718902588 5.04251623153687 7.80548334121704 12.8716697692871 8.46624755859375 7.73782157897949 11.4985256195068 18.3680076599121 29.5074443817139 26.4848022460938 7.509596824646 32.660831451416 5.98787307739258 6.4318675994873 7.13928079605103 7.44189262390137 7.84610748291016 8.87221717834473 9.37184047698975 8.9224739074707 8.16895294189453 7.63450336456299 7.51162910461426 9.14590263366699 9.48306655883789 3.12140393257141 3.38680291175842 3.80190062522888 3.37221336364746 3.1138916015625 3.2139790058136 8.04251956939697 13.6492958068848 16.8268737792969 4.59923315048218 4.70894813537598 5.00297927856445 5.13849115371704 5.1301212310791 5.30521392822266 5.36003112792969 8.73987579345703 11.2852973937988 12.7084665298462 20.6041145324707 5.15840339660645 5.854905128479 6.02110624313354 6.22904825210571 7.05789852142334 7.33196640014648 6.70356893539429 6.45725536346436 6.84997892379761 5.76000022888184 6.71013259887695 7.20702362060547 7.28016328811646 6.46217155456543 7.6708459854126 10.6485834121704 14.7206087112427 16.6116065979004 22.4161491394043 17.2111110687256 18.9322681427002 18.6702041625977 27.0006999969482 15.6120204925537 34.7112159729004 38.6852378845215 16.7824745178223 11.3758916854858 -4.49381399154663 -4.77388381958008 -4.52667188644409 -4.14552593231201 -4.4180908203125 -3.07238483428955 7.49414491653442 -1.00484037399292 2.05071330070496 3.30053162574768 6.05488872528076 15.1585035324097 14.6909132003784 13.4513444900513 16.0017414093018 21.8007621765137 24.5113582611084 29.0259838104248 24.8554077148438 34.4148826599121 26.8063278198242 25.2805995941162 1.64967024326324 2.91689395904541 3.08296346664429 4.81996870040894 4.95698976516724 5.92336654663086
