NCOLS 174
NROWS 32
XLLCORNER 353808
YLLCORNER 6700160
CELLSIZE 16 
NODATA_value -3.4e+38 
0.583532214164734 1.59982001781464 1.4375011920929 1.48596000671387 2.90572285652161 2.13420653343201 2.9668173789978 3.70538139343262 3.38527584075928 2.84307646751404 2.41385245323181 1.80014252662659 3.62918758392334 4.87795400619507 4.13230800628662 3.75849676132202 3.74692749977112 5.02004957199097 3.26117420196533 2.84322237968445 0.680653393268585 -0.414131492376328 24.6051292419434 7.56108093261719 15.0564956665039 5.12299680709839 5.49830102920532 4.47086143493652 7.60974311828613 6.88318872451782 5.35094785690308 3.99628591537476 2.6654007434845 3.13232684135437 3.53877425193787 3.5191764831543 3.62437963485718 4.97442197799683 5.17372226715088 5.93246507644653 5.73142957687378 5.09900999069214 3.66844058036804 3.44809794425964 3.73666715621948 3.64784073829651 3.5210964679718 3.42634296417236 10.4252119064331 10.4050827026367 8.41514587402344 6.81907224655151 7.84898233413696 7.95489645004272 7.40845584869385 7.54273796081543 1.21307384967804 2.192711353302 3.50943326950073 0.648058533668518 25.1391372680664 23.8477668762207 14.388331413269 11.5254058837891 9.45732402801514 11.929615020752 6.23285484313965 4.48200559616089 6.4138035774231 11.8947973251343 5.39906644821167 9.21346092224121 12.9864158630371 10.7876653671265 5.11879253387451 4.84368848800659 4.279212474823 4.4590916633606 1.24787998199463 1.21044373512268 0.849581241607666 6.48180723190308 6.93956184387207 6.64413118362427 3.26067733764648 2.17338967323303 1.13396644592285 10.5781202316284 4.10530185699463 -0.479810446500778 -0.905361771583557 -2.14590835571289 17.370138168335 19.4922847747803 7.10224437713623 -0.503382325172424 -2.95620703697205 26.4344291687012 11.9865713119507 9.63634777069092 9.95347213745117 13.6320848464966 11.7500619888306 6.43058061599731 1.43993985652924 14.8060598373413 -2.28709030151367 -1.98058879375458 6.48592519760132 28.4618511199951 14.1257133483887 4.10916996002197 15.443413734436 4.37259960174561 1.41323852539062 4.67032814025879 -0.744662463665009 -0.15723229944706 -1.62818670272827 -1.76171958446503 -2.51781272888184 -2.85358476638794 7.0807147026062 5.50495862960815 -0.574857473373413 -1.8751494884491 21.5053977966309 18.304313659668 16.2930850982666 17.9974002838135 9.98210525512695 2.86072444915771 -0.779057323932648 0.723671793937683 -1.16681897640228 -1.87529993057251 -2.41136074066162 -2.67277789115906 -2.78650760650635 -2.96506071090698 -3.0577073097229 -3.1138916015625 5.51652860641479 2.69083690643311 -1.81330299377441 3.55447697639465 11.7513360977173 4.75534915924072 7.55078601837158 5.37885904312134 11.6334972381592 5.30013179779053 12.513801574707 20.6896858215332 40.0798454284668 37.6934776306152 30.0157909393311 21.0724296569824 16.1144714355469 14.6412153244019 24.5028820037842 18.8563823699951 9.61429119110107 2.30860829353333 7.93315410614014 7.65788078308105 7.28847217559814 25.1166172027588 43.7459831237793 26.0089797973633 20.6136455535889 38.1432304382324 30.1870918273926 23.261209487915
2.73926115036011 2.33753514289856 1.66861486434937 3.55128240585327 3.09493184089661 1.77456164360046 4.0726842880249 3.92051649093628 2.86866688728333 3.03251528739929 2.55472302436829 2.69453406333923 5.37841796875 4.00547122955322 3.24633836746216 3.81809878349304 5.18847799301147 3.56786060333252 3.26099848747253 2.68821263313293 2.52193450927734 22.8326110839844 6.87003231048584 -0.894118964672089 22.6600017547607 9.33759307861328 8.11626243591309 5.68663644790649 3.88485503196716 3.36150622367859 5.88493251800537 4.62707710266113 3.49083542823792 2.51682090759277 2.46102166175842 3.20221185684204 3.25738334655762 3.25686120986938 3.83076477050781 4.93072319030762 4.76499176025391 5.46536016464233 5.26816654205322 4.69995594024658 3.41979455947876 3.24112725257874 3.4617121219635 3.36833596229553 3.31063485145569 3.19825005531311 6.47866582870483 6.46181058883667 5.59478569030762 6.73231840133667 6.83055448532104 6.21051120758057 6.00265026092529 5.38614797592163 23.9574356079102 3.35601925849915 0.584431111812592 6.25701427459717 10.0762662887573 11.2272806167603 11.5243864059448 10.012638092041 3.16424441337585 4.59196281433105 3.73633646965027 22.2769756317139 15.0583877563477 6.56683349609375 2.85523295402527 2.78776884078979 1.03534340858459 6.06669235229492 4.22216320037842 3.86884641647339 2.75109910964966 15.5750064849854 17.8382186889648 16.225793838501 2.52267837524414 1.32151067256927 0.678977310657501 0.572804272174835 1.16207075119019 23.4223899841309 17.5344543457031 15.8528909683228 4.59587955474854 -0.880519151687622 17.4437446594238 5.97996139526367 9.10875701904297 -0.993846476078033 16.3380870819092 27.0140781402588 19.7249813079834 15.2967548370361 16.8769207000732 9.74222373962402 11.5658140182495 10.3416481018066 7.57472658157349 6.29697942733765 16.6360931396484 40.3165054321289 30.2455539703369 24.5614891052246 11.9920120239258 17.588794708252 7.69048833847046 12.7756671905518 3.54593920707703 -1.14350378513336 -1.10507071018219 -0.835577666759491 -1.50064206123352 -1.89925384521484 -2.15993070602417 -0.549704253673553 -2.84796905517578 -3.348876953125 -3.9255702495575 0.465144515037537 20.8676204681396 29.0216884613037 17.384895324707 12.2690200805664 9.70824527740479 7.68189668655396 2.55143880844116 16.6238784790039 2.98966598510742 -1.74432730674744 -2.36409854888916 -2.38499522209167 -2.9926586151123 -3.38680291175842 -3.22623014450073 -3.2857780456543 -1.28013718128204 2.37178564071655 -1.3855562210083 19.4304809570312 8.27985286712646 2.28826355934143 3.39681887626648 4.81608819961548 18.3869705200195 13.3597507476807 19.2041854858398 21.1149768829346 21.4434719085693 28.4998836517334 21.9278240203857 21.0680561065674 17.6170082092285 15.2371263504028 12.5466928482056 11.8876600265503 19.0327644348145 34.4572677612305 44.0710601806641 33.4487495422363 37.8750228881836 45.4914169311523 35.2288398742676 26.27121925354 28.7068538665771 28.1710166931152 21.6574039459229 21.9575958251953
0.94527143239975 1.70215678215027 2.35182046890259 1.89393270015717 1.42990446090698 2.84997487068176 4.74553537368774 4.26381301879883 3.07673168182373 2.55375623703003 3.04628109931946 4.32169342041016 3.02963805198669 2.52787637710571 3.44312214851379 4.15392398834229 3.25073575973511 2.39380955696106 2.72810339927673 2.96518206596375 2.45622754096985 1.84312188625336 1.64077234268188 2.59479165077209 13.4091262817383 -0.998601913452148 9.25462341308594 7.86193180084229 5.59694910049438 3.42210268974304 2.90247178077698 5.11389970779419 4.85456848144531 3.88429856300354 2.96927881240845 2.4026563167572 2.36532282829285 3.16621160507202 3.06891417503357 3.17201137542725 3.58136034011841 4.47414827346802 4.34345674514771 4.9921555519104 4.84408521652222 3.71702480316162 3.19790840148926 2.94371724128723 3.24900007247925 3.1959867477417 3.12426590919495 3.0236439704895 4.70933103561401 4.68909740447998 4.16402530670166 5.3095703125 5.15001630783081 4.25544738769531 22.3295612335205 3.01444888114929 5.72343349456787 29.2288818359375 15.5681676864624 12.0235252380371 9.14444351196289 7.57183265686035 7.50711154937744 24.9807987213135 18.6220188140869 27.0091152191162 23.2663955688477 7.41900587081909 2.64430284500122 2.35887169837952 2.75367403030396 22.8359489440918 14.0385913848877 3.45106530189514 2.92658567428589 2.48055148124695 2.12380909919739 1.03696978092194 0.981545090675354 0.581475853919983 0.750822365283966 0.192590475082397 0.308910578489304 0.346824079751968 10.2702798843384 10.0728273391724 3.87456035614014 -0.984963238239288 -1.16094470024109 0.751106381416321 -2.42989659309387 -2.39920473098755 21.2708110809326 21.3535327911377 8.30632019042969 17.5604705810547 11.3184499740601 11.7670421600342 12.0227432250977 13.8467388153076 10.258131980896 4.20236206054688 2.61041736602783 5.01621961593628 0.422002136707306 13.7203426361084 14.0460519790649 10.8131942749023 8.04322242736816 13.4476137161255 5.32868480682373 -2.16145253181458 -2.44116544723511 -1.54397535324097 -1.81553423404694 2.31154036521912 -2.26287961006165 -2.6215136051178 -2.47418665885925 -1.20258975028992 8.25109100341797 26.9858360290527 25.4896697998047 23.6123313903809 21.3058490753174 20.2504768371582 13.2350797653198 6.90392112731934 2.38522672653198 1.50981068611145 1.23143708705902 2.63631629943848 -1.9419914484024 -2.8790762424469 -3.0072009563446 -2.81851625442505 5.64323997497559 -2.95299959182739 1.20426201820374 4.64682626724243 3.54135322570801 0.745029747486115 6.21773290634155 5.38549661636353 7.61042070388794 11.9550132751465 12.7642574310303 7.19234943389893 18.6104125976562 30.7382984161377 39.3093147277832 32.11328125 22.8040237426758 17.950756072998 15.9402904510498 14.8898134231567 13.623348236084 11.4901695251465 10.3135032653809 8.37383270263672 18.0766792297363 22.0313625335693 26.3571376800537 25.1204891204834 24.5836849212646 24.4415950775146 21.3118648529053 18.8638401031494 19.9873390197754 18.4607257843018
1.68343579769135 1.18428933620453 0.875882863998413 2.25056219100952 2.13866305351257 2.3532862663269 2.71358823776245 2.62756848335266 2.69949674606323 3.23601937294006 4.62023448944092 3.08116626739502 2.78864526748657 2.64599680900574 2.49980044364929 4.37254619598389 2.77952551841736 2.26060700416565 2.0470769405365 2.47357749938965 2.71730375289917 2.06632947921753 5.83871841430664 5.74877691268921 12.4805088043213 0.693525195121765 7.91082143783569 19.2928123474121 4.21331834793091 5.56822967529297 3.77321434020996 2.8950023651123 2.52516555786133 4.38320302963257 4.22964477539062 3.38469123840332 2.75733160972595 2.22374129295349 2.55447793006897 2.86780333518982 2.77140116691589 2.86935496330261 3.26190972328186 4.10690879821777 4.0131368637085 4.63332271575928 4.17491436004639 3.06200051307678 2.90359282493591 3.14218163490295 3.07601451873779 3.03198313713074 2.96011972427368 3.97978639602661 3.91052746772766 3.4543673992157 3.06225776672363 3.95868492126465 3.58962607383728 3.16052556037903 17.6687870025635 4.19913196563721 2.56023526191711 6.21599674224854 8.63844776153564 3.61578011512756 4.30728483200073 17.8609046936035 10.7613935470581 17.2003955841064 14.0058345794678 4.44841194152832 2.5604465007782 2.12354850769043 2.71733140945435 5.71374940872192 7.69689607620239 6.96310329437256 6.31796884536743 9.41721630096436 2.29188346862793 1.76138532161713 5.13191843032837 0.224858656525612 0.214697569608688 0.0150315472856164 0.584374070167542 2.87359094619751 13.4676961898804 14.5302391052246 6.00798511505127 1.21663773059845 0.181701347231865 7.31837129592896 13.6054830551147 34.1034812927246 29.720832824707 24.0658721923828 17.3855838775635 19.8325214385986 8.17024040222168 13.174427986145 13.1997489929199 13.6676177978516 10.7232894897461 5.59736824035645 16.9441318511963 20.2938613891602 9.90699768066406 0.460618913173676 10.702356338501 10.4790868759155 8.47126293182373 5.64443969726562 3.65795421600342 0.786867558956146 -2.3976149559021 -2.55909872055054 2.66502952575684 -2.2020788192749 -3.00514364242554 -2.39043116569519 10.6801023483276 7.41901874542236 10.1133880615234 12.6265163421631 18.8282127380371 19.7933216094971 21.2292995452881 20.9592189788818 16.567907333374 12.0231590270996 6.00553131103516 10.855676651001 3.17550110816956 -0.227733328938484 0.672474443912506 6.71037626266479 7.41724443435669 26.5714645385742 16.4178810119629 -1.70800828933716 12.2884569168091 0.966063678264618 3.34090042114258 11.2337160110474 13.8643064498901 13.7301073074341 19.4540977478027 13.9300451278687 9.47187995910645 9.55291271209717 21.9864196777344 40.501781463623 30.8442001342773 24.0794200897217 20.3819999694824 18.135648727417 16.0944728851318 14.0240993499756 13.3587303161621 12.4351148605347 11.2848472595215 9.80592918395996 9.1814079284668 7.95572090148926 10.2324686050415 15.5813798904419 18.2902126312256 17.4870891571045 17.4032688140869 17.6883354187012 16.4991645812988 16.1874923706055
0.947879672050476 1.54422509670258 1.38872408866882 1.19927418231964 0.870268225669861 2.03606081008911 2.03903865814209 1.71766018867493 2.24987292289734 4.82223415374756 3.37438654899597 2.63039970397949 2.37061500549316 2.21043920516968 2.52797651290894 3.76601052284241 2.30124640464783 2.01160168647766 1.73104774951935 1.83587861061096 1.64942598342896 2.14441156387329 6.28684425354004 0.301455736160278 1.78653025627136 1.60855996608734 18.2365837097168 21.0926761627197 5.3226466178894 12.5473470687866 9.37601184844971 3.97209191322327 3.15011668205261 2.4606146812439 2.29440641403198 3.85300850868225 3.17197203636169 2.5009970664978 2.10175824165344 2.02496957778931 2.33208894729614 2.64482164382935 2.55656814575195 2.63401865959167 3.73770904541016 3.8611114025116 4.43596076965332 4.28983354568481 3.89267516136169 2.90787196159363 2.76047945022583 2.98619532585144 2.91054773330688 2.84731221199036 2.7330276966095 3.05561065673828 2.94738173484802 2.49302268028259 3.38625407218933 3.12603855133057 2.81952595710754 2.94063758850098 1.71103894710541 3.22605180740356 16.6519718170166 8.14678192138672 8.48904895782471 27.4489364624023 18.7200031280518 8.51062297821045 7.2088418006897 10.7967176437378 7.83111524581909 24.6663246154785 4.59612894058228 8.00403022766113 2.49946999549866 2.71580386161804 1.57085955142975 3.62642025947571 2.98068809509277 0.53070479631424 0.490697711706161 0.617100298404694 0.482399940490723 0.898495316505432 0.634206771850586 -0.0566257238388062 3.13845086097717 18.5231056213379 11.6421146392822 3.83409523963928 0.61934107542038 12.9650850296021 12.1926383972168 5.87400436401367 6.69681549072266 20.3619632720947 19.3440265655518 12.0714225769043 11.7700242996216 11.695369720459 18.8450736999512 13.5050563812256 9.7566614151001 5.92410707473755 16.793363571167 18.1967830657959 5.36026477813721 3.13261985778809 1.92405569553375 12.3414001464844 4.53755044937134 6.71321487426758 3.32798147201538 0.553154826164246 -0.963294208049774 15.1969614028931 -2.97252559661865 -2.87422847747803 -2.33520293235779 8.75596523284912 9.19865703582764 8.46101474761963 11.3709154129028 15.3447704315186 21.8907337188721 16.4707736968994 15.4070301055908 19.2709407806396 15.4290533065796 9.27990913391113 11.0163631439209 4.30881786346436 2.87440943717957 0.933177590370178 8.33845901489258 2.96599984169006 8.28663635253906 20.0124683380127 5.96287488937378 8.25591564178467 9.45635509490967 2.48052787780762 6.77145862579346 6.43130779266357 13.043568611145 9.39958190917969 12.4955263137817 13.1614027023315 12.1316957473755 15.3511371612549 27.570333480835 40.4281845092773 19.092601776123 23.5144233703613 18.2588710784912 16.5514450073242 15.8960447311401 14.2716064453125 13.2079820632935 12.0049276351929 11.478494644165 10.7444467544556 9.80028820037842 8.83644580841064 7.65628051757812 7.92938756942749 8.27997398376465 12.2038097381592 14.5545291900635 14.2438440322876 14.3522529602051 14.5309991836548
0.821480691432953 0.77183198928833 0.867224514484406 1.29070401191711 1.20133817195892 0.859270393848419 1.41798877716064 1.92504703998566 3.42448210716248 3.27936887741089 2.27166199684143 2.32865881919861 2.24266290664673 2.04006338119507 2.07093572616577 3.38009977340698 2.45074415206909 2.07994818687439 1.91622424125671 1.65029144287109 1.3733366727829 1.46478497982025 1.28177893161774 1.79047405719757 29.7307453155518 19.0281734466553 1.55002760887146 1.46220326423645 0.123574584722519 -0.03283866122365 12.2507085800171 7.34768199920654 5.08740758895874 3.36661577224731 2.44750452041626 2.13810157775879 3.57032895088196 3.54062628746033 2.80738949775696 2.14054012298584 1.92136454582214 1.85822558403015 2.15718722343445 2.45966744422913 2.4742431640625 2.87392473220825 3.67593622207642 3.6094114780426 4.12559366226196 4.02219772338867 3.65978479385376 2.75179290771484 2.55493426322937 2.79891109466553 2.74759292602539 2.6841983795166 2.5760293006897 2.41578459739685 2.14825367927551 1.77105128765106 2.72496938705444 2.7837553024292 2.69545912742615 18.9875869750977 1.98013067245483 2.62926387786865 14.374716758728 16.9265079498291 12.1649036407471 11.3549194335938 9.83662414550781 6.56393003463745 6.08558654785156 10.6305856704712 4.00968265533447 2.12290859222412 1.58958208560944 1.29988205432892 0.640582621097565 0.729565978050232 1.13120377063751 0.899821281433105 4.25116682052612 3.77453565597534 0.180234864354134 0.300639271736145 2.9020893573761 10.0934038162231 7.39595031738281 19.7286186218262 13.1950941085815 7.17662000656128 3.77223348617554 6.37238788604736 14.9281587600708 11.0734367370605 12.8386135101318 18.0261631011963 10.5091962814331 13.8383131027222 20.6885509490967 16.75119972229 9.95794868469238 6.70786190032959 9.08573818206787 7.97219276428223 27.9159564971924 22.3958492279053 6.0295295715332 4.67461633682251 16.816312789917 15.1410846710205 9.48368358612061 4.41297101974487 4.89723587036133 2.62414193153381 -2.31175827980042 0.764186680316925 -2.78860068321228 6.70244932174683 -2.7663369178772 4.26727247238159 8.41610527038574 9.62400722503662 11.4550724029541 8.99142360687256 16.3365077972412 13.7319087982178 14.8202905654907 24.1782741546631 16.5600261688232 10.7895011901855 20.3971500396729 6.80391454696655 5.36193704605103 2.38259410858154 4.52433776855469 7.56807374954224 0.911510288715363 0.419419348239899 0.0946888029575348 -0.213719978928566 -1.77726435661316 0.560822665691376 2.01515650749207 5.85190057754517 9.49706077575684 8.17500114440918 6.87711000442505 10.7880544662476 11.8719034194946 16.081205368042 23.3307132720947 22.4018459320068 27.7459411621094 27.537223815918 19.8882675170898 17.6017265319824 14.759801864624 14.4153509140015 13.5392694473267 12.2143974304199 11.5599746704102 10.607063293457 10.1515064239502 9.33530616760254 8.51480674743652 7.99265146255493 7.14872455596924 6.91302919387817 10.9968452453613 13.1630525588989 12.9339628219604 12.9630870819092
1.60441470146179 1.2761937379837 0.728925585746765 0.691695690155029 0.792052686214447 1.17598700523376 1.13512670993805 0.835342466831207 0.368962734937668 2.78228092193604 2.21624255180359 2.00760793685913 1.93811547756195 2.00267648696899 1.94685697555542 2.31992053985596 3.25339818000793 2.15412855148315 1.96885168552399 1.73699700832367 1.57891130447388 1.30296063423157 1.03584599494934 1.03554737567902 0.814590156078339 1.56435787677765 11.6026821136475 9.32906532287598 -0.119259685277939 0.039794597774744 29.3937034606934 20.5530014038086 6.96840810775757 4.20499706268311 4.1587233543396 2.86774802207947 2.25720357894897 2.01202726364136 3.27319979667664 3.10280466079712 2.48790287971497 1.91258454322815 1.78391766548157 1.74602687358856 2.37483191490173 2.30305147171021 2.35046863555908 2.6605532169342 3.42305254936218 3.38412427902222 3.86754822731018 3.77316975593567 2.6701967716217 2.53228855133057 2.70782065391541 2.64042258262634 2.60494637489319 2.49979305267334 2.18164205551147 1.96380090713501 1.63658916950226 2.55253100395203 2.64139747619629 2.67687630653381 2.57721614837646 19.5273761749268 16.4448623657227 9.85774993896484 6.43968343734741 7.46963119506836 7.42702865600586 7.61126804351807 6.72389984130859 4.35266590118408 5.99906349182129 4.16929531097412 9.23152637481689 1.39789259433746 1.03369450569153 3.37207746505737 17.3779029846191 15.0672664642334 12.5235614776611 10.3335800170898 2.74645376205444 3.82637071609497 4.88080739974976 4.96361589431763 2.51584339141846 16.9511547088623 15.4190454483032 7.27960968017578 1.7756313085556 -0.414509505033493 1.44380462169647 1.7107617855072 4.30404615402222 5.34206819534302 2.2002420425415 2.64498400688171 3.41084599494934 7.59209680557251 7.74492406845093 7.91696786880493 5.25446462631226 5.79835224151611 14.4946346282959 8.27291202545166 12.6260843276978 5.36352872848511 9.29443836212158 3.65335440635681 2.48608756065369 1.20396625995636 3.30712246894836 1.28778648376465 2.61831140518188 24.5266704559326 0.623783588409424 -2.27805304527283 1.73718774318695 8.05505084991455 12.4415702819824 9.56205654144287 11.6384305953979 9.20475673675537 13.4057664871216 16.2032222747803 34.5589447021484 41.1981544494629 20.3196506500244 24.7131614685059 10.0016078948975 8.24565029144287 5.87319040298462 4.87024116516113 6.00240898132324 11.0212726593018 8.2415018081665 1.92330503463745 -0.79069584608078 -1.42169606685638 -1.07705414295197 13.6807899475098 17.6801013946533 8.07754516601562 6.20418453216553 5.01150369644165 7.59729528427124 29.4361171722412 31.3341197967529 44.3988265991211 42.8475303649902 11.0350465774536 29.6558628082275 21.9286861419678 19.7841510772705 17.913387298584 15.692156791687 13.4331102371216 12.7279005050659 12.5084943771362 11.8662157058716 10.8406019210815 10.0250520706177 9.61373138427734 9.14564418792725 8.38404369354248 7.60390853881836 7.06873655319214 6.77168035507202 6.71854448318481 10.0409708023071 11.8236532211304
1.30419135093689 1.45955860614777 1.33808875083923 1.13732159137726 0.666090071201324 0.783115744590759 1.21002984046936 2.58715748786926 3.60555863380432 20.8552417755127 14.1273040771484 1.91682577133179 1.69439244270325 1.687251329422 1.81679737567902 1.93355107307434 3.13091278076172 1.89684987068176 1.69503128528595 1.79446351528168 1.64472019672394 1.42304491996765 1.15303802490234 0.866584420204163 0.92792797088623 0.782352685928345 1.36150777339935 1.57714748382568 7.15057849884033 33.7064666748047 29.566349029541 20.7776031494141 13.4206790924072 11.558669090271 4.99627351760864 3.81145167350769 3.01751852035522 2.63117694854736 2.14802670478821 1.82875323295593 2.91660189628601 2.83323812484741 2.26074934005737 1.71949338912964 1.64673411846161 1.90950322151184 2.19609117507935 2.14376211166382 2.19775557518005 2.52227902412415 3.2144603729248 3.18256020545959 3.6428918838501 3.31546854972839 2.51011610031128 2.32863211631775 2.56653428077698 2.27415418624878 0.980784773826599 0.681288421154022 1.81315553188324 2.5316789150238 2.44178462028503 1.88574087619781 2.41349196434021 2.39477396011353 2.31541085243225 6.74617719650269 6.51895093917847 5.86559295654297 5.61166191101074 5.67125368118286 5.74845457077026 5.597975730896 7.09463500976562 4.25252485275269 1.9755482673645 0.986910939216614 6.14615249633789 21.7922897338867 18.5174674987793 16.3536224365234 9.87448406219482 8.64154529571533 4.42983675003052 0.759487986564636 0.360689073801041 8.49417400360107 1.82401669025421 0.199543312191963 12.1123085021973 0.0627664476633072 6.79046106338501 1.86088967323303 28.0437679290771 9.43017959594727 0.702247083187103 2.54247617721558 0.162383466959 8.57637500762939 2.02224707603455 2.72070693969727 5.98037719726562 7.02144765853882 4.78196477890015 20.6237449645996 14.2801551818848 4.58775901794434 5.28209972381592 1.98429524898529 4.5335431098938 1.02634346485138 0.626412868499756 2.22188568115234 0.440086930990219 8.49931049346924 0.390126675367355 -0.870691239833832 7.86458683013916 7.17385053634644 9.04276657104492 4.25644445419312 9.61018943786621 6.90965795516968 7.7965407371521 8.68571758270264 10.1934547424316 32.1544303894043 33.3051261901855 32.8867835998535 26.2580070495605 26.0355606079102 11.0074167251587 7.17054986953735 6.88460350036621 6.44850397109985 4.10110569000244 8.77837944030762 8.19866561889648 3.80716156959534 3.04923176765442 10.9632081985474 20.6684818267822 9.96903324127197 10.9416637420654 6.97678422927856 4.91028642654419 12.6666421890259 21.5128879547119 51.1641540527344 40.9039611816406 29.8855609893799 25.4976139068604 24.511625289917 37.2849922180176 31.6735000610352 18.3734130859375 16.712574005127 15.8970746994019 14.1427516937256 13.2524909973145 11.9095582962036 11.0608406066895 11.0882711410522 10.1983213424683 9.72380542755127 9.07755756378174 8.6246223449707 8.11849498748779 7.53709173202515 7.11626720428467 6.75710964202881 6.65284156799316 6.92807960510254
1.88109505176544 1.71402287483215 1.13729643821716 1.26703763008118 1.20133054256439 1.05379676818848 1.10155129432678 1.57360434532166 1.74710881710052 2.28931975364685 2.51624989509583 9.19516086578369 7.71253108978271 1.88211536407471 1.70955419540405 1.80304300785065 2.61800360679626 1.86750555038452 1.62506651878357 1.52969491481781 1.39662086963654 1.47992527484894 1.25822627544403 1.10767614841461 0.835000693798065 0.594548225402832 0.665107488632202 0.598869264125824 1.24928939342499 1.49020886421204 5.31215524673462 15.1955003738403 13.4239568710327 11.6932830810547 8.78377151489258 8.40120601654053 4.6590256690979 3.56219220161438 2.7721574306488 2.43192481994629 1.94282686710358 1.66278827190399 2.60873651504517 2.06496834754944 1.57615494728088 1.575679063797 1.54746997356415 1.80710470676422 2.08262848854065 2.02330493927002 2.06023192405701 2.98124885559082 3.07568860054016 3.51900959014893 3.40380907058716 3.12002301216125 1.63738059997559 1.59095644950867 1.32024610042572 0.995171904563904 0.651087641716003 0.930229187011719 1.54377818107605 1.47244572639465 1.38866424560547 2.27541041374207 2.20257306098938 2.00506925582886 2.05079412460327 4.71766138076782 5.08073425292969 4.99139547348022 5.02328968048096 4.85536432266235 4.70081806182861 4.46994495391846 1.7833024263382 2.62545466423035 26.623815536499 13.1539068222046 9.10402393341064 9.14325046539307 7.9848518371582 7.35631322860718 3.24228239059448 2.57012724876404 0.434490084648132 7.09063243865967 0.150142401456833 0.0963836759328842 7.54840993881226 5.18614768981934 0.0792239531874657 15.4210596084595 14.0512266159058 -0.00657202117145061 6.10911750793457 6.2100658416748 7.42925786972046 -0.16416098177433 2.4906177520752 -0.408297598361969 0.33301705121994 10.7474069595337 8.06485843658447 22.363582611084 12.8738889694214 6.88296175003052 6.53857421875 2.46979308128357 9.37094497680664 0.533188104629517 0.295983582735062 -1.0084753036499 0.895514786243439 19.416296005249 14.5112495422363 1.1345682144165 3.18381237983704 2.29821729660034 -0.814744472503662 6.10113048553467 18.446159362793 19.5064563751221 8.45432376861572 14.7105741500854 17.7844314575195 32.3930358886719 37.0432815551758 26.3024082183838 22.6987152099609 18.8612098693848 12.3031930923462 9.04270458221436 7.0453667640686 5.55235481262207 6.07364702224731 11.9410858154297 11.5453071594238 10.6904525756836 14.2073192596436 16.6441993713379 13.4317874908447 10.4210987091064 9.82210731506348 6.46586894989014 11.2436923980713 28.2924346923828 31.5247802734375 43.9841690063477 37.6228218078613 29.8629055023193 25.5310192108154 21.9556465148926 17.6244888305664 18.1215915679932 22.7930526733398 19.4902191162109 14.85666847229 14.1818189620972 13.2769060134888 12.1185102462769 11.5472888946533 10.7627563476562 10.3956651687622 9.93558216094971 9.20233249664307 8.77937126159668 8.31092262268066 7.81146240234375 7.4457311630249 7.13195323944092 6.92802429199219 6.45446538925171
2.94322824478149 2.7389121055603 1.6019651889801 1.09211075305939 1.16426420211792 1.25718426704407 1.04915189743042 1.55470538139343 2.02886581420898 2.50374960899353 2.30075335502625 1.92683160305023 2.00519514083862 6.31185626983643 5.68832159042358 1.84225213527679 1.84025478363037 1.79106092453003 1.57127153873444 1.42448806762695 1.36196136474609 1.29238784313202 1.32275867462158 1.15418744087219 0.952816545963287 0.789897739887238 0.566556751728058 0.425599843263626 0.562461376190186 0.559960424900055 1.18612158298492 4.64604568481445 4.47863626480103 10.2301568984985 9.31076717376709 8.53763008117676 7.09415340423584 4.24494504928589 3.32909560203552 3.2711021900177 2.54464054107666 1.78833496570587 1.5230393409729 2.44821882247925 2.38613510131836 1.91859471797943 1.47326648235321 1.4827219247818 1.43808329105377 1.66913163661957 1.93758308887482 1.95482122898102 2.26339530944824 2.8946373462677 2.89787721633911 3.32091760635376 3.21945691108704 1.52638602256775 1.53718900680542 1.28749561309814 0.966133058071136 0.895131468772888 0.430065631866455 0.353255748748779 1.32492065429688 1.29682552814484 1.18245625495911 1.90263426303864 1.92502915859222 1.93134272098541 3.49758338928223 4.32970237731934 4.19065427780151 4.55888271331787 4.29169988632202 3.73114275932312 3.68281149864197 25.1717872619629 3.94479417800903 5.27845335006714 6.63548183441162 8.60577011108398 4.26196718215942 4.26378297805786 1.7181750535965 1.11654722690582 0.64609432220459 0.768375873565674 0.198336914181709 0.0951677858829498 0.511705696582794 -0.176816955208778 7.71432685852051 4.15284776687622 17.1733741760254 2.12462759017944 3.91919469833374 -0.09848952293396 4.77482604980469 6.1661171913147 5.85994148254395 7.448655128479 24.2745265960693 24.3390865325928 16.744592666626 12.0797166824341 10.1035938262939 7.55434370040894 1.97667062282562 1.21585559844971 0.765992641448975 -0.110139049589634 -0.561313688755035 -0.354335457086563 10.944896697998 14.2802085876465 20.4454364776611 5.6159520149231 2.26689696311951 -1.21954882144928 0.928238451480865 7.28298425674438 7.86148548126221 11.1801872253418 8.78037357330322 16.9426555633545 14.8261117935181 12.500412940979 31.9608287811279 25.8187980651855 22.0240383148193 17.9516658782959 15.772439956665 7.18066453933716 6.5026707649231 8.19139766693115 9.69064807891846 18.33056640625 13.0010719299316 7.17377662658691 7.31861352920532 7.24102163314819 6.85300779342651 8.735764503479 8.0675802230835 12.7729969024658 13.384259223938 38.5697975158691 37.1217613220215 36.5378379821777 30.2780628204346 27.7215766906738 23.85595703125 17.9993591308594 20.1023120880127 19.2584705352783 15.6190032958984 14.5430612564087 15.9099073410034 14.2500295639038 12.6314992904663 12.0936880111694 11.5466680526733 10.7749586105347 10.1617946624756 9.75101757049561 9.3559513092041 8.95766448974609 8.34946823120117 8.03183746337891 7.76254510879517 7.30793905258179 7.14542436599731 6.92279434204102
1.98424446582794 1.01404285430908 2.41751146316528 1.44945621490479 1.8441241979599 1.71741950511932 1.17752993106842 2.26139163970947 2.26207637786865 2.6624710559845 2.43677806854248 1.9672440290451 1.77249574661255 1.7565598487854 1.80636489391327 4.92535781860352 1.81179690361023 1.63867449760437 1.46628654003143 1.3826619386673 1.22241914272308 1.28849029541016 1.19896817207336 1.10678493976593 0.996908068656921 0.830263257026672 0.675427854061127 0.599156737327576 0.460181623697281 0.3912393450737 0.533616840839386 0.687876582145691 1.26206588745117 4.04272127151489 3.9685161113739 7.92347431182861 6.80485391616821 6.12885141372681 5.7578067779541 3.68810176849365 3.0518159866333 2.51194834709167 2.07618880271912 1.62153172492981 1.41025853157043 2.23807263374329 2.16649556159973 1.72093093395233 1.31719875335693 1.3787966966629 1.34296321868896 1.86225533485413 1.82260942459106 1.85760033130646 2.13777232170105 2.73614311218262 2.7575306892395 3.11412382125854 2.83454465866089 1.38814604282379 0.994108736515045 0.660753428936005 0.446852385997772 -0.4597427546978 0.290991127490997 1.23252296447754 1.15321457386017 1.03268182277679 0.974462270736694 1.81235361099243 2.52887344360352 2.95092129707336 3.76405072212219 3.53241014480591 3.20280456542969 3.79644799232483 3.41909599304199 2.85785007476807 2.92147970199585 15.6466674804688 10.9508905410767 3.85926294326782 6.13897895812988 2.24359631538391 0.584959626197815 0.466511189937592 0.504916906356812 1.90943622589111 1.45249176025391 11.4957714080811 8.37371635437012 8.4893741607666 17.2945919036865 9.36970329284668 1.9860805273056 1.37987589836121 1.51377880573273 12.9892778396606 16.1128559112549 5.70624971389771 4.06311082839966 26.1750411987305 18.6723461151123 17.8909454345703 17.2341365814209 15.6173667907715 11.1146697998047 4.51141357421875 3.64376068115234 24.3263835906982 2.81990742683411 0.687400996685028 -1.30261993408203 23.3792972564697 26.5037822723389 28.5182971954346 17.3333683013916 20.0243320465088 3.65766000747681 0.29730150103569 7.69968700408936 25.1393299102783 26.1521968841553 42.8551864624023 13.4430780410767 19.8045597076416 9.09004878997803 42.0040397644043 40.5802726745605 6.40164613723755 11.1894292831421 17.7654514312744 15.7544565200806 9.28341293334961 5.99276113510132 5.6388988494873 6.03557395935059 8.31589889526367 7.83544254302979 8.61747932434082 9.31259822845459 5.99867248535156 4.68524360656738 4.05403804779053 17.7556266784668 26.1989593505859 26.0122146606445 43.22119140625 33.8742485046387 29.8056049346924 21.2941951751709 23.9561958312988 21.2688312530518 20.1471176147461 23.7706832885742 17.9015254974365 16.2879371643066 15.1925296783447 13.0387496948242 12.113956451416 12.3915510177612 11.5691299438477 11.2017345428467 10.7793884277344 10.1585712432861 9.61015129089355 9.24967765808105 8.9116849899292 8.47709655761719 8.17417144775391 7.68426370620728 7.54285192489624 7.35168266296387 6.99026489257812
1.60590410232544 1.68328368663788 1.63620781898499 2.3008885383606 2.73462700843811 2.46732258796692 1.54518830776215 2.09853935241699 1.38695442676544 1.67370808124542 2.39722490310669 2.2501277923584 1.91283237934113 1.67624127864838 1.65284860134125 1.69942986965179 4.3351035118103 4.19669342041016 1.66262948513031 1.32677459716797 1.31041085720062 1.02493393421173 1.20623648166656 1.13529539108276 1.01386952400208 0.908614754676819 0.715884506702423 0.63202965259552 0.557973504066467 0.437064826488495 0.367873191833496 0.520034193992615 0.615438282489777 1.15153682231903 1.54873943328857 3.68967962265015 6.68196058273315 6.46523237228394 5.87264728546143 5.05589199066162 4.79193735122681 3.32980537414551 2.83783578872681 2.12459897994995 1.88012790679932 1.47206401824951 1.27438116073608 2.06324052810669 1.99855899810791 1.58950209617615 1.21147179603577 1.28962445259094 1.51171922683716 1.76435601711273 1.74038350582123 1.77953636646271 2.59007215499878 2.62915515899658 2.95109367370605 2.85812473297119 0.616351544857025 0.172661602497101 0.455547273159027 -0.209314897656441 4.07742023468018 5.84191799163818 0.128959357738495 0.990356385707855 0.938072800636292 0.939098536968231 0.972386002540588 1.7854198217392 1.89808666706085 1.95561993122101 2.90259861946106 2.55581569671631 2.55557727813721 2.94967460632324 2.66288995742798 2.64450573921204 2.80162930488586 1.23814082145691 4.40703344345093 1.11938190460205 0.520219385623932 4.42699766159058 7.23915863037109 10.2348546981812 0.489377707242966 3.89749670028687 2.21572351455688 8.96385383605957 6.34418487548828 0.214949145913124 3.36851024627686 13.6417598724365 -0.401899814605713 -0.116810783743858 0.503397822380066 -0.148965522646904 5.35134792327881 0.936308324337006 4.47577667236328 8.49510192871094 6.1225266456604 4.88645362854004 8.66083717346191 8.01326084136963 7.57241201400757 4.94956254959106 5.4603853225708 25.8655471801758 7.08167743682861 28.5030307769775 17.0576019287109 8.74790477752686 19.6419448852539 16.117073059082 14.5959844589233 7.38521146774292 30.5522136688232 37.6510124206543 26.3822975158691 23.4265689849854 16.4118881225586 2.75581336021423 3.52156782150269 39.8690528869629 4.89305639266968 6.10411834716797 12.4593315124512 35.8168029785156 22.4114799499512 13.6915874481201 8.19009113311768 5.75512599945068 8.8524284362793 9.55799102783203 8.24473285675049 6.24126577377319 5.38693475723267 6.31772470474243 4.98052310943604 7.38258790969849 19.5830535888672 26.188325881958 15.0600967407227 37.1293487548828 26.1775951385498 27.4199466705322 22.853271484375 20.9898624420166 19.0711288452148 19.3128547668457 17.6501178741455 17.2089576721191 16.2166347503662 15.1712207794189 13.932957649231 13.0895309448242 11.3934268951416 11.2049856185913 10.9962892532349 10.6716976165771 10.1519756317139 9.65420055389404 9.28329181671143 8.65920066833496 8.4382381439209 7.83444786071777 7.76215028762817 7.32678651809692 7.10206937789917 7.14113616943359
1.78545486927032 1.68391406536102 1.49147295951843 2.07253217697144 2.69064998626709 2.26848959922791 2.10652041435242 1.3124338388443 1.32279109954834 2.02984428405762 3.05625152587891 2.56250834465027 1.98698377609253 1.81496429443359 1.57853281497955 1.49888789653778 1.52546548843384 1.62440752983093 3.55497741699219 3.05780529975891 1.43071341514587 0.854510366916656 0.894622683525085 0.80934727191925 1.06030130386353 0.595364987850189 0.840823471546173 0.459359407424927 0.572624206542969 0.513871014118195 0.501607954502106 0.405065506696701 0.362250804901123 0.64419037103653 1.33576464653015 1.69758439064026 3.32561707496643 3.35213351249695 5.88060712814331 5.59623003005981 4.88454008102417 4.27593374252319 3.04556035995483 3.03237771987915 2.5896213054657 1.97101056575775 1.76969516277313 1.39028298854828 1.20046126842499 1.93042385578156 1.53398823738098 1.17047393321991 1.24801790714264 1.23839592933655 1.45198428630829 1.66866230964661 1.64741683006287 1.89215850830078 2.42292189598083 2.38059020042419 2.70122528076172 4.87992715835571 -0.103029988706112 -0.389355063438416 16.6020526885986 21.3596076965332 12.3107252120972 3.73379421234131 2.01277380256215e-05 0.849025070667267 0.773820281028748 0.826091349124908 1.67460489273071 1.78073632717133 1.72436511516571 2.02161574363708 1.92496991157532 1.94154906272888 1.90674841403961 2.39343881607056 2.30054450035095 0.798476994037628 10.0981492996216 5.92055082321167 0.533795356750488 9.26699352264404 2.51069116592407 6.0131573677063 0.839206039905548 0.433178097009659 1.21015751361847 7.23409938812256 1.21198451519012 0.102824203670025 7.87728357315063 1.48742640018463 -0.474076688289642 -0.461671322584152 -0.582774937152863 -0.347281754016876 -0.442728012800217 -0.693322956562042 11.3410387039185 -0.523309648036957 2.58082008361816 3.3629207611084 2.9084997177124 1.83067345619202 4.39659118652344 2.0620219707489 0.760217785835266 4.37224626541138 10.5326366424561 31.8794422149658 16.4146785736084 28.398889541626 33.7436637878418 22.107141494751 20.5312824249268 12.4856586456299 29.8794116973877 21.8205471038818 18.0222434997559 17.3918056488037 13.9393758773804 4.74291229248047 4.47329664230347 12.822826385498 2.55122256278992 8.9176197052002 21.1420288085938 20.05251121521 31.6190662384033 21.5886650085449 11.7685251235962 18.5297431945801 30.8944072723389 13.1539440155029 11.3510589599609 8.66560459136963 7.86667585372925 20.5182075500488 7.42558813095093 48.3249969482422 43.0553932189941 38.5941352844238 18.505126953125 31.2480487823486 21.1703853607178 18.2798023223877 14.023157119751 19.2444858551025 17.4777355194092 17.1685581207275 17.6375980377197 16.5283031463623 15.1570377349854 15.0360374450684 14.1907215118408 13.1876745223999 12.3534469604492 10.7929010391235 10.5989713668823 10.2765989303589 10.1951780319214 9.8014087677002 9.168625831604 8.80212783813477 8.12229537963867 8.01003074645996 7.74494934082031 7.34577035903931 7.12600994110107 6.83455419540405
1.16747033596039 0.819357454776764 1.68787896633148 2.24372315406799 2.42380142211914 1.95292055606842 1.41510677337646 2.00065779685974 2.38552236557007 3.34724569320679 2.31289029121399 2.0515034198761 1.76598215103149 1.74415481090546 1.60750162601471 1.51750481128693 1.41915905475616 1.39859473705292 1.39245080947876 1.12048077583313 2.68435311317444 1.34252154827118 1.24661028385162 0.641224324703217 0.66721498966217 0.571680545806885 0.476278215646744 0.762770891189575 0.720576822757721 0.525085806846619 0.498410105705261 0.467196464538574 0.470651745796204 0.404995441436768 0.914473950862885 1.38576996326447 1.57202231884003 1.63800382614136 3.02135586738586 3.04932522773743 4.98862171173096 4.34398412704468 3.82894945144653 3.67216372489929 2.70540022850037 2.36446166038513 2.32243728637695 1.77992129325867 1.29700207710266 1.13290369510651 1.8369847536087 1.794802069664 1.43543493747711 1.09017562866211 1.15893316268921 1.08393967151642 1.53853225708008 1.49619281291962 1.50177347660065 1.64011871814728 2.0569121837616 0.210658729076385 0.193744331598282 9.76163101196289 24.2234973907471 10.7970752716064 6.49525117874146 7.4684624671936 2.17763495445251 8.00936794281006 -0.190223678946495 0.637649953365326 0.794438302516937 1.45604872703552 1.56050264835358 1.53356647491455 1.36240744590759 1.28516924381256 1.36753487586975 1.58880293369293 0.673301160335541 1.41325306892395 16.4346008300781 12.5460033416748 0.846794664859772 7.11316013336182 0.490364402532578 0.694897413253784 2.58935832977295 0.487155467271805 0.344199806451797 1.9249392747879 0.220570117235184 0.550340414047241 7.23988103866577 -0.29642379283905 -1.05878138542175 -1.30222284793854 -1.15517425537109 -0.782293736934662 1.64635062217712 -0.563272297382355 0.67336642742157 14.5064468383789 23.5205039978027 5.34121704101562 -0.555761754512787 1.82540011405945 -0.266418427228928 1.03576815128326 0.649249792098999 4.54049444198608 3.87293601036072 2.53162097930908 2.50106143951416 3.91322159767151 10.4689016342163 12.6439027786255 19.0849075317383 11.4238195419312 10.145583152771 12.7442293167114 14.6222763061523 11.8499412536621 11.6625909805298 11.3508949279785 4.50233936309814 30.1525859832764 13.7074422836304 28.5872478485107 9.87464237213135 11.4410524368286 13.2768383026123 16.0987854003906 19.9293384552002 16.5976676940918 8.69890594482422 16.3172168731689 22.0349025726318 11.7603397369385 22.4976615905762 23.7307319641113 10.4581718444824 42.2254219055176 28.9832229614258 25.7581634521484 21.7170715332031 19.8579273223877 16.2720565795898 14.2764720916748 12.8361206054688 22.9970817565918 16.8696441650391 15.8102922439575 15.6826524734497 14.7404890060425 15.3757247924805 14.6371364593506 13.4648475646973 13.3921432495117 12.5373010635376 11.8270692825317 11.2463407516479 9.94350337982178 9.84899806976318 9.25225353240967 9.27117347717285 8.65857124328613 8.30307769775391 8.01569938659668 7.34766530990601 7.3365216255188 7.11264228820801 6.76646947860718
2.15343022346497 2.03554105758667 1.13827705383301 1.54702413082123 2.3047993183136 2.47036552429199 2.08163833618164 3.9793062210083 4.38647031784058 3.346186876297 2.22515916824341 2.02256035804749 1.39289820194244 1.77201175689697 1.65054249763489 1.43777525424957 1.40959489345551 1.39051985740662 1.2983306646347 1.11702704429626 1.03896188735962 2.34266114234924 2.06208801269531 1.1562716960907 0.936830103397369 0.450516074895859 0.434364467859268 0.30659157037735 0.301037728786469 0.690766394138336 0.342319428920746 0.471488267183304 0.464615046977997 0.454188793897629 0.748689532279968 1.14388823509216 1.29100847244263 1.34817159175873 1.2101868391037 1.36414384841919 2.86544299125671 4.55112504959106 4.33107805252075 3.71704435348511 3.31412744522095 3.19620585441589 2.41098856925964 2.14414858818054 1.67403161525726 1.48198461532593 1.16109037399292 0.997208058834076 1.6519730091095 1.59029340744019 1.20598018169403 0.89883679151535 1.01198399066925 1.18107986450195 1.38354933261871 1.28220748901367 1.23823881149292 1.93409967422485 -0.62902444601059 10.7966041564941 -0.765148878097534 2.34521150588989 9.89424514770508 11.7200536727905 5.1903862953186 15.4633893966675 0.871570587158203 -0.934753477573395 0.466550439596176 0.546948850154877 0.667193710803986 0.710052013397217 1.18639147281647 1.10126447677612 1.0442316532135 1.15099549293518 0.833560407161713 20.4462738037109 13.4423551559448 1.22550892829895 4.43162298202515 0.514848947525024 0.424306660890579 0.462177097797394 0.366322726011276 1.17796552181244 3.49787759780884 4.01810932159424 0.193873301148415 5.12895345687866 -0.0254208296537399 -0.600679397583008 -0.960546016693115 -1.5628308057785 -1.63365149497986 -1.65075588226318 4.00806617736816 -1.09253740310669 -0.918541252613068 -0.850095093250275 6.55171585083008 6.58832883834839 2.01398730278015 18.2705211639404 0.385019451379776 -1.19973576068878 -0.805847644805908 14.3415145874023 0.972811102867126 0.656369090080261 9.29341125488281 4.06051111221313 18.8245048522949 6.00894832611084 10.0708255767822 11.6396017074585 10.4688701629639 10.0112476348877 15.3759651184082 9.24429607391357 10.0758409500122 8.9367618560791 7.62969541549683 31.6662864685059 21.7056560516357 12.9619979858398 16.9298210144043 22.8293170928955 25.6936531066895 30.8030567169189 25.6070461273193 18.9675521850586 15.6933279037476 17.9236698150635 8.37970161437988 17.3119697570801 25.2317008972168 23.781982421875 14.4492311477661 36.5011177062988 23.3356437683105 20.8644123077393 17.0664482116699 17.6895217895508 14.8952121734619 3.71173357963562 5.2482647895813 12.4202451705933 13.1912651062012 13.5638427734375 14.4112548828125 13.6065616607666 13.7144746780396 13.0335083007812 13.7837247848511 12.7485761642456 12.7044448852539 12.0934238433838 11.2280902862549 10.6116886138916 10.0545101165771 9.3057279586792 8.96075534820557 8.74875068664551 8.42742156982422 7.84838819503784 7.58192682266235 7.27557754516602 6.64539051055908 6.66012144088745
10.8122644424438 8.67318630218506 1.98634564876556 2.25464153289795 3.19093632698059 3.12869572639465 3.26474046707153 4.14966726303101 3.0063271522522 2.22461438179016 1.97961628437042 1.98000681400299 1.84427165985107 3.11585998535156 1.99718022346497 1.44780826568604 1.30471098423004 1.33808290958405 1.26309907436371 1.02856004238129 0.87588369846344 0.95842570066452 0.581806838512421 1.7955824136734 1.58823299407959 1.00027084350586 0.281259119510651 0.262346625328064 0.247087672352791 0.274135082960129 0.236416295170784 0.295663714408875 0.310993522405624 0.447866767644882 0.573051750659943 0.918376684188843 0.955809414386749 1.00817954540253 0.997778952121735 1.08809864521027 1.10978925228119 1.3552553653717 2.6143958568573 3.90574383735657 3.76744985580444 3.26209139823914 2.89957571029663 2.78039455413818 2.15408968925476 1.95346295833588 1.45478308200836 1.34200823307037 1.02292144298553 0.848291575908661 1.45400643348694 1.390700340271 1.04553735256195 0.900408208370209 0.844847679138184 0.996331393718719 0.953439354896545 0.517450392246246 0.289290934801102 30.98486328125 20.7571601867676 3.34734392166138 14.1142129898071 9.40060997009277 -0.322619378566742 3.41039872169495 1.27168357372284 6.39822196960449 14.7895631790161 11.299280166626 -0.00450617494061589 -0.315781235694885 0.465147972106934 0.340235263109207 0.940932333469391 1.01548635959625 0.969218254089355 0.716639757156372 2.20005130767822 6.11972188949585 3.70338797569275 0.18199610710144 0.502483665943146 13.8634824752808 11.775242805481 2.82933926582336 4.45798206329346 1.14120674133301 1.04986131191254 6.0238733291626 0.109238244593143 -0.562264025211334 -1.4015599489212 -1.47038459777832 -1.97918272018433 -1.88937449455261 -1.88787436485291 -2.02490019798279 0.313741654157639 6.67050266265869 -1.28634357452393 13.7951135635376 8.78965187072754 12.6365156173706 -0.32014599442482 0.348245352506638 3.57746005058289 8.15469264984131 0.693975269794464 12.6404981613159 13.5790576934814 2.89703774452209 1.24064803123474 1.82856023311615 1.85827302932739 11.9582443237305 9.33077430725098 6.02166604995728 15.9806547164917 13.2789516448975 10.1078805923462 8.37097072601318 8.49046611785889 15.7014265060425 10.329158782959 15.8761749267578 4.10836839675903 6.43849849700928 26.2439956665039 20.4075622558594 18.5466957092285 17.3855323791504 15.5516366958618 14.4509153366089 19.7921257019043 28.1391639709473 26.7373428344727 18.0138034820557 8.45346355438232 11.3802766799927 14.2952451705933 16.8206024169922 13.4263896942139 14.0439491271973 5.89392185211182 11.7958307266235 27.535457611084 24.6413898468018 29.2339630126953 11.1695022583008 11.7380800247192 11.9996471405029 12.5780878067017 12.1393613815308 12.2450180053711 12.982666015625 12.3914451599121 11.4094867706299 11.2802867889404 10.6819934844971 9.84833145141602 9.36079788208008 8.94682598114014 8.48849678039551 8.1916618347168 7.9395899772644 7.60646820068359 7.00528144836426 6.70001792907715 6.46705102920532
1.28955388069153 1.08319938182831 6.8687629699707 6.5737476348877 3.2282543182373 3.02356243133545 2.86175179481506 2.71507668495178 2.24738311767578 1.85276508331299 1.60001182556152 2.43492937088013 1.97276103496552 1.91535866260529 1.58217358589172 1.38069140911102 1.29398202896118 1.67126893997192 1.10891819000244 0.99461567401886 0.868595600128174 0.729307472705841 0.87839663028717 0.795946300029755 0.418074935674667 1.39842939376831 1.22566163539886 0.834718585014343 0.177955955266953 0.222281441092491 0.185041412711143 0.204825922846794 0.199711516499519 0.273298114538193 0.353327929973602 0.555465340614319 0.540566623210907 0.721141993999481 0.725867629051208 0.721150159835815 0.567255139350891 0.663327872753143 1.13066720962524 2.39773416519165 2.3152768611908 3.38745760917664 3.22749996185303 2.76768064498901 2.48939085006714 1.95055592060089 1.89779675006866 1.75889301300049 1.29455554485321 1.17237424850464 0.847928464412689 0.656011164188385 1.21748411655426 0.891605317592621 0.574127376079559 0.730532169342041 0.177145108580589 0.792129695415497 0.774846255779266 0.194533556699753 0.169492200016975 13.319055557251 13.9277658462524 10.1942510604858 2.12081098556519 20.7883377075195 9.73973560333252 4.68073272705078 2.52979516983032 2.59661793708801 7.00120830535889 2.13754224777222 16.7124042510986 8.82715320587158 0.283722430467606 0.930698454380035 3.38489317893982 0.882949531078339 0.691961407661438 0.755994975566864 8.50101280212402 0.340624988079071 3.06362175941467 6.63045644760132 4.87695169448853 0.441986382007599 1.18866896629333 6.6276068687439 5.56110286712646 0.300909280776978 2.52219820022583 -0.438257247209549 -0.996938586235046 -1.57154250144958 -1.74781942367554 -1.73901355266571 1.28564023971558 2.92215466499329 -1.23664081096649 1.95200335979462 -0.145302355289459 10.0028848648071 14.3683176040649 7.96076440811157 4.81459903717041 3.42213940620422 -1.14093494415283 5.57567739486694 11.6538791656494 18.0045070648193 12.317928314209 1.78240180015564 -0.438836604356766 -0.907348036766052 0.225857689976692 1.02375483512878 1.50737059116364 3.45913577079773 11.5927295684814 25.7819747924805 10.7075099945068 9.70630931854248 8.20591354370117 8.15942573547363 7.61697769165039 9.14582443237305 8.01762962341309 33.851016998291 34.7109909057617 24.2386379241943 14.3739604949951 15.5790557861328 14.7034587860107 13.6900453567505 13.3391036987305 12.3947057723999 11.5617828369141 13.331244468689 7.88969659805298 16.9197425842285 20.4488487243652 11.3146839141846 11.0213747024536 6.89228391647339 4.87107086181641 27.1556854248047 17.666805267334 29.1424369812012 24.8528442382812 21.6232414245605 18.2243595123291 10.197865486145 10.6295013427734 10.9791202545166 11.4912796020508 11.5136079788208 11.0117483139038 11.5147609710693 10.9537343978882 10.0806970596313 9.87092876434326 9.41772937774658 8.7209300994873 8.38827323913574 7.70163726806641 7.75075721740723 5.4390287399292 4.13788557052612 4.05780601501465 3.50821852684021
3.63062810897827 1.17103207111359 1.03067016601562 2.33124184608459 5.99970960617065 3.33911776542664 2.81308889389038 2.56054496765137 2.35446763038635 1.76904022693634 1.64240896701813 1.57901132106781 1.58479535579681 1.56353616714478 1.85592269897461 1.79369139671326 1.48051583766937 1.15338361263275 0.991476893424988 1.02426874637604 0.960200786590576 0.692170023918152 0.569917798042297 0.521881759166718 0.718398153781891 0.656017422676086 0.320366948843002 1.08421754837036 0.784857094287872 0.133043318986893 0.0950921177864075 0.141193985939026 0.133049935102463 0.180495873093605 0.187322080135345 0.283326238393784 0.416115790605545 0.44643622636795 0.502180159091949 0.771716833114624 0.64020162820816 0.681121110916138 2.12183427810669 1.19826710224152 0.651453912258148 2.0904495716095 2.04763031005859 2.96799635887146 2.49917674064636 2.22136187553406 2.12992095947266 1.69974851608276 1.58410573005676 1.5430953502655 1.08268916606903 0.681085467338562 0.507198631763458 1.06445062160492 1.03000545501709 0.719248473644257 0.434559166431427 0.0796528905630112 0.382650434970856 0.752637803554535 0.252023458480835 0.0873980224132538 -0.673144459724426 4.57612466812134 12.458176612854 2.26784181594849 9.61143970489502 4.53831672668457 3.16411924362183 1.8009694814682 1.11764621734619 0.124750509858131 12.1076745986938 6.65148019790649 5.85746622085571 5.09751987457275 4.0994873046875 4.78494596481323 0.312969565391541 4.32584857940674 4.38349914550781 0.61028665304184 13.258807182312 14.6059217453003 6.34010982513428 3.50358939170837 1.17791295051575 1.10037755966187 4.85354614257812 1.33869159221649 9.07504844665527 -0.500268638134003 -0.954382956027985 -1.60367834568024 -1.86669170856476 -2.32034063339233 -2.07004237174988 -2.47409820556641 -2.10479593276978 6.96502828598022 20.1171875 27.1245098114014 23.3745288848877 12.2156200408936 9.57582569122314 1.81548750400543 1.26399898529053 17.0173110961914 20.3321170806885 14.6802453994751 11.1621160507202 6.14605903625488 -1.37884712219238 -1.95292401313782 -1.41641175746918 8.04990673065186 30.3478908538818 24.3720684051514 26.6322536468506 31.5166721343994 23.3320083618164 16.3450775146484 9.41260242462158 9.02489566802979 7.7900447845459 7.61139392852783 7.31970119476318 7.59761524200439 7.51551866531372 17.3507614135742 18.2952346801758 15.7179107666016 13.1346683502197 13.4137630462646 12.281023979187 11.6859931945801 11.283787727356 10.729941368103 8.67023849487305 15.0083703994751 20.6649188995361 9.73632907867432 11.2377290725708 8.96612548828125 15.1551294326782 24.6867446899414 25.3681812286377 13.8799715042114 12.3742380142212 16.2963581085205 17.9168167114258 16.3791046142578 13.920802116394 10.1091327667236 10.1796684265137 10.5004329681396 10.2798252105713 10.1529817581177 9.79936981201172 10.117618560791 9.51931285858154 8.88305282592773 8.8145923614502 8.17054176330566 7.8825101852417 7.55210256576538 5.60458564758301 4.04364252090454 3.47846508026123 3.58220338821411
2.95532536506653 2.91226887702942 2.5759391784668 2.4599494934082 3.74197244644165 5.50609350204468 5.26141977310181 2.70081639289856 2.40220332145691 1.9941862821579 1.53036451339722 1.61681866645813 1.52702462673187 1.50388407707214 1.44425654411316 1.38595819473267 1.71133208274841 1.20458650588989 1.14490485191345 0.947947323322296 0.974402070045471 0.897801637649536 0.529000878334045 0.455783247947693 0.309252142906189 0.390399008989334 0.595207393169403 0.239637270569801 0.955511927604675 0.820009171962738 0.671450257301331 0.0202101469039917 0.0382435992360115 0.120869763195515 0.119761981070042 0.163771495223045 0.236366599798203 0.41602286696434 -0.560175836086273 0.461691856384277 1.22200870513916 1.02308118343353 1.0204244852066 0.650094091892242 0.512280523777008 0.471857219934464 0.558864891529083 1.84661149978638 2.66902613639832 2.55342745780945 2.12282419204712 1.88800406455994 1.81737184524536 1.4668173789978 1.37339925765991 0.945897996425629 0.81747168302536 0.527141690254211 0.395466476678848 0.93943989276886 0.915296077728271 0.640988886356354 0.974766671657562 0.432657063007355 0.224477991461754 0.0219875406473875 -0.685495376586914 8.23717975616455 14.429141998291 8.25654029846191 3.92416334152222 7.58828783035278 4.27864789962769 2.0061571598053 5.95071077346802 1.0118955373764 14.7937507629395 9.9028902053833 5.30331707000732 4.62657070159912 5.11966848373413 4.97702360153198 0.0720556676387787 11.8881044387817 6.92852830886841 1.63814508914948 0.376763969659805 2.75145745277405 7.50420761108398 8.12208843231201 0.454601585865021 0.274482816457748 13.1876783370972 0.752623736858368 0.401168465614319 0.0869677737355232 -1.04457938671112 -1.3954826593399 -1.80158877372742 -2.13446140289307 -2.31024074554443 8.30687618255615 8.17749404907227 1.89391505718231 24.3266506195068 26.3227272033691 20.7108726501465 17.8241672515869 8.95951271057129 6.29692220687866 2.77911639213562 0.72145026922226 13.6744194030762 14.1164131164551 11.4788599014282 1.98266708850861 1.57404518127441 -2.35036444664001 -1.97049176692963 10.3281803131104 10.3876161575317 27.144437789917 11.3689069747925 19.0572528839111 16.6535511016846 17.055347442627 14.774600982666 12.7654371261597 8.93053817749023 8.63537693023682 7.5497899055481 7.27061796188354 7.54846668243408 7.47264575958252 9.47637748718262 12.8651065826416 13.8052129745483 12.8345556259155 12.1617641448975 11.2521066665649 10.2904396057129 9.98850154876709 9.72985172271729 9.00605201721191 7.75800752639771 7.54986238479614 8.37936019897461 9.45519065856934 6.88530015945435 7.23557138442993 22.7354125976562 18.0220718383789 14.9534130096436 10.5527744293213 10.1275806427002 12.2690305709839 14.5885143280029 12.2937097549438 8.8664493560791 9.03988742828369 8.99851608276367 9.2330207824707 9.1456823348999 8.92189884185791 8.52422523498535 8.83958911895752 8.34897422790527 8.29678630828857 7.99640846252441 7.39484453201294 5.60740995407104 4.06840896606445 3.61438488960266 3.04013109207153
5.59788990020752 2.86131501197815 2.81119346618652 2.50169205665588 3.19094610214233 3.81765151023865 3.32653594017029 4.84569787979126 4.59044075012207 2.1252281665802 1.93691825866699 2.46316027641296 2.58129644393921 1.57574725151062 1.38080835342407 1.3877660036087 1.27875506877899 1.56884741783142 1.51684904098511 1.08009815216064 1.01545393466949 0.817939937114716 0.813966274261475 0.75559538602829 0.35741651058197 0.180656522512436 0.234051868319511 0.532207846641541 0.489787876605988 0.150043144822121 0.71796989440918 0.624934136867523 -0.0228980705142021 -0.0270509198307991 0.0252398066222668 0.0974625051021576 0.145166665315628 0.161607757210732 -0.516103863716125 -0.230731561779976 18.3069686889648 0.720482289791107 0.592849314212799 0.459526360034943 0.341860711574554 0.427119970321655 0.390706419944763 0.327758252620697 0.307973861694336 1.60513389110565 2.3009557723999 2.20687389373779 1.8138245344162 1.60921990871429 1.53634226322174 1.2419753074646 1.17726504802704 0.764924347400665 0.715065062046051 0.473105996847153 0.345266044139862 0.87278801202774 0.640650033950806 1.68395459651947 -0.955904066562653 0.148414313793182 -0.481922954320908 8.52108001708984 14.5444030761719 8.93439865112305 2.49211478233337 2.1111958026886 6.45256042480469 1.29509460926056 -1.29358077049255 -0.472585707902908 9.01400089263916 6.80453252792358 7.38027143478394 6.61106967926025 4.66961765289307 -0.630421459674835 1.71413576602936 0.106422692537308 12.0030393600464 12.2583332061768 8.11591053009033 19.7339286804199 19.5841045379639 2.58495044708252 4.14630079269409 -0.0573318935930729 10.8334655761719 0.174465775489807 0.269155442714691 -0.0178395248949528 -0.628589630126953 -1.20601320266724 -2.11384630203247 -2.20716834068298 -2.40023994445801 5.45005130767822 0.980518579483032 5.78751134872437 37.3599014282227 28.5926036834717 18.7103157043457 13.8333196640015 12.526538848877 10.5772476196289 6.51950120925903 9.33985900878906 18.2119407653809 11.3712902069092 6.08663749694824 0.242654412984848 -2.26079130172729 -1.35654187202454 -2.2149121761322 8.32657814025879 14.8946952819824 11.7357330322266 28.0688323974609 24.4612197875977 17.3586921691895 13.3756046295166 12.4179935455322 12.0970182418823 11.4958238601685 8.26319980621338 8.51321792602539 8.23907279968262 7.23202610015869 6.87679386138916 7.1760573387146 7.08293581008911 8.55029201507568 10.8247337341309 11.4063501358032 8.97536468505859 10.1187324523926 9.39930057525635 9.10244083404541 8.55010795593262 8.41507434844971 8.02236843109131 7.26347923278809 9.63849830627441 8.29406070709229 17.6178512573242 11.6624002456665 6.98453998565674 9.82522773742676 12.7274436950684 11.7947158813477 9.36625480651855 8.81828212738037 12.9178190231323 11.9372806549072 9.88630867004395 7.94402694702148 8.07077980041504 8.03013229370117 8.19411373138428 8.06598091125488 8.0118579864502 8.3580904006958 8.12437915802002 7.67724084854126 7.55581903457642 6.38718461990356 10.4464693069458 21.2481498718262 21.6972179412842
3.66065955162048 5.01468372344971 3.19818568229675 2.79142189025879 2.78472185134888 3.23866772651672 3.11508989334106 3.01694941520691 2.71701502799988 4.20463848114014 1.92234027385712 3.22325158119202 1.88988697528839 1.22680246829987 1.50822949409485 1.41097640991211 1.23822963237762 1.20929265022278 1.12931406497955 1.4338059425354 1.36479985713959 0.914737105369568 0.82112181186676 0.290315747261047 0.668182611465454 0.287310123443604 0.0744711235165596 0.125743791460991 0.229538276791573 0.435474276542664 -0.108376674354076 -0.107816800475121 0.555289804935455 0.512430548667908 -0.0365350618958473 -1.30250132083893 -0.808177709579468 -1.33905589580536 -1.1533305644989 -1.25805878639221 26.2355251312256 17.9600830078125 9.42222690582275 0.396939098834991 0.315541684627533 0.234549537301064 0.175868153572083 0.17267706990242 0.222703114151955 0.215771496295929 1.44438004493713 1.39328598976135 1.99975228309631 1.91147792339325 1.54462230205536 1.37413263320923 1.11224603652954 1.07943618297577 1.08471381664276 0.745100855827332 0.454440414905548 0.439358353614807 1.25804352760315 0.451104342937469 -0.200360417366028 29.4854316711426 19.4396533966064 14.1787567138672 13.7753381729126 5.27585315704346 6.30008459091187 11.1218318939209 10.7628345489502 6.8319878578186 0.974112570285797 3.94972443580627 20.7019309997559 14.598105430603 5.73401403427124 5.48779392242432 -0.118494786322117 0.911461114883423 21.0204105377197 19.091682434082 0.82353287935257 6.33792734146118 5.56653213500977 6.30517435073853 4.62125730514526 6.65756750106812 0.749812066555023 -0.237732127308846 -0.358727276325226 9.11096286773682 5.50450849533081 0.876588463783264 -0.079779826104641 -1.35275876522064 -1.74535512924194 -1.14340269565582 1.42046737670898 5.80940198898315 10.1911277770996 3.73531937599182 23.8652400970459 12.9661836624146 22.4060955047607 19.3659057617188 12.6485290527344 10.9403619766235 10.5167179107666 13.0424289703369 10.6591606140137 1.0534336566925 3.83801317214966 -0.969327390193939 -2.14829707145691 -2.45748257637024 2.10510325431824 22.7206382751465 18.1864604949951 13.5484743118286 9.93054389953613 12.7520151138306 16.0564308166504 12.1670093536377 10.5057878494263 10.737753868103 9.68353652954102 10.5252304077148 10.1555271148682 7.87820529937744 8.07809543609619 7.16316270828247 6.93232870101929 6.48698711395264 6.75880765914917 6.71213865280151 9.78619861602783 10.0005340576172 9.12637615203857 9.34077835083008 8.85184192657471 8.15049934387207 7.9216742515564 7.6445894241333 7.67517900466919 7.30445671081543 6.86929512023926 6.70737934112549 7.26402568817139 6.92286062240601 6.47547626495361 6.45993900299072 7.56534290313721 10.6683588027954 8.62024974822998 8.27803421020508 8.75099182128906 10.6818323135376 9.96478366851807 8.23383140563965 7.29008340835571 7.39949131011963 7.54472398757935 7.64650535583496 7.48601293563843 7.46442174911499 7.78468370437622 7.50962352752686 5.81543016433716 15.7084941864014 5.81808137893677 16.8151760101318
11.7062005996704 10.4460306167603 4.59790229797363 4.36643505096436 3.12726545333862 2.77291893959045 2.77480673789978 2.73663282394409 2.49697351455688 2.29271388053894 3.92548656463623 3.91166305541992 1.70656108856201 1.74168515205383 1.22702419757843 1.08134186267853 1.34554183483124 1.29079055786133 1.13929629325867 1.08609259128571 1.0028418302536 1.24689126014709 1.14045643806458 0.724164009094238 0.591929793357849 0.591229796409607 0.534409582614899 0.175032317638397 -0.0804148390889168 0.0475166365504265 0.148607939481735 -0.151277601718903 -0.168087333440781 -0.153018638491631 0.466046929359436 -1.22519218921661 -1.76308262348175 -1.58898854255676 -1.73377418518066 -1.84102582931519 -1.33607518672943 26.0436058044434 10.9146451950073 8.93770408630371 5.884192943573 0.116588614881039 0.056017491966486 0.0678336098790169 0.0718068182468414 0.0687586218118668 0.075286902487278 0.0571558587253094 1.25509226322174 1.21260404586792 1.7591347694397 1.43597280979156 1.27928304672241 1.22889304161072 1.05551564693451 1.32443225383759 1.73709309101105 1.63589680194855 1.97225797176361 1.84768784046173 3.99963688850403 26.1503009796143 17.1971492767334 12.8571186065674 5.31830835342407 -0.713834345340729 5.57242202758789 4.15343809127808 3.22959399223328 4.04511833190918 4.32449769973755 18.4387969970703 23.1365966796875 15.9002199172974 10.8840675354004 1.48217844963074 1.01767754554749 8.56507301330566 15.8015403747559 9.17336654663086 11.4003953933716 14.6062383651733 10.3428010940552 4.48513174057007 3.45701575279236 3.85725259780884 0.0731652304530144 -0.131885409355164 4.5630931854248 6.40719413757324 7.36885356903076 1.7211389541626 -0.215718686580658 -0.781077921390533 -1.58803761005402 -1.16545963287354 -2.23930501937866 0.196389198303223 3.03025650978088 9.7200231552124 9.88589763641357 19.5891761779785 18.2359447479248 18.0349407196045 13.3156147003174 12.799976348877 7.47120761871338 6.25026178359985 7.22106456756592 5.646888256073 0.54858934879303 -1.64196753501892 -1.98037278652191 -2.44856357574463 20.7959480285645 11.7587261199951 10.2504606246948 12.6051063537598 13.2035121917725 33.6656494140625 23.7301445007324 14.1598281860352 12.2633209228516 10.1262521743774 10.0065279006958 9.88563537597656 9.51490020751953 9.42131900787354 9.03637313842773 7.83998584747314 7.59865379333496 6.74604463577271 6.52378845214844 6.01276540756226 6.2478551864624 7.17832851409912 8.06306648254395 8.31592178344727 7.78308486938477 8.21368789672852 7.74120807647705 7.3321738243103 7.20895195007324 6.9247670173645 6.97752094268799 6.55971574783325 6.41015863418579 6.29073810577393 6.41727018356323 6.06157732009888 6.00580835342407 6.15558004379272 9.75332069396973 9.20857715606689 7.33541059494019 7.45928859710693 7.21125078201294 9.04672718048096 7.49508953094482 6.81443405151367 6.92368364334106 6.85139656066895 6.97165870666504 7.06207609176636 6.93783044815063 6.95801305770874 5.63293552398682 25.5494365692139 14.5057764053345 16.579288482666
3.9598822593689 3.93736577033997 8.8867883682251 3.56791472434998 3.99052882194519 3.82044172286987 3.04135704040527 2.71113228797913 2.40789532661438 2.19970607757568 2.48904705047607 2.62404751777649 3.5156135559082 3.22829484939575 1.66053473949432 1.59190237522125 1.05436670780182 0.852629125118256 1.22418284416199 0.795098602771759 0.993958950042725 0.914974331855774 1.09286534786224 1.0437513589859 0.642251074314117 0.560348272323608 -0.0496342889964581 0.465546190738678 0.119398720562458 -0.164625927805901 -0.169565171003342 -0.17336143553257 -0.198137134313583 -0.231025293469429 -0.203358054161072 -0.302476584911346 -1.62994611263275 15.6974191665649 -1.3339866399765 2.21479082107544 13.9433193206787 11.9997148513794 26.8259601593018 13.5636034011841 6.43868827819824 5.61625242233276 -0.0029268607031554 -0.0268642026931047 -0.0628468245267868 -0.0859678089618683 -0.0347048193216324 -0.0408518277108669 -0.0605701729655266 -0.0481684170663357 1.12751293182373 1.66375195980072 1.62939250469208 1.33361375331879 1.42656445503235 2.09732389450073 2.3056206703186 2.10790610313416 1.71929812431335 1.47528064250946 1.25699746608734 -0.181571438908577 -0.574119627475739 10.8431644439697 -0.831104040145874 10.9463996887207 -1.65449833869934 7.77063131332397 1.43045115470886 2.79358220100403 2.76668357849121 4.41851186752319 3.95766544342041 -0.349137157201767 -0.363052904605865 3.5791552066803 9.51696300506592 8.25651931762695 0.612560093402863 7.7439603805542 6.37042379379272 4.885009765625 7.50746822357178 6.73732852935791 5.23128986358643 3.07555770874023 3.52880644798279 0.432107001543045 -1.01330876350403 -0.449901551008224 3.96025681495667 -0.375275909900665 0.44772732257843 -0.438126176595688 -0.843697309494019 -1.62896192073822 -1.93757712841034 12.5079355239868 10.6653604507446 7.58100366592407 12.7566375732422 15.7491092681885 24.6252117156982 19.5170478820801 14.2495622634888 5.68348836898804 8.06870079040527 6.37747716903687 5.38833093643188 4.21054935455322 3.13435435295105 -0.320310235023499 -2.43269824981689 -2.27422285079956 -2.46301960945129 13.6411781311035 7.91093683242798 10.1794528961182 7.50936317443848 8.23850917816162 20.0985240936279 16.7669849395752 14.7629890441895 11.1398258209229 9.80091953277588 9.47684764862061 9.37105655670166 9.11238670349121 8.45070934295654 8.40580272674561 7.15914011001587 7.26190948486328 7.02366638183594 6.24631595611572 6.05429315567017 5.94193410873413 5.8590235710144 6.3822717666626 6.96584844589233 7.08659887313843 6.57565689086914 7.33004903793335 6.98256874084473 6.66535711288452 6.5291485786438 6.64858531951904 6.34814071655273 6.14609575271606 6.04944086074829 5.98111820220947 5.94992923736572 5.87466192245483 5.95691680908203 6.04148864746094 8.27469158172607 7.78994369506836 6.24901914596558 6.74155473709106 8.32909393310547 7.93396329879761 6.61281538009644 6.29718351364136 6.36892366409302 6.57978439331055 6.75220394134521 6.55705451965332 6.45412063598633 30.576530456543 20.0677738189697 10.9431715011597
6.5139274597168 6.04841709136963 3.82696294784546 7.8986964225769 7.37983465194702 3.44393229484558 3.61207389831543 3.00634932518005 2.6716787815094 2.6464946269989 2.22371125221252 2.05713701248169 1.71574926376343 1.56960129737854 2.99288940429688 2.831139087677 1.49946439266205 1.4265695810318 0.928675889968872 1.14659297466278 1.09386205673218 0.901713609695435 0.82627409696579 0.739409446716309 0.941159009933472 0.85022634267807 0.473171830177307 0.400562167167664 -0.208898767828941 -0.219685599207878 -0.246289312839508 -0.264031738042831 -0.282097935676575 -0.294472098350525 -0.294643878936768 -0.283637136220932 -1.30434381961823 13.0130252838135 4.12959766387939 10.8352022171021 10.6634130477905 1.57710945606232 7.88884449005127 23.4011631011963 13.8849620819092 8.91005039215088 4.48083972930908 3.37352204322815 -0.196240082383156 -0.191504076123238 -0.207282602787018 -0.175173372030258 -0.144108548760414 -0.124665766954422 -0.103500679135323 -0.0649134963750839 1.07021617889404 1.59214091300964 1.59943914413452 1.92142164707184 2.01921916007996 1.91196954250336 1.76005113124847 1.41549444198608 1.3014110326767 0.907609045505524 13.4504261016846 19.5889186859131 12.19065284729 -1.68876421451569 -2.69696021080017 33.3272018432617 24.09739112854 4.03512668609619 3.1279079914093 -1.24256348609924 -1.93600881099701 -0.627397000789642 15.8387632369995 15.9606218338013 11.0446357727051 2.58957600593567 8.13176536560059 11.0346040725708 9.59051704406738 5.08169841766357 4.11497688293457 2.7032585144043 5.88142728805542 4.07258749008179 2.87573218345642 -0.961788892745972 0.266194224357605 -1.28892111778259 0.66303813457489 -0.373005598783493 15.2385816574097 3.31049561500549 -1.15859270095825 -1.417809009552 16.7624111175537 28.1205902099609 23.5010375976562 11.2963161468506 17.4823436737061 23.6535015106201 15.7598905563354 15.0841875076294 14.4307489395142 10.7877416610718 17.9006748199463 12.1655540466309 7.399085521698 4.7474217414856 5.00255584716797 2.45985722541809 -1.01230454444885 -2.1604220867157 4.10769414901733 23.5801944732666 20.7625579833984 10.8479995727539 10.3792457580566 8.72446060180664 13.129451751709 27.3007431030273 13.3342733383179 12.7472677230835 11.971396446228 10.1266860961914 9.1985034942627 8.30738353729248 8.55565357208252 7.49125194549561 7.74727630615234 7.3503794670105 6.6240234375 6.70121288299561 6.49604034423828 5.80380725860596 5.25826215744019 5.46096086502075 5.39556312561035 6.36401987075806 6.4826545715332 6.20274019241333 6.04098320007324 6.61320114135742 6.34061813354492 6.21755456924438 6.03487873077393 6.08707904815674 6.00457382202148 5.82227802276611 5.843017578125 5.71195793151855 5.56876420974731 5.48895740509033 5.58460712432861 5.70070648193359 7.08998966217041 5.78468608856201 6.43998384475708 6.23841381072998 7.41330766677856 6.67863512039185 4.49462699890137 4.37743616104126 4.95193481445312 4.87506580352783 6.30950784683228 6.12720966339111 6.232750415802 12.9373712539673
7.66802883148193 7.06472063064575 5.5919361114502 5.37794065475464 3.72119855880737 6.68886852264404 6.30720472335815 3.40507745742798 3.30593013763428 2.90815711021423 2.58470582962036 2.5732958316803 1.97643864154816 1.48425543308258 1.40716302394867 1.19951224327087 2.60733652114868 1.25395810604095 1.33083033561707 1.27003109455109 0.626186907291412 1.00573110580444 0.932359158992767 0.737665712833405 0.661945581436157 0.569577038288116 0.752188980579376 0.664817154407501 0.30706188082695 -0.297069042921066 -0.355839401483536 -0.370378077030182 -0.350414425134659 -0.352806895971298 -0.346481919288635 -0.34175780415535 -1.6625429391861 -1.75591588020325 -0.546419858932495 3.24048757553101 -1.77507066726685 -1.08217537403107 5.07041692733765 32.1773109436035 22.2761287689209 12.1453247070312 9.24042224884033 3.49074196815491 3.10396003723145 2.50836038589478 -0.31047049164772 -0.279163002967834 -0.233429625630379 -0.204315796494484 -0.158693879842758 0.156380534172058 0.802311539649963 1.42007648944855 1.84016919136047 1.75736260414124 1.60155427455902 1.54556906223297 1.40224778652191 1.33936727046967 1.17182803153992 0.894758462905884 -0.446756541728973 0.0391887500882149 2.2453305721283 -2.26961994171143 -2.6684296131134 18.9403839111328 38.0832366943359 16.097583770752 3.41074538230896 -1.67172884941101 10.0437440872192 35.5066757202148 23.4887809753418 13.6965360641479 15.3027076721191 3.16501355171204 13.4200458526611 7.34792232513428 4.27930068969727 4.24181079864502 3.4961621761322 3.34990167617798 2.25919699668884 4.38036489486694 4.1276683807373 -0.154619202017784 -1.07993531227112 -1.06878232955933 -1.41315734386444 12.2698163986206 -0.696725010871887 12.4432373046875 -0.465654581785202 10.4941091537476 25.1276626586914 22.4478435516357 12.0330743789673 12.9016275405884 24.9981479644775 23.8323135375977 16.0519542694092 11.0211763381958 9.53043460845947 10.1710968017578 15.775821685791 18.8294429779053 23.4047431945801 23.5635719299316 11.5490884780884 3.59386134147644 1.3320449590683 5.62993144989014 17.5609397888184 26.7805347442627 15.5566835403442 12.150032043457 12.0203628540039 13.2432861328125 4.73847675323486 5.60600614547729 23.5894756317139 17.5041484832764 11.1996030807495 10.979211807251 9.71695423126221 9.36966800689697 8.46195793151855 7.90670156478882 7.49809885025024 6.72203969955444 6.81943464279175 6.48870754241943 6.14351511001587 6.22210550308228 5.56941509246826 5.42459917068481 4.85485982894897 5.03733253479004 4.96327829360962 5.55328989028931 5.86215829849243 5.6535758972168 6.28069496154785 6.00026607513428 5.78065967559814 5.71210384368896 5.66280460357666 5.62274169921875 5.64560651779175 5.560631275177 5.51744174957275 5.43018817901611 5.34452724456787 5.299241065979 5.38542413711548 6.57038497924805 6.09546136856079 5.48208570480347 5.06024694442749 4.08222579956055 4.15000057220459 3.09806203842163 3.37361192703247 3.4974422454834 3.70204639434814 18.0329914093018 5.89513731002808 5.74370718002319
18.0697612762451 9.00006675720215 6.49802350997925 6.23979949951172 4.97741413116455 3.72454071044922 3.53888654708862 5.75462436676025 3.23779773712158 3.09472060203552 3.0355281829834 2.81318044662476 2.4902229309082 1.83378839492798 1.73281812667847 1.23752188682556 1.095627784729 2.38476252555847 2.24159216880798 0.956683158874512 1.16839551925659 0.719155967235565 0.474470764398575 0.854064404964447 0.40857920050621 0.573711931705475 0.477777421474457 -0.0707506388425827 0.566501617431641 0.155824303627014 -1.78508841991425 -2.20128631591797 -2.23866200447083 -0.425502836704254 -0.399102807044983 -0.401049017906189 -0.423208326101303 -2.2197527885437 12.6847915649414 3.11505675315857 -1.7701427936554 -2.04011726379395 -1.04178667068481 10.3442850112915 24.1836090087891 3.63393759727478 2.7803328037262 7.64229249954224 5.31677627563477 2.64063739776611 2.43940949440002 -0.122175842523575 0.0838840901851654 0.0182051379233599 0.278957933187485 0.782234728336334 1.36302053928375 2.04458904266357 2.2314624786377 1.58509814739227 1.37861740589142 1.54400539398193 1.30360043048859 1.21029198169708 1.16896152496338 1.00294041633606 0.548944234848022 17.8621196746826 -1.71727132797241 -2.5517725944519 -2.6104691028595 26.3146629333496 16.3717632293701 10.1027002334595 12.3855276107788 19.4318866729736 27.4362754821777 18.7473773956299 6.28815126419067 17.3702945709229 13.2430858612061 10.64466381073 21.464485168457 12.7646856307983 6.24356651306152 2.60487794876099 1.13509583473206 1.00318992137909 2.99482750892639 2.65646004676819 1.66082978248596 3.17930436134338 3.09639763832092 3.93604040145874 -1.18992924690247 1.22014832496643 2.13937711715698 17.9410572052002 2.14793276786804 -0.835732340812683 15.8295583724976 9.20109367370605 11.7054204940796 8.17969703674316 17.2102203369141 12.8419542312622 9.22326374053955 7.8563027381897 10.8699607849121 31.3939800262451 16.7031345367432 13.746452331543 10.2969455718994 9.05378437042236 8.59007549285889 4.75375461578369 6.40559768676758 17.0905723571777 22.7197742462158 26.0941619873047 18.0121459960938 14.143214225769 12.2348766326904 10.8394870758057 8.97996044158936 18.2129592895508 21.8021335601807 27.823616027832 15.3162050247192 13.8228597640991 10.2700052261353 9.79708862304688 8.9360523223877 7.87118053436279 7.51212596893311 6.95305728912354 6.634361743927 5.89131927490234 6.06396818161011 5.8893461227417 5.96415138244629 5.80084800720215 5.21333456039429 5.07814455032349 4.49606132507324 4.67130279541016 4.84753561019897 4.93449211120605 5.34655809402466 5.15743637084961 5.69812488555908 5.48980045318604 5.31678485870361 5.32770776748657 5.39766073226929 5.48199367523193 5.32260608673096 5.25997877120972 5.2580099105835 5.21401643753052 5.17389822006226 5.14962291717529 4.7026515007019 4.74942922592163 4.7514796257019 4.49940729141235 3.97808051109314 3.4972198009491 9.14002799987793 18.1106567382812 8.18625545501709 16.9748802185059 11.227822303772 9.16119480133057
36.3664093017578 27.3697128295898 13.3026866912842 6.12235307693481 5.7150821685791 4.57658100128174 4.33547878265381 3.43401646614075 5.22264623641968 5.04882574081421 3.11725258827209 2.89996981620789 2.83560156822205 2.4032039642334 2.34051370620728 1.69850265979767 1.50952517986298 0.956888198852539 0.876621603965759 2.03423976898193 1.90210342407227 1.06993317604065 1.00470793247223 0.587224781513214 0.773783326148987 0.700713574886322 0.497503221035004 0.405060529708862 0.288930833339691 0.434320986270905 -1.20964884757996 -2.04927372932434 2.64274930953979 43.0964317321777 13.0924777984619 -1.9426041841507 -1.94901645183563 -1.79547715187073 9.44074821472168 6.31917858123779 -1.86601328849792 -1.98686146736145 5.77454471588135 13.2173013687134 31.3656311035156 21.6102409362793 30.4068069458008 34.2044258117676 23.4294929504395 5.64884090423584 4.32956457138062 2.18982005119324 1.93070554733276 0.530487477779388 0.76257312297821 0.922700822353363 1.17616164684296 1.88600623607635 2.14776182174683 1.68892002105713 1.42830955982208 1.11983585357666 1.49475586414337 1.45722675323486 1.1969473361969 1.0742084980011 1.01270067691803 0.210446760058403 -1.37767779827118 -3.01505398750305 -0.288715422153473 21.7252826690674 22.2790489196777 29.4946517944336 29.343189239502 20.6478862762451 16.4415836334229 8.0147008895874 12.950267791748 12.4767446517944 2.36336874961853 11.9522705078125 10.5338287353516 7.39253282546997 6.58790159225464 1.39190495014191 1.22418987751007 0.0889983996748924 3.19573402404785 3.82603621482849 2.41922283172607 2.2756187915802 0.634196817874908 1.11180186271667 -0.267627984285355 -1.45206689834595 7.06146621704102 0.922430336475372 1.90355432033539 -0.912494361400604 -1.21947944164276 -0.684967637062073 5.90432548522949 5.11247873306274 9.39947414398193 8.68232727050781 7.32937335968018 16.4239711761475 25.3612289428711 22.9336318969727 22.7977638244629 26.5872097015381 15.1840705871582 9.56833362579346 7.96886968612671 5.86243200302124 17.6581249237061 25.2388019561768 21.5529937744141 14.4259548187256 16.7714691162109 12.365216255188 10.387734413147 9.6889762878418 7.63342046737671 16.0598163604736 4.76441240310669 6.36510944366455 21.1803092956543 17.4457721710205 12.3273429870605 9.66510009765625 9.21496486663818 8.36575412750244 7.92547798156738 7.02530574798584 6.73553419113159 6.18548727035522 5.92934036254883 5.79430294036865 5.63407182693481 5.50581216812134 5.57347726821899 5.43484783172607 4.89883756637573 4.77197790145874 4.47411441802979 4.40982913970947 4.43028783798218 4.4248218536377 4.90593481063843 4.73139190673828 5.21075057983398 5.03362274169922 4.89288282394409 5.11872434616089 5.09903383255005 5.18471097946167 5.0531439781189 5.15431785583496 5.10231351852417 5.03776788711548 4.90536308288574 5.61327028274536 4.8599534034729 4.40129995346069 3.49460577964783 3.28991675376892 3.07137227058411 10.913046836853 3.99634861946106 21.2296276092529 11.5027542114258 3.18119764328003
6.28120756149292 30.4517822265625 22.275297164917 15.9388437271118 6.46226501464844 5.22727298736572 4.96972322463989 4.02120780944824 3.81119155883789 3.27950859069824 4.68789291381836 4.58217334747314 2.83720588684082 2.80566906929016 2.58166575431824 2.25356078147888 1.62035202980042 1.47943830490112 1.31195342540741 0.794366896152496 0.670108020305634 1.76142609119415 1.64643704891205 0.930410444736481 0.868741691112518 0.303910404443741 0.618648946285248 0.168549939990044 0.314936548471451 0.203755110502243 -1.75236010551453 -1.51723730564117 9.95322895050049 20.9867134094238 29.9909057617188 28.1533432006836 12.6450500488281 -2.32476115226746 -2.13392639160156 3.53703165054321 5.59752511978149 3.40287065505981 8.53667736053467 12.7545938491821 11.9115333557129 22.9955158233643 16.2015438079834 10.9801826477051 12.997875213623 14.6711158752441 11.8695669174194 4.64806413650513 2.00505924224854 1.95907032489777 1.76949882507324 0.832924127578735 1.01327300071716 1.85884368419647 2.42322206497192 1.73542678356171 1.3641744852066 1.18134605884552 1.01638519763947 0.994027972221375 1.35652804374695 1.29685378074646 1.01107704639435 0.212749138474464 -0.908938765525818 -1.57635676860809 25.029842376709 37.3571243286133 34.3353576660156 26.4718742370605 21.6109294891357 23.3812732696533 14.7232036590576 13.0522842407227 11.0699329376221 3.33465194702148 10.0613393783569 17.1252765655518 10.7402114868164 8.60013008117676 2.16461586952209 2.17274713516235 6.08761644363403 1.06107580661774 8.28010177612305 13.694806098938 4.17248630523682 1.96479678153992 2.04074382781982 2.82006931304932 0.899153172969818 1.92494142055511 27.9768943786621 0.642379879951477 14.3346672058105 11.7187557220459 18.1322727203369 20.479076385498 11.9209508895874 -0.956492841243744 7.51877975463867 9.18953037261963 7.14625835418701 16.1422309875488 20.6790599822998 35.7862930297852 23.2740516662598 20.0030574798584 10.1233854293823 8.9437313079834 8.57429695129395 14.818546295166 11.4166774749756 5.29318857192993 8.876784324646 3.67937421798706 6.38664388656616 7.62492847442627 7.30020952224731 6.59671831130981 9.10854911804199 17.4350128173828 8.51425552368164 20.7796382904053 10.5825309753418 32.970386505127 15.9187726974487 13.1168985366821 10.3628721237183 8.55946445465088 8.16590785980225 7.41464710235596 7.10617399215698 6.33104419708252 5.53574371337891 5.56773805618286 4.83589506149292 5.41490411758423 5.28018283843994 5.16769647598267 5.22498273849487 5.10363006591797 4.60470056533813 4.0236964225769 4.16504764556885 4.09881448745728 4.15838193893433 4.23072052001953 4.50249719619751 4.43897533416748 4.78059387207031 4.70018625259399 4.74421834945679 4.79314851760864 4.79027032852173 4.86853742599487 4.84585666656494 4.89257431030273 4.57347393035889 4.05133008956909 4.1401743888855 4.16024351119995 3.18784284591675 3.90742683410645 6.11693954467773 16.9954032897949 6.47877883911133 6.01067066192627 3.20456504821777 2.89443945884705
4.31033515930176 39.7042350769043 30.6532421112061 18.0704879760742 15.7101783752441 10.7817792892456 2.78486108779907 4.64077425003052 4.351881980896 3.56880331039429 3.48760056495667 3.18735337257385 4.32139587402344 4.23431491851807 2.69907355308533 2.4914698600769 2.13403916358948 1.7655246257782 1.38035321235657 1.19821059703827 0.658921778202057 0.641817808151245 0.573547184467316 1.52957713603973 0.413482189178467 0.784216523170471 0.381106406450272 0.132698088884354 -0.0155017198994756 -0.0268474202603102 -1.30012047290802 -1.88066148757935 7.60986995697021 18.5986595153809 31.3876914978027 19.6567993164062 15.4226675033569 10.6580305099487 32.8870506286621 14.1784915924072 -2.24212265014648 -2.1880931854248 5.9223370552063 1.43398928642273 -1.088343501091 29.8870601654053 20.0636749267578 12.4530601501465 10.678653717041 7.07158946990967 8.01999950408936 9.40734386444092 8.15582942962646 3.34494018554688 1.80457472801208 1.837855219841 1.72815299034119 1.9145165681839 2.05749320983887 1.48262715339661 1.19716799259186 0.951279699802399 0.697640836238861 0.511287152767181 0.905067801475525 0.0684797614812851 1.12217676639557 0.80804044008255 -0.241545602679253 -0.523081302642822 8.77670574188232 21.9495639801025 29.3715343475342 24.1627349853516 21.3316497802734 18.5108547210693 12.8959474563599 11.5889682769775 13.0419893264771 9.03649425506592 21.5578727722168 13.2298574447632 7.13503742218018 5.84915161132812 5.22449064254761 3.64765810966492 7.25915479660034 11.0825099945068 17.2028751373291 12.5723533630371 8.04473304748535 6.86760330200195 2.68358707427979 1.85176348686218 0.675339460372925 5.59541940689087 1.3373099565506 4.95207834243774 27.7666969299316 11.2656116485596 4.50223350524902 6.94534969329834 2.45447850227356 12.0226621627808 18.644847869873 6.55959987640381 4.63788938522339 27.1426620483398 31.3284931182861 16.8423194885254 10.980128288269 9.76064491271973 9.37362194061279 9.56312656402588 8.31630420684814 7.57412576675415 7.33807992935181 5.99652671813965 5.85661554336548 4.72052335739136 26.2202415466309 3.52858376502991 2.69360947608948 4.86757755279541 9.35889720916748 6.73781061172485 8.08402156829834 6.06271839141846 7.96582365036011 9.07062435150146 31.1519088745117 19.6144638061523 11.2673044204712 9.25528049468994 8.62828063964844 7.63353490829468 7.32325124740601 6.67888402938843 5.98204755783081 5.74438619613647 5.25349807739258 5.060218334198 4.42383527755737 5.06852531433105 4.9459114074707 4.84889936447144 4.90998601913452 4.42863273620605 4.32738971710205 3.74491381645203 3.87257504463196 3.8080358505249 3.85305786132812 4.27214574813843 4.15134572982788 4.54140138626099 4.3914999961853 4.40577030181885 4.45225286483765 4.6335563659668 4.72355651855469 4.63558912277222 3.59655070304871 3.57242608070374 3.58225607872009 3.29522800445557 3.7563145160675 18.0122661590576 9.39575958251953 10.2971334457397 12.018274307251 3.01936531066895 2.80660796165466 2.48978424072266
1.59331655502319 2.91308188438416 32.8313255310059 21.0225429534912 17.4140205383301 13.4571075439453 6.17451524734497 32.0117874145508 3.15472531318665 4.07828140258789 3.92009258270264 3.30634307861328 3.10172486305237 3.06844425201416 3.96992349624634 2.5981912612915 2.13350939750671 1.98631846904755 1.66078901290894 1.29288828372955 1.25149846076965 1.10259020328522 0.587861776351929 0.505678772926331 1.37501049041748 1.2689208984375 0.706899583339691 0.616393506526947 0.00976298749446869 -0.133623734116554 -1.3794561624527 -1.72367572784424 6.01834392547607 35.0948715209961 30.0131511688232 20.6284465789795 16.5714721679688 6.51970672607422 12.3859167098999 4.23353719711304 3.60713028907776 10.7604370117188 14.0829391479492 10.1142196655273 10.6890106201172 44.4356498718262 31.3485107421875 12.0392818450928 10.7359552383423 9.00589370727539 6.96347332000732 5.37809944152832 5.73140096664429 6.7396411895752 3.64940047264099 3.10065722465515 1.77453243732452 1.81659662723541 1.43490016460419 1.1613929271698 0.820146560668945 0.652393877506256 0.507596254348755 0.365789473056793 0.120693370699883 -0.0981782972812653 -0.169465765357018 0.892570614814758 0.703975737094879 12.5438013076782 -0.760904550552368 16.5419044494629 26.8294048309326 20.8299236297607 20.4463272094727 19.3542156219482 10.618989944458 11.9647703170776 10.6097459793091 9.2008810043335 15.6202507019043 9.00871753692627 8.06614398956299 6.41691017150879 3.85006403923035 1.35824632644653 12.920708656311 12.8614253997803 6.40531492233276 5.62543058395386 8.18816375732422 6.72041416168213 5.10172414779663 4.50163221359253 1.18844950199127 11.4787969589233 13.3673295974731 20.4806327819824 5.11078643798828 4.07898569107056 10.4713163375854 21.5673332214355 6.199547290802 15.5244340896606 10.0007543563843 8.73825931549072 27.5095863342285 27.8965110778809 19.1425170898438 7.07863616943359 6.37581968307495 8.97990322113037 10.7616338729858 8.0337495803833 8.07666778564453 7.61003923416138 7.01016473770142 6.1958327293396 6.32998895645142 5.40079116821289 5.25156021118164 4.61045694351196 17.2578525543213 21.2928256988525 21.0652236938477 10.761775970459 23.6800384521484 6.51933193206787 5.074866771698 9.11151885986328 40.395637512207 29.3842067718506 17.795337677002 13.6611547470093 8.9633846282959 7.94573879241943 7.61616802215576 6.87764263153076 6.29702520370483 6.06815481185913 5.43659114837646 5.24010753631592 4.76420211791992 4.59349727630615 4.0169563293457 4.75382280349731 4.66159152984619 4.71743679046631 4.60980749130249 4.15791988372803 4.04980897903442 3.47434425354004 3.57415103912354 3.66784977912903 3.58091616630554 2.73521041870117 3.80817842483521 4.157142162323 4.04120779037476 4.14658212661743 4.37114191055298 4.40489292144775 3.10637855529785 2.91787171363831 3.23583602905273 5.36791896820068 12.7917814254761 11.6574726104736 4.78536987304688 3.92554306983948 2.12743949890137 1.88655459880829 1.66101658344269 1.76925146579742
12.9199924468994 15.2795753479004 44.021842956543 34.1878776550293 19.5796566009521 13.9932203292847 7.20629453659058 32.1693153381348 5.3422589302063 27.7195911407471 17.9288883209229 3.69909191131592 3.19689297676086 3.08852386474609 2.92828130722046 3.68229484558105 3.43598437309265 1.69820976257324 1.81745100021362 1.70070242881775 1.52241408824921 1.20860004425049 1.03984749317169 0.932051301002502 0.380524843931198 0.337451934814453 1.1499890089035 1.03675413131714 0.525979399681091 -0.0814938843250275 -0.202221572399139 31.4186763763428 37.3395881652832 38.0628280639648 27.2379722595215 17.2950229644775 6.15456628799438 13.3146800994873 31.6843147277832 13.0175457000732 2.18503499031067 7.27050495147705 2.88083815574646 5.25998783111572 4.19005107879639 34.6858825683594 21.8693523406982 17.9766006469727 15.4938669204712 0.145251765847206 7.78400373458862 6.90528631210327 5.57219839096069 4.82772970199585 5.85288667678833 5.57515811920166 3.36092329025269 2.88257312774658 1.64322447776794 1.47116637229919 0.465849876403809 0.369974076747894 0.311936020851135 0.111950956285 -0.186099365353584 -0.240442290902138 -0.26713964343071 -0.379576146602631 -0.451455563306808 0.570657014846802 0.200186684727669 -1.78045415878296 23.6791114807129 16.0581474304199 15.5754270553589 16.5172138214111 12.847448348999 18.1490993499756 13.8333921432495 7.42547702789307 12.6943206787109 8.89427852630615 8.11263370513916 5.49142169952393 4.20706033706665 2.811203956604 3.18501996994019 8.2940559387207 8.04226875305176 6.77673292160034 4.5525860786438 3.63936376571655 5.1789984703064 4.47127914428711 3.74573874473572 2.4748649597168 0.972928762435913 4.76373815536499 6.15172624588013 -0.0314082056283951 1.93683421611786 2.4938530921936 5.98305749893188 5.27179479598999 11.9107322692871 13.5860328674316 13.2424221038818 8.4011116027832 9.66933059692383 5.75699901580811 3.59293985366821 5.35731649398804 5.50431442260742 6.34483480453491 5.92849731445312 5.94761753082275 6.73173046112061 6.48829698562622 5.68212556838989 9.90072536468506 10.0793333053589 8.01362228393555 3.97918891906738 4.09595012664795 7.85385751724243 8.9404411315918 9.33787536621094 10.1890640258789 16.5316162109375 12.6879997253418 10.2247972488403 26.3227806091309 19.5694332122803 16.0833377838135 12.2174911499023 9.26142597198486 7.3928861618042 7.14464473724365 6.47346782684326 6.23049449920654 5.71298789978027 5.50614881515503 4.95786905288696 4.80792617797852 4.34386014938354 4.20466375350952 4.56701183319092 4.45692110061646 4.37258005142212 4.40258598327637 4.27744626998901 3.83971619606018 3.28490018844604 3.3686261177063 3.31521415710449 2.00831079483032 1.72115504741669 2.30262660980225 2.00562500953674 2.10163903236389 3.97195148468018 4.04270935058594 3.72307133674622 29.8942279815674 23.6868743896484 15.7353687286377 2.56977772712708 2.45236206054688 1.92674553394318 1.9428346157074 1.41907799243927 1.07947778701782 0.855178892612457 0.970237970352173
4.31523370742798 4.6054310798645 7.58572244644165 28.958927154541 11.2989807128906 18.488561630249 13.8026247024536 5.25824308395386 12.0685291290283 19.9440860748291 19.5399742126465 11.4821329116821 9.45509624481201 3.46894431114197 3.03284525871277 2.9022376537323 2.00181484222412 3.17998456954956 3.01684403419495 1.42887461185455 1.60073912143707 1.45613062381744 0.790410161018372 0.661875367164612 0.842966258525848 0.315630555152893 0.268034487962723 0.200722381472588 0.913685142993927 0.757211744785309 -0.150676235556602 -0.323072582483292 -0.458243072032928 11.6915788650513 16.7256774902344 18.1736602783203 10.0631370544434 28.9491271972656 19.6493225097656 9.98579120635986 6.34436845779419 1.27785217761993 0.705790936946869 25.73366355896 14.0678997039795 38.9564628601074 24.188835144043 10.0987462997437 8.74931621551514 -1.4803626537323 14.0952501296997 31.0368118286133 6.27603721618652 5.68177127838135 4.08492183685303 4.04250717163086 4.69178628921509 4.53073358535767 2.89889287948608 1.36220288276672 1.33698356151581 1.24096167087555 0.0374587550759315 -0.309210062026978 -0.32400980591774 -0.318883150815964 -0.341026574373245 -0.43905445933342 -0.464108765125275 -0.485285133123398 -0.508435308933258 1.41373693943024 37.3974990844727 28.3314819335938 16.1698036193848 13.301531791687 9.79986190795898 12.8405513763428 12.4158182144165 8.05911636352539 6.85860919952393 14.5431880950928 8.0596227645874 7.38156318664551 6.96262550354004 4.45919227600098 14.7770156860352 11.3893690109253 7.48629665374756 4.42468357086182 5.22845506668091 4.5542516708374 2.48468279838562 3.15503120422363 3.75096392631531 3.14219403266907 2.92442798614502 2.54917597770691 2.57282304763794 2.88103365898132 7.89425230026245 0.508415937423706 4.74625062942505 10.9914951324463 4.97626781463623 4.06367015838623 5.98564958572388 7.82189083099365 7.51321315765381 5.54499292373657 9.042555809021 15.7622632980347 6.02929782867432 4.52046537399292 4.47821664810181 6.0348687171936 14.6484346389771 12.0203847885132 8.94940376281738 16.4296092987061 15.8130254745483 19.1092872619629 8.7160530090332 21.2953128814697 10.0057849884033 14.6509714126587 16.3825874328613 6.10289287567139 11.0741424560547 7.10762977600098 18.6905078887939 22.0147323608398 27.7458038330078 14.3807106018066 12.5478668212891 10.9153423309326 9.03223133087158 6.66752290725708 6.71935749053955 6.45812845230103 5.85945224761963 5.64203405380249 5.20291900634766 5.03413486480713 4.55247974395752 3.95628976821899 3.9704430103302 3.41765952110291 4.23758697509766 4.11291694641113 4.02462530136108 4.03241300582886 3.61069750785828 3.54070091247559 3.02934622764587 2.0169243812561 1.5208455324173 3.53924679756165 8.52168083190918 2.07071661949158 16.4276065826416 16.8020534515381 2.91378712654114 3.26143312454224 2.99636149406433 2.50423192977905 2.25655055046082 2.00482249259949 0.783544778823853 1.09000146389008 1.03431975841522 0.678118288516998 0.311697602272034 -0.0191726516932249
