NCOLS 172
NROWS 31
XLLCORNER 353840
YLLCORNER 6700896
CELLSIZE 16 
NODATA_value -3.4e+38 
11.5309982299805 12.839282989502 16.286060333252 18.7826232910156 19.9438743591309 20.3996925354004 18.9826717376709 15.1283779144287 16.465389251709 5.38642692565918 3.57842993736267 2.81823801994324 -0.612159550189972 -0.52908056974411 -0.0548282451927662 0.597658336162567 2.15264534950256 4.48873329162598 7.19268798828125 0.857641160488129 1.27919220924377 2.92451596260071 4.95023584365845 7.8285493850708 10.0539264678955 11.6178398132324 10.8361597061157 4.84164714813232 6.63831329345703 1.94353592395782 -1.0993185043335 -0.865980386734009 -0.414022922515869 0.448703795671463 1.95862674713135 3.89827752113342 7.36669540405273 9.74703788757324 11.4862422943115 10.7381925582886 4.15830659866333 2.54622888565063 -1.64245629310608 -2.1588613986969 -1.97814178466797 -1.85964322090149 -1.68926095962524 -1.46914863586426 -1.2711044549942 -1.15521466732025 -1.03964781761169 -0.826595485210419 -0.436265021562576 -0.126150414347649 -0.000496308493893594 0.281891286373138 0.47305029630661 0.834236979484558 1.53484761714935 1.94075334072113 2.18620085716248 2.91933035850525 3.63518857955933 3.88837480545044 3.34737777709961 3.26747179031372 1.5235652923584 0.826040506362915 0.472524553537369 0.541611015796661 0.552750051021576 -0.11534807831049 -0.327492117881775 -0.290984570980072 -0.252099007368088 -0.213982090353966 -0.233908772468567 -0.221123993396759 0.0118367178365588 0.143064841628075 -0.276364743709564 -0.243732810020447 -0.100423209369183 0.0400513522326946 0.0942049920558929 -0.0447503514587879 -0.0503999516367912 -0.0125675480812788 -0.501424729824066 -0.500342726707458 -0.478335946798325 -0.474443763494492 -0.467354834079742 -0.413663059473038 -0.42416924238205 -0.403082549571991 -0.373868495225906 -0.269451230764389 -0.297944605350494 -0.264258325099945 -0.204138055443764 0.34169664978981 -0.194293692708015 -0.129877805709839 -0.0734841898083687 -0.00814404245465994 0.0612616427242756 0.138592705130577 0.215063512325287 0.342189878225327 0.368197649717331 0.454706251621246 0.474485337734222 0.557115316390991 0.624391674995422 0.732119143009186 0.822543084621429 1.29935383796692 1.54651641845703 1.83863604068756 2.3067421913147 0.937305212020874 0.87101423740387 -0.323802292346954 -0.316320776939392 -0.242737755179405 -0.139827743172646 -0.0317697748541832 0.150031596422195 0.35138151049614 0.40485954284668 0.0284854583442211 0.0334708504378796 0.0497348494827747 0.0708682984113693 0.161314159631729 0.760618984699249 1.06182777881622 1.14302980899811 1.26341140270233 1.3629504442215 1.38877630233765 1.41485226154327 1.60085546970367 1.88304245471954 2.13427209854126 2.30146431922913 2.44121098518372 2.6139771938324 2.8222029209137 2.89520454406738 3.04749727249146 3.1963791847229 3.33185410499573 3.38693070411682 3.44868564605713 3.52809238433838 3.61121678352356 3.6657543182373 3.75920271873474 3.85861301422119 3.93591737747192 4.04208421707153 4.15425825119019 4.28780174255371 4.40850353240967 4.5174732208252 4.53261089324951 4.68236351013184 4.82647943496704 4.96704912185669 5.1532301902771
10.3404960632324 11.5141077041626 13.8425979614258 17.22678565979 19.0786914825439 19.8420066833496 19.6219463348389 13.8951177597046 13.7619390487671 8.88071250915527 4.54413557052612 1.81510269641876 -1.24799966812134 -1.13394963741302 2.02726435661316 7.02304124832153 2.394362449646 -0.285781651735306 0.855922937393188 0.563269972801208 0.711808443069458 0.80608332157135 2.83697533607483 5.39081382751465 6.73291826248169 7.31961154937744 7.29509782791138 5.00764513015747 4.32956600189209 3.07737064361572 -0.161362633109093 0.528049826622009 1.22598361968994 2.31005167961121 3.53580498695374 5.02561092376709 7.6528115272522 11.3115768432617 8.41463947296143 8.10648250579834 4.30007743835449 4.66919040679932 1.58742141723633 -2.12258076667786 -2.00174403190613 -1.76226210594177 -1.54499745368958 -1.38022077083588 -1.25777840614319 -1.13078820705414 -0.964580476284027 -0.766571938991547 -0.441058069467545 0.0298785082995892 0.303854644298553 0.516072630882263 1.04057443141937 1.46933925151825 1.68132638931274 1.86878180503845 2.0948429107666 2.59830975532532 3.38006782531738 3.99061584472656 4.04376602172852 3.19750785827637 2.57999801635742 1.23807954788208 0.669970035552979 0.312245845794678 0.355691194534302 0.402236878871918 -0.236408188939095 -0.215572446584702 -0.149870157241821 -0.0897845923900604 -0.0678399205207825 -0.0605252496898174 -0.0405148230493069 -0.0137862395495176 -0.0344241484999657 -0.064368762075901 -0.019173800945282 0.0437113158404827 0.171405911445618 0.120799541473389 0.129001557826996 0.188826724886894 -0.255925476551056 -0.491550654172897 -0.479165077209473 -0.470751821994781 -0.401181370019913 -0.266474902629852 -0.374189555644989 -0.454996526241302 -0.435897767543793 -0.364821404218674 -0.404337793588638 -0.248046293854713 -0.124598376452923 0.0687936320900917 -0.341087996959686 -0.299057900905609 -0.245735436677933 -0.182373732328415 -0.0999617725610733 -0.033284030854702 0.0603520050644875 0.27337321639061 0.75146895647049 0.129436179995537 0.234294041991234 0.25119885802269 0.317863464355469 0.348649531602859 0.498946696519852 0.646560609340668 0.981828927993774 1.07608592510223 1.42325520515442 1.02402317523956 0.88915091753006 0.237497970461845 -0.314433574676514 -0.291884034872055 -0.212957784533501 -0.12405913323164 -0.0253062006086111 0.0387276634573936 0.0852953419089317 0.0498800165951252 0.0563420988619328 0.0573430731892586 0.064631350338459 0.127876982092857 0.69655978679657 1.16194665431976 1.25398862361908 1.28264713287354 1.39605963230133 1.4974879026413 1.62129700183868 1.75810039043427 1.99796843528748 2.24811458587646 2.42478847503662 2.55514574050903 2.74137139320374 2.92324352264404 2.99466896057129 3.07169008255005 3.21520066261292 3.31830883026123 3.44808840751648 3.49938702583313 3.57018899917603 3.65484380722046 3.72947096824646 3.83072710037231 3.88531422615051 3.99458336830139 4.11321592330933 4.22688961029053 4.34007263183594 4.45453596115112 4.58763742446899 4.69841194152832 4.84930562973022 4.99800968170166 5.15047693252563 5.32631158828735
9.19510746002197 10.1299533843994 11.3162899017334 15.0391607284546 17.5335712432861 19.2780170440674 19.7448692321777 16.431978225708 13.1012554168701 9.41110801696777 1.90784072875977 1.38491988182068 -1.03529751300812 0.674982726573944 4.11534643173218 8.26435375213623 9.61435031890869 -0.668362438678741 -0.30051526427269 0.618480861186981 2.1005437374115 0.759886682033539 2.74273753166199 5.1372537612915 6.16468954086304 5.59146070480347 2.45164704322815 2.7179319858551 2.22786784172058 0.717377245426178 0.853919565677643 1.31625187397003 2.19459056854248 3.20487880706787 4.32099103927612 6.36935997009277 9.68140411376953 13.4545106887817 9.64881992340088 6.60723161697388 6.67844676971436 5.81008815765381 0.696481049060822 -2.06275582313538 -1.90912759304047 -1.59239077568054 -1.36823868751526 -1.18318259716034 -0.985670745372772 -0.833837270736694 -0.725290179252625 -0.546832323074341 -0.273695737123489 0.154566720128059 0.374169766902924 0.9278284907341 1.26498866081238 1.46643853187561 1.61906147003174 1.76888465881348 1.97873032093048 2.25502824783325 3.09882688522339 3.95064687728882 3.68293452262878 3.66893577575684 2.74261498451233 1.94359040260315 0.943792104721069 0.45953893661499 0.178438112139702 0.195697814226151 -0.095857061445713 -0.0989641547203064 -0.0613648369908333 0.0075511122122407 0.0965666472911835 0.188001111149788 0.207854703068733 0.283344298601151 0.294644117355347 0.226815730333328 0.1416305154562 0.0794918462634087 0.126701399683952 0.183276534080505 0.128145381808281 0.126617833971977 0.148242101073265 -0.337185680866241 -0.412103086709976 -0.394031852483749 -0.288195878267288 -0.283194273710251 -0.21505469083786 -0.310050755739212 -0.349281013011932 0.011174188926816 -0.452679961919785 -0.30882915854454 -0.114554770290852 -0.137929111719131 -0.209056451916695 -0.379769712686539 -0.376943439245224 -0.34144726395607 -0.272495448589325 -0.20543497800827 -0.100699186325073 0.175445824861526 0.259691774845123 0.171601161360741 -0.0196890998631716 0.0759920179843903 0.076250433921814 0.102571450173855 0.260423839092255 0.421733438968658 0.543380200862885 0.604019045829773 0.717931389808655 0.853396356105804 0.683655858039856 0.16274930536747 -0.289361029863358 -0.275040328502655 -0.240817412734032 -0.170123785734177 -0.0894133150577545 -0.00245839962735772 0.0848513767123222 0.231869995594025 0.0466911643743515 0.0407775789499283 0.0507379248738289 0.107774369418621 0.438724488019943 1.02184963226318 1.14815402030945 1.17553126811981 1.28031516075134 1.48839783668518 1.75006318092346 1.91377317905426 2.06724047660828 2.29038262367249 2.44583749771118 2.60169148445129 2.80839967727661 2.93925142288208 3.01935791969299 3.10502886772156 3.25990056991577 3.39554619789124 3.51613211631775 3.63202452659607 3.68202900886536 3.75653672218323 3.84484004974365 3.95344614982605 3.96389031410217 4.05122661590576 4.16668128967285 4.27379512786865 4.38860845565796 4.50434350967407 4.62421560287476 4.76765727996826 4.91015577316284 5.06978178024292 5.23134613037109 5.40261650085449
8.06146430969238 8.90016937255859 9.87064361572266 12.2775859832764 15.2646884918213 16.7126712799072 17.659236907959 17.1391086578369 13.7517442703247 11.0284805297852 4.04664754867554 1.19581973552704 -0.79563307762146 -0.602696299552917 1.47002589702606 4.76034069061279 6.28229999542236 2.43058013916016 -0.489032983779907 0.265463978052139 1.9512791633606 3.89762091636658 5.81855201721191 11.9178457260132 6.22061204910278 3.29006028175354 1.30844354629517 1.6941579580307 1.46229910850525 2.0314028263092 -1.11713850498199 -0.659085810184479 0.268016695976257 1.2653501033783 3.54823112487793 6.83309125900269 10.5795526504517 12.4474935531616 9.30986309051514 9.47193622589111 8.69486522674561 6.34572696685791 -1.88849627971649 -1.71256327629089 -1.49710834026337 -1.33308970928192 -1.14609622955322 -0.920560002326965 -0.695591449737549 -0.511145055294037 -0.345611691474915 -0.185994192957878 0.051307950168848 0.289596706628799 0.765721201896667 1.0316276550293 1.22555434703827 1.36014246940613 1.47286295890808 1.60586440563202 1.76196825504303 2.01834869384766 2.69367408752441 3.68481850624084 4.43071508407593 2.93587756156921 3.10743141174316 2.24244856834412 1.11658084392548 0.934601187705994 0.408506691455841 0.0599871501326561 0.0620138794183731 0.0405358821153641 0.0559125170111656 0.115262240171432 0.256084084510803 0.380433559417725 0.464588820934296 0.519667506217957 0.561812818050385 0.538599193096161 0.63269567489624 0.448365449905396 0.0896694287657738 0.127400621771812 0.174342080950737 0.146397441625595 -0.0186942052096128 -0.135030418634415 -0.27632811665535 -0.301244616508484 -0.218368589878082 -0.218108728528023 -0.220699310302734 -0.184131130576134 -0.228331714868546 -0.320526152849197 -0.283288031816483 -0.24642550945282 -0.0263508446514606 0.0352907329797745 0.0871886610984802 -0.096586637198925 -0.329866826534271 -0.435909509658813 -0.402197867631912 -0.372339129447937 -0.291637748479843 -0.179016292095184 0.11117921769619 0.0338279902935028 0.0141720185056329 0.410050243139267 -0.0943827405571938 -0.0800297185778618 0.0389696583151817 0.230019956827164 0.35427987575531 0.400332927703857 0.520218431949615 0.559258639812469 0.725463926792145 -0.165686264634132 -0.278955847024918 -0.266131788492203 -0.242495477199554 -0.200741425156593 -0.129432141780853 -0.0471694804728031 0.0124735850840807 0.0406896211206913 0.0451926924288273 0.0464283153414726 0.0494832471013069 0.0823462903499603 0.219507545232773 0.522009670734406 0.711035311222076 0.911848127841949 1.09422039985657 1.29150831699371 1.59239530563354 1.84523093700409 2.08572483062744 2.25784039497375 2.31824779510498 2.55552268028259 2.80976033210754 2.92162346839905 3.02663373947144 3.16404485702515 3.36977553367615 3.53908348083496 3.67978501319885 3.81515717506409 3.91602754592896 3.97695302963257 4.07281875610352 4.17016172409058 4.18629360198975 4.15784168243408 4.27706480026245 4.39523458480835 4.51902008056641 4.63554954528809 4.76489877700806 4.90694236755371 5.02089023590088 5.09960126876831 5.29910612106323 5.49091482162476
6.76700496673584 7.39046049118042 8.09634304046631 10.1316633224487 13.1774053573608 15.2068119049072 17.9450359344482 15.370325088501 12.5846338272095 12.0474901199341 7.4178261756897 1.67234754562378 -0.708753347396851 -0.192146435379982 0.466829121112823 1.00302624702454 2.06923460960388 3.77864193916321 1.1928004026413 1.32177448272705 2.71283459663391 6.35124588012695 9.01859569549561 14.2192163467407 10.7502965927124 2.72526478767395 -0.413150995969772 -0.160727590322495 0.546562492847443 0.327599614858627 -1.33342969417572 -1.18243813514709 -0.620752513408661 -0.1086780205369 1.46656858921051 5.27455949783325 8.0056095123291 8.89527320861816 10.4343976974487 8.49592590332031 4.26998853683472 -0.3489910364151 -1.20318305492401 -1.14056718349457 -1.10901749134064 -1.01607978343964 -0.841771066188812 -0.651138067245483 -0.448597520589828 -0.26970237493515 -0.0530478022992611 0.141824781894684 0.292800784111023 0.675856530666351 0.920887053012848 1.05652797222137 1.15569078922272 1.2309582233429 1.30908334255219 1.34168434143066 1.47234225273132 1.65643572807312 2.369877576828 3.24246549606323 4.45036315917969 3.0187292098999 2.25455331802368 2.69210338592529 1.58414542675018 1.2325633764267 0.758735001087189 0.196927547454834 0.207691475749016 0.185150101780891 0.177866265177727 0.226752445101738 0.410923033952713 0.534266114234924 0.651945233345032 0.752782881259918 0.695021748542786 0.738907933235168 0.981170058250427 0.77366316318512 0.226780593395233 0.102801948785782 0.152109071612358 0.135815367102623 0.0922385975718498 0.00487313838675618 -0.0528929680585861 -0.219828814268112 -0.233255684375763 -0.16305011510849 -0.170010149478912 -0.202771544456482 -0.14967904984951 -0.132190674543381 -0.123644642531872 -0.0935030952095985 0.0769548192620277 0.183646231889725 0.11861614882946 -0.107822418212891 -0.279639393091202 -0.550004303455353 -0.536855399608612 -0.510613977909088 -0.471875011920929 -0.396468311548233 -0.285601198673248 -0.215327948331833 0.311767727136612 -0.0253946408629417 -0.156848073005676 -0.16424748301506 0.0279162954539061 0.103797286748886 0.26064920425415 0.522536516189575 0.403247714042664 0.485949486494064 0.624213635921478 -0.0929314717650414 -0.291358947753906 -0.283818662166595 -0.255206167697906 -0.21769668161869 -0.145601198077202 -0.0756375268101692 -0.0157646797597408 0.0323465615510941 0.040293026715517 0.0446468144655228 0.0479501895606518 0.133212849497795 0.167335107922554 0.171171605587006 0.343683570623398 0.669261574745178 0.91918671131134 1.09061825275421 1.32678842544556 1.60067296028137 1.82579100131989 2.04516792297363 2.18460321426392 2.38361740112305 2.69103574752808 2.89479684829712 3.01843547821045 3.20266151428223 3.44318962097168 3.65327382087708 3.81735110282898 3.98096871376038 4.08983755111694 4.1567759513855 4.26617288589478 4.35530853271484 4.40562343597412 4.39181613922119 4.50273323059082 4.62267684936523 4.74687623977661 4.87378358840942 5.00424003601074 5.15775012969971 5.30951499938965 5.3380823135376 5.3933424949646 5.56716775894165
5.34895372390747 5.84633684158325 6.42814636230469 7.20126485824585 10.9640817642212 13.1932783126831 15.6029367446899 15.8706455230713 11.9597930908203 9.10076999664307 9.4088077545166 0.501568973064423 -0.966251134872437 -0.536060750484467 -0.0984316170215607 0.326935410499573 0.691140472888947 0.897946119308472 1.20095384120941 1.01033043861389 1.63219213485718 5.90668153762817 8.42169094085693 11.5415391921997 14.1786470413208 9.2871265411377 0.384861707687378 -1.33270287513733 -1.18543171882629 -0.96989917755127 -0.853546440601349 -0.720628499984741 -0.572437703609467 -0.404681175947189 1.14640688896179 3.21864581108093 5.18861150741577 6.06546545028687 6.18741369247437 6.18033885955811 0.491010278463364 0.887402832508087 0.268178582191467 -0.678745448589325 1.23353278636932 -0.53608363866806 -0.502556920051575 -0.345175504684448 -0.200462818145752 0.0508504882454872 0.228844180703163 0.405588656663895 0.702327787876129 0.935760319232941 1.00139629840851 0.951403439044952 1.28288435935974 1.40299558639526 1.00202178955078 1.09591996669769 1.18408632278442 1.33263754844666 1.93722856044769 2.80912113189697 4.39094066619873 3.39499640464783 1.70705115795135 1.85047423839569 2.6623067855835 1.36739003658295 1.10617566108704 0.387129217386246 0.356926023960114 0.350144296884537 0.322954893112183 0.370167076587677 0.563392162322998 0.738889157772064 0.888471484184265 0.89842700958252 0.837364733219147 0.84057205915451 0.68877249956131 0.661269545555115 0.370851635932922 0.340153098106384 0.0950078442692757 0.0278725288808346 0.0920778587460518 0.0581909865140915 -0.0617594383656979 -0.0604061707854271 -0.130990490317345 -0.178274855017662 -0.10945125669241 -0.119636848568916 -0.0576461963355541 0.00255578570067883 -0.0230208225548267 -0.00525088049471378 0.18786832690239 0.248038247227669 0.130042120814323 -0.0332895070314407 -0.115061208605766 -0.621167719364166 -0.626296937465668 -0.60247141122818 -0.551943123340607 -0.474117249250412 -0.38588535785675 -0.331029325723648 -0.150919511914253 0.410050243139267 -0.325127631425858 -0.157234653830528 -0.0818377882242203 -0.0191158428788185 0.105071067810059 0.25788614153862 0.339165419340134 0.393257915973663 0.506069719791412 0.618476927280426 -0.327794045209885 -0.31207412481308 -0.283489495515823 -0.236910074949265 -0.171892881393433 -0.0957449823617935 -0.039291936904192 -0.00672659976407886 -0.000984940794296563 0.0692615285515785 0.0871969684958458 0.167961642146111 0.200647473335266 0.223628833889961 0.248234257102013 0.526464760303497 0.785752654075623 0.911336719989777 1.06321227550507 1.27943897247314 1.59893941879272 1.82346272468567 1.93710041046143 2.14953255653381 2.4132399559021 2.73279452323914 2.98747730255127 3.19304013252258 3.42174935340881 3.62399339675903 3.85646104812622 4.04187345504761 4.13329124450684 4.24306917190552 4.33329153060913 4.40569257736206 4.50398969650269 4.56779336929321 4.69805955886841 4.82477283477783 4.9491024017334 5.08002948760986 5.22074317932129 5.37329435348511 5.54316425323486 5.60561561584473 5.64951753616333 5.83339071273804
4.03414583206177 4.42741537094116 4.9110164642334 5.51329231262207 7.82970952987671 10.8727464675903 12.7133045196533 15.1718034744263 14.1955442428589 7.08602094650269 7.20187139511108 -0.594929099082947 -0.936922788619995 -0.753919899463654 -0.409370243549347 -0.182405561208725 -0.0734397247433662 0.0529453605413437 0.375656962394714 0.487713128328323 0.646291017532349 2.70538592338562 6.03937387466431 8.3022632598877 10.2118835449219 11.6520166397095 0.853000283241272 -0.915784418582916 -0.879233479499817 -0.752661466598511 -0.584135293960571 -0.422493129968643 -0.282271921634674 0.513862311840057 0.241124749183655 1.32949674129486 2.68235421180725 3.52436542510986 3.14570283889771 3.59723448753357 0.70927894115448 -0.197764724493027 -0.136922240257263 0.309249758720398 2.74917721748352 5.06122875213623 -0.157165333628654 0.00196686736308038 0.212005808949471 0.339721381664276 0.564639270305634 0.807866930961609 1.13156497478485 1.10044384002686 1.15918445587158 1.26885533332825 1.11081838607788 0.876542210578918 0.884609997272491 0.896949887275696 0.951019704341888 1.06913769245148 1.2675234079361 1.93058359622955 3.34850764274597 3.46031832695007 2.04451394081116 1.6660008430481 2.16308307647705 3.23409795761108 1.35272705554962 0.820789158344269 0.885641098022461 0.493807047605515 0.515887439250946 0.595583856105804 0.691457748413086 0.803360760211945 0.967725574970245 0.978216290473938 0.972791850566864 1.22233641147614 0.724603474140167 0.540331721305847 0.492643684148788 0.54393994808197 0.0982590019702911 -0.0139519590884447 -0.00333718792535365 0.0390627942979336 0.046647097915411 0.0790069475769997 0.0299809165298939 -0.0637127682566643 -0.105773776769638 0.0285974573343992 0.0585692003369331 0.135630518198013 0.151439324021339 0.174572482705116 0.286896586418152 0.335698872804642 0.207700878381729 0.0908053293824196 -0.0479205958545208 -0.450305104255676 -0.682537853717804 -0.680155038833618 -0.641058623790741 -0.557811915874481 -0.444478541612625 -0.24722383916378 -0.418717592954636 -0.311250895261765 -0.32026195526123 -0.269928455352783 4.82223695144057e-05 0.10156424343586 0.17208905518055 0.206240832805634 0.196465209126472 0.010472291149199 0.258725821971893 -0.256881684064865 -0.0753779262304306 -0.345213860273361 -0.31415843963623 -0.25656196475029 -0.195524260401726 -0.13284820318222 -0.0685736760497093 -0.0397647581994534 -0.0165811292827129 0.0167785864323378 0.0387063398957253 0.0902860164642334 0.113375432789326 0.136692211031914 0.15305121243 0.338677138090134 0.562049210071564 0.734360635280609 0.869965493679047 1.00192189216614 1.2041962146759 1.4525226354599 1.60622441768646 1.77599310874939 2.02104306221008 2.42752408981323 2.87214183807373 3.13152527809143 3.35331058502197 3.58407402038574 3.79831051826477 3.94426918029785 4.02986288070679 4.11016368865967 4.20020818710327 4.32015514373779 4.52179193496704 4.63050127029419 4.76270866394043 4.87903165817261 5.00734186172485 5.14423418045044 5.28012895584106 5.43070030212402 5.59842920303345 5.72990703582764 5.88817024230957 6.08299207687378
2.96382451057434 3.28814315795898 3.68683338165283 4.21045732498169 4.91079044342041 7.90379238128662 9.57996654510498 11.6312398910522 13.5816745758057 7.72958993911743 5.82455444335938 -0.0634797513484955 0.379076808691025 1.35357356071472 -0.68031370639801 -0.10302646458149 -0.0428662598133087 -0.607004046440125 -0.572530746459961 -0.520197987556458 -0.498595535755157 0.00873922742903233 2.83924078941345 4.40183210372925 5.54426193237305 8.78743839263916 5.16308498382568 0.53164666891098 -0.549630224704742 -0.440087407827377 -0.282623380422592 -0.0826505720615387 -0.00434448104351759 0.8614541888237 0.443461656570435 0.244396969676018 1.0709582567215 1.68209946155548 1.99280536174774 0.763836264610291 1.09751808643341 0.184870690107346 0.221331581473351 0.248513638973236 0.274835735559464 0.289224088191986 0.293786555528641 0.398600488901138 0.581541836261749 0.779678881168365 0.965039312839508 1.3283793926239 1.75531470775604 1.44530284404755 1.11364507675171 0.895789802074432 0.910097360610962 0.932639300823212 0.931288123130798 0.948863506317139 0.98342627286911 1.05411112308502 1.14728534221649 1.30904161930084 2.09061670303345 2.94302368164062 2.66376543045044 1.86772620677948 2.03106188774109 2.73828077316284 3.57789921760559 1.2087436914444 1.24644947052002 0.941432952880859 1.03099012374878 1.02261292934418 0.973012447357178 0.864165067672729 0.864971280097961 0.933802485466003 0.912132143974304 0.904965758323669 0.969848871231079 0.513085722923279 0.418471664190292 0.298544853925705 0.138686716556549 0.190151765942574 -0.00849082600325346 0.000558773288503289 0.0912902280688286 0.197847560048103 0.107168734073639 0.0789296180009842 -0.00197421200573444 0.055346105247736 0.110931046307087 0.194954261183739 0.327072709798813 0.403852999210358 0.355072855949402 0.369726657867432 0.258068323135376 0.201563313603401 0.0508183278143406 -0.332804054021835 -0.483599126338959 -0.647982358932495 -0.664166629314423 -0.634453475475311 -0.539971172809601 -0.473508805036545 -0.485280364751816 -0.358778059482574 -0.16316594183445 1.77080452442169 -0.232133165001869 0.280247420072556 0.0982985273003578 0.167312398552895 0.0918796136975288 -0.140701875090599 -0.374452948570251 -0.381836086511612 -0.157640367746353 -0.387466192245483 -0.354474157094955 -0.299057811498642 -0.242291897535324 -0.185678467154503 -0.126157343387604 -0.0832457914948463 -0.0396192297339439 0.00366999791003764 0.0199679490178823 0.0512410551309586 0.0845933854579926 0.107409179210663 0.122045285999775 0.152605026960373 0.305833876132965 0.504223644733429 0.675560355186462 0.82254695892334 0.922128677368164 1.05703639984131 1.27029180526733 1.47033143043518 1.63216125965118 1.93339896202087 2.44050025939941 2.89170813560486 3.21592855453491 3.45735597610474 3.65901851654053 3.76639103889465 3.85572576522827 3.93328809738159 4.02018308639526 4.25661420822144 4.41181755065918 4.52338123321533 4.64940071105957 4.76374673843384 4.88321447372437 5.01460027694702 5.14546585083008 5.29146766662598 5.50395965576172 5.77246379852295 5.95122623443604 6.14522171020508
2.30369877815247 2.45288801193237 2.61136984825134 2.5076687335968 2.89606523513794 5.3141827583313 7.47797298431396 8.9562873840332 10.2649374008179 9.3741569519043 3.22788858413696 0.547078132629395 2.31830048561096 2.9075174331665 1.56143176555634 1.19457721710205 0.952996730804443 -0.278136789798737 -0.465875804424286 -0.433110684156418 -0.401535421609879 -0.34410235285759 -0.287991583347321 0.726399481296539 1.49830210208893 2.33669781684875 2.39511227607727 0.625251650810242 -0.160993635654449 -0.0755364671349525 0.00341096101328731 0.984679698944092 0.198049977421761 0.600652158260345 0.52649712562561 0.689925014972687 1.07329785823822 1.57637858390808 2.16431760787964 0.552135407924652 0.500706255435944 0.53030914068222 0.495005637407303 0.519298732280731 0.460919260978699 0.548696339130402 0.652741491794586 0.825191140174866 0.991858005523682 1.26810824871063 1.76005721092224 2.92762780189514 1.51365482807159 0.964543521404266 0.973391056060791 0.989381015300751 1.01360702514648 1.04446995258331 1.05128526687622 1.02005708217621 1.04080772399902 1.10838115215302 1.18279588222504 1.28845155239105 1.4696581363678 1.72008407115936 2.36228847503662 2.07181310653687 2.0833306312561 2.34734654426575 2.86367654800415 2.90359330177307 1.40752983093262 1.46406233310699 1.56404960155487 1.61099278926849 1.70414865016937 1.56955361366272 0.927018284797668 0.826423227787018 0.824157238006592 0.638376176357269 0.588727951049805 0.580395936965942 0.287065356969833 0.133272990584373 0.102056577801704 0.317122459411621 -0.0105685787275434 0.00655994424596429 0.041998129338026 0.125988781452179 0.206648036837578 0.225115045905113 0.26917576789856 0.0413644388318062 0.0737606585025787 0.234493359923363 0.394889414310455 0.516498506069183 0.440564304590225 0.487636417150497 0.294054746627808 0.286117017269135 0.126803189516068 -0.154156997799873 -0.172502741217613 -0.550511956214905 -0.575432300567627 -0.579131186008453 -0.485951542854309 -0.309845626354218 -0.0943596884608269 0.311277687549591 0.407217651605606 0.69059431552887 0.593976497650146 0.419792324304581 0.343154311180115 0.434651225805283 -0.0352076850831509 0.00805962271988392 -0.483907967805862 -0.466437876224518 -0.44191300868988 -0.428088456392288 -0.397884130477905 -0.340826481580734 -0.295714795589447 -0.252132445573807 -0.200205296278 -0.145539507269859 -0.0884584560990334 -0.0338088311254978 -0.00306172668933868 0.0259111374616623 0.179947569966316 0.0490440167486668 0.14588575065136 0.156280279159546 0.152936235070229 0.345403164625168 0.52055811882019 0.644214153289795 0.690989553928375 0.770124137401581 1.01098656654358 1.29921066761017 1.46164989471436 1.65050280094147 2.03411245346069 2.4028799533844 2.80809211730957 3.24556660652161 3.5083429813385 3.60859370231628 3.68413376808167 3.76597023010254 3.86587643623352 4.09800004959106 4.21495771408081 4.32628440856934 4.43898248672485 4.54818058013916 4.66947841644287 4.78405714035034 4.91314125061035 5.10852718353271 5.41655683517456 5.62211084365845 5.79191923141479 5.97878503799438
2.16769886016846 2.30448579788208 2.46758270263672 2.87121438980103 3.10357999801636 3.35533118247986 4.54375553131104 5.72722291946411 6.99002408981323 7.5422043800354 3.1391544342041 3.40427017211914 4.02492761611938 3.49481987953186 3.70813512802124 4.26952648162842 2.35507440567017 -0.409408241510391 -0.383211493492126 -0.363943964242935 -0.338392794132233 -0.274493545293808 -0.21451424062252 -0.155780136585236 -0.0692671909928322 0.325905799865723 0.180302739143372 -0.0338572971522808 0.0118143754079938 0.0882328972220421 0.160795092582703 0.233439415693283 0.463117718696594 0.378820389509201 0.541024386882782 0.99153858423233 1.28117084503174 1.9259340763092 3.06504368782043 0.701364696025848 0.760591566562653 0.892461776733398 0.896627843379974 0.91099888086319 0.925145745277405 0.975665807723999 1.00955331325531 1.06245636940002 1.09500753879547 1.25594794750214 1.65463125705719 2.48790264129639 1.02492558956146 1.02550780773163 1.03550386428833 1.06381332874298 1.09375464916229 1.13493812084198 1.18161964416504 1.17223787307739 1.19433915615082 1.26324164867401 1.34349989891052 1.45205056667328 1.57056605815887 1.78475081920624 2.03570914268494 2.06096720695496 2.05778837203979 2.02791476249695 2.18100690841675 2.75245499610901 1.85341501235962 1.85346078872681 1.99317443370819 2.11267948150635 2.24275541305542 2.42856192588806 2.18906164169312 0.917270660400391 0.674875676631927 0.543926239013672 0.416170507669449 0.406853884458542 0.210722774267197 0.195565640926361 0.194004282355309 0.145108327269554 0.0214333441108465 0.038101851940155 0.0779851824045181 0.224998533725739 0.410402864217758 0.198051393032074 0.197378024458885 0.134745717048645 0.116941273212433 0.188563272356987 0.381422609090805 0.507385194301605 0.497299462556839 0.678315401077271 0.376372873783112 0.299854665994644 0.111551597714424 -0.0105594722554088 -0.0322248302400112 -0.329634964466095 -0.470504522323608 -0.498792320489883 -0.310016304254532 -0.195218488574028 -0.046565767377615 0.327867269515991 0.905575513839722 2.11515426635742 0.151131242513657 0.0375036038458347 -0.224532932043076 0.889055371284485 2.4312481880188 -0.633190453052521 -0.450979679822922 -0.539532065391541 -0.508691191673279 -0.474505215883255 -0.446525394916534 -0.396040022373199 -0.348344087600708 -0.304797172546387 -0.25617703795433 -0.199909463524818 -0.125094205141068 -0.0759412795305252 0.00124366127420217 0.239204585552216 0.403772860765457 0.456808865070343 0.418367177248001 0.397153079509735 0.375952273607254 0.401144117116928 0.372440665960312 0.463381171226501 0.532024681568146 0.621157586574554 0.792483747005463 1.05709552764893 1.32212936878204 1.59628736972809 1.91005969047546 2.28852772712708 2.57426238059998 3.0219624042511 3.29456543922424 3.40986919403076 3.48307108879089 3.5574357509613 3.63605976104736 3.92712450027466 4.04367589950562 4.15604019165039 4.25731325149536 4.36382055282593 4.47404336929321 4.58862829208374 4.70829820632935 4.92340326309204 5.21521615982056 5.36801481246948 5.53318977355957 5.71566247940063
1.81635141372681 1.91696834564209 2.18903589248657 2.67299866676331 2.88952302932739 3.13438582420349 3.40994811058044 3.69873356819153 3.95869421958923 4.53153800964355 3.98728275299072 4.18754386901855 5.29357242584229 5.96671390533447 7.73882436752319 10.3411703109741 5.62194395065308 -0.494640648365021 -0.412753522396088 -0.347736060619354 -0.290608674287796 -0.227580010890961 -0.161583811044693 -0.117617525160313 -0.104658521711826 -0.101677261292934 -0.0323051512241364 0.084543913602829 0.448150306940079 0.850743412971497 0.99072265625 1.24744617938995 0.875480175018311 0.461837917566299 0.723447680473328 0.771018505096436 0.808336615562439 0.822189211845398 0.982276201248169 0.852654993534088 0.913507044315338 1.02400696277618 1.0689891576767 1.17181050777435 1.62534701824188 2.87901282310486 1.09454131126404 1.09082925319672 1.10613834857941 1.13414990901947 1.1842954158783 1.87848925590515 1.09142935276031 1.09476947784424 1.11977446079254 1.14947152137756 1.19234907627106 1.23733794689178 1.28181231021881 1.33856463432312 1.39789831638336 1.38718271255493 1.45993733406067 1.5594334602356 1.67881989479065 1.8294939994812 2.01360607147217 2.19327235221863 2.25829195976257 2.2842059135437 2.30211663246155 2.34946393966675 3.13806247711182 2.37187170982361 2.58274435997009 2.77932381629944 2.91731405258179 2.89823174476624 2.90788531303406 2.19649577140808 1.29609417915344 0.499793440103531 0.372003585100174 0.343370467424393 0.35368537902832 0.365562379360199 0.35831880569458 0.259760797023773 0.180705145001411 0.191784307360649 0.219287410378456 0.266126602888107 0.304703384637833 0.332066714763641 0.487108260393143 0.708206713199615 1.46218991279602 0.222396239638329 0.361069530248642 0.471920251846313 0.56222802400589 0.641507565975189 0.549945831298828 0.381856590509415 0.0801937505602837 0.198962613940239 0.0224849823862314 -0.208415478467941 -0.331264019012451 -0.325150966644287 -0.0856976583600044 0.100616343319416 0.341729134321213 0.531826555728912 0.75858199596405 1.92523813247681 0.236615106463432 0.0998309254646301 0.688982605934143 -0.447392702102661 -0.0715217739343643 -0.301392406225204 -0.287901192903519 -0.434729725122452 -0.619230329990387 -0.582857966423035 -0.537227392196655 -0.49670347571373 -0.446531474590302 -0.383995562791824 -0.302775323390961 -0.245396941900253 -0.172622367739677 0.0277179963886738 0.275182515382767 0.552269518375397 0.746091067790985 0.970934152603149 1.10955452919006 1.0434730052948 1.03232598304749 1.23593592643738 0.125638589262962 0.275971561670303 0.35063299536705 0.466626614332199 0.641009926795959 0.871987819671631 1.13915359973907 1.47520589828491 1.94010484218597 2.41173553466797 2.7751829624176 3.09151172637939 3.21992707252502 3.29172325134277 3.36128783226013 3.43955039978027 3.51522445678711 3.68547606468201 3.82243800163269 3.92706394195557 4.02373170852661 4.12445211410522 4.22781372070312 4.33619689941406 4.45088243484497 4.6238865852356 5.00004434585571 5.14651346206665 5.30817842483521 5.47490262985229
1.55360245704651 1.63590776920319 1.73578464984894 1.99359309673309 2.36158728599548 2.54918885231018 2.75018191337585 2.96141934394836 3.1748993396759 3.38941049575806 3.48379564285278 3.61875867843628 5.30210161209106 6.23687267303467 7.66162729263306 9.6766185760498 6.62087249755859 2.50320053100586 -0.458302915096283 -0.379025489091873 -0.269993960857391 -0.194527208805084 0.0695312917232513 -0.138287290930748 -0.0832850337028503 0.0634545758366585 0.142099782824516 0.176969334483147 0.202633529901505 0.286715298891068 0.448242515325546 0.542287170886993 0.460302770137787 0.528181374073029 0.79511296749115 0.823399662971497 0.861622631549835 0.88286817073822 0.996456205844879 1.02631676197052 1.0738981962204 1.11482524871826 1.24002873897552 1.53857183456421 2.022794008255 3.09036493301392 1.04419410228729 1.04670941829681 1.06963622570038 1.10239207744598 1.64984047412872 1.39402604103088 1.16225039958954 1.18897747993469 1.22565543651581 1.27225029468536 1.326700091362 1.38887786865234 1.44015467166901 1.5028440952301 1.55284643173218 1.54140830039978 1.61922681331635 1.70542395114899 1.79448795318604 1.90925931930542 1.99265420436859 2.14922404289246 2.35873079299927 2.52389144897461 2.5637686252594 2.60363984107971 2.70000553131104 2.87852215766907 2.79431772232056 3.16422414779663 3.32080173492432 3.27065801620483 3.46442413330078 3.60907888412476 3.9911732673645 0.339840024709702 0.34112623333931 0.374076128005981 0.388909816741943 0.403964072465897 0.415605634450912 0.338358253240585 0.366677671670914 0.393976211547852 0.424317419528961 0.47030383348465 0.516755759716034 0.566916465759277 0.603342413902283 0.644873261451721 0.636285603046417 0.491348803043365 0.462512135505676 0.505796670913696 0.643291532993317 0.710932731628418 0.591287076473236 0.535276830196381 0.488835334777832 0.488469630479813 0.308944463729858 -0.0272209215909243 0.00711571797728539 0.154633656144142 0.346080958843231 0.477869629859924 0.553942501544952 1.04816234111786 1.63492202758789 2.83615756034851 0.722434639930725 0.10008542984724 -0.206514090299606 0.251062482595444 -0.588438272476196 -0.319225907325745 -0.16014339029789 -0.43195441365242 -0.716157257556915 -0.616523325443268 -0.642799019813538 -0.611701786518097 -0.570159614086151 -0.473644584417343 -0.418127775192261 -0.35251846909523 -0.291658937931061 0.0026022254023701 0.440572708845139 0.785116612911224 1.0586394071579 1.49103653430939 1.62441468238831 1.4886109828949 1.63744711875916 1.85201621055603 0.236159279942513 0.0497227944433689 0.166079699993134 0.301966398954391 0.489819914102554 0.72849452495575 1.01849806308746 1.32120096683502 1.9641500711441 2.49017190933228 2.83514904975891 3.04300332069397 3.18334031105042 3.24973559379578 3.32216668128967 3.39450764656067 3.47350811958313 3.60752296447754 3.71041488647461 3.80089044570923 3.90474820137024 4.00411891937256 4.1044340133667 4.21658754348755 4.32892513275146 4.44937515258789 4.68695640563965 4.85468769073486 5.00346899032593 5.15234613418579
1.40502905845642 1.47115421295166 1.5517430305481 1.64382100105286 1.78560400009155 2.15628099441528 2.30635547637939 2.46175479888916 2.62633228302002 2.79181885719299 2.92974615097046 3.15849471092224 3.81164360046387 4.7431788444519 5.10779714584351 5.27049589157104 6.29799604415894 5.04965353012085 2.20161080360413 -0.350219428539276 -0.276152163743973 -0.194970831274986 -0.156252950429916 -0.0642629638314247 0.0837352201342583 0.140640184283257 0.179628103971481 0.210839420557022 0.228801518678665 0.243712678551674 0.28823909163475 0.35164076089859 0.457068026065826 0.565195977687836 0.785746037960052 0.843567788600922 0.912502288818359 0.97668993473053 1.02185368537903 1.09607434272766 1.12139475345612 1.14663994312286 1.17863893508911 1.26852309703827 1.33324444293976 2.11833262443542 1.13240504264832 1.13603365421295 1.16331267356873 1.19168734550476 1.45892715454102 1.2306969165802 1.23525440692902 1.2026698589325 1.2604318857193 1.30399596691132 1.35477066040039 1.40794956684113 1.44847333431244 1.49304842948914 1.63880836963654 1.69488906860352 1.74952185153961 1.80661535263062 1.91048169136047 2.03286027908325 2.1014575958252 2.26549220085144 2.4240403175354 2.55253767967224 2.72919750213623 2.78121304512024 2.85187578201294 2.96209836006165 3.19922375679016 3.07979726791382 3.40181994438171 3.65165424346924 3.90465521812439 4.40456819534302 4.88957595825195 2.26626253128052 0.404382884502411 0.424685806035995 0.466359406709671 0.492427736520767 0.514394640922546 0.375127792358398 0.402137100696564 0.43999445438385 0.485471546649933 0.523250877857208 0.56513249874115 0.617446720600128 0.670530617237091 0.713750720024109 0.771540105342865 0.681902050971985 0.6985684633255 0.7146977186203 0.759387850761414 0.786583662033081 0.822372496128082 0.851280272006989 0.883161067962646 0.82856148481369 0.576596677303314 0.437351614236832 0.457854598760605 0.499752670526505 0.588409602642059 0.752775013446808 1.01758050918579 1.58706104755402 2.73081803321838 2.30938792228699 1.42537343502045 1.5807056427002 -0.525164425373077 -0.570725381374359 -0.640726029872894 -0.632591485977173 -0.190110638737679 -0.160009443759918 0.171416625380516 0.111923977732658 -0.131603851914406 -0.73544830083847 -0.674863338470459 0.6195969581604 -0.583064019680023 -0.475002288818359 -0.260172516107559 0.0399294458329678 0.556231200695038 0.966988384723663 1.39645493030548 1.88935315608978 1.76232266426086 2.10205793380737 1.36173784732819 1.34863126277924 -0.0856074839830399 -0.0592880398035049 -0.0097129438072443 0.157734155654907 0.380845427513123 0.656290233135223 0.981401264667511 1.28047859668732 1.69104146957397 2.27316570281982 2.5671923160553 2.85692596435547 3.04426455497742 3.11555027961731 3.17779588699341 3.25210762023926 3.4033260345459 3.56894302368164 3.671147108078 3.76039886474609 3.85937118530273 3.95952081680298 4.06230211257935 4.17129468917847 4.28499937057495 4.40710115432739 4.58868074417114 4.72737407684326 4.88162422180176 5.03176021575928
1.41101706027985 1.47489976882935 1.54930198192596 1.63750171661377 1.73088669776917 1.8363264799118 2.01408624649048 2.13662838935852 2.27422046661377 2.38355159759521 2.52178192138672 2.71795773506165 2.99493002891541 3.48793339729309 3.85847949981689 4.20163488388062 4.51708030700684 4.99162101745605 5.10905742645264 0.980377972126007 -0.248770847916603 -0.199778825044632 -0.144047051668167 -0.0169751904904842 0.107371777296066 0.173414036631584 0.21006566286087 0.258614540100098 0.299917697906494 0.326703697443008 0.286214113235474 0.326388895511627 0.437736690044403 0.561870336532593 0.747379183769226 0.900881886482239 0.980877101421356 1.03477454185486 1.07737720012665 1.10179257392883 1.12335216999054 1.14456009864807 1.15014350414276 1.14013206958771 1.18008303642273 1.49504852294922 1.18305611610413 1.18872010707855 1.22269809246063 1.25837481021881 1.29300427436829 1.31864142417908 1.34851717948914 1.35554575920105 1.4040093421936 1.42840421199799 1.46756863594055 1.51410830020905 1.57504212856293 1.61472964286804 1.66173839569092 1.71522486209869 1.73600041866302 1.73491024971008 1.84587383270264 1.9350243806839 2.03544759750366 2.1244261264801 2.26013541221619 2.58879566192627 2.87905263900757 3.11397695541382 3.19247436523438 3.28641366958618 3.46508932113647 3.60495543479919 3.68562817573547 3.89701843261719 4.09186220169067 4.4755973815918 4.71010112762451 3.14412307739258 2.54995083808899 1.3434841632843 0.358481287956238 0.462211906909943 0.493254005908966 0.462694108486176 0.501597762107849 0.554474830627441 0.605290591716766 0.65738445520401 0.707611739635468 0.759327113628387 0.815635204315186 0.867684960365295 0.934053122997284 0.933306992053986 0.886214673519135 0.769833505153656 0.799699008464813 0.814015567302704 0.855779588222504 0.896256685256958 0.951708137989044 1.02464580535889 1.05597794055939 0.880177915096283 0.895591914653778 0.959758758544922 1.06128478050232 1.24957132339478 1.63180077075958 2.33826518058777 3.76823687553406 2.83175039291382 1.71377062797546 1.60325515270233 1.4203200340271 -0.427479952573776 -0.791323184967041 -0.74474173784256 -0.133936256170273 0.249128729104996 0.676531076431274 0.29003632068634 -0.387404590845108 -0.652657806873322 2.3231897354126 -0.788482189178467 -0.748714745044708 -0.624177694320679 -0.27290877699852 -0.0597584098577499 0.37037667632103 1.01801371574402 1.71807658672333 1.97392213344574 1.53724420070648 1.45446312427521 1.55930233001709 1.01858806610107 -0.218354493379593 -0.164320468902588 -0.0817763060331345 0.0298032760620117 0.308993875980377 0.622427344322205 0.975547194480896 1.29667413234711 1.59878742694855 1.96469950675964 2.30329203605652 2.50490379333496 2.72702527046204 2.86987066268921 2.97492098808289 3.04021382331848 3.20597362518311 3.4130687713623 3.51046872138977 3.59558582305908 3.68952131271362 3.79047870635986 3.89148116111755 3.99240851402283 4.09960746765137 4.34109401702881 4.53719139099121 4.68166780471802 4.83279180526733 4.9744815826416
1.36383962631226 1.38377273082733 1.43034410476685 1.49691116809845 1.5741251707077 1.66536545753479 1.79662132263184 2.07651925086975 2.20511484146118 2.30608797073364 2.4455783367157 2.64177536964417 2.87636637687683 3.12141227722168 3.44070506095886 3.98471593856812 4.26913738250732 4.63863611221313 5.23861598968506 2.91524291038513 0.171737760305405 0.0834375321865082 -0.180529177188873 -0.0593510456383228 0.0933119431138039 0.183538794517517 0.273899734020233 0.333009779453278 0.336370438337326 0.401713043451309 0.43505522608757 0.476579010486603 0.57827627658844 0.702392816543579 0.813461244106293 0.991610109806061 1.15189325809479 1.24374890327454 1.36955451965332 1.34355580806732 1.16047871112823 1.23618161678314 1.13928163051605 1.14547395706177 1.15580928325653 1.16300082206726 1.28132104873657 1.17356216907501 1.24400758743286 1.26975810527802 1.28680849075317 1.30557489395142 1.31490170955658 1.38247585296631 1.409663438797 1.45462620258331 1.50184082984924 1.54124844074249 1.58170199394226 1.64149606227875 1.6974823474884 1.74094903469086 1.77994060516357 1.82964301109314 1.928879737854 1.97555339336395 2.07370114326477 2.23281002044678 2.35420227050781 2.56813979148865 2.87412858009338 3.25913691520691 3.53719449043274 3.71521735191345 3.8872184753418 4.25606107711792 4.49518728256226 4.22080230712891 4.61562156677246 5.12594270706177 6.62401294708252 3.93117094039917 5.34500551223755 0.9362673163414 0.260101199150085 0.326620221138 0.372429311275482 0.446693599224091 0.489616841077805 0.540056884288788 0.600029528141022 0.655682444572449 0.7193603515625 0.750538945198059 0.802463591098785 0.861236929893494 0.943615734577179 0.985594809055328 1.03597211837769 0.935505092144012 0.947215557098389 0.955698013305664 1.00863146781921 1.0703991651535 1.17923605442047 1.27293968200684 1.0220183134079 0.935308396816254 0.986689865589142 1.0141795873642 1.06995451450348 1.18089914321899 1.53672504425049 2.24820232391357 3.67131638526917 2.99412846565247 2.87209987640381 3.17981791496277 4.31120204925537 -0.530690550804138 -0.631007254123688 -0.569901525974274 -0.153153881430626 0.0390962958335876 0.386274099349976 0.181133344769478 -0.0186397433280945 0.284734576940536 3.62308645248413 -0.730039119720459 -0.755253434181213 -0.68854433298111 -0.473644018173218 -0.374856859445572 -0.0920670107007027 0.534152448177338 1.29820001125336 1.54414308071136 1.3146378993988 1.49839305877686 1.69410336017609 -0.368580728769302 -0.340541511774063 -0.261878311634064 -0.17664398252964 -0.0212455280125141 0.153229296207428 0.684405267238617 1.04052555561066 1.29762506484985 1.53124439716339 1.77849996089935 2.01971197128296 2.20356798171997 2.30311918258667 2.45502734184265 2.58624982833862 2.68311619758606 2.81731677055359 3.06564021110535 3.22491574287415 3.3325982093811 3.42023587226868 3.51205253601074 3.60468792915344 3.69722867012024 3.78747868537903 4.0871639251709 4.34683132171631 4.48584938049316 4.62462091445923 4.76680326461792
1.19067287445068 1.28609097003937 1.33270275592804 1.36792266368866 1.43165981769562 1.50123679637909 1.6247341632843 1.78611159324646 1.97787535190582 2.0961480140686 2.21012234687805 2.36876702308655 2.62767171859741 2.97319507598877 3.39164781570435 4.18536376953125 4.5766224861145 4.67019414901733 4.95475769042969 3.42560315132141 4.17582178115845 0.32537305355072 -0.205164298415184 -0.122462622821331 0.0492687858641148 0.166033446788788 0.287859857082367 0.426224052906036 0.523365199565887 0.637215733528137 0.72558331489563 0.843313992023468 1.08903622627258 1.36074554920197 1.45720958709717 1.50847840309143 1.76228857040405 1.64723348617554 1.19973862171173 1.32046520709991 1.03495073318481 1.03665113449097 1.05180025100708 1.05825817584991 1.08598232269287 1.13256204128265 1.18442511558533 1.1990077495575 1.2443962097168 1.27732872962952 1.29843008518219 1.30166697502136 1.34172523021698 1.38820433616638 1.41822826862335 1.45368945598602 1.50566291809082 1.56312561035156 1.60212481021881 1.647829413414 1.71034157276154 1.75189852714539 1.75384855270386 1.84676849842072 1.90986728668213 1.9640212059021 2.10008931159973 2.19385099411011 2.31049537658691 2.49789929389954 2.74975419044495 3.13851118087769 3.56874895095825 3.84637594223022 4.03816509246826 4.33339309692383 4.7634859085083 5.27405118942261 5.97727632522583 7.16982126235962 10.8238906860352 1.89038348197937 2.1317150592804 1.42486619949341 2.59061789512634 0.286935180425644 0.315584421157837 0.342298597097397 0.373628288507462 0.403624385595322 0.465440630912781 0.602059006690979 0.646048307418823 0.666176974773407 0.682086944580078 0.708317518234253 0.831380605697632 1.08261370658875 1.31617081165314 1.44730365276337 1.45698952674866 1.47016060352325 1.5048760175705 1.54919791221619 1.4849545955658 1.38130223751068 1.4123854637146 1.44177412986755 1.30320656299591 1.33441376686096 1.38247263431549 1.44994604587555 1.85815417766571 2.56883025169373 3.5480740070343 3.54762363433838 2.74091577529907 2.89639234542847 3.49763703346252 1.50352585315704 -0.183705225586891 0.037225678563118 0.170637503266335 0.225394085049629 0.393065094947815 0.334769278764725 0.371329039335251 0.583127617835999 1.09027802944183 0.513688445091248 0.0105365877971053 0.00525924563407898 -0.30633482336998 -0.301947832107544 -0.313354939222336 0.0227475631982088 0.590520977973938 0.832232773303986 0.968778133392334 0.770659506320953 0.89320707321167 -0.513939917087555 -0.46676966547966 -0.385776698589325 -0.320506751537323 -0.171279907226562 0.0323208905756474 0.270182132720947 0.934374213218689 1.23533594608307 1.41799366474152 1.56611633300781 1.73196935653687 1.92003643512726 2.01520466804504 2.09212327003479 2.1981725692749 2.302738904953 2.45564103126526 2.57001233100891 2.75544309616089 2.89665532112122 3.01568746566772 3.12508106231689 3.21105766296387 3.28534770011902 3.36020731925964 3.58432292938232 3.9101927280426 4.10313367843628 4.24841499328613 4.37577056884766
1.0644588470459 1.03557121753693 1.01838433742523 1.09957683086395 1.20405101776123 1.42650771141052 1.50272178649902 1.6046484708786 1.77527403831482 1.89293706417084 2.02268648147583 2.18306970596313 2.45162510871887 2.80771207809448 3.23218894004822 4.29330921173096 4.81073570251465 4.93292093276978 5.58622455596924 2.47047281265259 2.6889750957489 2.91013336181641 -0.176874324679375 -0.149444371461868 -0.00432453909888864 0.114356763660908 0.34632334113121 0.48599374294281 0.587642550468445 0.719248950481415 0.882807910442352 1.07659697532654 1.32668447494507 1.60681092739105 1.77402532100677 1.45569860935211 3.22752094268799 1.33160614967346 0.973829209804535 1.00674486160278 1.02222001552582 1.04273343086243 1.06457912921906 1.09765625 1.09716761112213 1.12609267234802 1.15392744541168 1.19745421409607 1.23989367485046 1.27027702331543 1.30103015899658 1.32885527610779 1.36911118030548 1.39472568035126 1.44560754299164 1.48583078384399 1.52165687084198 1.56599974632263 1.62784218788147 1.67947959899902 1.7182674407959 1.75207221508026 1.81360423564911 1.89872074127197 1.92449831962585 2.01745748519897 2.17867660522461 2.25050044059753 2.39850831031799 2.54821848869324 2.63590979576111 2.8338258266449 3.23690915107727 3.69567346572876 3.99079513549805 4.25117921829224 4.5636191368103 5.69596672058105 6.30460929870605 7.49653434753418 11.7942180633545 2.32405567169189 2.73002147674561 3.25811743736267 5.53442335128784 0.712119817733765 0.158551767468452 0.269426196813583 0.310842305421829 0.379534244537354 0.556576073169708 0.763025164604187 0.847408533096313 0.879041612148285 0.897689461708069 0.983244895935059 1.23318779468536 1.84331822395325 2.37032127380371 2.42768335342407 2.4669246673584 2.52086710929871 2.57336950302124 2.61235213279724 2.40491843223572 2.22891569137573 2.28919196128845 2.34361124038696 1.92049610614777 1.70876181125641 1.7331371307373 1.75669097900391 1.84483420848846 2.51847505569458 3.53303122520447 3.53842449188232 3.2095901966095 3.38922929763794 3.90682625770569 5.01674127578735 0.601389288902283 0.787535130977631 1.01498007774353 1.11415791511536 1.19794130325317 1.2720742225647 1.34019243717194 1.41921174526215 1.37946379184723 1.25358963012695 0.974571228027344 0.750874817371368 1.20597863197327 0.323589473962784 0.405148953199387 0.704805016517639 0.562984347343445 0.363618582487106 0.644448757171631 0.672917604446411 0.732003569602966 0.941542744636536 0.921905398368835 0.851083695888519 0.59002274274826 0.929495751857758 0.665910243988037 0.0246209409087896 0.26051852107048 0.806609213352203 0.99671334028244 1.14262390136719 1.37273526191711 1.55073249340057 1.65958559513092 1.75652074813843 1.88460147380829 1.98099100589752 2.13419461250305 2.22746467590332 2.33304572105408 2.45361542701721 2.58268737792969 2.67820119857788 2.76275086402893 2.84714484214783 2.94751739501953 3.14459538459778 3.30235266685486 3.51970911026001 3.71015357971191 3.83621263504028
1.09000480175018 1.1440110206604 1.19873869419098 1.24924528598785 1.31981706619263 1.40824818611145 1.48373711109161 1.55276882648468 1.63314521312714 1.65516114234924 1.85260426998138 2.06089043617249 2.3655948638916 2.67014193534851 3.32876038551331 4.19750785827637 5.3873815536499 7.03681993484497 3.40904426574707 2.12864565849304 2.47683787345886 2.89740753173828 -0.123968094587326 -0.0810017436742783 0.117994710803032 0.15799605846405 0.401192367076874 0.656871497631073 0.614266097545624 0.757198214530945 0.923695385456085 1.1244341135025 1.39534115791321 2.450119972229 1.59038805961609 2.93971967697144 4.34249639511108 0.900708794593811 0.94802713394165 1.00071120262146 1.02019858360291 1.03971242904663 1.06665408611298 1.10724413394928 1.13444411754608 1.16307699680328 1.1911792755127 1.20953023433685 1.25211369991302 1.28621256351471 1.31841361522675 1.35679984092712 1.40318143367767 1.40023398399353 1.43679368495941 1.48239994049072 1.5336400270462 1.56852221488953 1.61031866073608 1.66628229618073 1.72179818153381 1.7618727684021 1.83261430263519 1.9083639383316 1.9414758682251 2.07761359214783 2.16378378868103 2.27539086341858 2.43318700790405 2.56343936920166 2.74294352531433 2.98390102386475 3.28972983360291 3.72535943984985 4.20856523513794 4.53908920288086 4.89734315872192 5.73769760131836 6.57380437850952 7.3725266456604 10.0295553207397 2.89944219589233 3.03690123558044 2.96091222763062 2.50491833686829 2.40569424629211 0.170772969722748 0.221584185957909 0.266959667205811 0.362700939178467 0.549360036849976 0.789651334285736 0.899927496910095 0.963599562644958 1.03615474700928 1.25658679008484 1.65657198429108 2.55191254615784 2.7273268699646 2.79299283027649 2.85977721214294 2.92177772521973 2.96214985847473 2.90018939971924 2.73567128181458 2.68852591514587 2.77069926261902 2.84969067573547 2.93943667411804 3.00464200973511 3.07054567337036 3.15019178390503 3.24790596961975 3.04471898078918 2.86676573753357 4.37029790878296 3.5058708190918 3.56546664237976 4.16264820098877 5.23571681976318 1.86457252502441 2.04866409301758 2.43873977661133 2.38782429695129 2.19649934768677 2.32031536102295 2.4142324924469 1.6868394613266 1.57389533519745 1.66268861293793 1.79264736175537 1.73867189884186 2.11271238327026 1.5795487165451 1.69902288913727 1.95337438583374 2.25270867347717 1.01884770393372 1.12605357170105 1.92742848396301 2.55022358894348 2.75288271903992 2.82087326049805 2.90097951889038 2.74162983894348 3.13213419914246 2.12073230743408 0.677136480808258 0.0863474458456039 0.385213255882263 0.299782067537308 0.429792374372482 0.788768291473389 1.01829290390015 1.14952635765076 1.24820613861084 1.50823295116425 1.7172269821167 1.8813169002533 1.94517803192139 2.00459718704224 2.09362983703613 2.20522999763489 2.2859308719635 2.42358803749084 2.61260318756104 2.75149917602539 2.81534671783447 2.88757967948914 3.02577137947083 3.17233538627625 3.31653356552124
1.10680389404297 1.15706837177277 1.20988488197327 1.26791048049927 1.33601427078247 1.41385197639465 1.48976397514343 1.54887628555298 1.62962126731873 1.69164144992828 1.79288232326508 1.89560639858246 2.05205845832825 2.27663969993591 3.32194304466248 4.08848714828491 6.29626893997192 4.70497226715088 1.82194745540619 1.77034139633179 2.03979325294495 2.22880887985229 3.52341294288635 6.03723239898682 2.47231793403625 -0.0257362518459558 0.0451432727277279 0.156559705734253 0.613907098770142 0.732036113739014 0.889312863349915 1.06719064712524 1.33652186393738 1.91131341457367 1.94941675662994 4.06574440002441 3.12584567070007 0.881197154521942 0.960648655891418 1.02028334140778 1.0400732755661 1.06360030174255 1.0980132818222 1.13340163230896 1.15694296360016 1.16579735279083 1.19924914836884 1.23049628734589 1.25976967811584 1.28044414520264 1.30913305282593 1.35003852844238 1.38910305500031 1.43508839607239 1.47143924236298 1.503821849823 1.54151368141174 1.59923160076141 1.6442654132843 1.6812025308609 1.72635877132416 1.77993559837341 1.85164511203766 1.85838067531586 1.94054651260376 2.08159327507019 2.12955737113953 2.2607753276825 2.42957353591919 2.5382091999054 2.74957346916199 2.97312092781067 3.22734904289246 3.64241099357605 4.16082811355591 4.76374292373657 5.26416492462158 5.84366989135742 6.52307462692261 7.04280281066895 8.62911319732666 7.09600257873535 3.75258159637451 2.60633587837219 1.2239066362381 0.197698533535004 0.233832761645317 0.267323523759842 0.287784487009048 0.34175968170166 0.522004783153534 0.702828466892242 0.844737470149994 0.948142409324646 1.13653326034546 1.39353311061859 1.95356225967407 2.52325439453125 2.8208863735199 2.89095234870911 2.94049119949341 3.00806212425232 3.08213138580322 3.10399532318115 3.06091976165771 3.14087152481079 3.23546743392944 3.33103966712952 3.44037842750549 3.5275981426239 3.61743426322937 3.71870565414429 3.65639424324036 3.45375561714172 3.48740124702454 3.68566870689392 4.20942354202271 3.76620316505432 3.80157041549683 3.83498692512512 3.83891201019287 4.02070093154907 4.39433288574219 4.06709814071655 3.66563606262207 3.85322952270508 3.99957847595215 3.25568270683289 3.36886954307556 3.52532839775085 3.70395302772522 3.9202823638916 3.63637971878052 3.18134713172913 3.33598327636719 3.50014901161194 2.38773727416992 2.7876980304718 3.49207854270935 4.78215789794922 5.69412660598755 5.597975730896 5.08441543579102 4.93370485305786 4.85575771331787 5.27689838409424 5.71963310241699 1.85176908969879 0.0979636535048485 1.24300861358643 -0.523527503013611 -0.331241309642792 -0.0375347286462784 0.205074697732925 0.374733030796051 0.687595844268799 1.04144287109375 1.3115816116333 1.58050549030304 1.72454380989075 1.77571308612823 1.87989783287048 1.93334269523621 2.02801179885864 2.14688682556152 2.27263450622559 2.3894956111908 2.44029355049133 2.58097076416016 2.7395453453064 2.95853567123413 3.09142279624939
1.16216230392456 1.23405826091766 1.2172018289566 1.27892732620239 1.34810495376587 1.42558455467224 1.50482773780823 1.57903170585632 1.65279841423035 1.74235785007477 1.82742309570312 1.94800245761871 2.10300493240356 2.29908108711243 2.69089031219482 4.93589735031128 2.40822601318359 2.62366104125977 2.68179702758789 3.59614610671997 5.28376293182373 3.97462892532349 2.91244983673096 0.450113862752914 -0.102107338607311 -0.0873410254716873 -0.0387395098805428 0.044844027608633 0.164390608668327 0.644631564617157 0.929574549198151 1.05422031879425 1.39249014854431 2.16248512268066 3.36065769195557 5.76207304000854 1.2390763759613 0.845757484436035 0.978957176208496 1.05304729938507 1.07688105106354 1.10385346412659 1.13694965839386 1.16605353355408 1.19989097118378 1.19869291782379 1.23051738739014 1.26616430282593 1.29478919506073 1.32010006904602 1.35202479362488 1.3787442445755 1.41360211372375 1.43453025817871 1.46676290035248 1.51357245445251 1.54522264003754 1.59125518798828 1.64596033096313 1.6904524564743 1.72380614280701 1.77345192432404 1.8490583896637 1.87524807453156 1.97035145759583 2.05779719352722 2.13524055480957 2.2922990322113 2.41132044792175 2.50779914855957 2.71115851402283 2.9329092502594 3.18696308135986 3.48788595199585 3.87457299232483 4.39882850646973 5.02875471115112 5.92675828933716 6.97425413131714 7.92979431152344 9.54819297790527 7.56698560714722 3.22561454772949 3.24755120277405 0.835600733757019 0.215245023369789 0.697723984718323 0.26345220208168 0.278524070978165 0.342851519584656 0.461561352014542 0.608524143695831 0.743063449859619 0.895007371902466 1.11656308174133 1.42741405963898 1.99730014801025 2.38011288642883 2.70523023605347 2.84962511062622 2.90648698806763 2.97984886169434 3.05336475372314 3.12849020957947 3.17769265174866 3.26131868362427 3.35804104804993 3.45886206626892 3.57501888275146 3.67137432098389 3.77415156364441 3.88529539108276 3.93283128738403 3.93137907981873 4.0589165687561 4.2396354675293 4.46458768844604 4.51320695877075 4.56711530685425 5.27239894866943 4.61500215530396 4.82341289520264 4.93917274475098 4.65978717803955 4.88870906829834 5.17791223526001 5.45449542999268 5.77859354019165 6.10243129730225 6.42646741867065 6.78554105758667 6.90684795379639 6.18968200683594 5.24306917190552 5.54476928710938 5.84029197692871 4.99790716171265 5.66370534896851 6.5066294670105 7.70585775375366 9.14330577850342 10.2771425247192 9.49918365478516 7.89488220214844 7.01670455932617 6.38144683837891 3.10473942756653 1.92641842365265 2.80689311027527 6.15099716186523 1.95367383956909 -0.781947076320648 -0.353098928928375 -0.14894500374794 0.0485833920538425 0.306372404098511 0.596229314804077 1.05716896057129 2.44222187995911 2.69116640090942 1.88629174232483 1.67551875114441 1.73817253112793 1.80288255214691 1.86168885231018 2.04305720329285 2.17246580123901 2.2256875038147 2.32978701591492 2.4583420753479 2.57289338111877 2.68382382392883
1.20815134048462 1.31010484695435 1.27611243724823 1.34404158592224 1.41929113864899 1.50449395179749 1.59667026996613 1.69063472747803 1.7747358083725 1.86560702323914 1.93908727169037 1.97077679634094 2.11917853355408 2.91195917129517 4.19680118560791 2.1012110710144 2.58863401412964 3.50857901573181 4.5016713142395 3.6377260684967 3.50135254859924 2.94348692893982 2.02287578582764 0.912968754768372 -0.0127861136570573 -0.119534619152546 -0.0856378749012947 -0.0254366379231215 0.0773819163441658 0.28690442442894 0.593718588352203 0.945483684539795 1.44437801837921 2.11653208732605 3.3023955821991 4.56377744674683 0.863311529159546 0.782890260219574 0.945514500141144 1.08345031738281 1.12993156909943 1.16046738624573 1.19322216510773 1.22133934497833 1.25584042072296 1.23768472671509 1.26674795150757 1.29994463920593 1.32997798919678 1.36301708221436 1.3962733745575 1.43596541881561 1.46836173534393 1.49488270282745 1.50143718719482 1.53455948829651 1.58053433895111 1.62598788738251 1.66786634922028 1.71776700019836 1.76549053192139 1.82264828681946 1.85620832443237 1.87886369228363 1.98501694202423 2.0189414024353 2.11850118637085 2.28008627891541 2.36326479911804 2.46352672576904 2.65715527534485 2.86906409263611 3.11195802688599 3.4090633392334 3.76446485519409 4.21027183532715 4.8054723739624 5.5596981048584 6.44799423217773 7.03992366790771 8.66936779022217 7.24701738357544 5.99018907546997 4.08334493637085 1.68527281284332 0.456513345241547 0.662171006202698 0.309240639209747 0.249186724424362 0.317983746528625 0.420512020587921 0.535173237323761 0.682587623596191 0.835340678691864 1.04738593101501 1.38849127292633 1.85190582275391 2.24567580223083 2.53042936325073 2.74547719955444 2.80098557472229 2.86228036880493 2.92647814750671 2.99660444259644 3.15325379371643 3.23304009437561 3.3281672000885 3.4280059337616 3.54126048088074 3.64696455001831 3.74852895736694 3.85275983810425 3.98608326911926 4.10911893844604 4.24739265441895 4.43002939224243 4.67079019546509 4.81153726577759 4.89056539535522 4.96913814544678 4.99655055999756 5.18843936920166 5.35105276107788 5.45891761779785 5.74293756484985 6.0699348449707 6.41826391220093 6.77910423278809 7.14320611953735 7.50371837615967 7.92948246002197 7.70366954803467 7.46448421478271 7.99582624435425 8.62207221984863 9.38329124450684 10.1585550308228 10.8989009857178 11.6914329528809 13.3838577270508 16.031213760376 16.659309387207 14.6519174575806 11.1326742172241 10.7089166641235 8.50996208190918 3.63333368301392 -0.410123080015182 2.23740196228027 2.65943074226379 -1.34721624851227 -0.820568144321442 -0.385483354330063 -0.152180299162865 0.174778193235397 0.457284569740295 0.733696401119232 1.26043546199799 2.89822030067444 3.8212034702301 4.25819110870361 3.87736511230469 5.84493494033813 7.2788348197937 1.67665636539459 1.75719833374023 1.84956121444702 2.00290560722351 2.13586950302124 2.19820499420166 2.29359531402588 2.40430688858032
1.14017140865326 1.27148067951202 1.31513023376465 1.4169602394104 1.50809121131897 1.60892736911774 1.72269213199615 1.82699954509735 1.92762410640717 2.03398585319519 2.14662885665894 2.07738661766052 2.46359157562256 2.12584924697876 2.11320328712463 2.46986627578735 2.72540187835693 3.10783529281616 3.73582363128662 3.97555327415466 3.52896523475647 2.85507154464722 2.25972962379456 1.8148707151413 0.801839172840118 -0.15770697593689 -0.127076223492622 -0.0670381188392639 0.0147788627073169 0.114958554506302 0.226953595876694 0.495407074689865 0.920538067817688 1.7364627122879 2.87998008728027 3.80944728851318 1.29390954971313 0.736147582530975 0.92265659570694 1.07116138935089 1.15198218822479 1.20521545410156 1.23474180698395 1.26680994033813 1.30220365524292 1.32546651363373 1.32566833496094 1.35491240024567 1.38366377353668 1.42361915111542 1.46056699752808 1.51918089389801 1.53638195991516 1.57457685470581 1.5711966753006 1.61237251758575 1.63845098018646 1.66994094848633 1.71978962421417 1.75700616836548 1.81601881980896 1.88280534744263 1.91373682022095 1.960768699646 2.00426292419434 2.05900025367737 2.1933228969574 2.3070113658905 2.40589761734009 2.52026200294495 2.67276239395142 2.83123707771301 3.02508211135864 3.31683325767517 3.67146968841553 4.08151292800903 4.62638330459595 5.33304452896118 6.60163068771362 7.19770765304565 8.01794338226318 9.03928756713867 6.31512212753296 4.60711622238159 3.07204484939575 1.70154178142548 0.254059255123138 0.268798291683197 0.315227091312408 0.31239116191864 0.397989332675934 0.504916965961456 0.603164076805115 0.76394522190094 0.997960388660431 1.28879809379578 1.69616460800171 2.05421042442322 2.35766291618347 2.56338167190552 2.61102294921875 2.66550636291504 2.72757029533386 2.79735541343689 3.03744029998779 3.11876559257507 3.20723414421082 3.30231118202209 3.40837073326111 3.51185870170593 3.60722613334656 3.70822715759277 3.8479266166687 4.08381795883179 4.22614049911499 4.40686893463135 4.62852764129639 4.83022499084473 4.92677927017212 5.05221796035767 5.15215682983398 5.29884338378906 5.5428409576416 5.73385286331177 5.99873924255371 6.3327317237854 6.69785070419312 7.07608699798584 7.45461845397949 7.82877731323242 8.25915718078613 8.29516983032227 8.88249015808105 9.58481216430664 10.3802423477173 11.3381671905518 12.3259763717651 13.0426197052002 13.7933645248413 15.8237714767456 17.3913230895996 17.0161018371582 20.6869773864746 26.3999938964844 23.3708438873291 2.78594017028809 -1.15142202377319 -1.14675402641296 5.13107872009277 5.59776592254639 -2.01741123199463 -1.42067003250122 -0.679522514343262 -0.0188120193779469 0.38393372297287 0.776144623756409 1.11416590213776 1.86540067195892 3.37161016464233 4.76904392242432 4.41519212722778 4.65901279449463 5.71296834945679 5.97386646270752 1.90692639350891 1.53009462356567 1.74193096160889 2.14008474349976 2.32846903800964 2.40245127677917 2.48041915893555 2.55293560028076
0.94860577583313 1.09079349040985 1.21309983730316 1.35170340538025 1.46999025344849 1.60432994365692 1.76362466812134 1.89487767219543 2.00425338745117 2.10993027687073 2.72514200210571 2.19586825370789 2.00270462036133 2.23575925827026 2.43116044998169 2.57660365104675 2.86513638496399 3.21609497070312 3.52328395843506 3.70063304901123 3.68811750411987 3.20231509208679 2.92656517028809 2.23841118812561 1.51930630207062 -0.217725604772568 -0.180725991725922 -0.119677595794201 -0.0296551082283258 0.0568985193967819 0.114648796617985 0.178371176123619 0.272379279136658 0.978353381156921 1.57341206073761 2.76196789741516 3.07308006286621 1.09690368175507 0.923078715801239 1.05489838123322 1.22281515598297 1.3383287191391 1.39888763427734 1.42998731136322 1.4618626832962 1.49055600166321 1.5259495973587 1.44932627677917 1.42719531059265 1.46456301212311 1.51689660549164 1.56938230991364 1.5718297958374 1.62231338024139 1.68141651153564 1.71426236629486 1.75003612041473 1.77331793308258 1.79311573505402 1.82856845855713 1.8926647901535 1.93934500217438 1.98228251934052 2.08429455757141 2.04269027709961 2.12557744979858 2.2832670211792 2.34944462776184 2.46983933448792 2.61573028564453 2.75100183486938 2.92797613143921 3.06803631782532 3.33588528633118 3.65187430381775 4.02349710464478 4.51306486129761 5.19438552856445 6.12255382537842 7.20837211608887 7.61557769775391 9.34926128387451 7.74994993209839 5.26962232589722 2.95313286781311 2.72146201133728 0.920848786830902 0.447137743234634 0.52157199382782 0.448673129081726 0.404457479715347 0.477765381336212 0.827652096748352 0.713220477104187 0.901954710483551 1.16319835186005 1.53941655158997 1.83365404605865 2.10992860794067 2.30340385437012 2.34638476371765 2.3914794921875 2.44390869140625 2.59956884384155 2.82810401916504 2.9113245010376 2.99002861976624 3.07730913162231 3.16956257820129 3.26144003868103 3.35188126564026 3.45348000526428 3.62002086639404 3.94724225997925 4.09774351119995 4.27718162536621 4.48159408569336 4.69996690750122 4.85990381240845 4.96605491638184 5.09054660797119 5.22176551818848 5.42216491699219 5.68108415603638 5.93455028533936 6.23020029067993 6.54918003082275 6.86855268478394 7.20241212844849 7.56168222427368 7.95998287200928 8.67362117767334 9.24192428588867 9.89325428009033 10.6587591171265 11.6069307327271 12.5235939025879 13.082935333252 13.5387802124023 15.1865339279175 18.2060661315918 22.7430248260498 28.3062477111816 36.557056427002 8.28126239776611 -1.46507811546326 -2.41496515274048 -2.7819607257843 -0.856400966644287 -0.145592004060745 -1.97790861129761 -1.5633682012558 -0.843810498714447 0.00541730644181371 0.946483910083771 1.34313344955444 1.67186200618744 2.65448498725891 4.32251119613647 5.23129606246948 8.02822303771973 4.35708332061768 3.25958132743835 4.35819721221924 1.39530777931213 1.48806309700012 1.71511554718018 2.14219307899475 2.43387055397034 2.53429245948792 2.63067078590393 2.711106300354
0.787151277065277 0.894530653953552 1.01571559906006 1.14074730873108 1.28088319301605 1.454709649086 1.65540039539337 2.00027537345886 3.30793690681458 1.98532843589783 1.78987431526184 1.98648917675018 2.27697658538818 2.35177755355835 2.4652054309845 2.65565347671509 2.91405177116394 3.1908438205719 3.39129281044006 3.51193571090698 3.48101186752319 3.53729367256165 3.65301823616028 2.87925791740417 2.74097943305969 -0.289313912391663 -0.250852882862091 -0.200072199106216 -0.105525709688663 -0.0138321444392204 0.0317273959517479 0.0943668335676193 0.180468454957008 0.335516005754471 0.617551565170288 1.64604604244232 1.1908768415451 2.05706524848938 1.60236799716949 1.17810165882111 1.38057279586792 1.61683642864227 1.71715950965881 1.74923896789551 1.78116106987 1.81789946556091 1.8625031709671 1.78659057617188 1.61374843120575 1.65757310390472 1.81570315361023 1.72735583782196 1.76327049732208 1.82917833328247 1.88426506519318 1.93801879882812 1.85077834129333 1.85244369506836 1.88952624797821 1.89909970760345 1.94611883163452 1.98426425457001 2.04383444786072 2.11560988426208 2.15535855293274 2.21547412872314 2.3326108455658 2.40993857383728 2.56702733039856 2.70186758041382 2.83280944824219 3.01617980003357 3.16115784645081 3.41049695014954 3.70247602462769 4.09773397445679 4.5588550567627 5.14852714538574 5.92268848419189 7.16147041320801 7.64336967468262 8.5835018157959 9.49313259124756 7.0289888381958 4.19405651092529 3.02562212944031 0.914184212684631 0.651853680610657 0.766814112663269 0.656550645828247 0.679052472114563 0.735690236091614 0.914950132369995 0.929251253604889 1.0282986164093 1.14532363414764 1.38601350784302 1.66070365905762 1.90966796875 2.02086901664734 2.06452965736389 2.10300970077515 2.12784838676453 2.29126000404358 2.51442217826843 2.60090470314026 2.67534255981445 2.7570481300354 2.83444881439209 2.91234731674194 3.00636982917786 3.11492824554443 3.388179063797 3.70335364341736 3.84845423698425 4.0215802192688 4.21047878265381 4.40235900878906 4.59658575057983 4.70909881591797 4.83011674880981 4.9540901184082 5.20631265640259 5.58929347991943 5.81853914260864 6.08037710189819 6.35763311386108 6.64473390579224 6.95516347885132 7.28257608413696 7.63864326477051 8.39555358886719 8.95680522918701 9.57600402832031 10.3119106292725 11.2217321395874 12.1226673126221 12.7064323425293 13.4035320281982 14.5622797012329 18.208215713501 21.1886787414551 25.3709335327148 25.5562801361084 13.7453899383545 1.10706317424774 -3.53224492073059 -3.35757088661194 -2.39507150650024 -2.30454730987549 -1.8877979516983 -1.37850499153137 -0.740554630756378 0.23943293094635 1.13571715354919 1.64755141735077 1.93569159507751 2.66266679763794 4.31146955490112 6.03248643875122 7.90352773666382 7.12051057815552 3.21250104904175 1.86065757274628 1.9029792547226 2.1518919467926 2.44911575317383 2.96917247772217 2.85252618789673 2.69316148757935 2.8005895614624 2.92667627334595
0.682728171348572 0.765032410621643 0.853355884552002 0.937367796897888 1.04212522506714 1.31354141235352 1.95690143108368 2.20827269554138 2.03302669525146 1.63643646240234 1.90318584442139 2.02166843414307 2.00116848945618 2.11472320556641 2.25636887550354 2.37368011474609 2.49857902526855 2.72745656967163 2.95673751831055 3.1549654006958 3.24007749557495 3.7003607749939 3.9083354473114 3.54419302940369 2.69996786117554 -0.335474103689194 -0.296074092388153 -0.282864391803741 -0.220505312085152 -0.107302375137806 -0.0566377453505993 0.00585656892508268 0.0961983501911163 0.203021913766861 0.614270508289337 0.701170444488525 0.872728228569031 1.22401583194733 0.860959768295288 1.32845222949982 1.69961738586426 1.89298152923584 2.00769376754761 2.03479480743408 2.06354308128357 2.10976648330688 2.15962505340576 2.04916429519653 2.00573658943176 2.06216025352478 2.68467473983765 2.09415650367737 2.15300703048706 2.22977471351624 2.31078839302063 2.36847496032715 2.269282579422 2.05994462966919 2.12771439552307 2.18163132667542 2.24194884300232 2.27602648735046 2.31315422058105 2.3544454574585 2.41458106040955 2.53579044342041 2.37003707885742 2.46067261695862 2.64742207527161 2.7251410484314 2.83979368209839 3.00974059104919 3.24477386474609 3.50123143196106 3.79714250564575 4.14547538757324 4.59222078323364 5.10502195358276 5.77930545806885 6.61806058883667 7.69825077056885 8.35390377044678 8.66179180145264 8.95943737030029 6.72915029525757 3.5926628112793 1.32494342327118 0.74422162771225 0.874184846878052 0.799427211284637 0.980578124523163 1.11743533611298 1.24127328395844 1.38143587112427 1.51926469802856 1.37618660926819 1.32580029964447 1.75905406475067 1.9358948469162 1.81339228153229 1.85671484470367 1.8853919506073 1.90157866477966 2.00984215736389 2.17744159698486 2.26815247535706 2.33629488945007 2.41285991668701 2.48523259162903 2.55985426902771 2.64491701126099 2.74634718894958 3.04653692245483 3.34378099441528 3.4833505153656 3.65299916267395 3.82659411430359 4.01038408279419 4.19754219055176 4.31101846694946 4.42675161361694 4.55728244781494 4.97690582275391 5.33261156082153 5.51528692245483 5.73307180404663 5.96635627746582 6.21883296966553 6.48402833938599 6.79636812210083 7.15397930145264 7.92597055435181 8.54498958587646 9.11334133148193 9.79617881774902 10.5994482040405 11.423924446106 12.1543245315552 12.9448165893555 14.5185413360596 17.2324066162109 20.3504486083984 25.5978698730469 17.7995834350586 15.167031288147 7.33630180358887 -0.276729792356491 -3.41574144363403 -2.92412447929382 -2.31502103805542 -1.76763927936554 -1.09056198596954 -0.481489062309265 0.277623236179352 1.19365501403809 1.76880085468292 2.14202308654785 2.93999266624451 4.73839902877808 6.23064851760864 6.5793137550354 4.94321918487549 3.73967313766479 2.14981985092163 2.19320631027222 2.46929454803467 2.78676104545593 3.32613968849182 3.74147844314575 3.88395714759827 3.66952133178711 3.82549715042114
1.52288150787354 1.78708910942078 2.12719392776489 2.41194128990173 2.76491665840149 3.18850207328796 3.88185119628906 4.88596343994141 5.02318572998047 2.94898796081543 2.17437076568604 2.45051527023315 1.10832142829895 1.12433409690857 1.55798661708832 1.754758477211 1.82759582996368 2.0343804359436 2.35853052139282 2.63856244087219 2.88284492492676 3.33546996116638 3.57063961029053 3.71603178977966 2.37619829177856 -0.0641445592045784 1.04570877552032 -0.0165700390934944 -0.357597708702087 -0.225582391023636 -0.165083467960358 -0.118248589336872 -0.0477853454649448 0.0605397261679173 0.197384104132652 0.843631327152252 1.91512715816498 4.42404794692993 0.757344424724579 0.944860100746155 1.51934194564819 2.05889010429382 2.22479677200317 2.23532295227051 2.26076197624207 2.30140376091003 2.34919261932373 2.27725172042847 2.3353853225708 2.39257192611694 2.3973445892334 2.43660712242126 2.51038074493408 2.5833375453949 2.66206789016724 2.7452118396759 2.58726596832275 2.51354193687439 2.58882164955139 2.67837905883789 2.76279854774475 2.83664226531982 2.90507507324219 2.96786451339722 3.0276792049408 3.14364409446716 2.98367810249329 2.76718378067017 2.91455340385437 3.01542496681213 3.14116334915161 3.31144642829895 3.50830817222595 3.75432133674622 3.93372964859009 4.15367794036865 4.5779709815979 5.09642696380615 5.76147651672363 6.60898685455322 7.58658313751221 8.51570510864258 8.86896419525146 9.09377098083496 7.9851975440979 6.5985369682312 2.33097696304321 0.695659577846527 0.808593273162842 0.838952898979187 0.942986249923706 1.14129197597504 1.50316822528839 1.69909119606018 1.60725319385529 1.579629778862 1.94437503814697 2.65136122703552 1.60649240016937 1.63937675952911 1.6793440580368 1.80634415149689 2.25589680671692 1.8258593082428 1.93858301639557 2.05471611022949 2.13291668891907 2.21317791938782 2.28486466407776 2.3529634475708 2.42760062217712 2.524897813797 2.75317931175232 2.95719718933105 3.09711909294128 3.25923013687134 3.4232325553894 3.59948420524597 3.73253679275513 3.85182476043701 3.98201060295105 4.10292720794678 4.56727933883667 4.8945484161377 5.0552830696106 5.21245288848877 5.38605165481567 5.59819650650024 5.84908676147461 6.12957239151001 6.49207782745361 7.40111875534058 8.00807571411133 8.57251358032227 9.17762088775635 9.89826202392578 10.7035369873047 11.462043762207 12.278660774231 13.4801359176636 16.5025253295898 18.5454120635986 20.5752773284912 19.2593441009521 13.3580045700073 9.95734786987305 0.767066359519958 -3.45038318634033 -2.83522295951843 -2.00773668289185 -1.40681111812592 -0.885793745517731 -0.283339828252792 0.277997195720673 0.969877481460571 1.7092387676239 3.58948278427124 5.0432767868042 7.03053426742554 8.75797367095947 9.10857391357422 6.71746110916138 6.37055397033691 2.29565596580505 2.32811832427979 2.45790815353394 2.71022844314575 3.36619424819946 3.9259569644928 4.32847929000854 4.37672853469849 4.30405521392822
2.31811022758484 2.57456922531128 2.95450568199158 3.28776717185974 3.60348844528198 4.04045581817627 4.66026401519775 5.32760572433472 6.26192665100098 4.63661193847656 5.30420780181885 8.92668533325195 -0.133023008704185 -0.0831226706504822 0.579214990139008 0.952963709831238 1.13710010051727 1.33515167236328 1.59708189964294 1.8159738779068 2.33281445503235 2.76984524726868 3.16193008422852 3.40726113319397 1.33235359191895 1.4060263633728 2.90570521354675 1.34931397438049 -0.436791956424713 -0.322015672922134 -0.265200465917587 -0.229374200105667 -0.188039600849152 -0.122900128364563 -0.0575434677302837 0.039753396064043 0.61059582233429 4.31678485870361 1.10796439647675 0.820107877254486 1.1784999370575 1.77028620243073 2.1878457069397 2.27699518203735 2.29863739013672 2.30882143974304 2.3454966545105 2.48128366470337 2.55160665512085 2.57641863822937 2.58720517158508 2.64817261695862 2.74045372009277 2.82632160186768 2.89186120033264 2.97569251060486 2.84928607940674 2.91903018951416 3.00213718414307 3.10345053672791 3.21034502983093 3.29533982276917 3.3845067024231 3.51218342781067 3.63172030448914 3.7277307510376 3.47455954551697 3.4657518863678 3.57054901123047 3.72197771072388 3.88660168647766 4.08093976974487 4.30858039855957 4.58881187438965 4.89497375488281 4.70135068893433 4.75252819061279 5.18439626693726 5.77422094345093 6.52728891372681 7.45475244522095 8.72540283203125 9.50605583190918 9.83576965332031 9.37802696228027 7.41015577316284 3.17009449005127 2.19517254829407 0.735516488552094 0.626599967479706 0.757558405399323 0.98280942440033 1.24217355251312 1.56139934062958 1.72237253189087 1.95339632034302 2.72922420501709 3.10085272789001 1.35199010372162 1.47868013381958 1.50649523735046 2.01333212852478 2.48475289344788 1.62276518344879 1.77978134155273 1.89235663414001 2.05142164230347 2.13592529296875 2.21042799949646 2.27502417564392 2.34243750572205 2.4251720905304 2.60554361343384 2.7268238067627 2.86875176429749 3.02810859680176 3.19572758674622 3.3907904624939 3.50938081741333 3.61751532554626 3.76752114295959 3.90395903587341 4.20614051818848 4.38496923446655 4.52556800842285 4.66282320022583 4.80916786193848 4.98282670974731 5.1831226348877 5.41455698013306 5.78654432296753 6.66097021102905 7.2092490196228 7.72563648223877 8.2432336807251 8.83410358428955 9.54653167724609 10.2680759429932 11.0074653625488 12.854642868042 15.2966547012329 16.6440544128418 19.1521415710449 17.2841567993164 13.6312141418457 9.45558834075928 0.190452292561531 -3.20246529579163 -2.70129203796387 -1.67850434780121 -1.03357374668121 -0.528375327587128 -0.0335489176213741 0.394581437110901 0.810813546180725 2.91787433624268 5.04192686080933 6.74404239654541 9.36549854278564 11.0765390396118 11.6021709442139 8.66329288482666 8.73516368865967 9.56108474731445 9.62434864044189 1.70621931552887 1.99756693840027 2.62099599838257 3.28487706184387 4.03886079788208 4.58466482162476 4.86385202407837
2.88754725456238 3.03252911567688 3.27791810035706 3.62126159667969 3.92160177230835 4.46498584747314 5.04374313354492 5.74118614196777 6.16727638244629 5.49317121505737 4.73664855957031 6.00503826141357 6.29888677597046 -0.509448170661926 -0.148890495300293 0.41879016160965 0.716151595115662 0.920056581497192 1.12292456626892 1.17037999629974 1.35221362113953 2.06790447235107 2.35131049156189 1.67521381378174 1.68762373924255 2.52096104621887 4.54957866668701 2.80871224403381 -0.100581049919128 0.0526159480214119 -0.349436789751053 -0.338426291942596 -0.31764617562294 -0.293333858251572 -0.279759049415588 -0.248753368854523 -0.0231761522591114 1.67162418365479 0.572473764419556 0.719486236572266 0.971038997173309 1.37615430355072 1.82237708568573 2.09530186653137 2.18025183677673 2.25147485733032 2.27456784248352 2.4735255241394 2.56381583213806 2.51791453361511 2.55315232276917 2.63438630104065 2.70887684822083 2.78817343711853 2.87072992324829 2.93984961509705 3.07791996002197 3.16319704055786 3.27347111701965 3.3826916217804 3.48405933380127 3.58304166793823 3.69768476486206 3.81859827041626 3.97823309898376 4.13588857650757 3.93312788009644 4.0690746307373 4.18942451477051 4.36632347106934 4.56703519821167 4.79403877258301 5.06418132781982 5.36308145523071 5.72301721572876 5.40305185317993 5.78214120864868 6.30344104766846 6.94015789031982 7.76109838485718 8.658616065979 9.59770584106445 10.190728187561 10.6912288665771 11.302264213562 7.01182508468628 7.30025911331177 5.21134567260742 2.71632385253906 0.533834218978882 0.584968388080597 0.767355382442474 1.15198075771332 1.46650779247284 1.570760846138 1.88575780391693 2.57003235816956 2.32811284065247 1.44268786907196 1.25214242935181 1.2872656583786 1.78522968292236 1.29447293281555 1.37485992908478 1.59257781505585 1.69193196296692 1.78168821334839 1.87650489807129 1.95083248615265 2.01748037338257 2.08458828926086 2.15963244438171 2.40063405036926 2.5287184715271 2.65715503692627 2.8567488193512 3.00780320167542 3.17427492141724 3.30551266670227 3.39074611663818 3.51909399032593 3.64302372932434 4.03574562072754 4.17278051376343 4.30987119674683 4.45035123825073 4.60430002212524 4.76763200759888 4.95113182067871 5.17731475830078 5.44519138336182 6.0438289642334 6.44935417175293 6.88229751586914 7.36529922485352 7.93406248092651 8.47336959838867 9.13162422180176 9.94624423980713 11.4318542480469 13.3534660339355 14.9024744033813 17.3114032745361 14.3640050888062 12.9417114257812 8.66015625 0.745350182056427 -2.45512962341309 -2.33161497116089 -1.52600967884064 -0.82539027929306 -0.365968436002731 0.0509418584406376 0.404720276594162 1.81918823719025 3.89168739318848 5.89645576477051 7.9602746963501 11.3501043319702 12.7547369003296 12.4331750869751 11.4905405044556 13.0670986175537 16.0145225524902 9.68187522888184 1.13243782520294 1.45448172092438 1.94450330734253 2.45957493782043 3.06822299957275 4.19177913665771 5.09856796264648
3.50602078437805 3.72934532165527 4.02212476730347 4.30806016921997 4.7726993560791 5.29818916320801 6.05073213577271 6.4756031036377 7.30275201797485 8.96400928497314 4.91733407974243 3.98069190979004 3.95581316947937 -0.1863132417202 -0.916464805603027 -0.368838846683502 0.107153758406639 0.543932139873505 0.833929657936096 1.13156640529633 1.27428197860718 1.43095254898071 1.45500111579895 1.47267270088196 1.96883952617645 3.23003554344177 4.96480464935303 5.02158069610596 1.41146981716156 1.16551852226257 1.59257423877716 2.21320486068726 0.854721128940582 -0.492039889097214 -0.427616804838181 -0.328790247440338 -0.148987635970116 0.565261781215668 1.49447524547577 0.642471015453339 0.857790589332581 1.10550785064697 1.53287792205811 1.84614825248718 1.98617696762085 2.04583072662354 2.1345431804657 2.22175288200378 2.39190673828125 2.39521551132202 2.42623090744019 2.50118589401245 2.57605910301208 2.63284254074097 2.69889712333679 2.78524851799011 3.05184555053711 3.13055443763733 3.23581385612488 3.3505539894104 3.44259667396545 3.52622604370117 3.65658831596375 3.78401565551758 3.92953181266785 4.09383296966553 4.31101703643799 4.45950841903687 4.60391664505005 4.78600168228149 5.00061941146851 5.25866270065308 5.54557943344116 5.87749671936035 6.26271152496338 6.21572542190552 6.7524266242981 7.35511016845703 8.08191967010498 9.02242946624756 10.0939292907715 11.399772644043 12.3613338470459 13.0326442718506 12.4594306945801 13.4268827438354 10.5283479690552 11.3874502182007 4.71632862091064 0.178197115659714 0.401893138885498 0.952979862689972 1.06019866466522 1.30840945243835 1.66622149944305 1.99018561840057 2.32643556594849 2.18026351928711 2.00072550773621 2.09312224388123 1.87835967540741 2.43857049942017 1.12801349163055 1.14081358909607 1.30854856967926 1.41509974002838 1.48954319953918 1.59166574478149 1.68779969215393 1.75926196575165 1.82189083099365 1.88046944141388 2.08548450469971 2.30128359794617 2.4158239364624 2.56412625312805 2.73182439804077 2.89753365516663 3.04720091819763 3.13917565345764 3.25724339485168 3.36602449417114 3.77291083335876 3.90377855300903 4.04349279403687 4.18911123275757 4.32532596588135 4.46337127685547 4.61871719360352 4.80868530273438 5.06212615966797 5.76775121688843 6.14709997177124 6.52416610717773 6.93597459793091 7.47142601013184 7.82368469238281 8.62168598175049 9.40043926239014 10.2981090545654 11.3648815155029 12.3463697433472 12.3545608520508 13.1185922622681 12.2592267990112 5.37405109405518 1.14076399803162 -2.34950757026672 -2.3288471698761 -1.70614218711853 -1.0101363658905 -0.456822097301483 0.0969983637332916 1.08989953994751 2.61522746086121 4.18429470062256 6.02459955215454 8.66994667053223 11.2102012634277 11.34730052948 12.0855827331543 14.1304922103882 16.6630477905273 18.0992374420166 7.12143850326538 0.694380402565002 0.980108618736267 1.50788712501526 2.16016626358032 2.75548887252808 3.62585949897766 4.88644075393677
3.32032108306885 3.68295502662659 3.89707589149475 4.20169162750244 4.42669010162354 4.75573921203613 5.4178524017334 6.50502872467041 7.90531492233276 9.76037216186523 13.2863311767578 4.76207685470581 5.32006025314331 8.00459480285645 -1.37956190109253 -1.24049627780914 -0.779758810997009 -0.027381019666791 0.349882960319519 0.903124690055847 1.04933023452759 1.21609711647034 1.43611800670624 1.63875210285187 2.03603482246399 3.08572030067444 4.37983846664429 4.60597610473633 1.84435331821442 2.80750966072083 3.87553405761719 5.08350419998169 5.1315393447876 -0.653512895107269 -0.568483829498291 -0.390007972717285 -0.186448439955711 0.184286057949066 2.17926788330078 0.618654489517212 0.770571172237396 0.979759812355042 1.27406620979309 1.62390351295471 1.81577372550964 1.88554060459137 1.94766390323639 2.01618647575378 2.15157866477966 2.299560546875 2.31374335289001 2.35677766799927 2.41826152801514 2.48330307006836 2.52893090248108 2.60533094406128 2.6781759262085 2.96628475189209 3.05593085289001 3.13828897476196 3.23346662521362 3.31573629379272 3.41209292411804 3.55195355415344 3.67569518089294 3.79582500457764 4.24938058853149 4.40061187744141 4.53038215637207 4.72957420349121 4.94496059417725 5.18824291229248 5.47479438781738 5.8073582649231 6.19128465652466 6.76532554626465 7.30250930786133 7.89646005630493 8.61617660522461 9.61898136138916 10.7721471786499 12.2381286621094 13.6374244689941 14.724024772644 15.9221143722534 18.0588989257812 23.330394744873 12.5313386917114 5.78969860076904 0.30987736582756 0.647096574306488 1.25518488883972 1.30499196052551 1.86539614200592 2.10276889801025 2.28807020187378 2.61389923095703 2.71683812141418 2.88504767417908 3.27287244796753 3.32422208786011 3.15887260437012 1.68050944805145 1.15917205810547 1.30735778808594 1.38798141479492 1.51066839694977 1.61688220500946 1.72580230236053 1.66494703292847 1.73975563049316 1.79497087001801 1.86035203933716 2.0107147693634 2.10484337806702 2.24782037734985 2.41893076896667 2.5831937789917 2.71181988716125 2.79782938957214 2.90260934829712 3.00276732444763 3.35990452766418 3.59965777397156 3.72623348236084 3.84811806678772 3.96076416969299 4.07315301895142 4.1904673576355 4.34119319915771 4.62607955932617 5.33189010620117 5.65995025634766 5.99783134460449 6.36912488937378 6.80569791793823 7.18980932235718 7.94025564193726 8.66300868988037 9.33017349243164 10.4308767318726 11.0933017730713 12.7337799072266 16.8713703155518 11.4925384521484 2.45558762550354 1.34084916114807 -0.552135407924652 -2.4475839138031 -1.66346263885498 -1.00061964988708 -0.516765356063843 -0.0738440006971359 0.440124005079269 1.95579743385315 3.46558523178101 5.03609609603882 7.0214991569519 10.1124811172485 8.90531730651855 11.5945148468018 13.8698501586914 17.3747062683105 14.5493259429932 5.73025274276733 1.27829384803772 1.396488904953 1.60522961616516 1.91610789299011 2.75288105010986 3.62412762641907 4.47162294387817
2.8455638885498 3.36093592643738 3.47454190254211 3.63513922691345 3.90547561645508 4.25280094146729 4.62108516693115 4.84760999679565 6.75777196884155 7.72450590133667 11.4466314315796 9.70953559875488 4.74948740005493 5.52595138549805 5.44250440597534 -1.47332358360291 -1.21237754821777 -0.760754525661469 -0.18167644739151 0.315011441707611 0.656471312046051 0.811047255992889 1.10649919509888 1.40561616420746 1.65425109863281 1.83707356452942 2.20935845375061 2.23526048660278 2.25195169448853 3.51601982116699 4.39571619033813 5.65222787857056 6.39898061752319 -0.649645507335663 -0.612042188644409 -0.475884288549423 -0.226358652114868 0.14787070453167 1.48454403877258 1.61042129993439 0.718509495258331 0.886680245399475 1.12666141986847 1.39063823223114 1.60064208507538 1.71359992027283 1.75765633583069 1.81181311607361 1.87670385837555 2.08655023574829 2.2131404876709 2.28218245506287 2.29201412200928 2.3411922454834 2.40446424484253 2.46192717552185 2.51623320579529 2.67642593383789 2.86162614822388 2.92149925231934 2.99149012565613 3.08891320228577 3.17584562301636 3.27883982658386 3.40171408653259 3.50191211700439 3.59999203681946 4.03939723968506 4.17682218551636 4.34207057952881 4.53829288482666 4.75990104675293 5.00282144546509 5.3026123046875 5.6288275718689 6.68896865844727 7.21446704864502 7.80690670013428 8.51576042175293 9.40779781341553 10.4299345016479 11.6794691085815 13.1884784698486 14.2658567428589 17.075267791748 18.705041885376 23.8136940002441 22.7073421478271 8.53322887420654 0.732437610626221 1.08790099620819 1.51896393299103 1.9568806886673 2.34598803520203 2.98761224746704 3.36018061637878 3.701340675354 4.09542417526245 4.4125452041626 4.8737621307373 5.35979509353638 5.1332573890686 3.91061973571777 2.23261427879333 1.2098217010498 1.22122633457184 1.29042518138885 1.41082417964935 1.54842948913574 1.62880206108093 1.78027975559235 1.91069424152374 2.00459861755371 2.0807466506958 2.16679954528809 2.28940916061401 2.44356894493103 2.58183622360229 2.4933066368103 2.56624984741211 2.66860342025757 2.76428699493408 2.96396827697754 3.21048474311829 3.32064318656921 3.42051601409912 3.51218557357788 3.58305144309998 3.65922021865845 3.81786465644836 4.03257989883423 4.71903944015503 5.04632902145386 5.24003505706787 5.51624155044556 5.73279619216919 6.24359655380249 6.73342323303223 7.1884880065918 7.90115547180176 8.6951789855957 9.81052398681641 12.1153984069824 16.5323276519775 11.1181020736694 3.45009660720825 3.62565779685974 6.99935722351074 -2.56060361862183 -1.25304079055786 -0.280054956674576 0.251575410366058 0.734349370002747 0.967157781124115 1.51675474643707 2.72264313697815 4.01335144042969 5.81226634979248 8.09281158447266 8.32770538330078 9.32087230682373 12.0636568069458 15.4053602218628 6.9885368347168 2.12005639076233 2.07502031326294 2.12377119064331 2.354248046875 3.05904674530029 3.97961926460266 4.63930749893188 5.23014402389526
