NCOLS 174
NROWS 32
XLLCORNER 353984
YLLCORNER 6701328
CELLSIZE 16 
NODATA_value -3.4e+38 
-1.27219152450562 -1.67490661144257 -1.66795253753662 -1.93138790130615 -1.88112497329712 -2.65916967391968 -1.57375299930573 19.2860622406006 11.4025955200195 5.11862802505493 1.0259473323822 2.57586169242859 6.61568403244019 4.96609735488892 4.09083366394043 -0.0212965328246355 6.62157917022705 9.28279209136963 5.9143648147583 10.9276323318481 4.27396202087402 12.4469499588013 17.7239799499512 5.07374620437622 41.4438438415527 18.2867012023926 31.3386249542236 30.430549621582 26.9291362762451 20.2476558685303 19.6120262145996 18.6236801147461 7.66241884231567 6.21012878417969 6.24059438705444 2.6662290096283 1.89429593086243 1.61390841007233 1.93890333175659 1.92750465869904 2.0156569480896 1.97796702384949 2.66703271865845 4.55178260803223 38.2009010314941 2.10082173347473 8.92424869537354 20.9212036132812 24.989616394043 16.0179233551025 10.0350885391235 17.2518424987793 6.62404203414917 6.89917087554932 6.29207277297974 2.20475721359253 1.94325506687164 1.52716159820557 1.50150442123413 1.60770642757416 1.66373646259308 2.73940396308899 19.903133392334 19.9814357757568 1.47385954856873 1.60413861274719 1.2630752325058 1.25512063503265 1.4385575056076 0.651730358600616 1.20278239250183 0.780346393585205 6.71699190139771 1.61715626716614 14.6848831176758 6.07183074951172 12.0529251098633 6.83171415328979 12.4060907363892 48.0135536193848 35.9741554260254 29.8438892364502 27.5994701385498 20.3909759521484 13.5928039550781 35.2344512939453 12.2451620101929 9.99683952331543 11.1189956665039 11.1053342819214 9.56954956054688 7.94972276687622 8.79833889007568 7.56837272644043 6.17049121856689 6.12478494644165 5.64128351211548 5.56989574432373 5.6427321434021 5.18013525009155 5.36638498306274 5.08208131790161 4.91873788833618 4.58597087860107 5.36072874069214 7.89964723587036 6.88777303695679 13.0219669342041 13.6011304855347 7.83064937591553 8.59816741943359 8.37218570709229 8.27806091308594 8.46852684020996 7.92295932769775 4.45018291473389 6.65396165847778 3.53701448440552 9.41761302947998 23.3032379150391 26.9662609100342 11.7124118804932 7.25524759292603 3.80508255958557 0.2350252866745 4.25264406204224 4.76103687286377 4.0651159286499 1.30872237682343 4.13628053665161 0.403215765953064 0.153691694140434 0.848763287067413 0.345944285392761 0.387377709150314 0.650249302387238 0.892395913600922 0.9537433385849 0.469221234321594 0.228283420205116 0.677709102630615 1.20314502716064 0.814566791057587 3.8057861328125 9.64917469024658 7.78153896331787 5.75798940658569 -0.520930886268616 -1.32626903057098 -1.2665069103241 14.9728031158447 35.3586769104004 16.7409420013428 15.0892372131348 10.0571947097778 6.19776391983032 4.83006381988525 0.229772880673409 2.79875254631042 29.9836711883545 18.2085571289062 9.790940284729 9.31414890289307 11.8256912231445 10.1993989944458 6.18085098266602 8.4104528427124 5.20618915557861 5.14014577865601 3.33046722412109 3.56658244132996 3.36391973495483 2.55295705795288 2.52958965301514
-1.42381882667542 -1.5845867395401 -2.09570169448853 -1.97602510452271 -2.25393795967102 -2.69261860847473 14.5442676544189 2.76096320152283 0.658114492893219 2.5810227394104 2.83594679832458 10.9083251953125 17.4005794525146 3.24218535423279 2.81941032409668 5.28831434249878 3.72047996520996 2.69908142089844 4.64182090759277 10.1835432052612 9.11717224121094 18.3359127044678 15.3292970657349 28.1080989837646 37.9093589782715 33.1118469238281 24.2820167541504 22.1193504333496 21.8107147216797 17.5600757598877 14.3269100189209 6.44432401657104 5.59018659591675 5.21966648101807 2.48074388504028 2.17075681686401 1.84822022914886 1.78636181354523 9.25560855865479 1.65365028381348 1.90046310424805 3.32743048667908 15.0639266967773 14.5972385406494 38.5657653808594 6.61311960220337 2.8583345413208 11.6079044342041 20.3483448028564 10.7064361572266 21.2264080047607 6.65945243835449 8.79256725311279 4.9005389213562 2.50924015045166 3.04356503486633 1.67722260951996 1.69204878807068 1.43807995319366 8.30837440490723 7.5112771987915 19.9823818206787 13.0214557647705 4.83082389831543 3.01203560829163 0.966599881649017 0.900977790355682 1.12154042720795 3.05702209472656 0.643343508243561 0.56282764673233 11.2306041717529 13.1028747558594 4.73771858215332 8.13728332519531 12.2326507568359 15.3368835449219 26.6615352630615 52.4087562561035 49.1690559387207 33.6189422607422 29.4819564819336 25.7008304595947 19.2126121520996 15.7193393707275 12.9428472518921 10.8906517028809 9.99085807800293 20.6933116912842 10.4797401428223 10.0965719223022 8.78961277008057 7.24030828475952 8.13340663909912 7.02723836898804 5.72484588623047 5.71348524093628 5.46624565124512 5.39572811126709 5.47203493118286 5.02335405349731 5.20815420150757 4.57933807373047 4.18265867233276 4.13022708892822 4.14415073394775 7.26316833496094 14.045389175415 7.51904058456421 7.66289472579956 8.3000373840332 8.08335304260254 7.99608325958252 8.16938495635986 5.01592111587524 4.57073879241943 3.76372528076172 3.72113060951233 13.1638431549072 20.0642147064209 16.2266139984131 10.9845037460327 5.91581153869629 4.39848947525024 2.65559124946594 3.54121613502502 3.77619051933289 2.02768754959106 3.28031420707703 3.32565879821777 0.104930482804775 0.277510970830917 0.248953148722649 0.82483834028244 0.773647308349609 1.85947620868683 2.53549647331238 3.08690905570984 1.99886655807495 0.467028707265854 0.514568507671356 0.650998771190643 1.16460394859314 0.78024697303772 2.71684718132019 6.30492830276489 3.63661479949951 -0.916018784046173 -1.22424387931824 8.98695659637451 5.90375089645386 39.2251434326172 19.1168994903564 12.1828584671021 11.2503623962402 7.67935800552368 4.99243259429932 4.31336975097656 29.7683715820312 10.383641242981 18.295539855957 13.3974742889404 7.29542446136475 8.29079818725586 9.55959510803223 8.65993499755859 7.58732032775879 6.23083257675171 4.91725921630859 4.68515777587891 3.3787853717804 3.29943680763245 2.61811375617981 2.48402643203735
-1.44818413257599 -1.86708450317383 -2.02612042427063 1.3480259180069 -2.56923913955688 -2.73469471931458 9.82227993011475 9.75541305541992 1.64900732040405 15.0086030960083 12.0560255050659 9.99429988861084 12.8976278305054 3.59494638442993 8.70540714263916 14.9423370361328 2.48734664916992 9.96541213989258 11.6420822143555 4.07614183425903 5.1938796043396 8.94336605072021 18.2857093811035 28.7459869384766 29.7015609741211 29.4656257629395 24.0698833465576 16.4471206665039 17.3616981506348 15.0086898803711 13.6275215148926 5.42699766159058 4.54595327377319 2.71540904045105 1.95346891880035 2.05542516708374 1.84367346763611 9.42156887054443 6.16116809844971 1.53071403503418 9.36473941802979 8.57036018371582 7.4022364616394 2.85882019996643 8.38836479187012 14.1953916549683 17.4532775878906 19.8779716491699 3.93639230728149 11.6980075836182 12.3351764678955 8.68002033233643 2.51641845703125 5.28618001937866 4.02737283706665 7.4508171081543 2.69431495666504 11.7250947952271 17.9237537384033 15.3735151290894 31.7674102783203 30.440465927124 2.83054757118225 1.7535400390625 1.20710825920105 2.02458238601685 14.6559448242188 6.85257911682129 0.851748883724213 0.583167791366577 1.95318579673767 25.2149448394775 21.9647598266602 35.3693351745605 15.1671857833862 10.7347297668457 9.55559253692627 49.9854507446289 47.2781181335449 40.771167755127 37.272533416748 28.9850196838379 25.1728343963623 19.0249042510986 14.9853620529175 11.4006824493408 10.9899320602417 8.40024662017822 15.6057825088501 16.8041286468506 10.0064306259155 9.25537014007568 8.10895729064941 6.67067050933838 7.54121875762939 6.55025148391724 5.51587867736816 5.0886812210083 5.29966068267822 5.23174333572388 5.31030941009521 4.87430286407471 4.46268272399902 4.04897308349609 2.05965137481689 3.16359782218933 8.71649646759033 6.76496601104736 7.2643666267395 7.38389539718628 7.08915758132935 7.79295492172241 7.59093904495239 7.48963403701782 5.35659694671631 4.19634914398193 4.48353147506714 8.38481903076172 21.3910045623779 8.04425525665283 9.43747997283936 9.86912631988525 6.92512321472168 4.11824321746826 3.51552391052246 1.36055314540863 3.11033916473389 3.35013818740845 1.9871654510498 3.16118836402893 3.05140495300293 0.805594325065613 0.476262420415878 0.535479247570038 1.34231650829315 2.73700737953186 3.37341928482056 3.70242357254028 2.7987744808197 1.41581058502197 0.357313901185989 0.501172065734863 0.626629590988159 1.10802721977234 0.734411597251892 -1.7751852273941 -1.13514840602875 -1.12738108634949 -1.29844629764557 6.28383636474609 3.16457223892212 35.952320098877 22.2892093658447 13.0014734268188 9.72316074371338 8.90071868896484 5.55851650238037 4.60747528076172 4.17297220230103 17.7129936218262 6.99156093597412 13.5275716781616 10.7763471603394 7.32526540756226 7.49283027648926 8.24766540527344 5.74349164962769 6.54363203048706 5.45268726348877 4.71547174453735 4.28659343719482 3.09293174743652 3.05164051055908 2.0829029083252
-1.41351509094238 -1.74068987369537 0.757758557796478 -2.21538686752319 -2.76670861244202 -2.92648243904114 7.28744745254517 13.0366640090942 7.10782766342163 7.08445501327515 5.65162706375122 10.2450389862061 8.70843124389648 5.9492712020874 4.85639572143555 3.99847722053528 1.67382252216339 2.44970512390137 18.2135200500488 8.78311347961426 17.7600879669189 29.655143737793 27.5478343963623 34.7090950012207 26.4070224761963 20.435079574585 21.0538196563721 18.5047626495361 13.409140586853 13.3220100402832 7.01185989379883 4.47125148773193 4.10868644714355 3.02527046203613 2.23862981796265 1.86305069923401 1.56233596801758 1.21481704711914 1.44585061073303 1.50555241107941 1.36984729766846 4.83510112762451 11.9961833953857 37.186653137207 17.4663524627686 12.9505081176758 10.7115840911865 5.73681974411011 6.42023372650146 23.6375503540039 7.60935688018799 5.43800640106201 4.08781576156616 11.035737991333 2.41434121131897 2.41720247268677 4.52389049530029 2.21322870254517 21.01611328125 13.479907989502 26.5255680084229 5.90171194076538 3.30879378318787 1.5624760389328 1.35176014900208 8.41483879089355 11.5767860412598 6.28390121459961 3.99561882019043 11.3231067657471 27.3532886505127 35.8125648498535 39.3581581115723 30.1406307220459 27.9396266937256 28.7146396636963 20.3457469940186 53.015495300293 38.6683120727539 33.7642669677734 32.1222038269043 29.8629207611084 20.5820198059082 20.1735095977783 16.3197326660156 10.4368095397949 9.79630279541016 10.320484161377 26.0723857879639 15.4172515869141 11.4627437591553 9.1669225692749 8.53353404998779 7.51831388473511 6.76147270202637 7.02890920639038 5.14957141876221 5.17509746551514 4.93782949447632 5.14277839660645 5.07680892944336 4.67348480224609 4.18458318710327 3.81121206283569 2.14646124839783 2.08211231231689 7.83165407180786 6.51268005371094 6.68464040756226 6.81485939025879 6.94382238388062 6.69060182571411 7.32997512817383 6.3957371711731 4.71240091323853 4.28180265426636 4.14881992340088 4.44127082824707 3.68656706809998 7.93124198913574 14.9810314178467 7.80336570739746 8.25178146362305 5.84812259674072 4.12750959396362 2.88131809234619 2.69198966026306 3.55276441574097 5.36298322677612 4.71277284622192 3.09059405326843 2.84627294540405 1.03047347068787 1.34613955020905 2.4114990234375 3.27761292457581 3.26235270500183 3.16991496086121 2.69667387008667 2.14643549919128 1.04455864429474 0.975538313388824 0.163786649703979 0.580178022384644 1.05226254463196 -0.817301452159882 9.50169372558594 -1.49436271190643 13.4835176467896 15.7506465911865 3.84295082092285 37.1637191772461 20.1713733673096 15.4874887466431 9.96628570556641 8.43782806396484 6.91755104064941 5.1915431022644 4.4831109046936 4.13842391967773 13.3057270050049 5.92597150802612 11.0459566116333 9.29343605041504 6.67437410354614 7.61338520050049 7.02540111541748 5.48708343505859 5.67896461486816 4.86222219467163 4.44014835357666 3.89245319366455 2.94926691055298 2.3941798210144
-1.59018695354462 -1.80999600887299 -2.19552063941956 -2.23701024055481 -2.54150676727295 6.05976343154907 14.6376876831055 16.9175357818604 8.24677658081055 6.29590463638306 5.94385957717896 10.6206216812134 7.81846284866333 4.3870210647583 6.23442983627319 14.3952703475952 19.5678253173828 20.6704692840576 11.7785806655884 8.27577495574951 8.7785530090332 25.4648857116699 18.7304077148438 26.3395023345947 19.6849746704102 18.8393821716309 16.0295810699463 14.3964033126831 14.2846984863281 12.0986108779907 4.34256315231323 4.36462068557739 3.65731072425842 2.83471751213074 2.16961526870728 2.12082982063293 1.53113949298859 3.11816954612732 6.11819076538086 8.04976272583008 13.5804128646851 30.4838905334473 32.752628326416 22.7212734222412 24.7440376281738 16.9296455383301 8.00008201599121 6.13125324249268 12.7972049713135 5.56983327865601 7.24796676635742 5.1638445854187 2.17874336242676 2.13808751106262 2.76872706413269 5.57411575317383 2.38270950317383 3.96804618835449 18.0860424041748 11.1799364089966 5.2637996673584 4.69599103927612 3.73154711723328 2.44909691810608 1.84922289848328 19.8094539642334 7.24483728408813 9.5577449798584 17.9091281890869 16.1769523620605 27.4691848754883 37.3156852722168 27.5995807647705 22.5840396881104 22.6194915771484 19.6366500854492 20.6017723083496 49.3530807495117 39.4797210693359 30.9478168487549 27.0423717498779 26.8964881896973 21.3550357818604 18.8159675598145 15.0457439422607 13.3394660949707 12.0828704833984 19.4302215576172 18.0266971588135 16.4427013397217 10.4551858901978 9.57694339752197 8.44952011108398 7.91146659851074 7.00560569763184 6.78615045547485 5.93336725234985 4.8300838470459 4.87222623825073 4.54927396774292 4.64377450942993 4.4117579460144 4.1120753288269 3.7997145652771 1.57301509380341 2.02486991882324 6.24648380279541 4.0294942855835 6.10727882385254 6.25913858413696 6.40503215789795 6.54500389099121 6.31545639038086 6.93446016311646 5.56917953491211 3.50634050369263 14.7517929077148 24.2670745849609 16.6611709594727 13.3006820678711 22.7651538848877 10.3606081008911 7.05894565582275 7.32523345947266 5.52462863922119 5.16259098052979 5.79436683654785 6.86166477203369 6.90319395065308 4.90847587585449 3.64943838119507 3.0019211769104 2.76613473892212 2.52235651016235 3.07904982566833 3.01979947090149 0.157237246632576 2.91775631904602 2.53337550163269 2.15143346786499 1.64122688770294 1.0208123922348 0.328066438436508 -0.00911600794643164 0.545984208583832 -0.116163775324821 6.98725414276123 8.63419342041016 13.6477909088135 7.99899053573608 4.35450887680054 35.0544776916504 20.9308986663818 13.9436082839966 12.5333604812622 8.25435638427734 7.48992490768433 6.45355653762817 4.97920513153076 4.35101890563965 4.04906845092773 10.8403015136719 5.23833608627319 9.50623416900635 6.19594621658325 6.14896297454834 6.7380485534668 6.13332509994507 5.21497249603271 5.09746074676514 4.27176570892334 4.24536180496216 3.63517689704895 2.79095458984375
-1.65196073055267 -1.85447561740875 -2.2819185256958 -2.53591585159302 -2.52921414375305 -1.15095329284668 5.24883222579956 13.5805034637451 8.23297882080078 6.64759922027588 6.01542520523071 8.5895471572876 7.73604536056519 6.79200792312622 6.32180547714233 6.83769798278809 9.71594429016113 14.4990148544312 18.6899089813232 14.8367738723755 13.3007040023804 8.99580764770508 22.7155494689941 28.0832500457764 18.2678451538086 15.3874168395996 13.3368482589722 11.8775930404663 12.9684591293335 4.61644411087036 4.72832012176514 3.5082585811615 2.58048677444458 2.9538676738739 6.6091890335083 1.32712864875793 1.80116891860962 17.9524555206299 10.8692893981934 14.5747194290161 17.8476428985596 13.0998201370239 18.1000576019287 17.7375354766846 10.8891382217407 20.2520503997803 8.78911304473877 6.99455833435059 8.54183864593506 6.91642618179321 3.01179265975952 1.62991428375244 1.75953161716461 1.98449695110321 9.75913429260254 4.27840375900269 2.40261149406433 10.7927570343018 2.37663459777832 1.80121827125549 8.12383079528809 3.1769802570343 2.55282592773438 2.06572318077087 9.11013126373291 15.7481174468994 20.6190376281738 22.6050071716309 34.4272346496582 18.7274131774902 42.1780204772949 25.674690246582 24.8759269714355 25.4720497131348 23.6568183898926 23.3102378845215 32.614631652832 36.8460807800293 31.7867317199707 27.9429512023926 25.701135635376 19.9510803222656 19.7841815948486 19.2278480529785 16.3477916717529 12.8354425430298 11.9208135604858 9.91121292114258 12.9227085113525 10.1453161239624 11.1500329971313 9.3771800994873 8.88267803192139 7.83319711685181 7.3728814125061 5.6749324798584 6.36723709106445 5.5869026184082 4.54803943634033 4.60316133499146 4.33627843856812 4.09298849105835 3.88946938514709 3.37306690216064 2.49633741378784 1.31866538524628 1.68449378013611 3.34163355827332 3.77464270591736 5.75128555297852 5.89639854431152 6.06398677825928 6.18345212936401 5.97705793380737 5.61519002914429 4.68952465057373 33.8062858581543 11.7790994644165 12.6391429901123 6.56053972244263 29.214147567749 13.9177742004395 7.88711214065552 7.17794227600098 5.78103399276733 4.64986848831177 4.74327611923218 5.69300317764282 6.13442516326904 5.20499420166016 3.94338464736938 3.20003604888916 2.94769787788391 2.75175428390503 4.08716726303101 3.51652550697327 2.93817591667175 12.3686742782593 2.23420858383179 2.03684329986572 1.84857439994812 1.48944473266602 0.763576328754425 0.164486616849899 -0.081465981900692 -0.647975504398346 5.47480392456055 -1.23414897918701 3.9531455039978 2.80391550064087 5.48550033569336 36.391731262207 19.5363101959229 14.4378833770752 11.5438776016235 9.62575626373291 7.07906866073608 6.68588638305664 5.9575834274292 4.68505668640137 4.14897012710571 3.91079902648926 9.27379989624023 8.83172702789307 7.75359630584717 4.74251461029053 5.51723718643188 5.8093147277832 5.3928279876709 4.98128271102905 4.56203889846802 3.94902420043945 4.07489967346191 3.40128016471863
-1.19295299053192 -1.67933452129364 -2.28841733932495 -2.52840971946716 -2.81025886535645 -2.91681599617004 9.53663063049316 7.30886077880859 10.1067981719971 14.3302640914917 13.3417901992798 16.6364574432373 3.38102555274963 5.49248600006104 6.73265790939331 8.69666385650635 10.1684999465942 16.1486682891846 12.325740814209 17.1589088439941 12.4710092544556 37.3644866943359 35.1098251342773 16.2279167175293 15.1576299667358 12.738826751709 12.5811023712158 11.8507699966431 3.57830739021301 2.93392086029053 3.66617727279663 3.42757320404053 2.48634672164917 1.55427324771881 1.71945440769196 2.17919754981995 13.2914934158325 17.2439022064209 7.88987970352173 9.494553565979 6.11473226547241 7.77784538269043 10.3135471343994 19.5834693908691 15.1667547225952 7.90681552886963 16.686450958252 38.1370658874512 4.16479682922363 4.82949161529541 1.84154307842255 1.28729796409607 1.39819133281708 6.24944639205933 6.10817098617554 2.7790207862854 2.06250500679016 2.04180288314819 2.08140015602112 1.7594872713089 1.54556965827942 4.76930856704712 2.53793144226074 15.8717479705811 27.3456764221191 41.9157829284668 32.3204460144043 18.4466247558594 27.5016269683838 16.6530208587646 12.1846990585327 20.2454299926758 26.0876483917236 21.748233795166 22.4162101745605 27.5820255279541 21.725715637207 24.9614429473877 17.2650318145752 26.6933193206787 25.320592880249 21.7971267700195 19.4362602233887 17.6297817230225 16.1445007324219 14.0125770568848 21.1794528961182 17.2692813873291 10.5552072525024 9.50122547149658 9.28404903411865 8.4220552444458 8.74103736877441 8.28113174438477 7.30134201049805 6.34862327575684 5.30384349822998 5.99755859375 5.27959251403809 4.29615259170532 4.36392211914062 3.9893171787262 3.22226142883301 3.19981122016907 2.58827185630798 2.37902283668518 1.251420378685 1.58969473838806 2.28175592422485 3.55898284912109 5.44355821609497 5.57775545120239 5.74751377105713 5.85807323455811 4.86986017227173 5.49774265289307 15.0191373825073 18.7415237426758 11.0428924560547 15.7731027603149 16.7353935241699 16.4724559783936 9.7868537902832 6.12506246566772 6.26783227920532 5.12764692306519 4.28660535812378 4.14650917053223 4.79950571060181 4.82421970367432 3.93603324890137 3.49179601669312 3.1452043056488 3.85828232765198 2.86435079574585 2.59825277328491 2.52868390083313 2.24894785881042 6.68664693832397 1.95336723327637 1.83724808692932 1.41421580314636 0.828913033008575 0.265392512083054 -0.00497649516910315 -1.30372989177704 -0.854001879692078 -0.423903405666351 10.8133354187012 0.705505669116974 11.1250295639038 32.9353218078613 20.615701675415 13.5293502807617 10.934229850769 9.76943588256836 6.9387674331665 6.26765584945679 5.9925274848938 5.53035831451416 4.43545818328857 4.00342845916748 8.80327415466309 4.67930030822754 7.87824726104736 6.92458629608154 4.42055082321167 4.91930913925171 5.12863445281982 5.09228372573853 4.75783061981201 4.1058464050293 3.77846765518188 3.9089949131012
-1.29633915424347 -1.50925648212433 -2.21371984481812 -2.61526036262512 -3.00652647018433 12.5430097579956 10.4511775970459 6.03447103500366 10.5537137985229 15.3880414962769 7.86342668533325 10.7428274154663 4.9866828918457 3.62181806564331 3.36349296569824 2.30418872833252 4.09267568588257 8.27339553833008 10.1213455200195 11.6197299957275 9.30930805206299 8.94139862060547 8.32816886901855 9.3900146484375 13.1143159866333 12.907172203064 11.3695230484009 4.57169151306152 5.58875417709351 2.94296050071716 2.37617802619934 1.73550379276276 2.13898015022278 2.01945495605469 8.2559757232666 8.53477668762207 2.86356830596924 8.92740631103516 8.33926868438721 5.6129322052002 4.16850519180298 6.17469549179077 19.496919631958 30.6376781463623 12.9368295669556 9.50513744354248 7.29568004608154 3.62017345428467 18.0370826721191 2.6823513507843 1.56767213344574 1.56331539154053 1.26774203777313 9.2707347869873 8.33947277069092 4.76533889770508 1.83365321159363 1.81489896774292 2.86109781265259 1.68609535694122 1.46189415454865 13.7698564529419 14.2909030914307 25.7535991668701 15.6256980895996 25.6410503387451 31.8982219696045 28.0932636260986 17.2504329681396 12.8346185684204 15.7127990722656 23.7994422912598 39.4542694091797 25.8736572265625 31.7785186767578 27.2030010223389 20.3406448364258 20.1905384063721 19.8997688293457 27.926212310791 21.4952335357666 21.358226776123 18.6631622314453 18.4274063110352 14.8895559310913 15.3413743972778 17.1521167755127 12.7512121200562 11.3735494613647 9.12627410888672 8.69404315948486 8.5565881729126 8.44081020355225 7.99445724487305 7.04863739013672 6.68102216720581 5.97817993164062 5.00914192199707 5.66793441772461 5.00425004959106 4.07400178909302 4.14989757537842 3.79779458045959 3.07023048400879 3.04742336273193 2.44933605194092 2.26891613006592 1.19126319885254 5.40614604949951 0.789029359817505 3.25930142402649 5.14905405044556 5.28498888015747 5.45543003082275 5.5600528717041 4.638596534729 5.14851713180542 10.2221117019653 13.3359956741333 10.5051364898682 12.5668506622314 12.798487663269 11.8114004135132 4.05879878997803 5.21734094619751 5.52146291732788 4.53640031814575 3.91544008255005 3.851966381073 3.96579265594482 3.99500131607056 4.06517791748047 4.29986190795898 3.19065713882446 2.90485095977783 2.66833639144897 2.27644634246826 2.16434907913208 2.00719046592712 4.77253150939941 1.74096083641052 1.51765024662018 1.05280935764313 0.539778769016266 -0.992663562297821 -1.26892793178558 -1.82828521728516 -1.23672664165497 6.33842182159424 -1.39375233650208 5.26594877243042 33.270938873291 18.6478118896484 14.4142532348633 10.3476848602295 8.74798011779785 8.40198993682861 6.1096510887146 5.68809986114502 5.54398393630981 5.24665260314941 4.28047895431519 3.88419270515442 7.77451992034912 4.17004442214966 6.91087532043457 6.1043004989624 4.1657977104187 4.56427097320557 4.62569427490234 4.85380125045776 4.51565790176392 3.91317987442017 3.82192254066467
16.1037921905518 -0.856774210929871 -1.74683737754822 -2.43009781837463 0.428438097238541 11.0597105026245 7.98963451385498 6.78175687789917 17.8066215515137 14.333872795105 8.5718936920166 13.9071207046509 10.173433303833 4.34524488449097 2.89356827735901 6.82835817337036 9.93634796142578 15.463812828064 6.85069036483765 8.59594345092773 9.49800872802734 6.78595542907715 7.34244871139526 15.9085178375244 20.433256149292 11.7307376861572 4.89041614532471 4.3828911781311 4.33934640884399 3.53857779502869 2.11164498329163 2.11205577850342 9.01737785339355 14.0514497756958 1.82629096508026 2.72552156448364 5.28233051300049 3.38141465187073 5.92421913146973 3.286301612854 4.67776966094971 13.5432167053223 15.5424938201904 24.3193264007568 11.171347618103 10.6172542572021 3.57615184783936 1.98620712757111 1.4946995973587 9.10191345214844 2.01531028747559 13.4078903198242 10.9896650314331 18.8712348937988 7.88107109069824 7.15353155136108 5.89578008651733 5.32848262786865 11.1337394714355 1.76172292232513 22.1476669311523 16.3039493560791 20.7621822357178 27.7248859405518 37.2480621337891 32.8525238037109 28.6722106933594 22.4508094787598 21.5639228820801 14.1522769927979 20.4914417266846 13.3321399688721 37.9735565185547 25.4316425323486 22.272029876709 21.558629989624 19.7620391845703 17.7894821166992 17.7847938537598 17.9730186462402 19.5482711791992 19.5662040710449 17.5481605529785 16.5956745147705 16.2956485748291 14.4458379745483 13.8880081176758 13.2310180664062 11.5854272842407 10.4149389266968 8.40714454650879 8.00967597961426 7.93141031265259 7.92289638519287 7.50352954864502 6.61116313934326 6.28765392303467 5.6512770652771 4.75268602371216 5.37485980987549 4.76029205322266 3.8719174861908 3.95443844795227 3.62687039375305 2.92841482162476 2.90718531608582 2.3277587890625 2.17039060592651 1.55738461017609 1.40405321121216 27.5968837738037 3.16430354118347 4.8905930519104 5.01334142684937 5.19807958602905 5.29991436004639 15.8969411849976 16.3133869171143 11.6526575088501 16.0311870574951 9.92091464996338 10.1004638671875 8.63317203521729 7.01352548599243 3.81335949897766 3.94831323623657 3.20810174942017 2.57219076156616 3.61962008476257 3.6755588054657 3.84354686737061 3.76221418380737 3.57589173316956 3.3406286239624 2.57703256607056 2.78457760810852 2.53807353973389 1.99055409431458 1.95312893390656 1.80375444889069 3.70950937271118 1.53181743621826 1.25708448886871 0.895610213279724 -1.01222991943359 -1.84607076644897 -1.85280394554138 3.14401197433472 14.3727426528931 1.19847762584686 15.0673637390137 17.3495807647705 13.9218683242798 13.1122055053711 11.1797113418579 8.45929622650146 6.72346782684326 7.59988355636597 5.66908550262451 5.39844179153442 5.27727746963501 5.00946092605591 4.07837629318237 3.68122792243958 6.80854845046997 3.60228371620178 6.09117221832275 5.45265579223633 3.96831965446472 4.34240198135376 4.31393623352051 4.65043592453003 4.30581045150757 3.75092029571533
13.2229270935059 8.14425945281982 5.65116786956787 8.65350532531738 -2.48875761032104 6.16215324401855 10.1404762268066 4.32787322998047 6.31208610534668 8.76658248901367 8.21886253356934 22.5293922424316 6.92608404159546 5.90588140487671 7.06652545928955 15.7410669326782 15.5786628723145 19.4169139862061 20.8309288024902 13.0902070999146 10.1414861679077 15.3720350265503 13.6622657775879 11.759539604187 5.84833765029907 6.24046468734741 4.36723566055298 3.10957956314087 2.80695915222168 2.98067331314087 1.94980585575104 9.95181465148926 1.805220246315 1.77989792823792 2.76050066947937 16.7620449066162 15.8427667617798 20.5027294158936 16.9848613739014 5.029700756073 12.7537469863892 18.7129154205322 26.902904510498 12.710301399231 10.5022678375244 7.22716283798218 2.72906827926636 1.67490637302399 1.65704226493835 17.4557838439941 6.58990669250488 8.95680999755859 9.6369047164917 7.48283624649048 14.9033355712891 10.8625373840332 3.72506427764893 1.44269573688507 1.3849173784256 8.64284133911133 26.4493370056152 20.4425506591797 24.6936836242676 14.7829542160034 15.8023977279663 24.6664714813232 24.100944519043 20.5973644256592 20.3385753631592 18.5479927062988 12.8168935775757 14.0493307113647 31.6654930114746 24.1620941162109 20.3797855377197 19.6081142425537 19.0396842956543 17.7313995361328 15.9807691574097 15.8815717697144 15.6943740844727 17.0164890289307 17.0214023590088 15.5294342041016 14.8534412384033 14.5573863983154 12.8728189468384 12.6612215042114 12.1072750091553 10.5667457580566 9.58205699920654 7.79292774200439 7.42030906677246 7.36587572097778 6.80285978317261 7.06653356552124 6.23560571670532 5.95057058334351 5.35827875137329 4.51675271987915 5.11054515838623 4.53251647949219 3.68766570091248 3.77434015274048 3.46974873542786 2.80276989936829 2.78359699249268 2.21222257614136 2.06600022315979 1.66201484203339 1.05204880237579 17.5667858123779 3.01814699172974 4.67309951782227 4.7854700088501 4.96290874481201 5.05871295928955 8.10596466064453 8.34088325500488 8.02980995178223 11.293065071106 9.1486759185791 7.08388137817383 7.53131532669067 3.98865365982056 3.58673620223999 3.69719099998474 15.0925016403198 13.5806589126587 3.3363254070282 3.34099078178406 3.41124820709229 3.27859902381897 3.1165087223053 3.12424612045288 2.23896956443787 2.60848045349121 2.36561179161072 1.75432729721069 1.68428552150726 1.5396226644516 2.95197176933289 1.27926635742188 -0.439035266637802 -0.875198066234589 -1.64105272293091 1.32701086997986 19.6929397583008 21.24245262146 15.6810836791992 -0.0581248700618744 25.9113426208496 24.2633495330811 13.3685159683228 10.2486600875854 9.25092029571533 7.32092666625977 6.14296293258667 7.08674240112305 5.43933248519897 5.14068222045898 4.94769668579102 4.70309829711914 3.82712697982788 3.34052014350891 5.96383571624756 2.26940298080444 5.48127317428589 5.00834083557129 3.81595349311829 4.16576528549194 3.98013305664062 4.45025300979614 4.12187767028809
-0.550114512443542 -0.886139631271362 -1.05487275123596 -0.190301939845085 -1.84685945510864 23.5520935058594 10.2023763656616 5.84188890457153 8.43889236450195 12.5766363143921 6.53928995132446 11.0559959411621 12.7621278762817 6.01359796524048 9.06160640716553 9.90531730651855 12.0584363937378 10.0238018035889 15.10471534729 15.8550882339478 7.7005786895752 9.756516456604 8.53362560272217 8.75217056274414 5.89294290542603 4.02950620651245 3.60358738899231 3.78839015960693 11.3608846664429 15.5828828811646 2.82489323616028 1.56712365150452 2.31503748893738 15.4000329971313 23.930814743042 31.6738662719727 20.3958721160889 12.9116916656494 9.10381031036377 9.70787525177002 20.7878322601318 22.1143321990967 27.8517417907715 14.6973571777344 6.56130218505859 6.44511604309082 4.3153133392334 1.62332320213318 1.57279670238495 3.44706916809082 8.69349956512451 6.04054403305054 5.24273490905762 5.20869922637939 17.7090435028076 7.34042596817017 6.00883293151855 2.54736995697021 12.7420139312744 14.9362802505493 23.1485824584961 13.7510585784912 14.7159996032715 13.3931646347046 31.1104774475098 28.9395065307617 19.0621471405029 21.0158252716064 18.9635696411133 17.1412086486816 15.9085788726807 27.5249824523926 28.4190807342529 19.4315071105957 19.4233436584473 18.0208644866943 17.4733467102051 16.9605445861816 15.9798698425293 14.3862791061401 14.2527551651001 14.0358390808105 15.0467481613159 14.9900846481323 14.0083818435669 13.4071846008301 13.1292610168457 11.721607208252 11.5880069732666 11.1365537643433 9.72530555725098 8.86906051635742 6.31374835968018 6.97809267044067 5.99110746383667 11.3554658889771 6.68274784088135 5.90911102294922 5.64027738571167 5.09134435653687 4.30278444290161 4.86600399017334 4.32725620269775 3.52110743522644 3.60878276824951 3.31972599029541 2.67288851737976 2.65315842628479 2.08595657348633 1.48918223381042 1.57171404361725 5.77355575561523 5.47869396209717 2.87141942977905 4.4557147026062 4.55870151519775 4.74636650085449 4.83943223953247 5.38498306274414 5.57427024841309 10.2523212432861 7.66508293151855 7.77536678314209 4.40537023544312 6.34134292602539 3.85497903823853 7.16898202896118 5.38624000549316 7.76266050338745 6.9025502204895 3.05109477043152 3.06970596313477 2.89138984680176 2.85059762001038 2.87330365180969 2.90771627426147 2.5194776058197 1.61604285240173 2.20169758796692 1.46126759052277 1.43510699272156 2.64476013183594 1.16028201580048 -0.449532747268677 -0.526493191719055 12.8211603164673 29.891565322876 32.5719757080078 15.9180107116699 22.7313404083252 14.0004405975342 23.4122886657715 21.6167049407959 17.1787281036377 10.5024127960205 8.54634380340576 6.97223615646362 6.49348735809326 5.64626264572144 6.61885213851929 5.09225702285767 4.82401466369629 4.58215856552124 4.37569570541382 3.31796336174011 3.1130108833313 3.37552309036255 13.1091108322144 5.02601957321167 4.50976037979126 3.58296203613281 3.9634850025177 3.81330180168152 4.25162744522095
-0.350122570991516 6.15448427200317 -1.37760603427887 -1.15939724445343 -1.40674960613251 -2.10900926589966 5.47389650344849 7.73826265335083 16.0910968780518 17.5860233306885 17.6362285614014 5.69935607910156 7.25962972640991 6.66641473770142 8.93800735473633 4.67438125610352 4.92105388641357 7.52006483078003 7.34246826171875 5.30614185333252 5.83494997024536 3.19266057014465 3.31925439834595 5.26967906951904 3.95489907264709 4.40902185440063 3.40763187408447 4.36880445480347 18.5246715545654 4.23442888259888 4.70127868652344 2.52767753601074 2.26665353775024 2.22656941413879 1.71039962768555 14.6257972717285 6.91022872924805 10.2431497573853 5.37746620178223 6.35450792312622 8.21790599822998 17.3531818389893 13.4674959182739 10.3263244628906 7.31298017501831 7.8665657043457 3.50111746788025 2.18625855445862 1.54802870750427 2.22459959983826 2.62802267074585 4.76173067092896 7.10573530197144 10.0802116394043 19.216968536377 6.69401884078979 7.58280324935913 13.0953798294067 28.5179195404053 34.0457458496094 37.6326675415039 21.6364994049072 39.9409408569336 22.296703338623 39.1244926452637 14.688756942749 20.0832386016846 18.474100112915 17.7428531646729 16.0740947723389 14.9727201461792 14.085485458374 16.5404930114746 16.9987964630127 15.3368310928345 16.1347541809082 15.8232202529907 15.6101360321045 15.1421823501587 14.4160509109497 12.9682521820068 12.9053974151611 12.6778745651245 13.3847551345825 13.3231334686279 12.7373304367065 12.1658411026001 11.8775405883789 10.7702770233154 10.6661796569824 10.3321008682251 7.40956592559814 8.12818336486816 11.316258430481 5.75424385070801 11.8995304107666 6.69090414047241 6.33780717849731 5.61988258361816 5.36052513122559 4.84941244125366 4.10686779022217 4.64709997177124 4.141282081604 3.37118768692017 3.45857357978821 2.93160367012024 2.59062767028809 2.03907060623169 2.002436876297 1.06318426132202 1.31885898113251 0.878459751605988 17.2761154174805 2.7450213432312 3.3529646396637 4.04625129699707 4.28232574462891 4.63603830337524 5.09260416030884 5.87025499343872 8.70423221588135 3.94262981414795 5.5958833694458 4.24010801315308 4.62538003921509 14.1019153594971 5.95257997512817 3.52217769622803 5.22446966171265 4.63139152526855 2.80499148368835 2.84770560264587 2.53188705444336 2.77397632598877 2.80467677116394 2.06815791130066 2.35677218437195 2.1147882938385 1.32436954975128 1.28194570541382 1.20958721637726 2.13680005073547 -0.0355647206306458 15.734001159668 -0.54251754283905 25.3964748382568 20.0359992980957 23.7299633026123 16.7069263458252 16.9740543365479 12.8108644485474 26.7180938720703 16.0130996704102 13.1970300674438 8.38766288757324 7.29400634765625 6.06399440765381 5.75892686843872 5.14243507385254 6.0642466545105 4.69019269943237 4.48200130462646 4.2225284576416 3.56866002082825 1.10718405246735 2.98706889152527 18.4528064727783 6.24301671981812 4.53509712219238 4.18385982513428 3.43175840377808 3.78230595588684 4.15123414993286
0.0486101545393467 0.221908852458 -0.703510761260986 -1.11065089702606 -1.25231170654297 -1.78599870204926 2.36416554450989 -0.39309960603714 1.80679976940155 5.20119047164917 5.60531711578369 9.18469333648682 5.98990106582642 6.92887735366821 5.68847703933716 6.37739086151123 4.966637134552 2.5165684223175 9.09016513824463 3.87280011177063 7.95401763916016 3.29298615455627 3.10637903213501 4.31545257568359 4.38113784790039 18.2620697021484 15.3428297042847 2.75804686546326 3.52287578582764 3.2502453327179 2.65099573135376 2.91945433616638 5.20376634597778 4.47964859008789 4.00424480438232 15.1747760772705 8.51344680786133 6.09004068374634 4.2533745765686 8.83092498779297 31.4549522399902 27.5199928283691 13.435152053833 8.93344306945801 3.15405988693237 2.90031933784485 3.2306113243103 1.80355727672577 2.14935278892517 1.36897432804108 1.36935460567474 1.41178774833679 16.3145160675049 8.63995456695557 11.8415307998657 13.3484678268433 10.0844593048096 36.6045341491699 39.3418159484863 32.2527847290039 25.7521800994873 32.2591819763184 24.2874622344971 27.2710819244385 14.59215259552 25.7544479370117 21.5987987518311 17.1381454467773 15.4807434082031 15.5917282104492 14.1843090057373 13.4866523742676 12.8686208724976 13.5525341033936 13.021372795105 14.4303970336914 13.9682693481445 14.1390781402588 14.0721559524536 13.6176376342773 13.0803670883179 11.7530288696289 11.8078374862671 11.4874925613403 12.0264043807983 12.0008764266968 11.6622543334961 11.2543573379517 10.8553924560547 9.99756526947021 9.7265510559082 7.85164356231689 20.0658931732178 7.01102638244629 6.09310388565063 5.17002534866333 6.00749444961548 6.36101627349854 6.02347087860107 5.35147619247437 5.1049370765686 4.63176918029785 3.93117833137512 4.44539308547974 3.97006559371948 3.38431620597839 3.11819171905518 2.51386213302612 2.49848198890686 1.96062123775482 1.90917670726776 0.973460555076599 0.968893527984619 0.736949443817139 9.70481967926025 2.41145253181458 2.94739460945129 4.24965047836304 6.17278575897217 4.45314025878906 4.89353513717651 4.97193670272827 5.9066596031189 20.7317943572998 4.32397556304932 4.17344522476196 13.8472776412964 7.17908239364624 3.98692321777344 3.28842926025391 3.93164300918579 3.46727418899536 2.60056519508362 2.6488893032074 2.26786971092224 2.60551834106445 2.63058423995972 1.91378378868103 2.20922994613647 1.98004686832428 1.14840483665466 1.05189228057861 1.05102956295013 1.87079727649689 9.7712984085083 9.93864822387695 28.2943515777588 15.4628953933716 17.3667011260986 19.8668479919434 14.9642791748047 13.8755226135254 11.7980537414551 17.3921775817871 12.8118772506714 10.6889181137085 6.54671669006348 6.36827039718628 5.36980295181274 5.15283203125 4.69178819656372 5.5833797454834 4.34256172180176 4.12799549102783 3.94133734703064 2.06054663658142 33.211368560791 2.79248332977295 9.58708763122559 4.31018590927124 4.19889211654663 3.86585783958435 3.2620894908905 1.84801912307739
-1.28944599628448 -0.340209573507309 -0.937471449375153 1.47235131263733 7.00729656219482 -1.66212499141693 -1.86222362518311 -0.388100802898407 1.53999722003937 4.25639390945435 4.78006935119629 5.20468664169312 6.00710916519165 4.10479545593262 4.57218217849731 4.63209533691406 4.49931192398071 3.97615599632263 1.27274429798126 2.65162801742554 2.60702252388 2.21568250656128 1.5349452495575 3.48491096496582 13.1261796951294 6.99614000320435 4.2248969078064 2.76089239120483 2.1837797164917 2.50618481636047 2.50988507270813 1.9396516084671 2.15441703796387 1.66268515586853 3.48942446708679 2.11199712753296 3.39545822143555 4.19240188598633 5.84795236587524 12.5519189834595 15.0816078186035 17.7814521789551 6.30990791320801 3.61149454116821 3.56590509414673 2.99181842803955 11.8443365097046 2.76448106765747 3.39483261108398 4.65590763092041 14.3846015930176 10.6659727096558 19.5192775726318 16.3829326629639 7.56656265258789 21.6024990081787 29.6293754577637 31.1503963470459 29.99951171875 23.3681983947754 28.0951919555664 20.1247882843018 17.9785594940186 19.6533374786377 21.2439880371094 20.6584224700928 18.4007453918457 13.9012985229492 14.8993053436279 13.7916326522827 13.9302282333374 12.6861257553101 12.3216781616211 11.8503313064575 12.1447811126709 11.4617614746094 12.4921684265137 12.6271305084229 12.7460660934448 12.7897453308105 12.3509426116943 11.9575300216675 10.7977180480957 10.8949165344238 10.5326862335205 10.9341650009155 10.8934297561646 10.7403297424316 10.4837379455566 9.90957927703857 9.15192317962646 9.18728637695312 23.5484466552734 10.361255645752 6.01266241073608 4.57311820983887 17.8178806304932 5.69632959365845 6.06035947799683 5.73858547210693 5.11087942123413 4.87580108642578 4.42991876602173 4.15677881240845 4.26216173171997 3.15601778030396 3.24722409248352 2.99799680709839 2.41059565544128 2.40283608436584 1.88640868663788 1.78646218776703 0.845184624195099 12.6244134902954 15.2498531341553 6.45892238616943 3.28830170631409 9.42732238769531 4.02794456481934 4.36123371124268 4.28636693954468 4.69867992401123 4.42421245574951 7.61338138580322 8.28344058990479 14.0585327148438 9.16436386108398 7.08071279525757 4.79714059829712 3.48435568809509 3.19010829925537 3.18774604797363 2.78535532951355 2.55784940719604 2.20639824867249 2.05517649650574 2.44425082206726 2.46943807601929 1.79657566547394 2.08402681350708 1.83319544792175 0.947076380252838 0.953313052654266 0.943165719509125 1.64734637737274 4.35885620117188 13.4033946990967 19.1528663635254 13.9099178314209 15.1965799331665 15.5115184783936 12.0952272415161 11.1712675094604 8.935133934021 13.2269687652588 9.84196186065674 7.19324111938477 5.69073867797852 5.62619400024414 4.8026008605957 4.66402149200439 4.32321882247925 5.16283512115479 4.0529088973999 3.81090140342712 2.30989384651184 0.793960332870483 18.20920753479 2.65620422363281 6.55210828781128 3.23306965827942 3.86214971542358 3.55730724334717 1.76066792011261
-1.30134451389313 8.40197944641113 -0.81285572052002 6.91185474395752 -1.06250727176666 -1.64715564250946 4.6270923614502 -1.37247729301453 -0.0523086413741112 0.519905865192413 2.91260266304016 3.5271270275116 4.21846103668213 3.64494609832764 4.07784175872803 4.14556169509888 4.45505619049072 5.09551811218262 2.0427348613739 1.00117599964142 1.2401567697525 1.64385259151459 0.495115458965302 1.34598422050476 1.55277740955353 0.832160413265228 0.506276905536652 1.33876895904541 1.37679255008698 4.24687671661377 2.13677930831909 2.35117697715759 1.83260297775269 2.67422080039978 1.36264801025391 5.30711603164673 2.09741640090942 5.55752038955688 7.35819101333618 5.38408327102661 10.0951061248779 8.0450496673584 4.46451902389526 3.60514426231384 2.82184314727783 7.8115496635437 2.53106546401978 1.94500184059143 1.81494438648224 11.5934228897095 16.7052307128906 9.5709924697876 13.9675922393799 33.3425521850586 34.1061782836914 8.72373390197754 32.3036994934082 21.9855346679688 29.5097274780273 21.4934597015381 14.9122886657715 19.9879531860352 26.4983940124512 28.6892509460449 16.7235584259033 16.4650402069092 14.7017011642456 14.2710447311401 12.3177719116211 13.2735271453857 12.4503955841064 12.6154937744141 11.5359935760498 11.2666072845459 10.9150667190552 11.0806350708008 10.4321422576904 11.343451499939 11.4926977157593 11.5825271606445 11.7182664871216 11.3249502182007 11.0625295639038 10.0426959991455 10.1166725158691 9.71136474609375 10.0617046356201 9.96841907501221 10.0902004241943 8.988694190979 9.20508670806885 8.80487155914307 8.64248561859131 12.291296005249 6.12470245361328 5.21413087844849 18.3403358459473 8.06352615356445 5.41825246810913 5.78555297851562 5.48049879074097 4.89092397689819 4.66561841964722 4.24930953979492 4.17124032974243 3.72813105583191 3.03268456459045 3.1206488609314 2.88349151611328 2.33264970779419 2.30987119674683 1.81160342693329 1.60953485965729 0.810078620910645 5.70280647277832 7.80805015563965 4.84788990020752 3.13621759414673 2.68927478790283 6.21292686462402 4.19506359100342 3.97296714782715 4.37796306610107 4.12993669509888 6.28001117706299 9.7188606262207 7.49227857589722 4.74435806274414 4.74174213409424 3.77668261528015 3.38242554664612 3.09616589546204 2.96586060523987 2.47027397155762 2.40352654457092 2.07753014564514 1.88032138347626 2.30974125862122 2.3357400894165 1.69674813747406 1.91649568080902 1.70714163780212 0.873534023761749 0.866095781326294 0.85541832447052 1.47005760669708 9.02689743041992 8.34646320343018 13.0205507278442 10.9912261962891 12.3023729324341 12.5456895828247 10.1311149597168 9.10169315338135 8.15139484405518 10.6351957321167 8.23590087890625 6.29579782485962 5.1315279006958 5.00119304656982 4.3216233253479 4.26572561264038 3.99926567077637 4.81324052810669 3.83436870574951 1.34261095523834 4.54309034347534 14.654899597168 12.363844871521 2.54728221893311 5.03177499771118 2.49437785148621 0.706196427345276 1.2013019323349
-1.28262400627136 -1.66270506381989 -0.29776406288147 -0.943674564361572 1.17897701263428 -0.656737208366394 -1.79488205909729 3.70913362503052 6.2118444442749 1.89445376396179 10.984917640686 3.63148307800293 3.10446000099182 3.61580801010132 2.68581914901733 3.44816827774048 11.6410179138184 3.62714195251465 2.55123019218445 1.927973985672 0.991837680339813 4.51728773117065 0.505804657936096 -0.143213883042336 0.332115978002548 0.239049762487411 2.15423178672791 0.236496105790138 0.613106608390808 0.91692453622818 1.80714309215546 1.85730087757111 1.7508727312088 5.98014402389526 15.4225692749023 24.2662944793701 9.99254608154297 2.68734645843506 17.9492244720459 17.2688426971436 16.5694408416748 6.93263530731201 4.56425523757935 3.52976727485657 3.4325795173645 10.3900499343872 7.79481506347656 2.24133491516113 9.53924560546875 16.9580554962158 32.0321083068848 20.6007251739502 23.9151172637939 34.847583770752 32.5141525268555 25.4577255249023 33.9669303894043 23.3844795227051 18.4089374542236 22.1274375915527 17.5733661651611 31.7125396728516 20.4991302490234 17.9940662384033 16.9403762817383 14.3795566558838 13.5001163482666 12.9774713516235 11.8612689971924 11.1467418670654 12.0080528259277 11.3995695114136 11.526219367981 10.5631942749023 10.398509979248 10.1171045303345 10.1600542068481 9.54588890075684 10.4284610748291 10.5669727325439 10.7106237411499 10.8700485229492 10.5021944046021 10.282527923584 9.3634090423584 9.42369747161865 9.00212955474854 9.45068264007568 8.30020904541016 9.28897857666016 8.82454395294189 8.60210514068604 8.26159477233887 8.14243793487549 8.24619674682617 6.89639091491699 5.08442974090576 7.3018946647644 6.23300552368164 5.15912771224976 5.52481698989868 5.23487186431885 4.68547916412354 4.47201728820801 3.54167509078979 4.00318670272827 3.58724641799927 2.91482377052307 3.0091712474823 2.79153943061829 2.2466881275177 2.16235017776489 1.64533722400665 1.34142565727234 0.785176753997803 1.89686846733093 5.21574831008911 1.78475093841553 9.7275857925415 9.70006465911865 3.74618101119995 3.85852789878845 3.83038258552551 4.05703926086426 8.52793502807617 5.44099378585815 6.71424198150635 5.0483136177063 4.07262372970581 4.2702579498291 3.63060712814331 3.15154457092285 2.85746717453003 2.37747144699097 2.18894839286804 2.25043535232544 1.95464015007019 1.71944081783295 2.18697333335876 2.1780641078949 1.54943299293518 1.83139216899872 1.6214736700058 0.809965491294861 0.797182261943817 0.787199020385742 1.33416521549225 4.54900312423706 6.69310092926025 9.99458789825439 11.1769418716431 11.3865900039673 9.33797454833984 8.62780475616455 7.9178147315979 9.66934871673584 8.61566734313965 7.17148780822754 5.62756252288818 4.70028305053711 4.50396013259888 3.93672752380371 3.92519330978394 4.65982341766357 3.77623009681702 1.74297201633453 1.0437935590744 1.55340588092804 5.82297086715698 0.87742805480957 2.43871641159058 4.04764986038208 -0.248590186238289 0.337314963340759
-2.20697832107544 -1.51373291015625 -2.02886605262756 -1.74575042724609 -1.37429249286652 -1.08938217163086 7.69248867034912 6.78107881546021 3.5219578742981 -0.540785610675812 8.97764205932617 9.98628425598145 15.7561531066895 11.7747144699097 3.17696833610535 6.99516582489014 3.40501093864441 3.68385601043701 2.59917879104614 2.35558557510376 0.89738541841507 14.0209255218506 0.817541480064392 0.478228390216827 -0.0979534015059471 0.582245349884033 1.1061977148056 0.260743051767349 -0.17869134247303 0.0748461857438087 0.379394382238388 1.20880925655365 1.44855570793152 2.88308525085449 1.60916256904602 2.05832052230835 10.8852224349976 9.78811931610107 19.5778064727783 15.7509860992432 13.4388675689697 11.4853372573853 6.70558023452759 3.44808959960938 17.3757057189941 9.68687057495117 34.373836517334 2.77383422851562 1.85610473155975 4.29033374786377 23.4657592773438 21.0813083648682 26.5444622039795 40.5317001342773 33.4448318481445 26.8732624053955 18.4118137359619 21.2653732299805 16.6528606414795 20.1220397949219 20.4766597747803 20.6835861206055 18.4044246673584 16.2425708770752 15.5442171096802 12.7419233322144 12.7652215957642 11.4381494522095 11.7065525054932 10.6195163726807 10.1849746704102 10.9755067825317 10.5467472076416 10.6376810073853 9.74116706848145 9.62888622283936 9.40413665771484 9.36238098144531 8.91873645782471 9.70381736755371 9.83965682983398 10.0380811691284 10.1691951751709 9.77053833007812 9.5955696105957 8.97937297821045 8.53988933563232 8.84456443786621 8.88507270812988 14.2676038742065 8.5401611328125 8.29212665557861 7.89744758605957 7.78395938873291 7.60706996917725 6.76814556121826 7.63004684448242 7.03707075119019 7.20787239074707 5.07015609741211 4.9219126701355 5.28926277160645 5.01444959640503 4.41915130615234 3.98940587043762 3.40533924102783 3.85167455673218 3.45637345314026 2.8095486164093 2.9028525352478 2.69393277168274 1.78292572498322 1.70843982696533 1.17989671230316 6.94182395935059 0.757397890090942 5.49658012390137 4.23102426528931 1.65926420688629 6.0736780166626 7.85759162902832 3.30883288383484 3.44558596611023 3.53207612037659 9.46789932250977 4.36708450317383 5.01192045211792 5.3957781791687 4.14562797546387 3.93767380714417 3.92608118057251 3.51536297798157 3.05872106552124 2.6854076385498 2.2248854637146 2.05709958076477 2.12971210479736 1.8505824804306 1.57974398136139 2.01065683364868 2.05164575576782 1.48954236507416 1.74552369117737 1.53814578056335 0.746889352798462 0.73418778181076 0.726787090301514 1.21233892440796 6.0832633972168 6.99407339096069 8.50153064727783 9.50142002105713 9.69323253631592 8.12234210968018 7.49952507019043 6.99544095993042 8.21476936340332 7.61999320983887 6.31780099868774 5.0562891960144 4.33052539825439 4.12430429458618 3.6728994846344 3.62033081054688 3.19064235687256 1.66607534885406 15.5092725753784 8.80445957183838 4.90086221694946 3.9880383014679 0.858189880847931 3.65337634086609 0.204211860895157 10.7449188232422
1.7440357208252 -2.42453360557556 -1.86556553840637 -2.24183988571167 7.08688259124756 11.7220945358276 14.4873600006104 1.81367230415344 7.63537359237671 0.0716133862733841 3.26194834709167 3.38323378562927 6.3374137878418 4.98379945755005 9.64288330078125 17.5388088226318 5.4806981086731 3.20250582695007 3.45767641067505 9.78554344177246 1.67106854915619 0.323108315467834 0.694898009300232 0.714959383010864 0.321223646402359 7.99855756759644 -0.201341301202774 -0.318667501211166 0.224821329116821 12.8763732910156 14.9770755767822 8.15374183654785 8.85566425323486 4.57818555831909 1.67599081993103 1.49788570404053 11.0758647918701 25.9293632507324 16.4413414001465 16.3946571350098 6.50193786621094 7.6878809928894 3.88084506988525 3.80013728141785 9.03827095031738 4.99282789230347 17.9663906097412 19.0954532623291 32.6744613647461 36.5532150268555 35.8781967163086 26.2950534820557 31.0356979370117 26.5660781860352 28.7346439361572 25.7197113037109 19.2860927581787 13.9335823059082 21.7555618286133 16.4031600952148 16.907054901123 16.7807140350342 14.5253496170044 15.7794189453125 14.0648031234741 13.7313051223755 11.3158330917358 11.4695835113525 10.3887090682983 10.6127233505249 9.77430534362793 9.44929313659668 10.1612663269043 9.81467247009277 9.87426948547363 9.03728771209717 8.95113754272461 8.79260444641113 8.72198963165283 8.93020153045654 9.1152172088623 9.26285457611084 9.48278999328613 9.57109928131104 9.21139430999756 8.43945026397705 8.5092191696167 8.02197742462158 8.3196325302124 8.37618160247803 8.34879779815674 8.28553485870361 7.19341421127319 7.45063209533691 7.35454940795898 7.29021501541138 6.41826677322388 5.91036415100098 4.93244743347168 5.4013786315918 4.83544206619263 5.16688299179077 4.8999195098877 4.38870239257812 4.1880464553833 3.83477282524109 3.28000068664551 3.71314001083374 3.33608317375183 2.70598912239075 2.26815176010132 2.2374165058136 1.63771152496338 1.68833327293396 12.6604318618774 3.19205045700073 0.711039245128632 2.76459264755249 3.67587399482727 5.76268243789673 2.69505834579468 6.97924375534058 8.20210647583008 12.9040670394897 9.55592632293701 4.7253475189209 4.0289888381958 4.9024510383606 4.05561113357544 4.0163836479187 3.80822706222534 3.65738964080811 3.40459609031677 2.63498091697693 2.51333260536194 2.08770060539246 1.93264091014862 2.00595235824585 1.71478486061096 1.38582015037537 1.92852520942688 1.95101737976074 1.42262661457062 1.66586363315582 1.46340119838715 0.694753706455231 0.688985288143158 0.686987936496735 3.22992324829102 5.16268634796143 7.16697120666504 7.39028787612915 8.24821662902832 8.42268562316895 7.17753744125366 6.6233344078064 6.26941919326782 7.13041877746582 6.80754470825195 5.62314128875732 4.59866333007812 4.0071234703064 3.93159484863281 3.5426869392395 2.98377966880798 12.9862928390503 14.1135015487671 13.5799446105957 21.61669921875 1.23708736896515 15.3005867004395 33.4764633178711 0.647410213947296 0.695801913738251
-1.96449482440948 -1.61309635639191 2.94220566749573 11.5122785568237 19.5133571624756 9.63717079162598 0.231861680746078 0.0486541166901588 0.539451360702515 2.88378024101257 10.1174621582031 0.278312563896179 2.04388213157654 5.31979608535767 10.6099500656128 3.90807271003723 4.91411972045898 2.59650635719299 2.95770478248596 2.3102011680603 2.24192714691162 1.28776371479034 15.1819381713867 1.11004447937012 0.735870361328125 0.21001735329628 0.61236959695816 1.86636757850647 12.0975894927979 0.170272678136826 5.83139753341675 9.82462882995605 5.92489242553711 1.42431712150574 3.60091543197632 19.5293998718262 30.5605583190918 17.4251117706299 19.4888572692871 8.31451320648193 11.696174621582 3.86845993995667 1.74385857582092 1.89591717720032 10.0031433105469 13.3579540252686 25.0639419555664 11.587025642395 8.96035766601562 17.76904296875 23.3193035125732 31.8045120239258 23.128267288208 17.0070381164551 20.6943550109863 19.4810848236084 23.0567226409912 21.5847473144531 21.6987037658691 16.7700729370117 14.1863651275635 15.419472694397 14.3400850296021 12.6542701721191 14.0242719650269 12.4982061386108 12.3222103118896 10.2016353607178 10.426233291626 9.5160083770752 9.78723526000977 9.1287899017334 8.81639289855957 9.46043968200684 9.18485355377197 9.2097110748291 8.45909976959229 8.37517929077148 8.27555179595947 8.18243026733398 8.475754737854 8.62401103973389 9.1904935836792 9.29079437255859 8.93710613250732 8.83492755889893 8.05381298065186 8.05206775665283 7.56268405914307 7.84616851806641 7.91413164138794 7.8531494140625 7.96708154678345 8.91008472442627 7.04970359802246 6.94334650039673 6.91514492034912 6.10874271392822 5.64252042770386 4.70876836776733 4.56299686431885 4.630774974823 4.96711111068726 4.70201015472412 4.21588325500488 4.02712965011597 3.6962833404541 3.1668586730957 3.58182954788208 3.21241426467896 2.16169047355652 4.63351249694824 2.13842034339905 3.26201772689819 9.50455570220947 5.68603277206421 1.94825112819672 1.04900515079498 0.833624303340912 3.42482733726501 1.51062738895416 2.62710118293762 3.40475296974182 7.44649028778076 6.60111856460571 4.80708169937134 3.98110151290894 3.90365195274353 4.28126907348633 3.92634534835815 3.88980770111084 3.68966221809387 3.45055627822876 2.71208333969116 2.23650145530701 2.36812424659729 1.9619722366333 1.81775498390198 1.83150207996368 1.62809789180756 1.34896886348724 1.8423660993576 1.86289596557617 1.35831224918365 1.59069812297821 1.39551830291748 0.659895539283752 0.650845408439636 0.639835596084595 2.71869492530823 4.47389554977417 6.09913635253906 6.51965618133545 7.29275846481323 7.43831825256348 6.43197774887085 5.93827724456787 5.67817974090576 6.30229997634888 6.13365030288696 5.06250524520874 4.27658796310425 3.72271490097046 3.48384284973145 3.31256198883057 2.32253003120422 4.94753074645996 10.0348491668701 4.86778116226196 7.27105331420898 14.0087213516235 14.5418157577515 0.0863805562257767 0.563708603382111
-2.57942628860474 -2.10048031806946 -1.69586193561554 -1.91439759731293 4.35556697845459 4.71823167800903 2.66947746276855 -0.167877674102783 17.2368297576904 21.6794662475586 16.4860229492188 8.19429397583008 8.59893417358398 10.8646240234375 4.50222158432007 9.93007564544678 3.33415365219116 16.2217559814453 12.2834873199463 2.64454555511475 8.4749174118042 1.99499106407166 7.38595867156982 6.3913779258728 0.464413851499557 0.677550375461578 1.6447548866272 1.38920915126801 7.52534341812134 9.23471641540527 19.6761093139648 13.2829074859619 12.1932344436646 13.2843933105469 18.4181175231934 26.398042678833 15.7625179290771 24.1789436340332 25.632719039917 10.4577569961548 5.36491012573242 4.51470375061035 2.77325391769409 17.140172958374 19.184362411499 8.5731372833252 11.240517616272 18.6548252105713 19.324031829834 20.5094757080078 35.5576667785645 32.4599075317383 23.8901329040527 17.3901901245117 15.1254243850708 19.4923515319824 23.4455871582031 19.226053237915 14.5210123062134 12.5003280639648 13.9685068130493 12.6146583557129 13.3798980712891 12.7204484939575 11.3896064758301 12.6159763336182 11.4355955123901 11.2751903533936 9.28326797485352 9.56829071044922 8.87272548675537 9.14361095428467 8.57622146606445 8.27140998840332 8.84801292419434 8.61230278015137 8.62298583984375 7.96013355255127 8.02189159393311 7.83648586273193 7.74811172485352 8.36691665649414 8.55699253082275 8.8279857635498 8.94174098968506 8.53857135772705 8.39386940002441 7.67301654815674 7.66536045074463 7.18382215499878 7.4378662109375 7.50604772567749 7.43069696426392 7.56103467941284 6.873694896698 6.68712520599365 6.59846496582031 6.58619832992554 5.83066558837891 5.39180612564087 4.52339649200439 4.3937873840332 4.43887329101562 4.77083110809326 4.52289867401123 4.06476497650146 3.88581848144531 3.56823706626892 3.0574676990509 3.1900622844696 2.68039393424988 2.13019752502441 4.60845851898193 2.12566494941711 3.49586057662964 4.60739803314209 3.45212125778198 1.23322832584381 0.450560688972473 11.4032878875732 2.40177059173584 3.63181018829346 19.6871242523193 17.8126316070557 4.98081016540527 4.39151287078857 3.5046923160553 3.85548138618469 3.78408908843994 3.96054697036743 3.79681277275085 3.76917839050293 3.57075619697571 2.88355779647827 2.3920726776123 2.11118507385254 2.22713136672974 1.82110226154327 1.67362034320831 1.77536237239838 1.55298638343811 1.2616800069809 1.75965631008148 1.77584898471832 1.29882490634918 1.52214872837067 1.33014965057373 0.613683998584747 0.608377456665039 0.604065299034119 2.37316012382507 3.95488405227661 5.29496908187866 5.84479188919067 6.53420209884644 6.6627721786499 5.81271934509277 5.36407613754272 5.17217302322388 5.57725048065186 5.56374025344849 4.69509077072144 3.91769552230835 3.48366069793701 3.28592252731323 2.27395391464233 2.26656770706177 2.82125926017761 4.68290948867798 1.85622048377991 0.871675789356232 22.8868198394775 2.8403205871582 21.1613254547119
-1.97857844829559 -2.49650764465332 -2.19453930854797 -1.71348774433136 13.7580137252808 3.47958064079285 11.1541814804077 12.2514905929565 22.5050716400146 6.60253381729126 6.18289089202881 10.8667297363281 3.79272961616516 6.98807811737061 9.654541015625 7.73077583312988 4.77782678604126 3.88983941078186 3.58393454551697 2.50674772262573 5.21042203903198 6.16042709350586 4.82478141784668 6.07907819747925 1.869215965271 6.81427192687988 15.9981250762939 14.4916229248047 12.9876070022583 21.5895156860352 22.9726905822754 23.9071578979492 27.2000389099121 28.1911773681641 28.6947154998779 32.0562934875488 22.3221225738525 21.6441974639893 19.7225551605225 8.20014762878418 12.9799165725708 9.6332311630249 3.94867897033691 27.1388187408447 23.2452220916748 20.6608028411865 22.6399593353271 15.8903522491455 17.701171875 13.1845645904541 21.2576847076416 17.4046955108643 18.8384304046631 19.1159133911133 24.5136337280273 12.9868183135986 18.799674987793 17.7782001495361 16.3391361236572 13.1812868118286 12.9819383621216 11.6759223937988 11.4148645401001 11.8344783782959 11.4714078903198 10.3911199569702 11.4600639343262 10.4970359802246 10.3461618423462 8.56576919555664 8.91549587249756 8.35908317565918 8.61041450500488 8.10532093048096 7.79241609573364 8.29994201660156 8.10795116424561 8.12129211425781 7.65900802612305 7.63867378234863 7.55517959594727 7.47018384933472 8.05909442901611 8.21690082550049 8.45682621002197 8.49269008636475 8.10730361938477 7.9861888885498 7.3292064666748 7.30257606506348 6.79020595550537 7.05080461502075 7.13625431060791 7.03837490081787 7.20121097564697 6.54290103912354 6.36635494232178 6.29240942001343 6.29628324508667 5.594886302948 5.17855358123779 4.34350872039795 4.32602977752686 4.26025009155273 4.58922719955444 4.35119152069092 3.92317891120911 3.74815535545349 2.97982716560364 2.39006781578064 6.77451610565186 2.67928504943848 1.96983122825623 2.03257894515991 1.92713713645935 1.52817606925964 1.45129644870758 1.06051135063171 4.86720943450928 3.40011310577393 0.443824738264084 1.84739708900452 13.2188339233398 10.1489753723145 9.11649131774902 3.73267388343811 3.42537426948547 3.39387798309326 3.73387503623962 3.80679273605347 3.59252381324768 3.67599105834961 3.33219504356384 3.00707983970642 2.57890558242798 2.19605278968811 1.98513042926788 2.05531096458435 1.72308146953583 1.55616724491119 1.69041574001312 1.48461711406708 1.19008576869965 1.6821151971817 1.69936811923981 1.48869788646698 0.750815212726593 1.27841627597809 0.579847753047943 0.574577152729034 0.926524579524994 2.09394955635071 3.54483723640442 4.67036628723145 5.29077005386353 5.91712141036987 6.03478670120239 5.30950546264648 4.89125537872314 4.7099232673645 5.05982494354248 5.1176438331604 4.32122230529785 3.65422081947327 3.2899866104126 2.96936321258545 1.80463087558746 1.72940897941589 1.66981089115143 1.13372421264648 1.77691352367401 7.82499885559082 2.57096838951111 0.931109189987183
4.54808902740479 5.99244594573975 -2.54550814628601 4.38476896286011 7.21521759033203 6.05120515823364 7.04432058334351 22.1141662597656 12.1724061965942 16.4862174987793 14.373007774353 13.3640508651733 10.3302698135376 12.4226388931274 10.1621322631836 8.60766696929932 21.568883895874 27.6982536315918 3.08473587036133 2.42195296287537 14.3956327438354 12.5787935256958 6.03012847900391 3.53999161720276 9.86155128479004 19.3452854156494 18.56467628479 14.6305561065674 17.1085090637207 28.1321697235107 19.1561546325684 19.8221912384033 21.4288673400879 17.6471881866455 21.2077255249023 24.1722011566162 17.9230976104736 18.4150009155273 8.5997200012207 16.0597038269043 22.5367908477783 8.87651252746582 21.2846031188965 29.5128402709961 23.1056709289551 18.4202194213867 25.5993843078613 20.1119346618652 32.3339958190918 12.2798290252686 11.9234056472778 16.1774787902832 21.7117118835449 21.6594581604004 37.9930267333984 21.1403274536133 33.6568260192871 16.4833145141602 15.584939956665 14.7411642074585 11.9319105148315 11.1250562667847 10.5977058410645 10.5087518692017 10.5769119262695 10.3541498184204 9.48913288116455 10.5279550552368 9.71784496307373 9.59090995788574 8.08139133453369 8.4113130569458 7.94114065170288 8.13798046112061 7.66295051574707 7.34996271133423 7.86481332778931 7.87796974182129 7.32205247879028 7.29859733581543 7.33216619491577 7.26607513427734 7.21721935272217 7.72483491897583 7.82556343078613 8.04412078857422 8.06325244903564 7.69075012207031 7.58133935928345 6.94821691513062 6.93288278579712 6.43314361572266 6.69940519332886 6.79661560058594 6.68974113464355 6.87641477584839 6.2481484413147 6.07355928421021 6.0018253326416 6.03723049163818 5.3736515045166 4.96380281448364 4.0659704208374 4.15057039260864 4.09312629699707 4.42279958724976 4.18424606323242 3.78393507003784 3.0967059135437 2.87848567962646 2.26727724075317 2.89365983009338 9.48014259338379 1.90770435333252 1.98660087585449 6.7666482925415 4.48098087310791 6.23099136352539 0.99918121099472 2.66206955909729 6.28098630905151 12.0773944854736 12.6613473892212 6.68061828613281 6.75649118423462 6.05698728561401 3.25332403182983 3.31439423561096 2.80225086212158 2.69500517845154 3.55349183082581 3.31216931343079 3.3406298160553 2.51509475708008 2.85026216506958 2.43035817146301 2.05464768409729 1.85186493396759 1.81300556659698 1.54724860191345 1.47237730026245 1.61970162391663 1.42170321941376 1.64790785312653 1.66792917251587 1.22085618972778 1.4308488368988 1.25049448013306 0.565797924995422 0.547082245349884 0.541902542114258 0.869973719120026 1.87451183795929 3.20269560813904 4.18392992019653 4.82653951644897 5.39646673202515 5.49756860733032 4.84303998947144 4.41545248031616 4.388503074646 4.58030652999878 4.76462888717651 4.06571388244629 3.26425457000732 3.12762999534607 1.61874639987946 1.62774860858917 1.39630377292633 33.1122131347656 9.48935031890869 1.28274476528168 7.54387426376343 7.04520177841187
-1.10413932800293 1.84693598747253 7.65984582901001 12.6804332733154 -0.822854042053223 7.1712908744812 12.9705982208252 33.5619316101074 18.7056217193604 23.2231979370117 5.05246257781982 6.62069702148438 5.93246126174927 4.85941791534424 16.7529811859131 12.4914884567261 33.1651878356934 7.79476404190063 6.5284218788147 2.94720721244812 16.1900978088379 3.48867750167847 3.04439520835876 5.18770980834961 3.48524332046509 8.5869140625 10.9768390655518 14.9856748580933 15.824933052063 15.1691379547119 18.7858772277832 18.8279323577881 27.5880718231201 17.6785545349121 23.6285991668701 19.1252002716064 18.9719429016113 18.7108993530273 17.8161544799805 20.1950626373291 16.1818809509277 20.4965629577637 22.1823329925537 20.0975494384766 28.062557220459 27.1044006347656 30.7425403594971 18.6436901092529 16.5876579284668 11.3458299636841 11.2310628890991 20.3037738800049 16.2313041687012 26.8240375518799 28.7219696044922 23.1012725830078 15.5962133407593 19.4546756744385 14.5544128417969 13.6795024871826 13.3416166305542 10.9580812454224 9.84110641479492 9.70328235626221 9.6306734085083 9.58209037780762 9.48275279998779 8.81903266906738 9.75130367279053 9.10380840301514 9.01275444030762 7.69544172286987 7.96746253967285 7.53004264831543 7.69449520111084 7.08659315109253 7.54495573043823 7.42961168289185 7.4474778175354 6.99770879745483 7.02043533325195 7.07667684555054 6.98089408874512 6.90590381622314 7.34466409683228 7.4290657043457 7.6364278793335 7.64530897140503 7.27732133865356 7.19937658309937 6.6196174621582 6.60090494155884 6.10790491104126 6.36690092086792 6.47445392608643 6.35216951370239 6.56674242019653 5.97172832489014 5.8139705657959 5.75016164779663 5.78996419906616 5.04130887985229 4.26843023300171 3.8980758190155 3.98317718505859 3.93471264839172 4.2643027305603 3.93804049491882 3.60794043540955 2.72360801696777 2.35164022445679 2.04179763793945 7.41084051132202 2.49455308914185 13.9437494277954 7.80653810501099 3.25553321838379 2.06207895278931 3.00862741470337 0.984521090984344 2.23832654953003 3.22150945663452 6.04764032363892 6.39984560012817 4.48085165023804 5.06446361541748 4.45084571838379 2.50539541244507 2.24150085449219 2.27727580070496 2.31607961654663 3.33882117271423 2.77912473678589 2.86336374282837 2.29113173484802 2.68541622161865 2.26013255119324 1.95312261581421 1.38378512859344 1.49792015552521 1.2195907831192 1.35980093479156 1.48765456676483 1.07026624679565 1.58304071426392 1.60262441635132 1.17312383651733 1.36998999118805 1.20090436935425 0.536981642246246 0.515496015548706 0.512089848518372 0.818998157978058 1.69514524936676 2.92751622200012 3.77241635322571 4.41653299331665 4.92911100387573 4.99095821380615 4.45378875732422 4.14371490478516 4.04892110824585 4.26160430908203 4.45822095870972 3.70349597930908 3.07554459571838 2.97080874443054 21.5080051422119 1.39574658870697 1.14335107803345 2.61344432830811 1.90817224979401 0.937079668045044 0.998531579971313
8.51328945159912 2.34547352790833 5.53193998336792 8.49697113037109 2.37030410766602 12.8227519989014 25.8117084503174 27.5057353973389 27.3411560058594 12.6375284194946 10.9353923797607 19.2922611236572 6.03543615341187 12.3668003082275 27.0645141601562 30.6363277435303 28.5384731292725 18.4422397613525 19.203706741333 13.6712732315063 9.57470607757568 4.46595430374146 3.23261785507202 5.31350183486938 2.43800163269043 5.90598726272583 11.4876661300659 17.0301418304443 26.807315826416 23.0983428955078 22.5828666687012 16.9068012237549 15.4883108139038 16.8798122406006 17.1454372406006 16.0927257537842 14.6521596908569 11.4674243927002 15.1536388397217 16.6252574920654 25.0629405975342 12.4987096786499 15.3392286300659 12.7587871551514 14.6451044082642 20.7993144989014 16.6595458984375 17.8269329071045 15.8455791473389 12.7378053665161 19.2574520111084 31.7481861114502 21.0999011993408 31.8848724365234 19.9827518463135 19.3144912719727 16.548942565918 14.0113124847412 13.4251298904419 12.9694032669067 12.4168186187744 12.1923484802246 10.0890321731567 8.76227951049805 8.96407413482666 8.93619728088379 8.90865516662598 8.82981395721436 8.25618839263916 9.14187431335449 8.58518981933594 8.49851703643799 7.11877250671387 7.53819704055786 7.42362403869629 7.00205326080322 6.69909620285034 7.12596893310547 7.06118392944336 7.13419675827026 6.736159324646 6.68420124053955 6.71573448181152 6.63945770263672 6.57234525680542 6.94933128356934 7.02529335021973 7.24376678466797 7.26107454299927 6.91195821762085 6.85056257247925 6.31547927856445 6.28517389297485 5.79144239425659 6.05804443359375 6.17733669281006 6.05032968521118 6.26793384552002 5.71973657608032 5.57104110717773 5.63500642776489 5.02419805526733 4.62888860702515 3.8891966342926 3.7415246963501 3.82233166694641 3.77429699897766 4.07390546798706 3.86228680610657 3.49243688583374 21.1349468231201 24.4598426818848 20.7621269226074 4.06347513198853 1.4305100440979 3.80151748657227 7.50512790679932 2.15425610542297 1.42820942401886 2.08057761192322 11.7627468109131 1.75092220306396 2.47037482261658 4.11260509490967 4.25058507919312 3.79797887802124 4.06528091430664 3.54795980453491 1.86131298542023 1.78935074806213 1.80252957344055 1.94606101512909 3.16125416755676 2.63161540031433 2.69056391716003 2.16661787033081 2.51877665519714 2.16448354721069 1.85208570957184 8.49494361877441 1.45069169998169 4.22011041641235 1.40852701663971 1.03502798080444 0.643190145492554 1.46476209163666 1.48197722434998 1.08579134941101 1.2788028717041 0.83746325969696 0.501452922821045 0.478209137916565 0.488820850849152 0.763628125190735 1.52489244937897 2.66618323326111 3.40916705131531 4.05183982849121 4.51741647720337 4.65961217880249 4.17041254043579 3.94563007354736 3.08630657196045 4.30401134490967 3.68817138671875 3.13331365585327 2.91661787033081 1.45012855529785 2.52485609054565 4.98295974731445 11.4033346176147 14.6449279785156 17.0984687805176 18.1350154876709
0.219630122184753 4.25503826141357 13.7934684753418 -0.586600005626678 5.63778448104858 25.3869380950928 27.8627586364746 25.1601715087891 23.3165168762207 13.2874412536621 12.9299631118774 9.1636323928833 15.7078733444214 12.7956104278564 24.0896739959717 26.2295475006104 12.8252935409546 15.7154998779297 8.78319358825684 7.01765251159668 3.60225605964661 11.6840543746948 7.74225568771362 8.19172763824463 7.24738311767578 39.6985130310059 27.0846881866455 25.4736328125 32.975715637207 21.7395839691162 12.5724754333496 13.7921886444092 15.0380544662476 12.1795082092285 15.9965696334839 14.0329599380493 14.9222860336304 13.355676651001 12.6820726394653 11.7558240890503 12.0527238845825 16.5593681335449 9.3052339553833 8.77609920501709 9.63178157806396 13.2680711746216 18.1415767669678 35.5498924255371 16.0443954467773 14.8292770385742 22.7415332794189 18.6062145233154 27.3378639221191 19.8996315002441 18.7518329620361 17.783519744873 17.1169090270996 14.3813734054565 12.6094741821289 11.9659948348999 11.7317657470703 11.3291893005371 11.2210788726807 9.35023880004883 8.20955085754395 8.39974308013916 8.4354362487793 8.35502147674561 8.26358318328857 7.78223705291748 8.59119415283203 8.10010242462158 8.01999378204346 7.3051815032959 6.91589498519897 7.02592992782593 6.63742589950562 6.36549377441406 6.78448390960693 6.73003625869751 6.75558710098267 6.34598064422607 6.30042457580566 6.36298799514771 6.30835199356079 6.2374119758606 6.58941698074341 6.66509485244751 6.89687633514404 6.8980770111084 6.5679144859314 6.52293729782104 6.01348304748535 5.98986053466797 5.51108074188232 5.78734540939331 5.90063858032227 6.11939287185669 5.70088338851929 5.42192602157593 5.35876941680908 5.39959812164307 4.80846643447876 4.43633079528809 3.72929382324219 3.58928966522217 3.65786814689636 3.62038779258728 3.93769931793213 3.72071981430054 3.36057543754578 10.3653030395508 12.1207866668701 10.5287742614746 1.6168566942215 0.443269342184067 2.42948031425476 2.66907906532288 7.09498310089111 7.30506324768066 7.48674631118774 5.97731685638428 1.33846724033356 2.09772777557373 3.06964015960693 3.1900577545166 3.72314596176147 3.32390832901001 1.89851188659668 1.64119029045105 1.44838869571686 1.03523004055023 1.78644323348999 2.97236704826355 2.51426386833191 2.56800055503845 2.10153150558472 2.42506957054138 2.05641508102417 1.76201546192169 4.18709468841553 7.92796897888184 3.69230890274048 1.27922165393829 3.37747764587402 3.08001494407654 1.36981236934662 1.39151763916016 1.00846910476685 0.754780113697052 0.696653127670288 -0.0656055063009262 0.246095314621925 0.451869904994965 0.710715293884277 1.38475859165192 2.43847966194153 3.0849015712738 3.75064325332642 4.29959106445312 4.3055305480957 3.74907398223877 3.7158637046814 3.00516080856323 4.04937934875488 3.47053074836731 2.97310757637024 2.7912495136261 11.4644231796265 2.08228230476379 13.5160827636719 9.86141014099121 9.40036106109619 12.8691844940186
0.732167661190033 -0.224711760878563 1.27549779415131 4.76706743240356 17.3713874816895 17.7314033508301 30.9653415679932 26.0837173461914 18.8955478668213 10.2946643829346 12.4905118942261 11.8931102752686 8.45340251922607 19.6744747161865 20.859432220459 12.1726865768433 16.0125923156738 10.395884513855 8.59759140014648 6.09911203384399 5.04453039169312 2.88428640365601 4.94652318954468 11.0038394927979 11.3262233734131 18.5471611022949 20.5525360107422 23.6729965209961 22.2537746429443 15.1584424972534 13.3671274185181 10.4814949035645 9.31833267211914 11.950737953186 11.6647615432739 12.4917821884155 11.7527513504028 11.9162588119507 10.1967267990112 15.7151489257812 11.1739940643311 18.777925491333 20.723705291748 29.5541114807129 38.8245811462402 31.8913383483887 27.2075290679932 27.3594512939453 18.1788196563721 15.8330755233765 23.6991882324219 23.9215984344482 26.8228130340576 20.3072776794434 15.7551975250244 15.2102899551392 15.8821325302124 15.164737701416 13.0567970275879 11.5096921920776 11.0306529998779 10.7195024490356 10.4460678100586 10.4081506729126 8.74214649200439 7.7964916229248 7.97519969940186 7.97747421264648 7.85998773574829 7.75048637390137 7.60782480239868 8.07747459411621 7.76801300048828 7.05031681060791 6.90995502471924 6.55451726913452 6.66360330581665 6.31413984298706 6.01134252548218 6.38353109359741 6.34593296051025 6.37614393234253 6.01121187210083 5.9797830581665 6.05428981781006 6.009690284729 5.94047403335571 6.27013111114502 6.32980680465698 6.55877017974854 6.55978727340698 6.24070119857788 6.21224451065063 5.73862743377686 5.73005342483521 5.26027965545654 5.74373769760132 5.64697980880737 5.86916399002075 5.31757831573486 5.19962501525879 5.12626981735229 5.17038345336914 4.6163854598999 4.24963665008545 3.56747269630432 3.45384049415588 3.50298929214478 3.48315978050232 3.78707504272461 3.56084847450256 3.18028020858765 5.92609024047852 7.34837055206299 6.45808792114258 15.5461931228638 4.92899465560913 0.206493869423866 6.84911727905273 3.5943238735199 3.66202449798584 3.78981161117554 3.90183544158936 1.81055355072021 1.77392971515656 2.46426153182983 2.64692950248718 3.16059756278992 3.00569796562195 1.70620954036713 1.53788542747498 1.03689932823181 0.949174106121063 1.71953094005585 2.82172012329102 2.34910082817078 2.43949699401855 1.99602568149567 2.33359289169312 1.98680222034454 1.69060516357422 2.77998685836792 3.89765048027039 2.41744184494019 0.789366543292999 0.893298447132111 1.35346591472626 1.25325930118561 1.02661895751953 0.654855072498322 2.88039135932922 0.651862382888794 2.16250777244568 4.59560489654541 0.419669210910797 0.657516062259674 1.2433488368988 2.28359174728394 3.65035462379456 4.10914993286133 4.17106437683105 3.80088996887207 3.51887655258179 3.50407552719116 3.5724401473999 3.82763528823853 3.28987860679626 2.8117253780365 2.05603814125061 4.68404674530029 2.02488708496094 5.95766401290894 6.23004484176636 8.62020301818848
1.04980766773224 0.229713186621666 15.3280611038208 27.2474002838135 18.919340133667 16.8507785797119 30.6635932922363 22.3108539581299 22.3569927215576 14.2887897491455 9.35608386993408 16.5139274597168 8.4686164855957 24.0845546722412 14.1121654510498 10.11891746521 10.8920984268188 12.4172525405884 4.74869155883789 6.4822416305542 11.5602979660034 4.26894903182983 19.2211227416992 11.5470504760742 10.9463958740234 12.6406650543213 20.8033351898193 18.9226322174072 15.8880453109741 16.6978168487549 11.2048282623291 8.93694686889648 6.412513256073 7.78975629806519 9.39024925231934 14.2015933990479 22.1080303192139 10.7222185134888 9.84320545196533 10.4705247879028 11.351300239563 10.0154752731323 12.778938293457 17.4634799957275 24.9507694244385 27.2787094116211 16.8077392578125 19.3982582092285 16.9285297393799 16.2343044281006 31.9899139404297 22.5888767242432 19.546781539917 16.7527694702148 15.5877647399902 13.4409618377686 13.5428276062012 14.1933708190918 13.633207321167 11.9894065856934 10.6543836593628 10.2130880355835 9.8508186340332 9.75558853149414 9.75058269500732 8.25536441802979 7.75117492675781 7.73898124694824 7.38926935195923 7.49254941940308 7.26806354522705 7.80115985870361 7.40748357772827 7.33049345016479 6.429603099823 6.54318571090698 6.23245716094971 6.27988052368164 5.94683790206909 5.67451477050781 6.01440811157227 6.0042142868042 6.03812503814697 5.7102952003479 5.6895489692688 5.75722408294678 5.72684383392334 5.66045808792114 5.98262548446655 6.01546764373779 6.23903179168701 6.24051141738892 5.93607521057129 5.92138051986694 5.55657243728638 5.15880727767944 5.36919832229614 5.50610780715942 5.42174959182739 5.62887382507324 5.12421894073486 4.97581100463867 4.90737819671631 4.95949983596802 4.42439746856689 4.0772271156311 3.41506314277649 3.3150577545166 3.35837054252625 3.3436233997345 3.61363315582275 3.35847139358521 2.88887143135071 3.74083709716797 5.02050638198853 4.66449069976807 7.6944375038147 3.75891447067261 13.4925003051758 3.30048418045044 2.39174365997314 2.49736022949219 2.49571752548218 2.98304438591003 1.53823709487915 2.25905609130859 2.35752367973328 2.28894758224487 2.73129034042358 2.78978371620178 1.51798105239868 1.38365757465363 1.00130307674408 0.897208869457245 1.58688080310822 2.69576120376587 2.24858736991882 2.32381868362427 1.88112485408783 2.22755575180054 1.92362248897552 1.54342806339264 2.21022582054138 2.53199315071106 1.0849324464798 2.51105737686157 4.10041379928589 1.03839349746704 0.920904994010925 0.815702676773071 4.51278972625732 0.263777375221252 11.0677261352539 9.3528356552124 2.00131034851074 0.385756880044937 0.610430419445038 2.16597723960876 2.56503033638 3.4170253276825 3.83458232879639 3.96311116218567 3.59906530380249 3.32510185241699 3.32087922096252 3.36943650245667 3.6143205165863 3.11681652069092 2.67944359779358 5.49746084213257 3.51669549942017 6.52149820327759 5.7041277885437 2.81911563873291
7.07024335861206 0.636789977550507 0.154278099536896 9.31096649169922 17.5030918121338 22.3414077758789 26.067834854126 19.3814792633057 17.058837890625 13.4562177658081 10.0907649993896 25.2384128570557 12.3564786911011 25.9767036437988 15.0476036071777 11.0635080337524 9.79037952423096 7.85478973388672 8.32995796203613 27.539608001709 8.98672676086426 8.31754875183105 13.9005966186523 10.9464101791382 11.5266542434692 17.7389812469482 17.6095409393311 17.752010345459 18.6076698303223 15.3217430114746 9.41252613067627 6.57675218582153 6.28561925888062 6.20744848251343 10.0354223251343 8.92792701721191 11.4178247451782 10.6166095733643 27.1129989624023 29.9826965332031 13.7657699584961 21.5944805145264 31.0160083770752 21.544116973877 15.5961446762085 14.52024269104 15.1726179122925 12.8001365661621 18.3900833129883 25.1684551239014 23.1477756500244 15.5082550048828 13.4404525756836 11.2306137084961 13.7387142181396 12.5818939208984 11.7962656021118 12.2474412918091 12.8764543533325 12.3964643478394 11.0719480514526 9.89777374267578 9.4979887008667 9.20596885681152 9.18507957458496 9.17778778076172 7.20453977584839 7.32057428359985 7.30570507049561 7.13013458251953 7.1048583984375 6.6639289855957 7.34286880493164 7.0040397644043 6.92973804473877 6.11371278762817 6.18254041671753 5.87348318099976 5.93078327178955 5.62568235397339 5.35946178436279 5.68975162506104 5.69394207000732 5.72628593444824 5.44352054595947 5.40173816680908 5.47962760925293 5.45297527313232 5.77703332901001 5.65479707717896 5.70075035095215 5.94642496109009 5.94726514816284 5.73269605636597 5.31169080734253 5.30797624588013 4.85845804214478 5.13753461837769 5.27532243728638 5.20650768280029 5.39938116073608 4.90888118743896 4.76641321182251 4.69449234008789 4.75509071350098 4.24183654785156 3.8992702960968 3.26992797851562 3.18887615203857 3.20618915557861 3.18903112411499 2.8438720703125 2.568026304245 1.00150084495544 2.75736021995544 3.795494556427 3.62352967262268 5.05828666687012 13.8829641342163 6.73803472518921 2.13892507553101 1.75597965717316 2.06580328941345 2.22284364700317 2.38959145545959 1.3299400806427 1.96205222606659 2.03730487823486 2.06265497207642 2.46808052062988 2.54622292518616 1.38236749172211 1.20688247680664 0.862474858760834 0.868789851665497 1.53589224815369 2.58183145523071 2.14473223686218 2.23535394668579 2.17367172241211 2.04881191253662 1.58517038822174 1.45313000679016 1.78709971904755 1.361851811409 0.685073256492615 8.27537250518799 0.866463601589203 0.736855447292328 6.32219314575195 0.302761733531952 4.58265209197998 26.2301845550537 5.82932138442993 5.15210437774658 1.44562840461731 0.378721803426743 1.15808022022247 2.05887532234192 2.64106678962708 3.24271845817566 3.63152575492859 3.74318337440491 3.4136917591095 3.15386438369751 3.15114688873291 3.17192625999451 3.42777585983276 2.95156836509705 2.24599599838257 1.78200793266296 7.06016683578491 0.974469482898712 1.7823041677475
2.33244347572327 0.444286227226257 0.445569902658463 10.2091875076294 8.08607959747314 14.0649719238281 13.9115333557129 21.7298812866211 12.0512809753418 13.7472114562988 10.0900945663452 18.6350193023682 19.5157794952393 11.4036550521851 14.173996925354 11.4497890472412 6.55447673797607 6.10853910446167 6.90125942230225 7.69455862045288 16.1478614807129 5.2925763130188 4.24716806411743 4.22737503051758 8.91067600250244 14.8192939758301 15.2674837112427 16.6920890808105 15.262149810791 11.4812688827515 6.60757398605347 5.94179105758667 5.22266101837158 5.26231670379639 5.22986841201782 6.71339511871338 13.2633447647095 9.70181655883789 30.7164440155029 18.6888599395752 12.661563873291 24.5468883514404 19.6534519195557 23.5427112579346 13.196026802063 10.6511726379395 27.4543476104736 28.7204170227051 24.0554847717285 12.4234676361084 12.3969230651855 12.8320350646973 12.6392517089844 9.40160369873047 16.3051319122314 11.695013999939 10.6999111175537 10.5067281723022 11.1924905776978 11.7904529571533 11.3553762435913 10.273756980896 9.2351770401001 8.9099292755127 8.89507579803467 8.88026428222656 7.88158750534058 6.11381483078003 6.93786191940308 6.92081642150879 6.7128267288208 6.76564121246338 6.29609537124634 6.94886350631714 6.6352391242981 6.55050039291382 5.79698133468628 5.83838415145874 5.55766677856445 5.60158348083496 5.32561540603638 5.08647203445435 5.39448738098145 5.41941213607788 5.45538902282715 5.16915893554688 5.12700796127319 5.25138998031616 5.18630647659302 5.49797964096069 5.36747550964355 5.74130868911743 5.74619245529175 5.4265398979187 5.45464468002319 5.07642030715942 5.07218790054321 4.64246273040771 4.90997838973999 5.0510106086731 4.99209451675415 5.17235088348389 4.69841051101685 4.5491304397583 4.49041557312012 4.54883718490601 4.06273126602173 3.72599029541016 3.13803458213806 3.01819205284119 3.06446886062622 2.76520967483521 1.2107892036438 0.83867883682251 2.24191665649414 2.96010613441467 2.67997407913208 0.808488965034485 3.78050661087036 7.03874254226685 4.59248018264771 1.78693413734436 1.48062109947205 1.768639087677 2.1115665435791 0.818114697933197 1.20932328701019 1.72636222839355 1.82136380672455 1.87142777442932 2.19752383232117 2.38845753669739 1.30893731117249 1.14306855201721 0.820253193378448 0.83538156747818 1.4778960943222 2.46901965141296 2.20237946510315 2.11260509490967 2.09791493415833 1.97529864311218 1.53163731098175 1.43255865573883 1.59812498092651 1.42097508907318 6.45365476608276 4.41310501098633 3.92239809036255 0.539386391639709 4.78782558441162 28.5962390899658 3.61747074127197 13.5461339950562 3.75979232788086 3.42961525917053 1.2264062166214 0.377163529396057 1.09592616558075 1.97850620746613 2.47649216651917 3.06223344802856 3.45248675346375 3.54768800735474 3.24027132987976 2.9924488067627 2.99318504333496 2.99526262283325 3.25227880477905 2.81378316879272 0.96753591299057 0.9100221991539 0.810475766658783 0.572739899158478
8.7258882522583 9.66829681396484 10.7400598526001 27.5126304626465 22.4485397338867 18.6974697113037 24.3120269775391 11.5665063858032 14.7268352508545 13.22922706604 11.3693628311157 25.3881969451904 13.493932723999 11.8402557373047 9.94157028198242 9.10338306427002 9.31046962738037 7.49400091171265 21.0704975128174 6.2685341835022 6.92346143722534 5.90469408035278 5.06085395812988 19.0033512115479 22.2585563659668 24.1610660552979 21.3255920410156 13.221755027771 12.9125747680664 11.0749883651733 7.77877426147461 5.4533257484436 5.57991790771484 10.4605598449707 4.59252452850342 32.4890213012695 26.0962390899658 27.4838466644287 26.3440933227539 18.0026950836182 11.5509395599365 14.9348735809326 11.8146991729736 17.2431335449219 19.5091590881348 25.2852191925049 33.9841842651367 11.0659809112549 8.50207042694092 15.3880233764648 10.7203235626221 12.3223247528076 12.293306350708 25.9564800262451 32.8443946838379 11.0600986480713 10.4291954040527 9.79401111602783 9.49074649810791 10.3033170700073 10.86545753479 10.4685831069946 9.58950233459473 8.59265613555908 8.39940071105957 8.40095901489258 8.39484119415283 7.18756341934204 5.38106393814087 6.58397817611694 6.55910444259644 6.40985774993896 6.46772623062134 5.97742700576782 6.55872964859009 6.27395868301392 6.18541717529297 5.50059080123901 5.51917505264282 5.25742292404175 5.30740976333618 5.06902265548706 4.83629941940308 5.13780879974365 5.16077899932861 5.17686033248901 4.91522645950317 5.01956558227539 5.00883007049561 4.91415405273438 5.24201965332031 5.22128915786743 5.44900417327881 5.42625141143799 5.16182613372803 5.19399690628052 4.84353446960449 4.84674501419067 4.43744039535522 4.69277238845825 4.83964395523071 4.77576875686646 4.93224096298218 4.48324871063232 4.34300518035889 4.28614282608032 4.34652948379517 3.8924515247345 3.57721877098083 3.00600934028625 2.88956737518311 2.93938183784485 1.14432895183563 1.12534582614899 0.509014904499054 1.93174457550049 2.6335928440094 2.42401742935181 0.770263195037842 3.57180380821228 4.72304916381836 3.42154407501221 1.5829656124115 1.35383832454681 1.59844398498535 1.81346797943115 0.806154429912567 1.11395502090454 1.52239191532135 1.74522018432617 1.70637655258179 2.01738452911377 2.23090291023254 1.22239303588867 1.07436382770538 0.787039160728455 0.803649067878723 1.63701403141022 2.38346886634827 2.12599945068359 1.72589528560638 2.02706861495972 1.72151458263397 0.97785896062851 1.19930958747864 1.52491283416748 1.14978921413422 0.618497133255005 0.835919916629791 2.5923957824707 6.93643474578857 4.12490797042847 15.1889581680298 2.9265124797821 9.40084362030029 2.98823022842407 2.56531858444214 0.994864046573639 0.751067757606506 1.05971801280975 1.87607491016388 2.33061575889587 2.92240476608276 3.28700661659241 3.36408114433289 3.081791639328 2.85194706916809 2.85583353042603 2.84425783157349 3.09921216964722 2.69232487678528 0.690818846225739 0.638167083263397 0.13253465294838
11.4331464767456 7.25564241409302 1.44727790355682 10.4423017501831 15.9779958724976 26.9336719512939 19.7745761871338 10.1160411834717 10.4392719268799 10.8355875015259 17.8990516662598 20.9160823822021 16.0739250183105 11.2505283355713 12.0240659713745 8.11334896087646 8.05561923980713 7.00691318511963 6.65552616119385 6.51943826675415 11.5724363327026 9.05049896240234 16.3856391906738 21.0127696990967 15.7639741897583 21.5521697998047 21.6450328826904 11.0509757995605 11.9899787902832 7.70920324325562 7.92662334442139 5.78248834609985 12.5035533905029 5.20580005645752 8.64319229125977 33.1508140563965 24.5385398864746 29.3908290863037 18.5288219451904 8.66910362243652 12.4091157913208 22.1953182220459 22.0202217102051 11.3854942321777 16.9827632904053 17.8028202056885 10.0761947631836 9.56760787963867 8.43149185180664 7.62517118453979 11.9562530517578 35.3657836914062 10.1834402084351 10.4522857666016 11.7272567749023 17.1753273010254 10.0885028839111 9.52519607543945 9.09256935119629 8.65056705474854 9.5456371307373 10.0794219970703 9.71336460113525 8.42382526397705 8.0994348526001 7.96277713775635 7.95923376083374 7.95167589187622 6.81967258453369 5.39346265792847 6.25522184371948 6.22781801223755 6.1218900680542 6.16890382766724 5.69638156890869 6.18618154525757 5.92770195007324 5.84308958053589 5.21724081039429 5.22032308578491 4.98504781723022 5.04276990890503 4.83088445663452 4.6034951210022 4.87785196304321 4.90932130813599 4.9271993637085 4.70865488052368 4.78872728347778 4.75392389297485 4.68737983703613 5.0069785118103 4.94789218902588 5.17649698257446 5.17755079269409 4.91152429580688 4.94354724884033 4.61713552474976 4.61558723449707 4.24478912353516 4.48754644393921 4.6238260269165 4.56054210662842 4.72532939910889 4.28889465332031 4.15294122695923 4.09290361404419 4.18165016174316 3.7465443611145 3.43657493591309 2.8764762878418 2.7166473865509 2.32886433601379 0.765641152858734 1.07936012744904 0.233001470565796 1.81817209720612 2.47085976600647 2.27492523193359 2.49381899833679 3.77562308311462 3.56404232978821 2.75750160217285 1.41606152057648 1.2005717754364 1.43472623825073 1.67115032672882 0.719954609870911 1.00354480743408 1.37194073200226 1.6721054315567 1.55620574951172 2.15672779083252 1.63247621059418 1.13745081424713 1.00248897075653 0.751609683036804 0.872397601604462 2.33249258995056 1.96326792240143 2.04978513717651 1.66184425354004 1.93688547611237 1.15713167190552 0.936075091362 1.01111590862274 1.41835558414459 1.07340896129608 10.4142389297485 1.14579343795776 3.06786370277405 3.21180295944214 3.30651473999023 10.549506187439 2.77340722084045 7.17328596115112 2.45891284942627 2.12448000907898 0.492788374423981 0.584045231342316 1.00932133197784 1.78050339221954 2.20470714569092 2.78772664070129 3.13951802253723 3.20442724227905 2.93292284011841 2.73035717010498 2.73056030273438 2.6974732875824 2.94499254226685 1.73073732852936 19.7951278686523 0.128787532448769
21.019344329834 10.3129844665527 9.33608245849609 13.2282810211182 18.8612289428711 20.293119430542 19.5567493438721 12.4315948486328 10.5168619155884 18.289379119873 18.7085876464844 15.2127599716187 15.7712631225586 11.4840269088745 13.6682653427124 8.82816219329834 7.10426187515259 5.98915863037109 11.1414756774902 5.42214155197144 5.92082834243774 9.52352523803711 9.09734916687012 21.7939891815186 21.7287330627441 22.6192226409912 18.3319034576416 15.4328155517578 11.9780054092407 7.18903493881226 5.95632076263428 9.78499221801758 5.10515832901001 4.90813875198364 21.0748844146729 13.4002056121826 20.5061454772949 23.3010540008545 19.5865421295166 11.915843963623 40.473331451416 28.5371532440186 19.1641998291016 19.279203414917 30.0531024932861 10.1344556808472 9.15387535095215 9.56716728210449 10.8334636688232 35.983455657959 6.53241395950317 7.18801116943359 19.5196094512939 9.51950168609619 14.3413524627686 11.6835680007935 11.0207834243774 9.26298141479492 8.82707500457764 8.50239562988281 7.97268581390381 8.93241691589355 9.40404796600342 9.06816387176514 7.94417905807495 7.66388940811157 7.56916332244873 7.56368017196655 7.54154872894287 6.47349739074707 5.06494760513306 5.94448900222778 5.9098219871521 5.84116363525391 5.87384796142578 5.42384910583496 5.83461093902588 5.60008764266968 5.51744747161865 4.94432878494263 4.9409351348877 4.7367467880249 4.79237794876099 4.59605550765991 4.42365980148315 4.73463296890259 4.75938367843628 4.53225040435791 4.4724383354187 4.549635887146 4.54254913330078 4.4788670539856 4.7839150428772 4.71949672698975 4.9402060508728 4.93343544006348 4.6708836555481 4.70998525619507 4.38616943359375 4.39067697525024 4.04147291183472 4.274498462677 4.42895936965942 4.38079261779785 4.55295276641846 4.09911727905273 3.97373700141907 3.93307852745056 4.02639150619507 3.60207295417786 3.30381798744202 2.53286862373352 2.08496046066284 1.14410030841827 0.715150117874146 1.04277086257935 0.654730260372162 1.71390295028687 2.31233477592468 2.13240814208984 2.28543710708618 3.26688432693481 2.85870146751404 1.5719301700592 1.29980421066284 1.11281538009644 1.35283708572388 1.48666477203369 0.655042767524719 0.916613161563873 1.24192035198212 1.59680354595184 1.42772281169891 2.01827335357666 1.49701082706451 1.05435979366302 0.92781001329422 0.739543080329895 1.32260584831238 2.2352728843689 1.88516592979431 1.96494340896606 1.49523985385895 1.39692187309265 1.09842908382416 5.05884313583374 1.07124352455139 0.455238699913025 0.465229719877243 0.572072148323059 11.1240644454956 1.93280780315399 2.27692532539368 2.67476630210876 7.9459023475647 2.37824726104736 5.74490404129028 1.99677002429962 0.853919446468353 0.375486135482788 0.558644473552704 0.961567401885986 1.69328773021698 2.10014843940735 2.66009473800659 2.98531103134155 3.05064678192139 2.81035256385803 2.60948538780212 2.60465598106384 2.55641579627991 2.81101012229919 1.63102698326111 10.6815414428711
