NCOLS 172
NROWS 31
XLLCORNER 353744
YLLCORNER 6700992
CELLSIZE 16 
NODATA_value -3.4e+38 
6.39637660980225 7.11950063705444 7.62743663787842 8.01428508758545 9.77191829681396 11.9900922775269 14.622483253479 17.804759979248 19.311149597168 22.1072406768799 31.2365741729736 18.6469459533691 13.5752029418945 13.9757862091064 9.1478443145752 8.08275318145752 7.9161548614502 6.98052978515625 2.53070902824402 2.76447510719299 4.73870420455933 6.35651016235352 7.87864923477173 9.86874771118164 11.4539775848389 10.431755065918 10.4094381332397 12.0558891296387 11.039400100708 7.51851940155029 9.06894683837891 12.1806535720825 8.55014705657959 5.42862176895142 4.49866724014282 3.61310410499573 4.11978960037231 4.69339275360107 5.43293190002441 6.10284996032715 6.38601016998291 5.93782663345337 8.75518321990967 11.8850812911987 10.9992580413818 9.90966510772705 10.2696027755737 9.15713405609131 7.7859148979187 6.73067140579224 5.64846181869507 5.8536376953125 7.59341382980347 10.3471946716309 15.3360347747803 14.3095188140869 11.0896148681641 12.1880559921265 14.17116355896 13.9064903259277 11.735692024231 9.40515041351318 5.04968500137329 5.62261533737183 5.18332529067993 4.74933910369873 4.67900085449219 4.00268077850342 4.15724897384644 3.65738439559937 3.39511466026306 3.37688302993774 3.45678305625916 3.45236444473267 3.28975605964661 3.07988834381104 2.88925170898438 2.10582160949707 1.11465358734131 0.710904240608215 0.710868716239929 1.09042513370514 1.3912810087204 1.46281003952026 1.50863885879517 1.5902738571167 1.61330580711365 1.49490237236023 1.30539739131927 0.940891981124878 0.443571627140045 0.101404957473278 0.174848198890686 -0.249573767185211 -0.448979616165161 -0.310217410326004 -0.464966297149658 -0.425816893577576 -0.385346859693527 -0.349004954099655 -0.315396100282669 -0.291684120893478 -0.271192282438278 -0.25614270567894 -0.23885577917099 -0.223084434866905 -0.201269075274467 -0.175931334495544 -0.162343263626099 -0.144839763641357 -0.125254988670349 -0.114702202379704 -0.107092261314392 -0.0925014093518257 -0.0724155530333519 0.0470026209950447 0.588018417358398 0.883857190608978 1.06905591487885 1.09388089179993 1.00443947315216 0.791974008083344 0.920478045940399 1.02395927906036 1.12720501422882 1.14531600475311 1.13979339599609 1.0845400094986 1.0067366361618 0.834470450878143 0.705477893352509 0.622340857982635 0.700097799301147 0.809946715831757 1.02160501480103 1.28540551662445 1.54865312576294 1.73909270763397 1.90419721603394 2.01528167724609 1.99499344825745 2.03262996673584 1.97733473777771 1.90583300590515 1.70033740997314 1.5153923034668 1.38636100292206 1.31655693054199 1.1696789264679 1.11476576328278 1.01948249340057 0.948863387107849 0.953067004680634 0.934582650661469 0.988050043582916 1.09812355041504 1.26081383228302 1.22701394557953 1.10521709918976 1.00638520717621 0.907949686050415 0.953962981700897 0.980768620967865 1.01090705394745 1.12474179267883 1.19034552574158 1.13199639320374 1.04871451854706 0.968423068523407 0.895192444324493 0.855656564235687 0.926364421844482
6.57370519638062 7.19677686691284 7.63569307327271 8.25766468048096 10.7001180648804 12.721263885498 15.0238656997681 17.3318786621094 19.3323783874512 20.8146286010742 27.648323059082 22.7095737457275 19.1773567199707 15.8646440505981 11.2070579528809 8.7220401763916 7.79363012313843 6.70026636123657 2.71307706832886 3.34946727752686 4.66100454330444 6.63391065597534 8.20074367523193 9.83898639678955 10.1990737915039 9.05219173431396 9.94607257843018 12.18408203125 13.3491792678833 13.5993871688843 14.4320478439331 15.2449550628662 14.5860786437988 8.24686717987061 6.88606691360474 4.26393747329712 4.48889780044556 4.62943267822266 5.40117025375366 4.85025072097778 4.72799491882324 5.77894735336304 8.65355110168457 13.281644821167 14.4417419433594 10.6755247116089 8.20502471923828 5.96729135513306 4.07515478134155 3.46884083747864 4.04107236862183 4.66467380523682 7.15511608123779 10.7080602645874 14.894944190979 15.9159288406372 14.1162338256836 13.5271196365356 14.8733530044556 14.8500556945801 13.6505451202393 9.04564571380615 5.71325540542603 5.271559715271 5.47492265701294 4.51487159729004 4.73562669754028 4.75081348419189 4.00586652755737 3.66235399246216 3.33511137962341 3.38016104698181 3.43890762329102 3.330735206604 2.97597670555115 2.75077342987061 2.00391149520874 1.1899391412735 0.822405576705933 0.626348733901978 0.761386573314667 1.2238552570343 1.32688224315643 1.28262770175934 1.25384199619293 1.42563223838806 1.44001579284668 1.24357974529266 0.871521055698395 0.38601079583168 0.0586817786097527 -0.199038296937943 -0.15063801407814 -0.286355882883072 -0.443579494953156 -0.520372450351715 -0.492961019277573 -0.463910341262817 -0.423649370670319 -0.382656663656235 -0.356689780950546 -0.318594485521317 -0.296289891004562 -0.272661447525024 -0.252434253692627 -0.233687549829483 -0.214046224951744 -0.206966698169708 -0.195157662034035 -0.172905638813972 -0.15723517537117 -0.140684053301811 -0.13778255879879 -0.105832934379578 -0.0557900592684746 0.491693258285522 0.78468120098114 0.954943180084229 0.987539291381836 0.913749933242798 0.714472115039825 0.871729671955109 0.931063413619995 1.01392900943756 1.03596746921539 1.0787501335144 1.08600151538849 1.02597641944885 0.880527555942535 0.707787930965424 0.602103233337402 0.552338123321533 0.65178644657135 0.746473252773285 0.947338581085205 1.21360397338867 1.52256560325623 1.74696934223175 1.96026039123535 1.93712210655212 1.9739670753479 1.89758825302124 1.81538665294647 1.68322491645813 1.58017075061798 1.49883306026459 1.29618322849274 1.12475657463074 1.07847690582275 1.01095998287201 0.959396779537201 0.890763521194458 0.884093463420868 0.903382420539856 0.979410469532013 1.18549489974976 1.15608131885529 1.10059702396393 0.951893627643585 0.88773900270462 0.809395372867584 0.794096231460571 0.823018789291382 0.814875423908234 0.84314638376236 0.967096209526062 0.875601828098297 0.799331426620483 0.73056298494339 0.626460611820221 0.56891131401062 0.582030415534973
6.63980007171631 7.13716793060303 7.8534140586853 8.3957986831665 11.3204488754272 13.4003534317017 14.8315734863281 17.5023880004883 18.7850246429443 20.2467136383057 21.4328670501709 20.2296085357666 17.0113334655762 15.1742944717407 13.367525100708 11.8732786178589 11.1500339508057 7.73054790496826 4.86263799667358 3.8769907951355 5.02561378479004 6.45930051803589 8.43101501464844 9.46719551086426 8.95634937286377 8.57444667816162 8.86807632446289 10.2837495803833 12.6844511032104 13.5067329406738 13.3698701858521 14.1178770065308 14.4098167419434 11.9310998916626 7.40691757202148 5.02959537506104 4.77803564071655 5.04711961746216 5.23079347610474 5.41476345062256 5.90597867965698 6.81250238418579 8.49128246307373 10.9489059448242 10.5476770401001 7.61753416061401 6.35696649551392 4.51312398910522 2.7273530960083 2.49470901489258 3.1710205078125 5.47348928451538 7.89500665664673 10.3158483505249 12.2780771255493 10.9781875610352 10.1645107269287 11.6600875854492 12.3633546829224 12.0301389694214 10.6556959152222 9.62767696380615 8.29548072814941 6.93769836425781 6.14422130584717 4.38239717483521 4.01225566864014 4.02319192886353 4.22577953338623 3.45977449417114 3.34975147247314 3.4032998085022 3.36959862709045 3.19043707847595 2.87386274337769 2.52125930786133 1.4228128194809 0.844066679477692 0.836324036121368 0.667242646217346 0.71949303150177 1.0782288312912 1.18435430526733 0.866556286811829 0.829228937625885 0.971113741397858 1.05818152427673 0.838656067848206 0.350009143352509 0.0215609669685364 -0.23186106979847 -0.447552531957626 -0.339827299118042 -0.46063506603241 -0.582087099552155 -0.561641871929169 -0.541998326778412 -0.518767833709717 -0.475262314081192 -0.435819000005722 -0.396777510643005 -0.359702944755554 -0.327619880437851 -0.299801409244537 -0.282004654407501 -0.251294881105423 -0.240810096263885 -0.242721751332283 -0.216868489980698 -0.211402103304863 -0.185687348246574 -0.169922724366188 -0.141718149185181 -0.144919961690903 0.024131877347827 0.662853956222534 0.84595799446106 0.871590554714203 0.810151219367981 0.677120447158813 0.708036184310913 0.8807293176651 0.921697914600372 0.937450528144836 0.955841600894928 0.956583559513092 0.895262598991394 0.811517596244812 0.680344641208649 0.61532598733902 0.566899657249451 0.533451616764069 0.575375080108643 0.674579739570618 0.797315239906311 1.10083413124084 1.44584512710571 1.64778327941895 1.8160001039505 1.91973769664764 1.83936941623688 1.77392995357513 1.65091776847839 1.54135143756866 1.42834961414337 1.32410192489624 1.23623490333557 1.09895658493042 0.975579440593719 0.955199122428894 0.882282316684723 1.00051963329315 0.871680557727814 0.887179315090179 0.985701858997345 1.13833212852478 1.11209154129028 0.980580389499664 0.835277557373047 0.758662462234497 0.654339611530304 0.618872463703156 0.617895543575287 0.596700191497803 0.573910236358643 0.559829473495483 0.583299338817596 0.552783727645874 0.50362765789032 0.42901086807251 0.369731277227402 0.352091610431671
6.79714679718018 7.15949249267578 7.98658466339111 9.22876358032227 11.9084186553955 13.1486911773682 14.4552755355835 16.8105049133301 18.3376655578613 19.0815563201904 20.4932384490967 18.9006156921387 15.3162870407104 13.7302808761597 11.3062210083008 10.5859804153442 10.4434652328491 7.72995567321777 4.95698738098145 4.20530652999878 4.88604736328125 6.52835655212402 8.25482368469238 8.89540004730225 7.92604875564575 7.40199756622314 8.33384895324707 8.67606067657471 9.97341728210449 11.3498783111572 12.0549144744873 12.1038656234741 11.7043027877808 9.38041591644287 4.90056753158569 4.77480220794678 4.90274333953857 5.01400947570801 4.86118841171265 4.39310503005981 4.37155723571777 5.80356693267822 7.36357688903809 7.56429719924927 6.93818378448486 6.11086368560791 4.43805980682373 2.38427329063416 1.47579181194305 2.44980263710022 3.39537620544434 5.76782369613647 7.59927845001221 8.6599645614624 8.85729503631592 8.49528408050537 8.70851707458496 10.0576238632202 11.4419994354248 13.0492849349976 12.264741897583 10.8970823287964 9.52420711517334 7.59083890914917 6.13323593139648 4.44709205627441 3.59535193443298 3.95679759979248 3.97515892982483 3.52497243881226 3.37771940231323 3.32201623916626 3.13868427276611 2.8823401927948 2.66050219535828 1.9381514787674 1.05359470844269 0.67871218919754 0.836161315441132 0.896346688270569 0.719327867031097 0.829590916633606 0.857165932655334 0.631289541721344 0.497748583555222 0.521222054958344 0.615739703178406 0.307053983211517 0.00405050395056605 -0.251863837242126 -0.470129191875458 -0.584147274494171 -0.631279408931732 -0.647988438606262 -0.624718308448792 -0.599428117275238 -0.576833784580231 -0.5530766248703 -0.523486137390137 -0.479690194129944 -0.440272092819214 -0.401671379804611 -0.367172479629517 -0.338934034109116 -0.32018905878067 -0.287535905838013 -0.279377520084381 -0.272414594888687 -0.256596952676773 -0.240260347723961 -0.214182212948799 -0.193278849124908 -0.167892277240753 -0.111255668103695 0.326558709144592 0.628474056720734 0.772930502891541 0.796565413475037 0.738719582557678 0.58503669500351 0.748680830001831 0.824577867984772 0.870657742023468 0.864427387714386 0.853501439094543 0.771847546100616 0.631098568439484 0.453612685203552 0.379577338695526 0.370023548603058 0.463565319776535 0.501749455928802 0.513271868228912 0.599048733711243 0.682509481906891 0.851745009422302 1.25781834125519 1.47351908683777 1.66071975231171 1.79213297367096 1.71878433227539 1.60491645336151 1.50991451740265 1.39756691455841 1.27119052410126 1.21170890331268 1.05288660526276 1.00836777687073 0.950539112091064 0.875621497631073 0.831362783908844 0.836094737052917 0.888936221599579 0.970535337924957 1.09566569328308 1.04506623744965 0.936392247676849 0.854772865772247 0.741754770278931 0.607325851917267 0.540526926517487 0.470347940921783 0.41009533405304 0.37217316031456 0.35675722360611 0.321124404668808 0.308573871850967 0.32170695066452 0.310019701719284 0.275844544172287 0.238918453454971 0.204922154545784
6.77007579803467 7.3753719329834 8.46369934082031 9.680006980896 11.6627912521362 12.8792924880981 14.3085718154907 16.2114162445068 17.6338043212891 18.8548946380615 21.809663772583 18.0673866271973 14.175576210022 15.3641319274902 10.8417377471924 9.04418849945068 9.38175106048584 6.7533974647522 3.78363704681396 4.06131172180176 5.12953948974609 6.83799457550049 7.84718322753906 11.9068717956543 7.57778930664062 6.80332040786743 7.01905059814453 8.7171745300293 10.668966293335 11.2707691192627 11.8676624298096 10.4234371185303 8.39624214172363 8.02047920227051 5.60743808746338 5.95569849014282 5.12246656417847 4.5965895652771 4.24557065963745 3.73843264579773 4.32523918151855 5.35994720458984 6.42873287200928 6.02381992340088 5.29896783828735 3.978022813797 2.02298450469971 0.640115261077881 0.827981650829315 2.3021605014801 3.72190070152283 5.32137775421143 6.52160263061523 6.78132438659668 7.22672510147095 7.72269821166992 7.79970407485962 8.24431228637695 9.16134357452393 10.3950386047363 9.7522439956665 9.20559692382812 8.29284286499023 6.89887237548828 6.73899221420288 5.18710613250732 3.65153193473816 3.59386920928955 3.28663301467896 3.32365894317627 3.28164625167847 3.08312582969666 2.81702733039856 2.60344076156616 1.91865658760071 1.45584726333618 1.1676629781723 0.700409948825836 0.763354957103729 0.913686096668243 0.697684347629547 0.73054438829422 0.55842798948288 0.345881223678589 0.0854541212320328 0.0607381463050842 0.107991702854633 -0.0918722152709961 -0.288308888673782 -0.476692736148834 -0.607088983058929 -0.649520695209503 -0.680028021335602 -0.683767914772034 -0.662294209003448 -0.646958351135254 -0.619256138801575 -0.59039044380188 -0.567640662193298 -0.528476238250732 -0.497159987688065 -0.457152009010315 -0.414524912834167 -0.38323575258255 -0.360785007476807 -0.334301114082336 -0.328380763530731 -0.312933057546616 -0.295097053050995 -0.263462066650391 -0.247867316007614 -0.220960885286331 -0.201101139187813 0.270846575498581 0.522339880466461 0.682058691978455 0.706130981445312 0.638315320014954 0.509436964988708 0.670615077018738 0.74839973449707 0.794760823249817 0.797025918960571 0.802086412906647 0.778507590293884 0.677558124065399 0.460678905248642 0.229920044541359 0.152352124452591 0.204510182142258 0.310393244028091 0.408597052097321 0.470712900161743 0.520727217197418 0.606798410415649 0.753861308097839 0.99040675163269 1.17930948734283 1.39516627788544 1.54967200756073 1.56088888645172 1.46450459957123 1.35972487926483 1.23760831356049 1.17998111248016 1.02708053588867 0.996218800544739 0.946481645107269 0.877273797988892 0.823189735412598 0.815021276473999 0.826713860034943 0.904120683670044 1.0336776971817 1.01580321788788 0.926227211952209 0.841717183589935 0.776350557804108 0.673981308937073 0.559395313262939 0.453532129526138 0.378630787134171 0.30648010969162 0.218890205025673 0.187412410974503 0.176439180970192 0.158974349498749 0.152941763401031 0.150473743677139 0.147383794188499 0.137921184301376 0.172940403223038
6.93727588653564 7.53750133514404 8.98874378204346 10.2190361022949 11.3079719543457 12.6235084533691 13.6805639266968 15.1874647140503 17.343843460083 18.1442394256592 23.7720985412598 22.2656650543213 13.9898109436035 14.8732614517212 13.1359300613403 8.45108127593994 8.63642501831055 5.86392736434937 3.61538743972778 3.84740400314331 5.46246719360352 6.45783615112305 7.42387104034424 12.0072145462036 11.26513671875 6.97070741653442 7.28719329833984 9.76966667175293 10.6566171646118 10.8588447570801 13.7010908126831 12.2090215682983 11.1828718185425 8.89104080200195 7.44646644592285 5.49750137329102 6.20272588729858 4.80468606948853 6.07964944839478 5.42626047134399 4.38674974441528 5.66342973709106 5.39340877532959 5.23574209213257 4.35748195648193 2.63476514816284 0.546004414558411 -0.255573630332947 0.457243144512177 1.46387982368469 3.55315256118774 4.41941738128662 4.73786163330078 5.16438674926758 6.3628716468811 7.34094476699829 7.76926469802856 8.1215648651123 7.73789978027344 7.25489377975464 6.78431987762451 6.55699396133423 6.47452163696289 6.94595146179199 5.4744987487793 4.09906959533691 3.58501172065735 4.02347469329834 3.50548768043518 3.32038402557373 3.40705108642578 2.82060861587524 2.5481870174408 1.87345921993256 1.30200004577637 1.24574375152588 1.15544199943542 0.741707980632782 0.58715033531189 0.662643611431122 0.578756988048553 0.560962677001953 0.383879333734512 0.214819625020027 0.174304500222206 -0.240928903222084 -0.315365701913834 -0.402694970369339 -0.457708984613419 -0.484483391046524 -0.672807693481445 -0.683425009250641 -0.711193919181824 -0.710491597652435 -0.699648141860962 -0.681536376476288 -0.660041153430939 -0.633603096008301 -0.605630218982697 -0.563876152038574 -0.543343067169189 -0.511357605457306 -0.46942862868309 -0.442872762680054 -0.409870684146881 -0.393090575933456 -0.365575343370438 -0.347579598426819 -0.332642376422882 -0.31954100728035 -0.286099255084991 -0.267317682504654 -0.1882194429636 0.388197243213654 0.574439585208893 0.598251402378082 0.552326321601868 0.441750288009644 0.587951898574829 0.656241178512573 0.712729275226593 0.719743609428406 0.724557518959045 0.721541345119476 0.640316009521484 0.854286551475525 0.646530568599701 0.125542387366295 0.0858919322490692 0.121161863207817 0.177741199731827 0.28747746348381 0.414867967367172 0.551991999149323 0.572457313537598 0.597819745540619 0.719569087028503 0.84890741109848 1.02826035022736 1.17691767215729 1.24084937572479 1.23618566989899 1.21042895317078 1.14385902881622 1.0187680721283 0.960818707942963 0.903916895389557 0.855847239494324 0.809950113296509 0.792498230934143 0.808092832565308 0.845152735710144 0.992723047733307 0.964884400367737 0.921116471290588 0.77201646566391 0.706270456314087 0.639243066310883 0.707849144935608 0.497903764247894 0.393903911113739 0.295787006616592 0.204276040196419 0.12513367831707 0.102367728948593 0.0962398946285248 0.0798500925302505 0.852055728435516 0.786105513572693 0.960454702377319 0.309723913669586 0.167144685983658
7.03388500213623 7.73705244064331 9.42891693115234 10.1091041564941 11.2319307327271 12.0973224639893 13.2826242446899 14.7463474273682 16.2932014465332 17.7808284759521 21.0006999969482 23.6357231140137 19.3497734069824 16.4309921264648 15.8466424942017 8.93048572540283 10.4254159927368 10.9203577041626 5.33298349380493 4.20916128158569 5.80710935592651 6.27543926239014 7.10814905166626 8.44356155395508 11.2588748931885 6.74210023880005 7.17884016036987 9.13181591033936 9.63831901550293 10.3707628250122 13.4488706588745 17.1725311279297 14.8323612213135 10.2494554519653 12.0792036056519 7.61812448501587 7.31326198577881 8.15322685241699 8.77525615692139 7.21029710769653 6.04414033889771 5.72993564605713 5.46719360351562 4.73517513275146 3.23599195480347 4.04228448867798 3.50505471229553 1.49035203456879 0.897200047969818 1.31143987178802 2.24091005325317 2.79601669311523 3.43061900138855 4.24667644500732 5.49984455108643 5.95753860473633 5.81525230407715 5.20383214950562 6.4224419593811 7.09100675582886 5.89823579788208 5.67520713806152 4.58608627319336 3.87175822257996 4.39610481262207 4.08115768432617 3.86863422393799 4.22238302230835 4.87693738937378 4.30504846572876 3.87914752960205 3.14555096626282 2.36483383178711 1.3890141248703 1.02712213993073 1.05798232555389 0.949262261390686 0.632505118846893 0.439833700656891 0.448534816503525 0.40053454041481 0.341162204742432 0.243328258395195 0.138670340180397 0.255516976118088 0.0682432502508163 -0.456925183534622 -0.539780557155609 -0.600530564785004 -0.65644371509552 -0.640301048755646 -0.636727571487427 -0.716506540775299 -0.71498042345047 -0.716455042362213 -0.705219447612762 -0.67741060256958 -0.659290254116058 -0.621918976306915 -0.595025300979614 -0.578373312950134 -0.556129813194275 -0.529248595237732 -0.495215624570847 -0.471346378326416 -0.449655473232269 -0.412554770708084 -0.39125594496727 -0.399021148681641 -0.362203598022461 -0.341185808181763 -0.311817437410355 0.073210135102272 0.331065505743027 0.476813405752182 0.52765280008316 0.459588408470154 0.417370349168777 0.558854639530182 0.621271193027496 0.625440657138824 0.635837912559509 0.626239836215973 0.597442269325256 0.494496732950211 0.821422815322876 1.44589996337891 0.653262257575989 0.0929585695266724 0.0758553519845009 0.089980386197567 0.179416254162788 0.395422875881195 0.509240090847015 0.588340163230896 0.544811069965363 0.576964318752289 0.626437485218048 0.728909313678741 0.861882328987122 0.972031474113464 1.00566184520721 0.988541781902313 0.978633761405945 0.946249544620514 0.892884910106659 0.852034211158752 0.829344034194946 0.789609730243683 0.786268472671509 0.802456855773926 0.888326942920685 0.990257263183594 0.957153737545013 0.840259432792664 0.700393199920654 0.628242671489716 0.527706027030945 0.456886321306229 0.833542764186859 0.352929443120956 0.233538657426834 0.153530523180962 0.0678237304091454 0.0479651279747486 0.356261074542999 0.267974019050598 0.0761194303631783 0.165977865457535 0.262946337461472 0.781363666057587 0.593704521656036
6.95171213150024 7.97390127182007 9.20933818817139 10.1377487182617 10.8306198120117 11.8137607574463 12.9228010177612 14.0445489883423 15.7247066497803 17.8133926391602 20.8720436096191 22.6768836975098 22.0928440093994 18.1162014007568 19.8610439300537 14.2901811599731 11.7272043228149 11.621789932251 8.56008529663086 5.1695237159729 6.27360010147095 6.87220335006714 6.38540554046631 6.34467172622681 9.36932849884033 7.47775793075562 7.58525705337524 7.6240439414978 8.84404754638672 9.41258335113525 11.1245613098145 13.5528497695923 14.6822395324707 12.4442939758301 12.9159755706787 11.298059463501 10.1462993621826 11.9185743331909 11.7049465179443 9.27943134307861 5.21276092529297 5.10084581375122 4.78773498535156 7.50585412979126 7.63215112686157 9.28547859191895 6.51425361633301 5.54302501678467 1.08959746360779 1.22117590904236 1.82512092590332 2.54505658149719 3.17344093322754 3.92814564704895 4.39260292053223 4.30251312255859 4.00251436233521 3.5597128868103 4.27274799346924 5.7635350227356 5.17995023727417 4.29624223709106 3.87779068946838 4.2250018119812 3.49000525474548 3.25499796867371 3.24476456642151 3.30285787582397 3.74283003807068 4.64941692352295 4.23298597335815 3.68444514274597 2.50218796730042 1.26214683055878 0.939187109470367 0.794448554515839 0.75600278377533 0.569580554962158 0.383784621953964 0.248872771859169 0.210599735379219 0.176949724555016 0.244894281029701 0.107776738703251 0.165000408887863 0.348118543624878 0.0472728312015533 -0.59567528963089 -0.709582805633545 -0.748179852962494 -0.742350816726685 -0.680382013320923 -0.617845773696899 -0.675639927387238 -0.736799776554108 -0.732851803302765 -0.71416038274765 -0.686488211154938 -0.666586637496948 -0.640101730823517 -0.625633001327515 -0.609038472175598 -0.588826954364777 -0.559105753898621 -0.549213111400604 -0.511038422584534 -0.47455507516861 -0.461098372936249 -0.466349571943283 -0.437192142009735 -0.413312673568726 -0.0709024593234062 0.186475425958633 0.323292344808578 0.384615689516068 0.357715845108032 0.287380367517471 0.405767768621445 0.482927888631821 0.531631171703339 0.544381618499756 0.525387465953827 0.499641388654709 0.426826059818268 0.309865117073059 0.342593610286713 1.45888340473175 1.11529147624969 1.0071052312851 0.0862724334001541 0.0930912867188454 0.150043785572052 0.308891862630844 0.448380708694458 0.482241749763489 0.477239966392517 0.508840024471283 0.549524188041687 0.619103968143463 0.698220431804657 0.787934839725494 0.849920988082886 0.879974603652954 0.866096496582031 0.873705506324768 0.831786334514618 0.812823235988617 0.790690958499908 0.775029122829437 0.784699082374573 0.865917861461639 0.970650136470795 0.941112220287323 0.836221277713776 0.754344165325165 0.647013187408447 0.615160822868347 0.618067920207977 0.376620471477509 0.317934930324554 0.940146684646606 0.185698285698891 0.0896304100751877 0.0456930324435234 0.0306843463331461 0.535398781299591 0.136080607771873 0.332190841436386 0.619236588478088 0.49244299530983 0.591780364513397 0.410148143768311
7.29153776168823 8.35878753662109 8.9662561416626 9.90207767486572 10.4567260742188 11.516713142395 12.5008335113525 13.8516683578491 15.2818250656128 17.6962146759033 20.0975742340088 22.7799625396729 23.3261299133301 19.4089050292969 17.7134456634521 14.7293939590454 11.9326801300049 12.3225212097168 10.4243564605713 5.78146886825562 7.7686185836792 11.8920745849609 8.78403186798096 5.82373476028442 6.26887655258179 8.55315494537354 7.60868263244629 7.72635984420776 8.09488201141357 9.45054721832275 11.042929649353 11.4650554656982 11.3853616714478 12.0213642120361 13.4326629638672 13.3121480941772 12.0449142456055 11.3597850799561 10.6887273788452 8.12553310394287 5.49853038787842 5.13452625274658 8.19228172302246 12.0413656234741 8.46040916442871 7.36433982849121 5.86495494842529 4.10511875152588 1.21158695220947 1.24933433532715 1.84405910968781 2.92421174049377 3.5420286655426 3.90669989585876 4.21617603302002 4.39600086212158 3.84721398353577 3.20903205871582 3.36205387115479 4.19509410858154 3.69168376922607 3.88461303710938 3.55022263526917 3.36773228645325 3.36734008789062 3.13996076583862 3.19551849365234 3.20272755622864 3.28537368774414 4.01046991348267 4.07630729675293 3.73341512680054 2.96374869346619 1.9004842042923 0.999988496303558 0.677593886852264 0.583808839321136 0.556109726428986 0.360858559608459 0.175151199102402 0.0271718557924032 -0.009224615059793 0.182985454797745 0.187632128596306 0.0513180270791054 0.184268355369568 0.110134847462177 -0.283953487873077 -0.728178918361664 -0.789303779602051 -0.777007520198822 -0.76336807012558 -0.759275734424591 -0.601011455059052 -0.757936894893646 -0.762353599071503 -0.744117319583893 -0.722992777824402 -0.701950252056122 -0.690963506698608 -0.669102370738983 -0.647460699081421 -0.635093092918396 -0.614377081394196 -0.61028391122818 -0.575920522212982 -0.54894083738327 -0.526672542095184 -0.52183324098587 -0.504279375076294 -0.216321870684624 0.0138483699411154 0.150100365281105 0.2077926248312 0.204467758536339 0.187054544687271 0.338399887084961 0.382919162511826 0.426701873540878 0.456474781036377 0.449958294630051 0.447446256875992 0.430944085121155 0.337713629007339 0.199838191270828 0.380630671977997 0.627479553222656 0.806183457374573 0.831466436386108 0.516007661819458 0.128242135047913 0.223545134067535 0.286658108234406 0.386420547962189 0.41979455947876 0.43998721241951 0.477975010871887 0.518119335174561 0.54949152469635 0.61644983291626 0.68133956193924 0.750037491321564 0.793195784091949 0.806111693382263 0.807550609111786 0.790351152420044 0.767820477485657 0.747436940670013 0.761573910713196 0.839637398719788 0.944115996360779 0.913625657558441 0.808128178119659 0.734593749046326 0.672910571098328 0.612312734127045 0.50284332036972 0.387057542800903 0.317938297986984 0.245551764965057 0.164842382073402 1.00563752651215 0.0598641745746136 0.0341067761182785 0.0457196496427059 0.608979523181915 0.206572443246841 0.550755679607391 0.70380699634552 0.531278967857361 0.6342453956604 0.591847538948059
7.69371461868286 8.43445682525635 8.96660327911377 9.48591136932373 10.2429084777832 11.0072584152222 12.3690128326416 13.4267473220825 14.7112283706665 16.8285007476807 18.5173091888428 20.2639427185059 22.6012420654297 21.7873134613037 19.0967216491699 16.1915988922119 12.6351804733276 11.6788663864136 9.18593978881836 5.98358726501465 7.11703062057495 13.2121953964233 17.465030670166 9.86460876464844 6.73213863372803 7.50751638412476 10.9658336639404 9.88298416137695 9.17109680175781 11.184814453125 10.2911157608032 9.83370304107666 10.3587198257446 11.2464370727539 11.3130226135254 12.0406951904297 7.89324617385864 7.27061033248901 7.60097074508667 7.67264938354492 7.80210018157959 7.90204429626465 12.4048185348511 15.698637008667 13.7769784927368 11.9886198043823 10.0469608306885 8.02498722076416 4.05804681777954 4.74921894073486 4.04437685012817 3.27827906608582 3.87891316413879 5.22441625595093 7.08416652679443 7.39803075790405 6.55732583999634 3.3700122833252 3.42708659172058 3.20601654052734 3.36231422424316 3.14746856689453 3.23633909225464 3.2402970790863 3.03967261314392 3.08419013023376 3.12689447402954 3.08568000793457 3.02411818504333 3.42260813713074 3.79976725578308 3.26045608520508 3.24515676498413 2.4225971698761 1.50465738773346 1.04019725322723 0.493348568677902 0.481050312519073 0.241186276078224 0.105816550552845 -0.0648015588521957 -0.0781837180256844 0.0215806644409895 0.162978321313858 0.14744858443737 -0.0465291030704975 -0.108644224703312 0.0801628604531288 -0.134003862738609 -0.810992836952209 -0.832415819168091 -0.807607650756836 -0.791957974433899 -0.790725350379944 -0.791095435619354 -0.787626981735229 -0.776860535144806 -0.767061650753021 -0.746617317199707 -0.735839426517487 -0.719345152378082 -0.699341714382172 -0.680360376834869 -0.675718128681183 -0.66275542974472 -0.642037630081177 -0.619028151035309 -0.595304250717163 -0.568527281284332 -0.55876225233078 -0.152237802743912 -0.00875102449208498 0.035390317440033 0.00928416475653648 0.0149126155301929 0.19584396481514 0.278856843709946 0.361035048961639 0.374301552772522 0.377784490585327 0.36010667681694 0.321789175271988 0.261385172605515 0.173195227980614 0.097693644464016 0.2367302775383 0.400444686412811 0.519402384757996 0.422406554222107 0.204171597957611 0.197185963392258 0.237586811184883 0.286850988864899 0.288224160671234 0.318798810243607 0.393717646598816 0.427708595991135 0.488433927297592 0.542428374290466 0.603452980518341 0.619509935379028 0.654034793376923 0.728265464305878 0.761251747608185 0.765432596206665 0.745675086975098 0.725678086280823 0.736406922340393 0.760361075401306 0.908126950263977 0.882872402667999 0.842099010944366 0.706070601940155 0.647552073001862 0.588003933429718 0.501719534397125 0.44461464881897 0.35083943605423 0.357082098722458 0.35856956243515 0.0902591049671173 0.144113525748253 0.961459040641785 0.118760868906975 0.105794824659824 0.222523093223572 0.0896152183413506 0.196322470903397 0.328350931406021 0.267253160476685 0.500078797340393 0.319026470184326
7.79842519760132 8.44036483764648 8.78351783752441 9.27297496795654 9.95574474334717 10.760516166687 11.9696044921875 12.8141164779663 13.7035350799561 15.7438707351685 17.7377777099609 19.2730598449707 20.2874507904053 19.7340240478516 18.6442394256592 17.6069107055664 12.2240123748779 9.60537719726562 7.43788909912109 6.53065967559814 9.72777652740479 13.4958333969116 18.6064987182617 17.8042831420898 11.2547674179077 9.31931686401367 13.119255065918 13.3850545883179 12.2361612319946 17.5501670837402 12.0877370834351 9.61243915557861 9.65443801879883 10.2587547302246 10.9844608306885 9.97831630706787 7.48366737365723 6.24276781082153 8.3716459274292 8.33359432220459 8.94625473022461 9.39596366882324 14.1919918060303 18.6828212738037 19.8438682556152 19.2207565307617 19.348949432373 20.6562328338623 15.9619407653809 14.1287355422974 8.5379810333252 6.09940147399902 6.10282611846924 5.69484901428223 6.54150390625 7.80509233474731 8.08051109313965 5.48144817352295 3.13114523887634 3.48391437530518 3.12865447998047 3.12726426124573 3.11675524711609 2.93589425086975 2.97553825378418 2.99828720092773 2.99507284164429 2.90945720672607 2.72051095962524 3.1509952545166 3.8775417804718 2.72811675071716 2.74719381332397 3.04782366752625 1.93460142612457 1.4754866361618 0.892914950847626 0.442284435033798 0.380930036306381 -0.0121187530457973 -0.129878252744675 -0.145666003227234 -0.0410934016108513 0.049669124186039 0.0570963770151138 -0.0512524768710136 -0.316198498010635 -0.209935292601585 0.0317792445421219 -0.345027685165405 -0.86442095041275 -0.868114650249481 -0.851240694522858 -0.837671399116516 -0.825285196304321 -0.816884934902191 -0.809748530387878 -0.80882316827774 -0.805123329162598 -0.785702526569366 -0.776726007461548 -0.757380187511444 -0.735888004302979 -0.730776250362396 -0.715569853782654 -0.698354959487915 -0.678969383239746 -0.650682210922241 -0.635453343391418 -0.39314192533493 -0.192609131336212 -0.111502729356289 -0.0755361169576645 -0.104330219328403 -0.0670258775353432 0.105853646993637 0.204564437270164 0.261983722448349 0.294949769973755 0.280577450990677 0.238726004958153 0.156111612915993 0.0878028497099876 0.0180802904069424 0.00609182799234986 0.0434754118323326 0.228744551539421 0.102814041078091 0.0747343003749847 0.170458987355232 0.193185105919838 0.224399626255035 0.214544862508774 0.214240074157715 0.278446793556213 0.335404932498932 0.390777140855789 0.432493358850479 0.502618908882141 0.544110238552094 0.552126884460449 0.590211272239685 0.642685532569885 0.690416634082794 0.724403142929077 0.705259144306183 0.716278910636902 0.71935647726059 0.791623592376709 0.890363335609436 0.86307156085968 0.756456077098846 0.632941603660583 0.575769007205963 0.49431374669075 0.44143995642662 0.360857665538788 0.311894595623016 0.378215879201889 0.45357409119606 0.0566748306155205 0.0363445170223713 0.751550614833832 0.0546215325593948 0.215428665280342 0.206747740507126 0.133708924055099 0.18317674100399 0.207212969660759 0.208885386586189 0.220948740839958 0.21899189054966
7.84008312225342 8.29935455322266 8.63021183013916 9.06153964996338 9.82401561737061 10.9351654052734 11.5494661331177 12.1349458694458 13.125636100769 14.7416048049927 16.7111701965332 18.5309314727783 20.3004341125488 20.3243751525879 18.1191253662109 18.1776504516602 17.2780227661133 12.1074266433716 10.2529573440552 8.37280559539795 10.4301242828369 14.3770341873169 16.3001174926758 17.8458786010742 15.4243011474609 11.3505067825317 11.8541841506958 12.1979494094849 12.2104911804199 18.7768726348877 20.0056457519531 12.3579778671265 9.17025756835938 9.41326904296875 10.5455284118652 14.8804569244385 13.6993570327759 11.1554841995239 9.56243896484375 8.84438800811768 9.24725532531738 10.8464593887329 14.3973999023438 17.4848117828369 18.8483562469482 20.1783313751221 21.179536819458 23.57932472229 19.7686309814453 15.1801900863647 15.3492136001587 10.996973991394 7.29378843307495 5.99588966369629 5.37609958648682 6.00094747543335 5.37510824203491 3.71154975891113 4.3012228012085 3.21129155158997 3.00247526168823 3.06106972694397 2.84773898124695 2.8484091758728 2.86215305328369 2.86060929298401 2.77446913719177 2.60582232475281 2.47960758209229 2.62795329093933 3.70806980133057 2.73675680160522 2.1596839427948 2.51944494247437 2.90503883361816 1.89463698863983 1.46447253227234 0.675717234611511 0.54884660243988 0.264577269554138 -0.194231688976288 -0.218575149774551 -0.133256167173386 -0.145091727375984 -0.198416203260422 -0.166488021612167 -0.328841030597687 -0.444701939821243 -0.484713733196259 -0.405791997909546 -0.739855110645294 -0.892730474472046 -0.900122404098511 -0.902654945850372 -0.884438753128052 -0.862627923488617 -0.841705739498138 -0.841818869113922 -0.841947019100189 -0.836017847061157 -0.818366944789886 -0.802514851093292 -0.787995338439941 -0.784378170967102 -0.770658850669861 -0.753548800945282 -0.731288969516754 -0.71514219045639 -0.480177283287048 -0.286837220191956 -0.20444567501545 -0.188965633511543 -0.227469399571419 -0.203057795763016 -0.0448865555226803 0.0320234261453152 0.115256503224373 0.169589698314667 0.191683322191238 0.169132187962532 0.071773387491703 0.00864666607230902 -0.0536164417862892 -0.0684009343385696 -0.0427607223391533 -0.0133649669587612 -0.0287138111889362 -0.0614129081368446 0.0071769398637116 0.127573013305664 0.167477563023567 0.142057329416275 0.135793209075928 0.174989998340607 0.224031314253807 0.299253761768341 0.332002192735672 0.362457573413849 0.40417867898941 0.468952298164368 0.506191313266754 0.55514132976532 0.593806207180023 0.639482796192169 0.682815074920654 0.697926998138428 0.697348356246948 0.767565190792084 0.861403703689575 0.837551355361938 0.740947365760803 0.669472992420197 0.552290916442871 0.466086834669113 0.427804857492447 0.357229351997375 0.304443061351776 0.266976892948151 0.352436125278473 0.323345482349396 0.216300711035728 0.142034560441971 0.0988729670643806 0.384232640266418 0.456259220838547 0.0490465462207794 0.0481637492775917 0.0622585825622082 0.114758126437664 0.145897552371025 0.138395950198174 0.107109166681767
7.75772476196289 8.16302013397217 8.43779563903809 8.86232662200928 9.67334651947021 10.5396547317505 11.0055875778198 11.6963090896606 12.6511716842651 13.929708480835 15.3772783279419 17.1494579315186 18.2864265441895 20.8290214538574 18.7000694274902 17.1511306762695 17.336669921875 15.0408477783203 12.3943786621094 9.05951881408691 11.7694892883301 11.9894371032715 13.0272026062012 11.912579536438 13.3858985900879 10.7812948226929 9.8255729675293 10.758131980896 13.7703981399536 17.4840450286865 21.4086494445801 21.7399997711182 14.4501581192017 11.2564516067505 12.0144853591919 13.712947845459 13.9604930877686 11.0305662155151 10.029914855957 10.2107915878296 9.61496067047119 11.8734760284424 14.1082172393799 16.2560234069824 17.7851238250732 19.2974090576172 19.9788436889648 18.7532024383545 18.4660987854004 18.1708431243896 17.9511547088623 14.1917762756348 8.12782573699951 7.25155973434448 6.86780786514282 4.45650386810303 4.79653882980347 5.87067985534668 3.07351994514465 2.88294458389282 2.93080902099609 2.88656663894653 2.71591687202454 2.73507213592529 2.7625367641449 2.72742891311646 2.5080406665802 2.34419274330139 1.86471712589264 2.35278582572937 3.8147406578064 3.92655730247498 2.48575949668884 2.25170159339905 3.18101787567139 3.37622046470642 1.87246382236481 1.19000518321991 0.86258202791214 0.391294032335281 -0.20615853369236 -0.246644571423531 -0.275616854429245 -0.348534047603607 -0.460711151361465 -0.496176242828369 -0.493132948875427 -0.526718974113464 -0.871059000492096 -0.918278515338898 -0.899945199489594 -0.749319672584534 -0.933519780635834 -0.935252845287323 -0.933223247528076 -0.920912563800812 -0.875927925109863 -0.870475053787231 -0.873305678367615 -0.875089704990387 -0.865743517875671 -0.842886805534363 -0.84125143289566 -0.834914267063141 -0.818341791629791 -0.805719673633575 -0.788841962814331 -0.540072023868561 -0.371362060308456 -0.293219983577728 -0.264691948890686 -0.317158460617065 -0.297238022089005 -0.161883637309074 -0.0983699560165405 -0.0182004850357771 0.039472546428442 0.0729781463742256 0.101399675011635 0.0901214703917503 0.004188088234514 -0.105612710118294 -0.130535334348679 -0.100083895027637 -0.0831192880868912 -0.093216560781002 -0.128673002123833 -0.184424668550491 -0.13319031894207 -0.0333998687565327 0.0740327909588814 0.0346150770783424 0.0777646526694298 0.122448265552521 0.182490557432175 0.225535586476326 0.287511110305786 0.318717896938324 0.340207070112228 0.391823440790176 0.447176277637482 0.518779397010803 0.565352857112885 0.619199752807617 0.63735419511795 0.663318812847137 0.697599470615387 0.834341943264008 0.808064877986908 0.773748099803925 0.653898537158966 0.584515452384949 0.503941357135773 0.43394136428833 0.363168448209763 0.292961835861206 0.239370748400688 0.249027132987976 0.294834583997726 0.283847212791443 0.21806962788105 0.192365154623985 0.135304242372513 0.0502520427107811 0.070522852241993 0.337126612663269 0.0607123672962189 0.0492330454289913 0.110322035849094 0.0780581086874008 0.0886363238096237 0.147718191146851
7.57141160964966 7.9290623664856 8.27716732025146 8.82248306274414 9.66176128387451 10.0681266784668 10.6643362045288 11.2434921264648 12.293927192688 13.4158744812012 14.8537092208862 15.6236591339111 16.6651573181152 17.7134704589844 19.5230388641357 16.6769351959229 16.6853065490723 14.4684362411499 12.6779556274414 10.9391613006592 9.97177314758301 10.891074180603 9.73923587799072 9.17293834686279 8.57016086578369 8.71414566040039 9.85832214355469 11.1659908294678 13.058144569397 16.1675987243652 18.7636051177979 21.5619945526123 18.212911605835 13.7581596374512 11.7029066085815 11.4854831695557 10.7342138290405 11.793550491333 9.66264915466309 8.4263391494751 10.3787784576416 11.7771348953247 13.4441785812378 15.2668190002441 16.6332530975342 17.4337368011475 15.8458967208862 14.6316165924072 15.5728626251221 13.5834054946899 13.2479152679443 12.5161542892456 9.26126384735107 7.48022031784058 5.82744741439819 6.49806118011475 5.45289897918701 2.94716310501099 2.78374123573303 2.80784678459167 2.75130105018616 2.60394382476807 2.63518881797791 2.65851426124573 2.64157342910767 2.56466293334961 2.37983298301697 2.1517128944397 1.53940808773041 1.92122960090637 2.66483664512634 4.38317632675171 3.74982380867004 2.56849551200867 2.8783438205719 3.98978400230408 3.6059627532959 1.61161351203918 1.40988326072693 0.659337162971497 0.239791870117188 0.025143276900053 -0.383796364068985 -0.600111186504364 -0.728862047195435 -0.742560386657715 -0.832288861274719 -0.631685972213745 -0.713344514369965 -0.959868371486664 -0.964490294456482 -0.963635623455048 -0.970152914524078 -0.970011711120605 -0.974744975566864 -0.949268102645874 -0.92087322473526 -0.908976852893829 -0.90216737985611 -0.901664257049561 -0.903835117816925 -0.892088174819946 -0.886489570140839 -0.880459785461426 -0.859454452991486 -0.846364438533783 -0.840535342693329 -0.481044143438339 -0.380296379327774 -0.352483093738556 -0.379946798086166 -0.458540827035904 -0.351332515478134 -0.221638292074203 -0.150983095169067 -0.110803537070751 -0.0735959932208061 -0.0267721153795719 -0.0277881622314453 -0.0749616101384163 -0.14214651286602 -0.165177375078201 -0.221788555383682 -0.146572127938271 -0.147775501012802 -0.161765560507774 -0.229915738105774 -0.307314306497574 -0.28032124042511 -0.191095620393753 -0.101206928491592 -0.0600696243345737 -0.00585378287360072 0.0656852200627327 0.106485649943352 0.160537302494049 0.219482094049454 0.24630680680275 0.279636234045029 0.33636537194252 0.402942985296249 0.491312712430954 0.560198187828064 0.607026159763336 0.639690697193146 0.661783576011658 0.728684544563293 0.817964375019073 0.792607963085175 0.69610196352005 0.578153312206268 0.793068587779999 0.434154868125916 0.383260875940323 0.317592978477478 0.238733857870102 0.19585108757019 0.250409543514252 0.235095545649529 0.335639119148254 0.138187736272812 0.226249694824219 0.43077939748764 0.266074448823929 0.229633986949921 0.343347012996674 0.099510483443737 0.0719542503356934 0.266074448823929 0.126508250832558 0.124017991125584 0.191718488931656
7.51306819915771 7.70518779754639 8.25318908691406 8.98742771148682 9.31445026397705 9.72191143035889 10.1949148178101 10.7836885452271 11.8898096084595 12.9390268325806 13.4652147293091 14.2599515914917 15.3059406280518 16.3283920288086 16.3660659790039 15.694296836853 13.8309831619263 12.2067918777466 13.5140218734741 11.5515623092651 10.4818983078003 8.86325550079346 8.40970134735107 8.56548595428467 8.17641448974609 8.66755294799805 9.53665447235107 10.3035554885864 12.4329795837402 13.747200012207 16.5781631469727 17.8203010559082 17.240270614624 15.7533006668091 13.9594058990479 12.1503105163574 10.6141757965088 10.815896987915 7.87178421020508 9.31513786315918 10.5123481750488 11.7425317764282 13.0831727981567 14.3646860122681 15.1508903503418 13.9880857467651 12.8659172058105 11.9326047897339 10.9852476119995 9.51570987701416 8.83906555175781 9.49298572540283 7.675133228302 6.78500032424927 7.10477685928345 4.42634201049805 2.9611759185791 2.67925429344177 2.67255640029907 2.70182347297668 2.51732540130615 2.54724097251892 2.56691932678223 2.54736161231995 2.46802949905396 2.2991943359375 2.17147064208984 1.70026528835297 1.31989789009094 1.54952418804169 2.03941679000854 2.99166917800903 3.79886317253113 3.1043221950531 2.80758476257324 3.25992608070374 4.10311985015869 2.93741965293884 1.76603829860687 1.35330283641815 0.848279774188995 0.953337788581848 0.639180719852448 -0.152762204408646 -0.869824349880219 -0.959186434745789 -0.957893669605255 -0.97743684053421 -0.871621131896973 -0.998418807983398 -1.01128256320953 -1.01388442516327 -1.00954329967499 -1.00323271751404 -0.992056965827942 -0.973477780818939 -0.959779798984528 -0.946892738342285 -0.930824995040894 -0.79299134016037 -0.931862831115723 -0.938567936420441 -0.935954451560974 -0.916852712631226 -0.900793075561523 -0.884805917739868 -0.635741889476776 -0.477340787649155 -0.435553878545761 -0.417604833841324 -0.464084595441818 -0.429615557193756 -0.313767910003662 -0.279814422130585 -0.234201654791832 -0.204746201634407 -0.174264401197433 -0.170837834477425 -0.221571385860443 -0.270511537790298 -0.270105123519897 -0.257624417543411 -0.264299541711807 -0.217774033546448 -0.224361047148705 -0.244282335042953 -0.313734769821167 -0.388716667890549 -0.405138581991196 -0.324720412492752 -0.244938239455223 -0.187390998005867 -0.109920866787434 -0.0274754725396633 0.0382908023893833 0.0837738364934921 0.10850366204977 0.149298474192619 0.207754984498024 0.273498117923737 0.350537300109863 0.455064386129379 0.555869102478027 0.60927951335907 0.641788840293884 0.707935571670532 0.791478872299194 0.768279075622559 0.677119672298431 0.617422521114349 0.528109431266785 0.534830689430237 0.379983067512512 0.319979876279831 0.276989161968231 0.203323513269424 0.208068877458572 0.201456964015961 0.190608024597168 0.244225427508354 0.160231590270996 0.1628378033638 0.250416815280914 0.274938255548477 0.224597200751305 0.260182350873947 0.198661252856255 0.0897932946681976 0.232737362384796 0.212726801633835 0.264171600341797 0.238422080874443
7.36554431915283 7.59326505661011 8.41215991973877 8.71379280090332 9.05033683776855 9.41819095611572 9.82754230499268 10.4708023071289 11.4427337646484 11.9003143310547 12.4174041748047 13.0557270050049 13.8566055297852 14.505241394043 14.8609094619751 14.5071716308594 12.9288034439087 11.8896265029907 11.5593128204346 10.818549156189 10.1828136444092 8.93379688262939 7.84881639480591 7.69142580032349 7.88695287704468 8.66505813598633 9.13704681396484 9.73371124267578 10.6075639724731 12.4402093887329 12.906005859375 12.6407165527344 12.7774209976196 12.9267778396606 11.5055313110352 9.85330772399902 8.00338554382324 7.39391040802002 8.50381278991699 9.40371513366699 10.6160793304443 11.5011682510376 12.6217107772827 13.7746295928955 14.5030937194824 12.9257526397705 11.7226285934448 11.2425479888916 10.5960187911987 10.7455024719238 9.2526798248291 8.83311462402344 7.53103971481323 5.31928968429565 3.04525589942932 2.86745500564575 2.72254133224487 2.61705279350281 2.6234827041626 2.5739893913269 2.4311192035675 2.48942446708679 2.46785378456116 2.39256525039673 2.22381520271301 2.09981393814087 1.63479924201965 1.12691175937653 1.22109937667847 1.40627360343933 1.59466230869293 2.08612036705017 2.78724575042725 3.01618146896362 2.99152803421021 2.79630255699158 3.05794501304626 3.63968348503113 2.43586444854736 1.79538404941559 1.58073723316193 1.59324610233307 1.73358428478241 1.38888680934906 0.321353405714035 -0.99577933549881 -1.01782369613647 -1.02893388271332 -1.04091942310333 -1.04328966140747 -1.05230247974396 -1.05476129055023 -1.04478085041046 -1.03278195858002 -1.01143562793732 -1.00544941425323 -0.991884827613831 -0.978737354278564 -0.964718580245972 -0.806907773017883 -0.605618476867676 -0.87813001871109 -0.964503884315491 -0.950499176979065 -0.935157954692841 -0.663012802600861 -0.499262124300003 -0.451089829206467 -0.458009362220764 -0.511470437049866 -0.480531543493271 -0.360080271959305 -0.330697953701019 -0.308175593614578 -0.298840939998627 -0.30394846200943 -0.252065867185593 -0.260178714990616 -0.322657078504562 -0.383710622787476 -0.367897093296051 -0.321172595024109 -0.367766082286835 -0.394550085067749 -0.431094199419022 -0.40958559513092 -0.459354072809219 -0.586110234260559 -0.528204798698425 -0.468010634183884 -0.393776535987854 -0.308081895112991 -0.235823318362236 -0.152762621641159 -0.0924148485064507 -0.0410030968487263 0.0104694934561849 0.0689048394560814 0.145852267742157 0.217794001102448 0.321902006864548 0.43455582857132 0.54019957780838 0.603668570518494 0.674478769302368 0.759040057659149 0.742642879486084 0.652979493141174 0.588320314884186 0.538133502006531 0.489256024360657 0.40871861577034 0.326490670442581 0.271455585956573 0.217876255512238 0.161878436803818 0.179800093173981 0.173290684819221 0.152256414294243 0.140540421009064 0.184492871165276 0.224873781204224 0.22655214369297 0.186848729848862 0.180868491530418 0.196455895900726 0.156154498457909 0.2104162722826 0.216349005699158 0.251620292663574 0.267494320869446 0.290254682302475
7.23122453689575 7.55224418640137 8.14256191253662 8.46070098876953 8.75566291809082 9.13129425048828 9.53943824768066 10.0908422470093 10.7377519607544 11.1765394210815 11.4715328216553 11.7554244995117 12.1983118057251 13.0785121917725 13.125072479248 12.0053558349609 11.4438304901123 10.4211111068726 9.73853492736816 9.60480308532715 8.64087677001953 7.74814748764038 7.22442817687988 7.03490591049194 7.68797302246094 8.22894191741943 8.63466167449951 9.26187133789062 9.71744251251221 10.0393762588501 9.76971244812012 9.91610336303711 10.3341522216797 10.2251539230347 8.96582794189453 8.28406143188477 7.37508773803711 8.04472541809082 8.68359565734863 9.54787921905518 10.3217601776123 11.2628297805786 12.1982231140137 12.8859748840332 11.8386335372925 10.5320148468018 10.4710302352905 10.1826324462891 9.12526988983154 9.0956449508667 7.75093126296997 6.16744709014893 3.6839451789856 2.96078777313232 2.70834517478943 2.57792711257935 2.52680826187134 2.57661390304565 2.50756907463074 2.29854702949524 2.34948062896729 2.40215826034546 2.33149647712708 2.16681838035583 2.04241156578064 1.59624791145325 1.10111951828003 1.08355557918549 1.16923022270203 1.30850911140442 1.47472023963928 1.72591400146484 2.1112585067749 2.53968214988708 2.75110578536987 2.85506248474121 2.60394978523254 2.82727026939392 3.11848926544189 1.70483553409576 1.94236826896667 2.04838609695435 2.06735181808472 2.27238607406616 1.77739655971527 0.368672847747803 -0.835010647773743 -1.08114552497864 -1.08661222457886 -1.09320104122162 -1.09245312213898 -1.08749568462372 -1.07446908950806 -1.04337763786316 -1.04282474517822 -1.03617584705353 -1.02997744083405 -1.00794160366058 -0.991018056869507 -0.937162756919861 -0.628199398517609 -0.56465744972229 -0.808230817317963 -1.00605988502502 -0.943625926971436 -0.575894415378571 -0.467476636171341 -0.45906475186348 -0.505777776241302 -0.501126825809479 -0.399842739105225 -0.365580230951309 -0.34986400604248 -0.348501414060593 -0.370306670665741 -0.354667782783508 -0.340993821620941 -0.402107506990433 -0.474300801753998 -0.498844176530838 -0.439983874559402 -0.414260149002075 -0.488854110240936 -0.517036736011505 -0.559013903141022 -0.642176151275635 -0.635554015636444 -0.678796112537384 -0.651453673839569 -0.611367344856262 -0.554878830909729 -0.471014142036438 -0.383601248264313 -0.303529411554337 -0.241716936230659 -0.161362782120705 -0.0517964288592339 0.00314408936537802 0.0918163657188416 0.193150952458382 0.28876730799675 0.378533720970154 0.468015253543854 0.586338043212891 0.717218041419983 0.701050639152527 0.614270031452179 0.542247116565704 0.465202122926712 0.430505752563477 0.365488290786743 0.334536403417587 0.282894998788834 0.216279596090317 0.158327907323837 0.153049796819687 0.14148898422718 0.147914588451385 0.134066417813301 0.120289385318756 0.136190980672836 0.122582584619522 0.120301835238934 0.148687422275543 0.145395115017891 0.109780520200729 0.0771099478006363 0.17226442694664 0.211757466197014 0.208190008997917 0.282991290092468 0.466563999652863
7.174720287323 7.68564796447754 7.93415641784668 8.18495941162109 8.53306007385254 8.82194423675537 9.1919412612915 9.68184661865234 10.1169681549072 10.4020338058472 10.6507902145386 10.8018255233765 11.1066303253174 11.2487049102783 11.0049419403076 10.1476354598999 9.79970741271973 9.15160751342773 9.02694702148438 8.14834976196289 7.71916580200195 9.85977935791016 7.13584518432617 6.91558456420898 7.23378610610962 7.71213054656982 8.25265979766846 8.58880138397217 8.92399215698242 8.87380886077881 8.59081268310547 9.11567115783691 8.92404842376709 7.77697134017944 7.32511806488037 6.63331031799316 6.93162775039673 7.98153448104858 8.77118587493896 9.34061622619629 9.96826457977295 10.8151836395264 11.4415225982666 10.5790061950684 9.49324798583984 9.14443683624268 8.69249439239502 7.789137840271 7.34879159927368 6.28670883178711 5.197340965271 3.72607135772705 2.91011953353882 2.60412359237671 2.47730040550232 2.449862241745 2.51783227920532 2.45413875579834 2.24079704284668 2.05996870994568 2.06586408615112 2.15510272979736 2.12317752838135 2.01038002967834 1.5722461938858 1.09108626842499 1.04844272136688 1.15788686275482 1.25007426738739 1.33632051944733 1.43034732341766 1.59777998924255 1.65905809402466 1.92430889606476 2.36769700050354 2.67397594451904 2.73068356513977 2.42479777336121 2.93087816238403 2.25780391693115 1.47392141819 2.25654053688049 2.13272547721863 2.28925347328186 2.44418549537659 1.75168836116791 0.384851545095444 -1.15515041351318 -1.1611487865448 -1.1418833732605 -1.13664209842682 -1.13005256652832 -1.09128153324127 -1.09103035926819 -1.07709765434265 -1.07083630561829 -1.05971109867096 -1.04476165771484 -1.02840352058411 -0.99098151922226 -0.871061027050018 -0.616754412651062 0.645719289779663 -0.944188117980957 -0.692714989185333 -0.545466184616089 -0.486960470676422 -0.481153100728989 -0.473393768072128 -0.504024684429169 -0.406583487987518 -0.372777998447418 -0.381327778100967 -0.409735828638077 -0.409831523895264 -0.415368586778641 -0.470863699913025 -0.555154263973236 -0.622239589691162 -0.58082777261734 -0.493524163961411 -0.507895469665527 -0.600956618785858 -0.661276757717133 -0.726745009422302 -0.765857696533203 -0.817225873470306 -0.790905475616455 -0.768300652503967 -0.728967726230621 -0.676643490791321 -0.608102321624756 -0.519322276115417 -0.458884567022324 -0.404863089323044 -0.285769730806351 -0.211410120129585 -0.131067559123039 -0.0464039593935013 0.0720639750361443 0.188185408711433 0.266102254390717 0.336475342512131 0.436335563659668 0.520756125450134 0.561809420585632 0.494839429855347 0.414626032114029 0.328697144985199 0.251621097326279 0.226525574922562 0.206419602036476 0.212417334318161 0.17197273671627 0.126217737793922 0.113644123077393 0.116130895912647 0.101233839988708 0.101196266710758 0.108086079359055 0.100352555513382 0.0909459441900253 0.113263256847858 0.0767914205789566 0.0624646879732609 0.0598904229700565 0.111414156854153 0.128284394741058 0.189830005168915 0.264525324106216 0.361559689044952 0.645240366458893
7.29216289520264 7.52063512802124 7.73667907714844 7.97133159637451 8.23445510864258 8.504319190979 8.82612609863281 9.16876697540283 9.62447071075439 9.89126586914062 9.72773933410645 9.64070320129395 9.76459693908691 9.36617183685303 8.70646667480469 8.67017078399658 9.29723262786865 8.77026081085205 7.80157947540283 7.51404285430908 7.49095344543457 9.6921911239624 11.3347816467285 8.71689701080322 7.27941083908081 7.22991323471069 7.80587244033813 7.98824977874756 8.21570110321045 8.21961116790771 8.19422721862793 7.68493509292603 6.98539209365845 6.59212589263916 6.24505853652954 6.33840179443359 7.12112188339233 7.81865978240967 8.33423233032227 8.89337539672852 9.63006782531738 10.1750221252441 9.99171733856201 9.36040115356445 8.09994125366211 7.58400869369507 6.73760843276978 6.24124431610107 5.5075306892395 4.66665840148926 3.84226822853088 2.95311117172241 2.68887782096863 2.52228116989136 2.28803730010986 2.34174370765686 2.41799736022949 2.20868802070618 2.0279643535614 1.87902498245239 1.68041026592255 1.76668989658356 1.83847153186798 1.59766662120819 1.35548007488251 1.14707589149475 1.15054452419281 1.12971436977386 1.16323268413544 1.18656921386719 1.28630602359772 1.39401376247406 1.41013014316559 1.58029139041901 1.74879395961761 2.19120335578918 2.6781108379364 2.43464207649231 2.43637561798096 2.93762183189392 1.99315512180328 1.59023857116699 2.34405779838562 2.14495635032654 2.34542727470398 2.57444262504578 2.62566685676575 -0.634071528911591 -1.22813558578491 -1.22046148777008 -1.19455337524414 -1.1732017993927 -1.12773656845093 -1.13787710666656 -1.12674391269684 -1.11474668979645 -1.08537685871124 -1.07947373390198 -1.07001495361328 -1.05309891700745 -0.961078345775604 -0.952230393886566 -0.0619646459817886 -0.693891644477844 -0.555200457572937 -0.515430271625519 -0.505311191082001 -0.556249916553497 -0.654803335666656 -0.609121203422546 -0.50630646944046 -0.445248693227768 -0.43352735042572 -0.434503138065338 -0.472457617521286 -0.55648809671402 -0.647007584571838 -0.696436703205109 -0.699657082557678 -0.65317714214325 -0.561760783195496 -0.633666753768921 -0.72966194152832 -0.79963493347168 -0.897085547447205 -0.915203809738159 -0.924579858779907 -0.918393075466156 -0.884372293949127 -0.8361656665802 -0.770155072212219 -0.714655220508575 -0.652408003807068 -0.605278968811035 -0.524847388267517 -0.413862526416779 -0.413435369729996 -0.299972146749496 -0.207230597734451 -0.111907906830311 0.0233529079705477 0.125391200184822 0.198488667607307 0.265140295028687 0.308782815933228 0.346739560365677 0.304620444774628 0.231629341840744 0.130409747362137 0.0997711569070816 0.072257786989212 0.0926056355237961 0.116995714604855 0.1093610227108 0.0712897703051567 0.0766797587275505 0.0725905001163483 0.0466654822230339 0.0493379086256027 0.0651467964053154 0.0784811303019524 0.163822069764137 0.0745276212692261 0.0944069251418114 0.0440220013260841 0.0659391433000565 0.118266589939594 0.152654081583023 0.227756723761559 0.308025568723679 0.420193523168564 0.702623903751373
7.17655754089355 7.36342525482178 7.57196664810181 7.77181482315063 8.00871086120605 8.15813446044922 8.47699546813965 8.87890720367432 9.12061500549316 9.12436294555664 8.93566703796387 8.81429958343506 8.53597068786621 7.82526874542236 7.95113563537598 8.47828197479248 8.04060935974121 7.95245599746704 7.3846173286438 7.32820224761963 7.26216411590576 8.11525249481201 9.59666442871094 9.27659797668457 7.41942739486694 7.30449962615967 7.2161283493042 7.49349117279053 7.38441276550293 7.39483118057251 7.19773054122925 6.64262247085571 6.11279344558716 5.62257528305054 5.65147590637207 6.43783617019653 7.00391483306885 7.53857612609863 8.03349018096924 8.54956436157227 9.06923389434814 9.58743190765381 8.87224292755127 7.98434209823608 7.35925245285034 6.63465070724487 5.77632617950439 4.92012357711792 4.25122451782227 3.53675007820129 2.92996001243591 2.6950511932373 2.51330423355103 2.37411832809448 2.19495058059692 2.20369482040405 2.1952018737793 2.0234317779541 1.86780595779419 1.65378880500793 1.62130892276764 1.26179707050323 1.21284115314484 1.00500106811523 1.02233171463013 1.00517964363098 1.02297413349152 1.06624841690063 1.08808267116547 1.09051883220673 1.17256343364716 1.201016664505 1.19989836215973 1.34828209877014 1.44755589962006 1.67801594734192 2.04969811439514 2.47902464866638 2.18730998039246 2.24325942993164 3.00999736785889 2.28414225578308 2.26137232780457 2.64125299453735 2.61655783653259 3.03837442398071 3.49845314025879 1.76750516891479 -0.707337319850922 -1.29530620574951 -1.32177782058716 -1.24673366546631 -1.18962287902832 -1.19208443164825 -1.16891205310822 -1.15275084972382 -1.13583958148956 -1.11493527889252 -1.10550940036774 -1.08249711990356 -1.06309676170349 -0.702398717403412 -0.712426543235779 -0.561701774597168 -0.522029995918274 -0.534901022911072 -0.582177996635437 -0.748967349529266 -0.820046603679657 -0.808211207389832 -0.732951641082764 -0.630788683891296 -0.56160306930542 -0.55720716714859 -0.602762877941132 -0.696069300174713 -0.760468125343323 -0.790526568889618 -0.788078963756561 -0.741195678710938 -0.320725589990616 -0.77155989408493 -0.878788888454437 -0.96168327331543 -1.03879618644714 -1.09452128410339 -1.10454869270325 -1.07466745376587 -0.99541562795639 -0.929926931858063 -0.866311192512512 -0.817371606826782 -0.787966668605804 -0.743326783180237 -0.627061903476715 -0.650071620941162 -0.600832164287567 -0.472827732563019 -0.388090878725052 -0.332265824079514 -0.237737119197845 -0.111958555877209 -0.00447014020755887 0.0611514151096344 0.0712990760803223 0.0610909312963486 0.0400842390954494 0.00325406319461763 -0.0546013340353966 -0.0771447494626045 -0.05604537576437 -0.0366047918796539 -0.00427248189225793 -0.00295810168609023 0.00743717700242996 0.0236793365329504 0.0371461808681488 0.0487869530916214 0.0477149151265621 0.0401715077459812 0.0465791486203671 0.0598167479038239 0.0748227164149284 0.182338863611221 0.0609621368348598 0.071277067065239 0.129757180809975 0.186703726649284 0.262949466705322 0.367920607328415 0.523681044578552 0.6842080950737
6.96675062179565 7.19331073760986 7.41891860961914 7.61762857437134 7.72651100158691 7.96930742263794 8.29987144470215 8.47721004486084 8.40163230895996 8.39661407470703 8.10811805725098 8.03602695465088 7.47518682479858 7.43543815612793 7.77963209152222 7.38152074813843 7.23449802398682 7.11328411102295 7.10439014434814 7.04679822921753 7.02940130233765 7.94954013824463 7.7784481048584 7.70117807388306 7.29383182525635 6.96851110458374 6.91910362243652 6.68817949295044 6.3382740020752 6.14442682266235 6.11867618560791 5.75207471847534 5.38841152191162 5.20206069946289 5.57830429077148 6.27730274200439 6.89870929718018 7.31048393249512 7.77931499481201 8.19603633880615 8.66085529327393 8.03275203704834 7.22729444503784 6.69179773330688 6.29793882369995 5.58873414993286 4.8400502204895 4.26718425750732 3.55505776405334 2.91762137413025 2.6044807434082 2.44855499267578 2.3179874420166 2.11072731018066 2.02521991729736 2.02918100357056 1.97047364711761 1.81321334838867 1.6068127155304 1.31387805938721 1.08699119091034 0.97592431306839 0.957385540008545 0.953360557556152 0.930162310600281 0.96090841293335 1.01281976699829 1.00406610965729 1.01018297672272 1.02447104454041 1.10898983478546 1.05053555965424 1.09622085094452 1.24972641468048 1.29118621349335 1.37205362319946 1.61492729187012 1.94494295120239 2.58644413948059 2.28432536125183 2.24693775177002 3.17319869995117 2.74155616760254 2.81756997108459 3.02219223976135 3.48113083839417 4.25194883346558 1.77979934215546 1.80628836154938 -1.03333175182343 -1.37497639656067 -1.32783091068268 -1.28807306289673 -1.23200285434723 -1.22548007965088 -1.19653403759003 -1.17307221889496 -1.15429329872131 -1.13812148571014 -1.13544523715973 -1.09060025215149 -0.992400705814362 -0.646635949611664 -0.550250828266144 -0.541297197341919 -0.605608820915222 -0.771137475967407 -0.936879754066467 -0.993439614772797 -1.00024437904358 -0.956125378608704 -0.895021736621857 -0.843988060951233 -0.804676532745361 -0.816917359828949 -0.863151907920837 -0.886615693569183 -0.895299196243286 -0.889400839805603 -0.855897903442383 0.129270806908607 -0.557809591293335 -1.00435125827789 -1.09049201011658 -1.17102003097534 -1.26622116565704 -1.26314532756805 -1.19432973861694 -1.08942651748657 -1.02987968921661 -0.975661277770996 -0.943859755992889 -0.926967680454254 -0.866483390331268 -0.767570912837982 -0.814468026161194 -0.724627673625946 -0.637301802635193 -0.584010303020477 -0.557273149490356 -0.498871386051178 -0.392033249139786 -0.28711861371994 -0.208580940961838 -0.167170792818069 -0.19654880464077 -0.232806622982025 -0.264307111501694 -0.259975403547287 -0.233069390058517 -0.229491338133812 -0.188859909772873 -0.167052999138832 -0.140471756458282 -0.0985160544514656 -0.0342682003974915 0.015357225202024 0.0319978632032871 0.0343072265386581 0.04388527572155 0.0441722832620144 0.0328100398182869 0.0353297218680382 0.0467745736241341 0.0559652037918568 0.0989791378378868 0.157741725444794 0.221118122339249 0.322615295648575 0.468167334794998 0.644402682781219 0.836426377296448
6.72811841964722 6.95349884033203 7.14716243743896 7.25752687454224 7.36761379241943 7.67209053039551 7.88671731948853 7.84020090103149 7.78049468994141 7.49307680130005 7.27608966827393 6.7215256690979 6.84122180938721 6.96687650680542 7.38534498214722 7.04140710830688 6.7900824546814 6.78351926803589 6.85670375823975 6.86128187179565 6.89522981643677 7.17056846618652 7.19327020645142 7.12740707397461 6.9511399269104 6.77509832382202 6.55370473861694 6.14466524124146 5.52750444412231 5.04715347290039 5.06980800628662 4.99104118347168 4.80994176864624 5.15277814865112 5.80238580703735 6.40705585479736 6.63525009155273 6.97769069671631 7.46758317947388 7.90536832809448 7.88300323486328 7.38443994522095 6.4293646812439 5.65226650238037 5.00522041320801 4.31232595443726 3.80677199363708 3.35617160797119 2.85151743888855 2.49777936935425 2.44386076927185 2.33141589164734 2.13926339149475 1.93461918830872 1.65925693511963 1.79837989807129 1.72483253479004 1.55666816234589 1.27582609653473 1.0681437253952 1.00708603858948 0.924855530261993 0.905027151107788 0.90097188949585 0.897079646587372 0.898163199424744 0.93978214263916 0.970944106578827 0.936040580272675 0.972718596458435 0.968379616737366 0.937950670719147 1.06914758682251 1.11463093757629 1.13707852363586 1.20236933231354 1.31570315361023 1.70981538295746 2.03521084785461 2.75487470626831 2.23388838768005 2.6935510635376 3.23564386367798 2.86674022674561 3.17611646652222 3.20673799514771 5.45153903961182 -0.31470137834549 2.72500872612 1.88044357299805 0.224472403526306 -1.38292264938354 -1.36534535884857 -1.28562092781067 -1.2790299654007 -1.26553237438202 -1.23061895370483 -1.20425319671631 -1.18772089481354 -1.18253326416016 -1.17707395553589 -1.11983823776245 -0.87197470664978 -0.760609328746796 -0.842532634735107 -0.916994452476501 -1.01716923713684 -1.10411238670349 -1.12013161182404 -1.113640666008 -1.1023645401001 -1.09646201133728 -1.06739413738251 -1.02873659133911 -0.770054638385773 -1.03695619106293 -1.02921450138092 -1.01459205150604 -0.991556763648987 -0.95745712518692 0.528447866439819 0.0811481103301048 -0.301378488540649 -0.573234081268311 0.857598960399628 -1.32178997993469 -1.36287665367126 -1.25674080848694 -1.19149315357208 -1.14204370975494 -1.08567774295807 -1.04987120628357 -1.03017151355743 -0.987216114997864 -0.921695530414581 -0.909457683563232 -0.838956117630005 -0.804844379425049 -0.809562742710114 -0.773313641548157 -0.720884799957275 -0.630644619464874 -0.540359020233154 -0.47364467382431 -0.414975494146347 -0.413268685340881 -0.442834049463272 -0.474754750728607 -0.458091080188751 -0.415797084569931 -0.41974201798439 -0.405499458312988 -0.353550940752029 -0.298443555831909 -0.250760942697525 -0.173063591122627 -0.0959018543362617 -0.0535631589591503 -0.012387091293931 0.0199857987463474 0.0272327680140734 0.0129629466682673 0.0146411452442408 0.0341349616646767 0.0516077354550362 0.101930223405361 0.180511251091957 0.249309852719307 0.368064105510712 0.51718670129776 0.717727065086365 0.937340080738068
6.57143831253052 6.74813413619995 6.89937448501587 7.0108528137207 7.12395620346069 7.37079858779907 7.57727527618408 7.33332109451294 6.94992017745972 6.88662815093994 6.67405033111572 6.46467542648315 6.4983959197998 6.8182110786438 6.49715042114258 6.49452257156372 6.51455593109131 6.53589200973511 6.54855680465698 6.61181449890137 6.87703514099121 6.96777009963989 6.89456987380981 6.95191192626953 6.69710445404053 6.53493928909302 6.23199224472046 5.77434062957764 4.95833587646484 4.5627498626709 4.49547481536865 4.40433597564697 4.75220060348511 5.38919878005981 5.95380258560181 6.1897873878479 6.45723962783813 6.85951900482178 7.20570278167725 7.53667211532593 6.88776302337646 6.08912563323975 5.5733642578125 4.80382585525513 4.06109809875488 3.71456360816956 3.08974742889404 2.79561948776245 2.43968892097473 2.39226770401001 2.25955891609192 2.15798854827881 1.99041485786438 1.85185325145721 1.55018329620361 1.45842146873474 1.33401596546173 1.22336030006409 1.04012954235077 0.977277398109436 0.909414112567902 0.86765331029892 0.838654339313507 0.844505369663239 0.85846221446991 0.882436394691467 0.866806268692017 0.876894891262054 0.892281174659729 0.912404775619507 0.840032577514648 0.851477444171906 1.00127375125885 0.959956407546997 1.01165354251862 1.06837451457977 1.21579194068909 1.43339860439301 1.85473453998566 2.33276557922363 2.77042865753174 2.59676337242126 3.24899840354919 3.69511294364929 3.49333333969116 3.21363997459412 8.6554012298584 0.82542097568512 1.7520831823349 1.4228972196579 1.69712388515472 -1.45110976696014 -1.4654346704483 -1.40216219425201 -1.33546507358551 -1.31503617763519 -1.2978184223175 -1.26501548290253 -1.24178743362427 -1.23340499401093 -1.23336708545685 -1.22316706180573 -1.17783904075623 -1.14580965042114 -1.12920320034027 -1.15696108341217 -1.19432544708252 -1.20633101463318 -1.20498645305634 -1.22332179546356 -1.21817278862 -1.20820701122284 -1.19093716144562 -1.17272484302521 -0.719351649284363 -0.833011627197266 -0.869515895843506 -1.13190054893494 -1.09649527072906 -1.06485545635223 0.940281927585602 0.47785609960556 -0.0220039896667004 -0.288232445716858 0.523657202720642 -0.390125304460526 -1.49663412570953 -1.40597653388977 -1.27278625965118 -1.22764503955841 -1.19025528430939 -1.16294932365417 -1.13195908069611 -1.09748661518097 -1.05168223381042 -1.02868795394897 -0.978657782077789 -0.937443912029266 -0.946727275848389 -0.991204679012299 -0.948279798030853 -0.83948415517807 -0.76663339138031 -0.698788702487946 -0.64011162519455 -0.62718403339386 -0.632753551006317 -0.652226865291595 -0.657069981098175 -0.645871460437775 -0.646375834941864 -0.607921183109283 -0.57593184709549 -0.531166911125183 -0.477655529975891 -0.419213026762009 -0.345113754272461 -0.302290946245193 -0.184093847870827 -0.133799523115158 -0.0994606912136078 -0.0734293833374977 0.00152487179730088 0.0408870466053486 0.0723334103822708 0.116003781557083 0.191746205091476 0.284832060337067 0.449503630399704 0.607061922550201 0.787053346633911 1.06597435474396
6.33692502975464 6.50970983505249 6.61344957351685 6.68900871276855 6.88576745986938 7.08511257171631 6.96021604537964 6.82671976089478 6.29669713973999 6.23592710494995 6.16375732421875 6.21904277801514 6.35543870925903 6.22207117080688 6.23162698745728 6.32855749130249 6.33580636978149 6.30243158340454 6.32857656478882 6.53104591369629 6.61300611495972 6.6286826133728 6.78937911987305 6.57496738433838 6.35760354995728 6.01208829879761 5.6291356086731 5.08912181854248 4.41876602172852 4.2570366859436 4.39179658889771 4.18010902404785 4.81986045837402 5.3312931060791 5.72490501403809 5.94985437393188 6.32909059524536 6.65488147735596 6.91615390777588 6.42758560180664 5.65344715118408 5.22450590133667 4.7438497543335 4.0887598991394 3.82536864280701 3.27908658981323 2.68785214424133 2.36960744857788 2.30838584899902 2.19633030891418 2.09509658813477 1.93456447124481 1.7881246805191 1.50835692882538 1.28315031528473 1.08471238613129 1.01546895503998 0.964271008968353 0.962271571159363 0.881999015808105 0.84889942407608 0.833567500114441 0.822307050228119 0.799456596374512 0.811531662940979 0.828996956348419 0.848820805549622 0.808054625988007 0.835281252861023 0.826882719993591 0.764163613319397 0.867554128170013 0.864187657833099 0.88266533613205 0.943434476852417 1.02491915225983 1.19007217884064 1.3428190946579 1.61872291564941 2.09181308746338 2.58320331573486 3.05044341087341 3.20850968360901 4.30719041824341 4.79336357116699 3.88852190971375 8.56153869628906 2.24078154563904 1.51363432407379 0.0551332496106625 1.88098394870758 0.612833142280579 -1.49693500995636 -1.47154080867767 -1.43664610385895 -1.38878607749939 -1.34404993057251 -1.31325304508209 -1.28766751289368 -1.28165876865387 -1.2808256149292 -1.27801370620728 -1.27353835105896 -1.27525162696838 -1.27841579914093 -1.26986610889435 -1.26787400245667 -1.27188920974731 -1.29601919651031 -1.29657578468323 -1.29316425323486 -1.28488218784332 -1.27058720588684 -1.25807547569275 -0.668357789516449 -0.485177367925644 -0.321179568767548 -1.24284493923187 -1.25819170475006 -1.21094059944153 0.0121804354712367 2.46808695793152 1.26269710063934 0.572036445140839 0.873166263103485 2.24384832382202 -1.56383335590363 -1.50614380836487 -1.33930110931396 -1.27522325515747 -1.24669885635376 -1.22274243831635 -1.20091581344604 -1.18896079063416 -1.14569449424744 -1.12449526786804 -1.10154318809509 -1.07630121707916 -1.09904968738556 -1.16706907749176 -1.16141259670258 -1.09522891044617 -0.99860018491745 -0.915403127670288 -0.892467200756073 -0.833812177181244 -0.846154034137726 -0.858951568603516 -0.868651688098907 -0.87185925245285 -0.864039599895477 -0.855757534503937 -0.876571118831635 -0.853349983692169 -0.805074691772461 -0.750942587852478 -0.721029818058014 -0.63849663734436 -0.515164732933044 -0.419721484184265 -0.383794575929642 -0.3680539727211 -0.148273706436157 0.0371149517595768 0.115973450243473 0.163996055722237 0.23372545838356 0.391665995121002 0.555643677711487 0.721979081630707 0.915792047977448 1.49087464809418
6.10075426101685 6.21077394485474 6.25466680526733 6.40527248382568 6.61337327957153 6.48317193984985 6.37579250335693 6.17855024337769 5.79513216018677 5.89460754394531 5.93987512588501 5.98492908477783 5.94467163085938 5.95932149887085 6.04384565353394 6.03553295135498 6.05756664276123 6.05966281890869 6.12147092819214 6.32750034332275 6.36946535110474 6.46781444549561 6.36986875534058 6.19665431976318 5.84628105163574 5.4875636100769 6.13426780700684 9.1218376159668 8.42535495758057 4.42608594894409 3.99358725547791 3.78897190093994 4.45870161056519 5.14588642120361 5.55745840072632 5.86321067810059 6.17063474655151 6.37339162826538 5.91312217712402 5.36577033996582 4.8133864402771 4.50535154342651 3.9937756061554 3.6643431186676 3.3528847694397 2.74039006233215 2.36155867576599 2.23669958114624 2.12302374839783 2.03366374969482 1.8792062997818 1.73432171344757 1.47632598876953 1.24936008453369 1.05424094200134 0.915625631809235 0.904622375965118 0.921348571777344 0.854326188564301 0.827740073204041 0.813526511192322 0.785767555236816 0.772799789905548 0.779854953289032 0.786747336387634 0.783167779445648 0.778190314769745 0.78781646490097 0.798351943492889 0.726660430431366 0.750073134899139 0.828600645065308 0.77439147233963 0.800012111663818 0.896103501319885 0.938225328922272 1.12258946895599 1.35120594501495 1.55228459835052 1.8674852848053 2.31973910331726 2.86286807060242 3.26732015609741 3.65794849395752 4.83394479751587 5.29493761062622 7.94001436233521 3.74854445457458 0.859820127487183 0.298152357339859 0.226297989487648 1.06269598007202 0.483757525682449 -0.206873312592506 -1.2235951423645 -1.44574677944183 -1.38569927215576 -1.35412836074829 -1.33730292320251 -1.32050454616547 -1.32116055488586 -1.33143353462219 -1.3413211107254 -1.3486555814743 -1.34465789794922 -1.33353841304779 -1.34796679019928 -1.34237802028656 -1.29898846149445 -1.34437584877014 -1.33691763877869 -1.33422911167145 -1.31609344482422 -1.33544766902924 -0.896681189537048 -0.608776688575745 -0.61898547410965 -1.10283553600311 -1.32423436641693 -1.31766498088837 -0.941429495811462 1.12665617465973 2.88011384010315 1.57628762722015 1.79193902015686 3.44711923599243 -1.14716446399689 -1.54163038730621 -1.39932715892792 -1.34609484672546 -1.30781471729279 -1.26639318466187 -1.2631710767746 -1.24277293682098 -1.21727347373962 -1.21788787841797 -1.21714615821838 -1.21363198757172 -1.24427223205566 -1.28471326828003 -1.27920293807983 -1.27969813346863 -1.23877906799316 -1.16936910152435 -1.09941744804382 -1.01295220851898 -1.05671417713165 -1.09334647655487 -1.1302855014801 -1.16197991371155 -1.19536972045898 -1.2477844953537 -1.23232281208038 -1.21738505363464 -1.20621502399445 -1.17960679531097 -1.19816160202026 -1.1242071390152 -0.931537866592407 -0.8240025639534 -0.800884962081909 -0.596484899520874 -0.329005777835846 -0.0390776917338371 0.135865852236748 0.191163346171379 0.283872425556183 0.464805692434311 0.650178968906403 0.787092864513397 1.18376708030701 1.97492706775665
5.79956007003784 5.87828159332275 5.8773365020752 6.1008768081665 5.9842700958252 5.91527271270752 5.73510456085205 5.53570318222046 5.643723487854 5.68047523498535 5.71372842788696 5.68269968032837 5.72342681884766 5.79712724685669 5.79372119903564 5.80680418014526 5.80673742294312 5.85906744003296 6.0010404586792 6.05970001220703 6.11244010925293 6.15360832214355 6.01195096969604 5.88685178756714 5.65055370330811 5.18099975585938 4.69967603683472 4.36334896087646 4.00856399536133 3.67998385429382 3.41022205352783 3.94307804107666 4.48892688751221 4.82168483734131 5.14065933227539 5.60497808456421 5.94514942169189 5.96500825881958 5.6098837852478 4.92090368270874 4.42331075668335 3.96349740028381 3.5471339225769 3.23753809928894 2.75301218032837 2.42084670066833 2.17183303833008 2.05538392066956 1.96781885623932 1.81906938552856 1.68835830688477 1.43538784980774 1.21652710437775 1.03343832492828 0.886925220489502 0.854207456111908 0.856934010982513 0.826101243495941 0.789889097213745 0.776540458202362 0.760657906532288 0.753571391105652 0.727944731712341 0.733183801174164 0.756917834281921 0.755993843078613 0.742398202419281 0.719748079776764 0.795907914638519 0.676837563514709 0.724227964878082 0.730970919132233 0.707608044147491 0.811008036136627 0.878423511981964 0.942223608493805 1.05615234375 1.28910577297211 1.55663883686066 1.76296412944794 2.12753129005432 2.68604350090027 3.27911329269409 3.9894232749939 5.0746955871582 5.69636154174805 6.76407861709595 5.01150894165039 2.29837656021118 1.87546467781067 0.442862540483475 0.578543305397034 0.46877184510231 -0.428319841623306 -0.527250170707703 -1.30891311168671 -1.44927382469177 -1.38058733940125 -1.3905668258667 -1.37679493427277 -1.37570881843567 -1.38414263725281 -1.39563477039337 -1.4008229970932 -1.4033807516098 -1.41333711147308 -1.41038930416107 -1.40665447711945 -1.39415764808655 -1.39637172222137 -1.38828480243683 -1.38044393062592 -1.37595903873444 -1.38748419284821 -1.07898771762848 -0.922879576683044 -1.11724185943604 -1.31833565235138 -1.2502521276474 -1.15979492664337 -0.82904040813446 0.0689725503325462 2.60913562774658 2.40652370452881 2.32345962524414 3.1155903339386 -1.04524743556976 -1.56723713874817 -1.447589635849 -1.41005265712738 -1.37482631206512 -1.31900942325592 -1.30466103553772 -1.30818235874176 -1.30542004108429 -1.30597591400146 -1.32332932949066 -1.34266209602356 -1.38245785236359 -1.40101742744446 -1.41310751438141 -1.4429132938385 -1.4664831161499 -1.42926740646362 -1.38058304786682 -1.34380197525024 -1.37123548984528 -1.40533816814423 -1.44264805316925 -1.50852596759796 -1.64292585849762 -1.75865519046783 -1.73040115833282 -1.69199359416962 -1.70093500614166 -1.70697295665741 -1.85269749164581 -1.87753009796143 -1.42578601837158 -1.22672832012177 -1.03285455703735 -0.772176504135132 -0.51865816116333 -0.173216685652733 0.0785095766186714 0.148368045687675 0.276090234518051 0.481339693069458 0.691905677318573 0.91192889213562 1.48147130012512 2.13147830963135
5.53642320632935 5.5059494972229 5.52502107620239 5.75084161758423 5.62692546844482 5.238685131073 5.24617910385132 5.37355184555054 5.47565269470215 5.5286078453064 5.47263765335083 5.49277782440186 5.58414268493652 5.61129331588745 5.56859683990479 5.57560062408447 5.62453842163086 5.72573661804199 5.76339292526245 5.79552459716797 5.88339042663574 5.71122217178345 5.80506801605225 5.68072557449341 5.31427764892578 4.59398889541626 4.23184633255005 3.90299510955811 3.58584880828857 3.24606704711914 3.64976000785828 4.08291959762573 4.31578016281128 4.52885580062866 4.89565753936768 5.36956214904785 5.59785461425781 5.24662590026855 4.75758218765259 4.3762731552124 3.95668578147888 3.5603346824646 3.21083092689514 2.65972995758057 2.40035128593445 2.09834146499634 1.92901563644409 1.83562469482422 1.69628393650055 1.5527446269989 1.39285445213318 1.18201661109924 0.999938547611237 0.862837135791779 0.831482172012329 0.842842400074005 0.8360795378685 0.805788159370422 0.769916117191315 0.742745280265808 0.723520934581757 0.698982834815979 0.699530124664307 0.709119498729706 0.709864258766174 0.718701720237732 0.696291148662567 0.70025771856308 0.662393689155579 0.665672361850739 0.707116484642029 0.656677067279816 0.671363234519958 0.828160107135773 0.891178548336029 0.953822493553162 1.0869574546814 1.2410204410553 1.51517987251282 1.81479942798615 2.1814661026001 2.63590455055237 3.09232783317566 4.72804975509644 5.32875204086304 5.52444458007812 8.56007480621338 7.78076314926147 4.93251371383667 2.98964285850525 0.69096714258194 -0.164929553866386 -0.597321093082428 -1.1274961233139 -1.18478405475616 -1.0227484703064 -1.12270700931549 -1.45252370834351 -1.41727530956268 -1.42067801952362 -1.4213719367981 -1.17634308338165 -0.689875781536102 -1.44989013671875 -1.28112769126892 -1.05142736434937 -1.45160174369812 -1.45158612728119 -1.45175731182098 -1.4431232213974 -1.44527733325958 -1.44187784194946 -1.42924952507019 -1.34618330001831 -1.11377608776093 -1.21278858184814 -1.27568256855011 -1.42193353176117 -1.18347823619843 -0.947880148887634 -0.553205668926239 0.197248443961143 1.32959246635437 2.99408388137817 2.96607041358948 4.71711874008179 1.37835454940796 -1.53072011470795 -0.982645511627197 -1.44242358207703 -1.43546175956726 -1.39302039146423 -1.35220396518707 -1.37147641181946 -1.18517756462097 -1.41445100307465 -1.4133585691452 -0.803237915039062 -1.25305199623108 -1.48945462703705 -1.51081275939941 -1.43213438987732 -1.58235716819763 -1.66625380516052 -1.76581788063049 -1.7798752784729 -1.76146507263184 -1.75034296512604 -1.7926082611084 -1.94145452976227 -2.17688274383545 -2.3940532207489 -2.52942800521851 -2.49203705787659 -2.37971210479736 -2.41609263420105 -2.44746398925781 -2.08006691932678 -1.78420805931091 -1.54533123970032 -1.21878433227539 -0.93081659078598 -0.627495110034943 -0.297618210315704 -0.0170985907316208 0.117663562297821 0.255395382642746 0.48603755235672 0.74040949344635 1.1138014793396 1.58437383174896 2.05405592918396
5.21072721481323 5.1847095489502 5.19243192672729 5.01428937911987 5.00844478607178 4.86568164825439 5.0349383354187 5.15249395370483 5.24208688735962 5.27876996994019 5.26042985916138 5.32962942123413 5.40532732009888 5.41812801361084 5.39731025695801 5.3970775604248 5.43585157394409 5.55828285217285 5.5627875328064 5.53322601318359 5.45541667938232 5.52621603012085 5.40554666519165 5.09773397445679 4.63117599487305 4.18338203430176 3.90561056137085 3.70410633087158 3.40903878211975 3.24900317192078 3.52753376960754 3.88516759872437 4.10649824142456 4.33693265914917 4.73777437210083 5.0018048286438 4.73399257659912 4.32313966751099 4.00770282745361 3.74489283561707 3.69794368743896 3.43697333335876 2.91826748847961 2.32535123825073 2.03825354576111 1.82364153862 1.63885402679443 1.55190718173981 1.40807318687439 1.25356209278107 1.10525918006897 0.946485638618469 0.817685544490814 0.804397225379944 0.811278820037842 0.812121272087097 0.792851686477661 0.797298550605774 0.741849541664124 0.719324767589569 0.954708993434906 0.855242609977722 0.694171369075775 0.681643605232239 0.688499987125397 0.676880478858948 0.666792511940002 0.818332433700562 0.646405279636383 0.646325945854187 0.644292891025543 0.608003795146942 0.69400680065155 0.755989491939545 0.850805997848511 0.98407244682312 1.12739944458008 1.25408661365509 1.45662999153137 1.81951761245728 2.27266359329224 2.57495379447937 3.10708618164062 4.68146085739136 5.35371780395508 5.37141275405884 7.33083820343018 7.51131343841553 5.34498167037964 3.76374077796936 1.69591760635376 -0.300557464361191 -1.03572642803192 -0.827400684356689 -1.11440312862396 -1.05023968219757 -0.670762658119202 -0.963766932487488 -1.20013344287872 -0.942145645618439 -1.10210168361664 -1.32814431190491 -0.796506643295288 -1.33649516105652 -1.09430944919586 -0.842437088489532 -1.08071398735046 -1.17155396938324 -1.19295001029968 -1.23574101924896 -1.27704381942749 -1.47039842605591 -1.46080839633942 -1.27961802482605 -1.32859420776367 -1.31673300266266 -1.30638360977173 -1.46137094497681 -1.22121858596802 -0.729465663433075 -0.279911696910858 0.382609754800797 1.53167343139648 2.63636660575867 2.92478942871094 4.87834692001343 3.39939904212952 0.387102067470551 0.119138203561306 -1.20631265640259 -1.47955143451691 -1.44689667224884 -1.41644954681396 -0.948499798774719 -0.427012473344803 -0.693700313568115 -0.822813451290131 -0.81744396686554 -0.900679171085358 -0.904203951358795 -1.31668484210968 -0.791040539741516 -0.137143135070801 -1.53530430793762 -1.99795460700989 -2.05107069015503 -2.04202651977539 -2.05899453163147 -2.168869972229 -2.41268491744995 -3.00805234909058 -3.52898907661438 -3.57932639122009 -3.41307187080383 -3.10124135017395 -3.20310568809509 -3.32416343688965 -2.94108009338379 -2.33974528312683 -1.866490483284 -1.45896756649017 -1.0535135269165 -0.689193189144135 -0.356991618871689 -0.110104344785213 0.0751501768827438 0.260872811079025 0.473687499761581 0.929451525211334 1.46165347099304 1.70496368408203 1.94198286533356
4.95560836791992 4.96701097488403 4.72190713882446 4.49953985214233 4.62921762466431 4.6456880569458 4.75193738937378 4.85687732696533 4.92194747924805 4.94151782989502 5.03660440444946 5.11659908294678 5.16414928436279 5.17636680603027 5.19374561309814 5.24312448501587 5.28066396713257 5.23769950866699 5.21807956695557 5.29378175735474 5.3337025642395 5.23422336578369 5.08299684524536 4.63386249542236 4.27347803115845 4.08441209793091 3.76880931854248 3.45044159889221 3.08173871040344 3.36876058578491 3.64761352539062 3.74447679519653 3.89511227607727 4.23057985305786 4.44429445266724 4.25838422775269 3.87901663780212 3.60184192657471 3.51273918151855 3.4967999458313 3.32265639305115 3.75451731681824 2.9384503364563 2.11503791809082 1.79123413562775 1.54520797729492 1.44996964931488 1.30994737148285 1.1376656293869 0.991789400577545 0.873051047325134 0.802781641483307 0.776873528957367 0.787978887557983 0.795968413352966 0.778124094009399 0.760174334049225 0.943970799446106 0.713288307189941 0.700918138027191 0.82123988866806 1.46232962608337 1.54696428775787 0.993354558944702 0.675613939762115 0.639856398105621 0.65181040763855 0.643182158470154 0.610209226608276 0.814585387706757 0.580324649810791 0.609484732151031 0.721627175807953 0.762219607830048 0.844571471214294 0.981208264827728 1.1476743221283 1.29106330871582 1.48476278781891 1.80642831325531 2.23537802696228 2.62225651741028 3.43942785263062 4.29548454284668 5.03078508377075 6.03791618347168 6.47830247879028 8.66720199584961 6.51904964447021 4.29034328460693 2.73392343521118 1.84885239601135 -0.0660312622785568 -0.976849257946014 -0.822687923908234 -0.740511834621429 -0.826261162757874 -0.521078407764435 -0.387005478143692 -0.806888401508331 -1.0931990146637 -0.848888158798218 -0.268556833267212 -1.13328957557678 -1.31178116798401 -0.793010652065277 -0.916207492351532 -1.193403840065 -1.244304895401 -1.20180380344391 -1.35191261768341 -1.23954498767853 -1.43227922916412 -1.35418605804443 -1.4193629026413 -1.44789814949036 -1.40690040588379 -1.3449000120163 -1.03141379356384 -0.516428887844086 -0.176533415913582 0.545270144939423 1.66690814495087 2.28891658782959 3.37373566627502 3.48678731918335 2.87627816200256 1.53228306770325 0.906434714794159 0.0148367555812001 -0.564570486545563 -0.821799457073212 -0.817598521709442 -0.729897975921631 -0.321498304605484 -0.282330751419067 -0.308390974998474 -0.513554334640503 -0.62988954782486 -0.514945209026337 -0.35806730389595 1.239342212677 4.10467672348022 4.38167858123779 -0.584022462368011 -2.16662311553955 -2.20665240287781 -2.27489566802979 -2.49498796463013 3.91097259521484 -3.79231929779053 -3.95997548103333 -3.90376591682434 -3.77613258361816 -3.61571168899536 -3.58371067047119 -3.58922648429871 -3.47516489028931 -2.9401957988739 -2.23550581932068 -1.52774691581726 -1.11897349357605 -0.765518248081207 -0.427980333566666 -0.216685593128204 0.00559042487293482 0.2123833745718 0.485383540391922 1.07307291030884 1.50322282314301 1.65506434440613 1.96178472042084
4.76908349990845 4.8434910774231 4.58273029327393 4.38699626922607 4.35386610031128 4.45340919494629 4.48303651809692 4.52076435089111 4.58139991760254 4.6816873550415 4.76113939285278 4.82753801345825 4.87526607513428 4.93236541748047 4.96859645843506 4.90062141418457 4.87789249420166 4.97993946075439 5.09523773193359 5.07009696960449 5.04917001724243 4.88426923751831 4.6259069442749 4.15426826477051 3.95945811271667 3.67856383323669 3.39137673377991 3.05412983894348 3.24737095832825 3.49851083755493 3.5432333946228 3.53643560409546 3.6633574962616 3.95583200454712 4.15902662277222 4.01342058181763 3.49590826034546 3.22884893417358 3.2613799571991 3.1616644859314 2.98117160797119 2.5896520614624 2.80124616622925 3.63624906539917 2.55316710472107 1.36134052276611 1.21948170661926 1.0689902305603 0.895566284656525 0.822360396385193 0.793546915054321 0.764984667301178 0.766029536724091 0.774517178535461 0.782863020896912 0.758489966392517 0.760565400123596 0.700364470481873 0.666510164737701 0.681885063648224 0.686915874481201 0.793155789375305 1.20809233188629 1.74642896652222 1.78847467899323 0.710128426551819 0.776892244815826 0.739063203334808 0.618431866168976 1.10926628112793 0.602589666843414 0.636757075786591 0.742076635360718 0.781718373298645 0.89852911233902 1.01189649105072 1.13043534755707 1.34369802474976 1.60123956203461 1.8724867105484 2.27071261405945 2.93992400169373 3.38718318939209 3.85962200164795 5.03024625778198 6.29806661605835 6.10703563690186 8.31687355041504 8.37358951568604 5.37981557846069 2.48881578445435 1.44493460655212 -0.0449932254850864 -1.08580648899078 -0.834640443325043 -0.504204869270325 -0.594096124172211 -0.802635252475739 -0.0264666061848402 -0.384011209011078 -0.471123993396759 -0.559992432594299 -0.285189837217331 -0.474359661340714 -1.22788739204407 -1.13244950771332 -0.919616341590881 -1.10091400146484 -1.56583309173584 -1.57400381565094 -1.5603141784668 -1.45825278759003 -1.40109038352966 -1.48568749427795 -1.53657746315002 -1.54593324661255 -1.35174715518951 -1.09823417663574 -0.60927277803421 -0.371651321649551 -0.0778732299804688 0.690515279769897 1.3492842912674 2.17341876029968 2.64812397956848 2.31359267234802 1.53766560554504 1.8705050945282 1.58884477615356 0.798756837844849 0.199426054954529 -0.151699677109718 -0.206873312592506 -0.257188022136688 -0.129367396235466 -0.0222551319748163 -0.0605157800018787 -0.0368214212357998 0.162914097309113 0.0743962451815605 -0.219034269452095 1.27991127967834 4.87375354766846 6.6281042098999 4.26541662216187 1.69232738018036 1.25078320503235 2.36691188812256 7.23790740966797 17.6828136444092 4.77905225753784 -4.12332248687744 -4.13978385925293 -4.06453132629395 -3.94449758529663 -3.87378573417664 -3.81941175460815 -3.66126418113708 -3.24342966079712 -2.4588794708252 -1.6269828081131 -1.16944897174835 -0.866958141326904 -0.546458840370178 -0.327081292867661 -0.0622430481016636 0.154415681958199 0.665065169334412 1.01522254943848 1.33576154708862 1.57899808883667 1.82792603969574
4.65956354141235 4.43982601165771 4.29611682891846 4.20168924331665 4.23098611831665 4.2391619682312 4.29996013641357 4.28391075134277 4.33312559127808 4.44020175933838 4.50386524200439 4.52001810073853 4.54863691329956 4.58417177200317 4.54724979400635 4.65596866607666 4.74541187286377 4.82408428192139 4.75392246246338 4.73477554321289 4.57709741592407 4.31168460845947 3.973393201828 3.76737523078918 3.58239364624023 3.43553924560547 3.18626046180725 2.94509100914001 3.15831589698792 3.35854530334473 3.37020921707153 3.3649890422821 3.5881974697113 3.64002799987793 3.45968842506409 3.17088270187378 3.02260279655457 2.97931957244873 3.00639843940735 3.01855373382568 2.7472243309021 2.26221466064453 1.96556544303894 2.16354370117188 1.84976887702942 2.59829115867615 2.18028807640076 0.965794861316681 0.853262901306152 0.784967482089996 0.743217825889587 0.743802189826965 0.754620254039764 0.759692549705505 1.0268040895462 0.804669201374054 1.52897226810455 0.659672319889069 0.636598467826843 0.65281093120575 0.686599612236023 0.745401263237 0.762977838516235 1.06739401817322 1.62906360626221 1.68078482151031 2.0251944065094 1.4188996553421 0.689064502716064 0.633154034614563 0.607258915901184 0.719429016113281 0.757419049739838 0.824780941009521 1.00299084186554 1.03630876541138 1.12086045742035 1.34950506687164 1.68274688720703 1.84706783294678 2.5475640296936 2.8748459815979 3.14587759971619 3.83770251274109 5.08159160614014 5.79829025268555 6.39500713348389 7.29090690612793 8.53737640380859 7.59527397155762 4.21598148345947 1.58440494537354 -0.312438100576401 -1.21801567077637 -0.983450651168823 -0.948832869529724 -0.430383384227753 -0.673896610736847 -0.30532905459404 -0.280505180358887 -0.608680129051208 -0.705039024353027 -0.82954466342926 -0.0967286005616188 -1.12531399726868 -1.61614859104156 -1.6023542881012 -1.62792575359344 -1.64437198638916 -1.64754986763 -1.61512088775635 -1.47208452224731 -1.55099058151245 -1.55181550979614 -1.40399467945099 -1.50664818286896 -1.24609732627869 -0.961451232433319 -0.524732708930969 -0.27739092707634 0.342398762702942 0.85223662853241 1.35201275348663 1.55871260166168 1.87777698040009 1.36013281345367 1.33247900009155 1.78682458400726 1.80939555168152 1.24900674819946 0.524265706539154 0.217131406068802 0.0808969736099243 -0.0211443081498146 -0.0864221081137657 0.180918946862221 0.296181887388229 0.105846993625164 0.217991068959236 0.398557513952255 0.534397482872009 1.96019399166107 4.66842603683472 6.25041627883911 6.00123596191406 4.71942138671875 6.18897819519043 7.65458202362061 15.7016534805298 15.6681499481201 12.7585506439209 2.77199935913086 -4.22182178497314 -4.20657157897949 -4.13524675369263 -4.06225204467773 -3.89584445953369 -3.6790943145752 -3.34762001037598 -2.77688908576965 -1.84930920600891 -1.26552712917328 -0.983259379863739 -0.721852123737335 -0.477131456136703 -0.168336793780327 0.121955409646034 0.586096405982971 0.950751185417175 1.15998303890228 1.29689192771912 1.57408797740936
